# .PCD v0.7 - Point Cloud Data file format
VERSION 0.7
FIELDS x y z
SIZE 4 4 4
TYPE F F F
COUNT 1 1 1
WIDTH 1579
HEIGHT 1
VIEWPOINT 0 0 0 1 0 0 0
POINTS 1579
DATA ascii
3.5482483 2.5445476 -0.044045001
3.7627776 2.5725496 -0.044045001
-1.3125367 2.6007652 -0.0040449998
3.2107205 2.6103463 -0.044045001
3.4262302 2.8563113 -0.015704019
-2.1839416 3.0184236 -0.0040449998
3.0944741 3.0250716 -0.044045001
3.2256944 3.0032883 -0.044045001
-1.1613979 3.1845326 -0.0040449998
-1.7281888 3.4418836 -0.0040449998
-0.42770138 3.4952729 -0.0030129459
3.2413037 3.437464 -0.044045001
2.2498696 3.5095994 -0.044045001
3.2539873 3.6163225 -0.044045001
3.3487589 3.6929407 -0.044045001
2.0366411 3.7889128 -0.044045001
-1.4855286 3.9424727 -0.0040449998
2.3645377 3.910001 -0.044045001
3.3669295 3.924943 -0.044045001
1.9711728 4.0008125 -0.044044998
2.0522673 4.0076838 -0.044045001
2.1230199 4.0825214 -0.044045001
-0.92494637 4.2331843 -0.0040450003
3.1491632 4.214283 -0.044045001
3.4939983 4.2961087 -0.044045001
-1.7536968 4.4113054 -0.0040449998
2.0793028 4.4169693 -0.044045001
3.3628802 4.4862509 -0.044045001
2.6934218 4.5496082 -0.044045001
2.3359666 4.824131 -0.044045001
3.0388548 4.8369617 -0.044045001
-1.2348727 4.9260478 -0.0040449998
3.2102494 1.4816636 0.028360743
3.4164033 1.4401979 0.059609629
-1.1838766 1.5649793 0.063809454
-1.4372147 2.4417953 0.06614662
-2.0015054 2.6383018 0.022587011
2.3191435 3.020117 0.031201288
2.4297137 3.1648788 0.069276497
-0.85466731 3.2426491 0.031520762
2.8350546 4.4721813 0.0067036971
2.1161823 4.9168625 0.0097510442
-0.59635526 5.0017366 0.074215353
-1.9856099 1.5554417 0.13315301
-2.4619346 2.0311971 0.1016219
4.251184 2.1568401 0.15500407
3.0615985 2.7141461 0.17462932
-0.86261368 3.2454154 0.17169842
2.159755 3.7378812 0.11772145
3.4997816 4.3467894 0.14691503
3.3446405 4.6409574 0.17574263
3.028259 5.0072737 0.10774797
4.1959076 2.6221118 0.21663491
-0.5787884 3.0464325 0.24063954
2.4268 3.4840326 0.29674932
-1.3344909 3.7257247 0.29821569
-0.46123493 4.23947 0.25067326
2.2730796 4.2530789 0.2143897
3.2535489 4.7535996 0.29043725
-2.4450581 2.0678556 0.33978772
-2.1143885 2.9935954 0.38951206
2.1973534 3.3881698 0.32636198
-1.7932081 3.6883707 0.36487141
-1.4554794 4.1210203 0.33203128
2.2183623 4.2317476 0.38808021
-0.71522969 4.3279209 0.34318498
3.2573428 4.7493277 0.37999445
2.984225 5.0456362 0.36343664
-2.2284789 1.9924324 0.45329458
-1.0143685 2.6105289 0.49070406
3.6302624 2.9358599 0.47851357
3.3395171 3.5402632 0.44582686
3.0172882 1.6418091 0.53320509
-2.1866691 1.7518642 0.59924388
-0.94641966 2.2708824 0.50441843
3.3278525 2.4976647 0.55753815
3.5625987 2.9094796 0.53695035
2.2847843 3.4286628 0.56166399
2.5707819 3.72001 0.58843148
3.3440394 3.8416498 0.52470982
-1.5141109 4.1414385 0.50380015
2.4807718 5.0406556 0.57368612
3.0110655 1.7138479 0.66945469
3.7548742 1.7877849 0.69091988
3.1041126 2.4104319 0.60343397
-1.6175206 2.5045848 0.65177262
-0.70736647 2.6673608 0.62227821
-2.254601 2.879837 0.64270902
-0.71858835 2.9656458 0.63373852
2.5691242 3.2424765 0.60208142
-1.2526904 3.6961558 0.6598419
-0.96363729 3.6358724 0.63666832
2.6072195 4.1134243 0.60461533
-2.0058196 1.8363023 0.78402829
2.7674432 2.5994544 0.72394717
-2.0455151 3.1099916 0.74845278
-0.91422868 3.56868 0.79776412
-1.552911 4.2282715 0.72453529
2.4194767 4.3101554 0.78306323
-1.7099077 1.786512 0.84724784
3.5285735 1.9170809 0.85270125
2.8541484 2.1484306 0.85946858
3.8646069 2.2387812 0.82979333
3.8100886 2.8048782 0.89897072
3.4689755 3.7386165 0.87049955
-0.43420881 3.8090279 0.88139677
-1.624963 4.0228863 0.87669021
-1.3654063 4.1582117 0.85100847
2.3434434 4.2805114 0.80806786
3.3039882 4.3398986 0.86483574
2.8545318 4.4797764 0.86620748
1.9029038 4.5330806 0.88665527
2.0156364 4.8121777 0.80119717
3.4863837 2.4962144 0.95087582
3.6653409 2.4641342 0.92019725
2.1561265 3.7808728 0.92573607
3.2813673 4.0553751 0.90450215
-0.28804678 4.1008983 0.99466318
2.9448602 2.6224837 1.0554444
3.0456002 2.6508985 1.0677018
3.6948051 3.1414094 1.0623657
2.2878671 3.3689847 1.0200068
-1.581903 3.4816344 1.0332201
-1.3195305 3.4911728 1.0332201
-0.71759236 3.6555166 1.0356851
2.419924 3.8741617 1.0332201
2.8090844 3.8753622 1.0332201
-1.3814909 4.0146875 1.0332201
-0.83327514 4.1355076 1.0332201
2.8789408 4.4005165 1.0332201
-1.5156943 4.5303025 1.0473529
2.7397907 4.6303272 1.0332201
3.4574609 2.9121625 1.1022406
-0.99050337 3.2087731 1.1532114
-1.8122349 3.383311 1.1457932
3.4010515 3.7968998 1.1501517
-0.53260082 3.8811944 1.1083193
-1.4404054 4.2544327 1.1558306
-0.85327679 4.2634392 1.1400703
-0.86494601 4.3800559 1.1563278
-0.62036908 4.3266697 1.1641814
2.4773424 4.6183376 1.1723121
-1.6558957 2.9484477 1.2643781
3.5430102 3.0706687 1.235607
3.4182787 3.7108216 1.2020068
2.247453 4.2364106 1.2324653
-0.56381607 4.3935504 1.2692848
-1.3595843 4.5201187 1.2802496
-1.387373 4.7556219 1.2449839
2.5929427 4.756835 1.2557039
-1.3367941 4.8012109 1.2149572
-1.4887893 3.3604884 1.3163731
-1.5324805 3.6244078 1.3522595
-0.4731591 3.8349791 1.3208647
-0.70482087 4.3242931 1.3156583
1.9985381 4.6260223 1.3989711
-0.37243527 4.7764044 1.3253042
-0.93861955 2.9668107 1.406685
-0.95458865 3.3208334 1.4583011
-0.74494106 3.340003 1.4099274
2.5700738 3.3403246 1.4682266
3.4345803 3.5351067 1.4139612
3.062382 3.6759393 1.4258311
-1.6494251 3.7680449 1.4199523
3.215322 3.7452803 1.4477758
-1.1891092 4.5242395 1.4598376
2.3164425 4.8797207 1.4864416
2.7755969 2.9791965 1.5790806
-1.5356686 3.0676661 1.5368886
-1.2167437 3.4786916 1.5726426
2.164048 3.4974818 1.5816526
3.4674954 3.454509 1.5457828
-1.1442136 3.5980482 1.5595829
3.3843427 3.5840735 1.5772185
-1.8126546 4.0075154 1.5505011
-0.74155152 4.4150829 1.578934
-1.1480823 4.9982533 1.5067647
2.6630578 4.9554133 1.5903819
3.1493769 3.0977092 1.6082739
-0.57615674 3.2865953 1.6629164
-0.48438117 3.3873348 1.6425987
-0.18419027 3.8566589 1.6881984
-0.29710263 4.4547367 1.6543928
-1.6692336 4.5643282 1.6361817
-1.0252042 4.5649691 1.6292884
2.9519343 3.4743977 1.7919666
3.5463066 3.7740233 1.7078917
3.0592487 4.8599901 1.7188838
2.3226361 2.9979239 1.8870233
2.170589 3.088408 1.876624
2.0784996 3.1505547 1.8890393
3.1235933 3.2924218 1.8002973
3.3497074 3.2493422 1.8551683
-1.6931002 3.3245456 1.8168491
-0.88047242 3.3741035 1.871843
2.6044803 3.3962195 1.8501148
-0.15938082 3.4298043 1.8735175
2.9702134 3.6083162 1.8922038
1.9481317 4.6384101 1.8593835
2.2353506 4.7572565 1.8347557
-1.3367554 3.563056 1.9571691
3.0597386 3.597738 1.9920919
3.3350282 3.5643673 1.9331112
3.6696393 3.9741201 1.9665797
-0.60613644 5.0339942 1.9900517
2.4112329 5.0630145 1.9754946
-1.6705348 3.1757491 2.0995438
-1.4812804 3.1531782 2.0099199
2.9164493 3.2221768 2.0099199
-1.5610514 3.3910477 2.0113273
2.4815159 3.4745541 2.0099199
-1.1052732 3.5148687 2.0099199
-1.0721763 3.542974 2.0067482
0.026421588 3.5981095 2.0099199
3.5961854 3.5920715 2.0872064
-0.79705459 3.602612 2.0099199
2.095401 3.7941685 2.0099199
-0.34226221 3.8637242 2.0099199
2.2084908 3.9210577 2.0099199
-0.0034042709 4.1658602 2.0099199
0.067988679 4.1420979 2.0851684
0.033615366 4.2366381 2.0099199
-1.485754 4.3180437 2.0099199
1.9430838 4.324069 2.0099199
-1.6040381 4.5118966 2.0099199
3.2843697 4.5309806 2.0099199
-0.60905409 4.7812867 2.0099201
2.6241479 4.7447906 2.0099199
3.3363042 4.774272 2.0860851
-1.1676462 4.8064299 2.0099199
-0.55015433 4.8690958 2.0099199
-0.83308351 5.0540714 2.0099199
2.7584682 5.085803 2.0573201
2.9823871 5.0472813 2.0117295
2.8935003 2.8678939 2.1935229
-1.7489315 3.3272367 2.1585975
3.5866306 3.6476617 2.15886
3.6010294 4.0793753 2.1697769
-0.0055234674 4.399796 2.1141839
3.026511 4.9668908 2.151552
2.4631882 5.060267 2.116374
2.8912349 5.0212498 2.1727619
1.6639119 4.2270479 2.2228878
2.7178488 2.8636818 2.3413963
2.2878027 2.9111233 2.3600469
2.9627233 2.9407871 2.3426981
2.4157805 4.9917479 2.3218312
-1.5782077 3.2362518 2.4149215
-0.094014511 3.3572323 2.4565585
3.3773036 3.4063001 2.4492195
2.6639066 2.8879676 2.5589509
2.4013524 3.0295053 2.53315
2.9800544 3.0196147 2.53315
-0.14767693 3.2947233 2.53315
1.8640167 3.2650242 2.5033295
2.2216773 3.3869748 2.53315
3.371942 3.4733641 2.5566733
-0.079921246 3.533386 2.53315
1.864861 3.5853646 2.53315
2.7225704 3.6242421 2.53315
-1.6168623 3.9083107 2.5331497
-1.020036 4.2503815 2.53315
-0.58644968 4.2012749 2.53315
2.5146196 4.2455273 2.53315
3.1486628 4.4772558 2.5331502
-0.91254675 4.738574 2.53315
-0.35290232 4.7934198 2.5989192
2.5511642 2.8463316 2.6782534
3.4121914 3.5255065 2.6512783
-0.67914206 4.9483933 2.6404133
-0.59799129 4.9317694 2.6274331
-1.7519898 3.5863242 2.7476139
3.4988 3.7771287 2.7877903
-1.7492353 4.2706079 2.793453
1.5023162 3.9521372 2.8968873
3.4806001 4.2122087 2.8153682
-0.79210407 2.782408 2.9679787
1.5008091 3.7262652 2.9411602
3.5125051 4.1917195 2.9356534
1.5097778 4.2102065 2.9544067
2.7121315 2.8117018 3.0964065
2.2636719 2.9048872 3.0215001
2.9096835 2.9385457 3.0215001
3.0442002 2.9483931 3.0215001
1.7794344 3.1842463 3.0214999
2.7532909 3.1598768 3.0215001
0.11773256 3.3798149 3.0215001
-0.39703542 3.4836617 3.0215001
1.659216 3.4280343 3.0215001
-1.4177649 3.5843949 3.0215001
1.52389 3.5434184 3.0215001
3.2466583 3.5035441 3.0215001
-1.5662105 3.6668334 3.0215001
1.4649968 3.7348752 3.0423741
-0.7954753 3.9890327 3.0215001
-0.14245337 4.0560431 3.0215001
1.5840231 4.0586123 3.0215001
2.6664979 4.0995107 3.0215001
3.3184514 4.5654316 3.0991313
3.0079525 4.600028 3.0215001
2.1653094 4.7681379 3.0215001
3.215106 4.7072849 3.096107
-1.3029621 4.891469 3.0693576
-1.1082655 4.8623514 3.0215001
2.2727594 4.8992133 3.0215001
-0.46581721 4.9022512 3.0215001
2.7919784 4.9319668 3.0215001
2.4779851 2.785435 3.1283903
2.2553439 2.8200746 3.1521511
1.7570133 3.1064496 3.1182632
2.573952 5.0140052 3.1016214
-0.72231102 2.8046026 3.2232449
0.059658676 3.2664614 3.2094197
3.2163029 4.5808086 3.2531705
-0.31965032 4.8692989 3.2117691
2.7089777 4.9374146 3.2494159
3.3979487 3.7287071 3.3399158
0.14141193 4.335762 3.3231175
1.5548528 4.3217645 3.3016419
-1.318997 4.7158198 3.3442619
2.3665361 2.8404853 3.4440837
2.6021109 2.8619883 3.4575698
3.1027431 3.1893041 3.4976773
-0.70229173 4.9074574 3.4270728
2.6340089 2.8774061 3.5166097
-1.2833788 3.0756261 3.5059772
-0.29853103 3.0305679 3.5970497
-1.2690995 3.2776089 3.59705
-0.63933706 3.2240689 3.5970502
-1.0767685 3.5545695 3.59705
0.0075915642 3.5185616 3.59705
2.5520666 3.5710378 3.59705
2.8530583 3.5359716 3.5970497
-0.35180801 3.8426628 3.59705
-1.284622 3.9921403 3.5970502
-0.7625646 3.9066272 3.5970502
2.157887 3.9069753 3.59705
1.8550268 4.0066619 3.5970502
2.0381632 4.1099968 3.5970497
3.254343 4.1728783 3.5725377
0.13597906 4.2878013 3.5332561
1.9024247 4.6552515 3.59705
2.1638126 4.756393 3.59705
-0.93530732 2.8959494 3.6176527
-0.13570465 3.0429034 3.6733994
0.21609779 4.0099297 3.6204176
3.2693145 4.1322045 3.6755269
1.4419144 3.7294288 3.7422154
3.3014283 3.9518511 3.7006066
0.22617233 3.4202695 3.8808994
-1.5847582 4.1595931 3.8580151
1.4704607 4.1967425 3.8018124
0.193776 4.3700104 3.8987663
2.765413 4.7709818 3.8172631
-0.41746134 2.8421383 3.9659643
2.9961314 3.0579848 3.9877844
1.4365959 4.2069054 3.9117398
-0.56796575 2.8133078 4.0264482
2.3929799 2.8064563 4.0544696
1.7477264 2.9958534 4.0842257
1.4450579 3.345175 4.061305
3.3520427 3.6647205 4.0523405
1.8126055 2.9284256 4.15275
0.10051259 3.0986104 4.1194434
-1.4316224 3.1589806 4.1743679
3.1642003 3.2087755 4.1144276
0.40282261 3.6262431 4.186677
2.2866814 2.7837739 4.2315416
2.0909476 2.8112354 4.2974486
-1.3894056 3.1033807 4.2967281
0.20673655 3.1743913 4.2640414
-1.3414011 3.274159 4.25981
-0.66570127 3.2766695 4.25981
2.509516 3.3098514 4.25981
2.2454672 3.497664 4.25981
2.5231152 3.65396 4.25981
2.7442293 3.6059718 4.25981
3.0431399 3.664597 4.25981
1.4037776 3.7689538 4.25981
-0.92998272 4.1343265 4.25981
0.23378582 4.1842108 4.25981
1.3351719 4.1984205 4.2054644
3.0027442 4.3023033 4.25981
2.5934615 4.4111657 4.2598104
2.5693197 4.5483956 4.25981
1.9617925 4.698348 4.25981
2.403239 4.8534923 4.2598104
2.565768 4.8673353 4.25981
3.1372085 3.1957216 4.3726969
-1.0461398 4.7985644 4.3434649
-0.070399247 2.9957547 4.4961758
-1.4749513 4.3942404 4.466814
-1.4523077 4.4417419 4.4351797
1.7428441 4.6784706 4.4635377
-0.65574175 4.8749685 4.4600568
-1.0093181 2.9165397 4.5934629
1.6705084 3.0852592 4.5248766
-1.542137 3.5046039 4.5447502
0.28862244 3.5358877 4.5960007
0.34145382 3.6267614 4.5091014
0.27440113 4.1879053 4.5840774
2.6759417 4.787488 4.5534496
2.6171787 2.8910077 4.6776276
1.8607254 2.9572103 4.6002669
2.3103492 4.8458691 4.6671181
2.5644574 4.8144884 4.6702032
0.26308903 4.1137972 4.702002
-1.1515789 4.6389899 4.7578478
1.8808122 4.6939411 4.7985263
-0.56369168 3.110301 4.8004799
2.2283361 3.5814853 4.8004799
3.167223 3.6811595 4.8253641
1.6362705 3.7510943 4.8004799
2.109551 3.9720516 4.8004799
1.62442 4.012311 4.8004799
1.7936838 4.2804179 4.8004799
2.4926772 4.3004332 4.8004799
3.0083308 4.466989 4.8039122
0.019907216 4.5182095 4.822504
2.4568691 4.7641249 4.8004799
-0.55365402 4.8125124 4.89428
2.960892 3.1669986 4.9733577
2.0571592 2.8998537 5.0343289
-1.2597392 4.4818234 5.0831451
-0.98142755 4.7147236 5.0184193
1.8386246 3.0028458 5.1231112
3.0166645 4.3907943 5.1712561
-0.059822958 4.5965109 5.1739554
-0.63469255 4.802824 5.1000862
0.20680214 3.4180465 5.2006631
0.30307907 3.8185148 5.2755995
-0.5103814 3.2651565 5.3934698
1.9169321 3.290885 5.3934698
2.5020742 3.3836877 5.3934698
-1.0189959 3.5727973 5.3934698
0.25098437 3.5153322 5.3934698
1.753082 3.8946493 5.3934698
0.16504627 3.9182091 5.3934698
2.116796 3.9956722 5.3934698
2.8540075 3.9902165 5.3934698
2.9054911 3.9809995 5.3934698
1.6146843 4.009644 5.3934698
-0.1689454 4.1164455 5.3934698
-0.94678748 4.2159624 5.3934698
2.2401273 4.2569752 5.3934698
-1.2835186 4.3266344 5.3934698
2.6707597 4.3566647 5.3934698
-1.2468011 4.4466429 5.3933396
-0.26278815 4.6397243 5.3934698
-0.65178263 4.7769728 5.3914537
2.3098729 4.7882409 5.332767
-0.77296543 2.8859169 5.5172482
2.3954425 2.8745944 5.5400329
-1.2034892 4.5024667 5.5252814
-0.76345235 2.886059 5.6679511
-0.52967691 4.7919683 5.6896186
-1.1697009 3.1243811 5.7480416
2.3063428 4.7900267 5.7991753
3.1431062 3.9312069 5.869225
1.4604641 4.3277159 5.8720179
1.8984628 4.7181492 5.8593855
3.0546966 3.4068289 5.9800701
1.3739212 3.5283344 5.9101534
1.3236091 3.8363633 5.9163256
-0.066877365 4.6708088 5.9894152
2.764657 4.6158962 5.9233761
1.5963336 3.1256866 6.0375447
3.0367455 3.3649983 6.0170913
1.3695083 3.5035987 6.0246563
2.9163632 4.4700971 6.01407
3.6802933 3.0092204 6.1975479
3.7392933 3.342001 6.1538706
-0.32233834 3.4603884 6.1783199
-0.092880942 3.8009131 6.1783199
-1.4262462 3.9692106 6.1551795
2.7795596 3.9930408 6.1783199
3.04057 3.9871778 6.1783199
-1.3400342 4.142869 6.1783199
-0.54887635 4.3751788 6.1783199
2.6242769 2.9547234 6.2771344
-1.1695589 4.4943051 6.2843442
-0.54277372 2.8354034 6.3388157
-1.1465502 3.1551218 6.3927612
-1.3508303 3.5359855 6.3796282
-1.3693759 4.0235791 6.379602
2.8433404 4.5299006 6.3050194
3.6776099 2.8907995 6.4124551
2.552969 2.9133921 6.4245872
-1.0977334 3.0968254 6.4336462
-2.1492727 3.2985454 6.4277353
1.2377962 4.0301199 6.4341125
-0.98118949 4.6405621 6.4333458
3.7879319 3.2662687 6.5209155
-2.1005001 3.5120928 6.5923052
0.5190174 3.7699926 6.5432034
1.5887721 4.6506701 6.5062065
1.955192 2.7741117 6.6974678
2.0116181 2.7701044 6.6783299
2.3753736 2.8209188 6.6248941
2.7883561 3.1306531 6.692338
2.9565773 3.4163263 6.6241479
3.7891171 3.409272 6.6248736
-1.3104442 3.596236 6.6125927
1.1672668 3.9991937 6.6582747
2.6369345 4.657495 6.6234689
2.491672 4.7516022 6.6205373
1.8957093 4.8347182 6.6589041
-2.1567922 2.8110554 6.734827
-1.9093992 2.9571319 6.7995462
-0.95427787 2.9920607 6.7244267
3.8948765 3.1259639 6.7103953
0.48043031 3.3442593 6.7341995
3.8396668 3.6573431 6.7288342
2.9396467 4.1521115 6.7936268
2.8805017 4.3474436 6.7306299
-0.29456103 2.7214344 6.8983316
2.5548167 2.9092498 6.8342962
-0.49812925 3.015625 6.8934002
1.7733645 3.1818879 6.8934002
1.1984583 3.2870839 6.8738952
3.7002039 3.2978489 6.8945303
2.1249187 3.3592505 6.8934002
3.8714449 3.4901085 6.8979177
0.59245491 3.5402367 6.8713555
2.7277682 3.5708814 6.8934002
-0.36019844 3.775383 6.8934002
3.0013645 3.726033 6.8923626
1.1881732 3.8016641 6.8934002
1.3451183 3.8125627 6.8934002
2.1567135 3.8862395 6.8934002
-0.73282105 3.9163351 6.8934002
1.4870644 3.9125834 6.8934002
0.04865773 4.2055583 6.8934002
2.1640246 4.2317023 6.8934002
-1.1156292 4.3583403 6.8934631
0.12208021 4.3562241 6.8934002
2.4300551 4.3675885 6.8934002
-0.75120491 4.4863777 6.8934002
-0.47553903 4.4244671 6.8934002
-0.092383452 5.338819 6.8770452
1.7577119 2.1256952 6.9330673
3.6289392 2.8004475 6.925312
3.6993039 2.9315059 6.9843845
1.3426511 3.0379019 6.9392204
3.8924239 3.0144258 6.9766908
0.44560677 3.1642835 6.9363236
3.6375873 3.1570222 6.9087658
-2.2379098 3.2280805 6.9505796
-2.1819837 3.2236073 6.9495535
3.5680904 3.2161973 6.9884729
-1.958315 3.4015019 6.9283419
2.9299786 3.5131948 6.9322877
2.7176647 4.5452242 6.9814634
1.3943579 4.6367855 6.9501519
-0.64903808 4.8327274 6.9722972
-0.4369325 4.8957558 6.9690895
-1.0525869 3.1701586 7.0486569
2.9755981 3.6921246 7.0949111
-1.2184896 4.4007778 7.0418978
-0.38059539 5.3038788 7.0994568
1.5257131 2.0369229 7.1181002
1.6572509 2.0863988 7.1957979
2.683372 3.087914 7.1632795
-1.2299671 4.3406067 7.1916251
2.7331316 4.7449441 7.1637702
2.1191127 2.7394128 7.2017326
3.4922285 2.9318314 7.2247634
0.6141628 3.3964791 7.2140498
-2.2177672 3.6966264 7.2284899
1.6503794 4.9670215 7.2970572
2.2274158 4.9600859 7.2221498
2.2694602 2.7881107 7.3187418
3.546932 2.9234846 7.3324547
-2.2732439 3.1393881 7.3672762
3.7392488 3.4401596 7.3879457
-2.1302974 3.7044053 7.3536963
-1.2592018 4.0992203 7.372571
2.6644516 4.8578868 7.3210907
1.834645 5.0327559 7.3507652
1.6314329 2.0754869 7.4656048
0.99801821 3.5333843 7.4495592
-0.58855265 4.9804316 7.4239388
0.45701969 5.6230187 7.4723406
0.15282705 2.0341697 7.5575018
-0.62271178 2.4728301 7.5234795
1.7412622 2.7421165 7.5708685
0.38898808 2.9657006 7.5785055
2.6657679 2.9564631 7.5179954
-1.9595393 3.7639735 7.5625963
-1.1791406 3.7359638 7.5132217
0.67029852 5.6445379 7.5669394
-0.0153898 2.097527 7.6261015
2.3605063 2.9218895 7.6259203
-0.85703105 3.0396698 7.6308184
1.2594552 3.0369582 7.6259198
3.9898016 3.1442053 7.6403956
-2.1715729 3.2772985 7.6651196
-0.52276587 3.2762713 7.6259198
0.60726476 3.244 7.6259193
0.94387197 3.2882962 7.6742916
-1.1556855 3.3809052 7.660635
-1.8046675 3.4567761 7.6076231
0.019608561 3.4094508 7.6259193
1.9589967 3.4497209 7.6259193
-0.08876545 3.5484118 7.6259193
0.85692543 3.5859227 7.6617174
-1.9764736 3.6620364 7.619246
1.0937694 3.6379626 7.6259198
2.879952 3.8592827 7.6259198
-0.38990617 3.9148946 7.6259193
0.10970296 4.1493802 7.6259198
-0.084966198 4.3108811 7.6259203
0.928038 4.4118237 7.650115
1.3170278 4.4541774 7.6259198
-0.22438675 4.5065241 7.6259193
0.25263959 4.5325937 7.6259203
-0.4048796 4.6697502 7.6259198
1.8319019 4.6826553 7.6259198
2.5627842 4.7513809 7.6259198
-0.30500925 4.8053012 7.6259203
1.4365337 4.8167772 7.6259193
-0.71194285 4.9575024 7.6378517
2.0589638 5.0713396 7.6259198
0.0012483257 5.6124854 7.6864901
1.1442802 5.6685238 7.6740093
-0.080013722 2.1237721 7.7957711
1.733053 2.7048581 7.7524385
-0.98661768 2.9971056 7.7655129
-2.092509 3.2532454 7.717196
-1.9383208 3.2408202 7.708281
3.987206 3.3664315 7.7292061
-1.0465114 3.4449959 7.7632661
-2.4193504 3.5120208 7.7360983
0.58575833 3.5635276 7.7708874
3.904484 3.6345954 7.7244234
1.0499202 3.830096 7.7247667
2.192924 5.3346324 7.7753711
2.1098974 5.4101515 7.7220597
0.53933227 2.7408295 7.8740635
1.0128213 2.7861853 7.8824778
2.3834033 3.0186214 7.8603649
-1.7202491 3.1779132 7.85777
-1.9560862 3.4957552 7.8599539
-1.0525069 3.5747075 7.8732986
4.1581059 3.5631428 7.8543105
0.32234895 3.7791142 7.8531637
1.4920518 3.976408 7.8851018
3.6391499 3.9501827 7.8588972
1.3391218 4.1808043 7.8370256
1.3527025 4.2441587 7.8459735
2.8156109 4.3551297 7.8561287
0.4617269 4.6600571 7.8710237
1.1892741 5.1125426 7.8166771
1.9174165 5.4462671 7.8824377
0.11555588 2.0495872 7.9373283
1.6102087 2.068994 7.9361649
0.75520962 2.7597327 7.9501376
0.49776599 2.9420023 7.9879475
2.2499659 2.9681497 7.9549398
-2.3107705 3.0572705 7.9072423
-2.1430471 3.0488334 7.905489
-2.4910045 3.4969311 7.9163723
3.4062498 3.6102278 7.9850016
3.666435 3.9929929 7.9655352
-1.0600251 4.1444855 7.9664497
-1.044129 4.3258781 7.9043541
-0.54921293 5.2311149 7.9527845
1.1360433 5.2170773 7.9442468
-0.47224927 5.3004513 7.9553785
2.1377432 2.3674083 8.0409775
0.75672328 2.7535963 8.0500813
1.1308861 2.8770475 8.0007877
-1.9415312 3.0102205 8.056179
1.8195276 3.4026313 8.0714912
-2.1947303 3.7052593 8.0831833
-0.11191687 3.8622775 8.0123501
2.7606978 3.8805301 8.0368319
-0.087343283 4.1331491 8.0041599
1.8790098 5.1684189 8.0744743
1.6357405 5.4791517 8.0822611
1.1781934 2.7408342 8.1878633
1.343381 2.7934196 8.1965723
-0.89428192 2.8860028 8.1947613
-0.24217696 2.8672755 8.1665897
1.2555252 2.8496611 8.1394787
1.4868026 2.8713722 8.1665897
0.65399081 2.9701636 8.1665897
0.4126645 3.0286219 8.1665897
1.158146 3.0104818 8.1665897
1.7274693 3.1563194 8.1665897
-0.59624815 3.2067842 8.1665897
1.7330148 3.2746799 8.1665897
0.18801671 3.3565478 8.1665897
0.18536668 3.5591736 8.1665897
2.5893097 3.5642133 8.1665897
-0.11481638 3.6791945 8.1665897
0.13955316 3.6741152 8.1665897
0.43455198 3.6534157 8.1665897
1.8275969 3.6295786 8.1665897
2.2274861 3.6785355 8.1665897
2.8259625 3.6526842 8.1870394
-0.1351712 3.710639 8.1665897
0.32495654 3.7530103 8.1665897
0.89673108 3.7045708 8.1665897
-0.87203848 3.8618014 8.1665897
1.3284708 3.8710234 8.1665897
0.86278051 3.958462 8.1665897
-1.94894 4.0316586 8.1727486
1.3840829 4.0058908 8.1665897
-0.34553739 4.1917033 8.1665897
1.8087958 4.1592822 8.1665897
2.0835719 4.1275883 8.1665897
-1.109725 4.2675576 8.1155291
-0.33379769 4.2505794 8.1665897
2.5419836 4.2131529 8.1665897
1.5226256 4.345397 8.1665897
-0.10032208 4.4173789 8.1665897
0.95797378 4.4621496 8.1665897
1.2753994 4.470356 8.1665897
2.5330596 4.6180334 8.1665897
-0.42666328 4.7901821 8.1665897
-0.2065632 4.7871017 8.188467
1.0512236 4.7288618 8.1665897
1.1908433 4.8473921 8.1665897
1.8783767 4.8749657 8.1665897
0.35766253 4.9525456 8.1665897
0.39490348 5.0168056 8.1665897
0.98870844 5.2735724 8.1665897
-0.18129312 5.3868685 8.163949
1.7150818 2.1112084 8.2146263
1.4955753 2.8514209 8.2319241
2.7357831 3.2368181 8.2142668
-0.80685455 3.3483019 8.2727499
-2.184849 3.8808889 8.2634239
-2.2215152 4.0287266 8.2549267
-0.99099672 4.0921316 8.2515764
-0.33543634 4.6641936 8.2861929
1.6694009 5.0229878 8.2976437
-0.31525904 2.2717857 8.3556767
0.10176405 2.6840472 8.3248692
2.3977616 2.6497116 8.3067245
-2.3352659 3.099045 8.3171282
3.6905832 3.0212002 8.3688879
3.8175836 3.0835047 8.3949394
-2.4144311 3.1607757 8.3691492
4.0726528 3.1660452 8.305006
2.7443204 3.3154309 8.3173141
3.4399211 3.3605468 8.3174534
-1.0928222 3.4319451 8.3193378
-2.065454 3.5096624 8.3815823
-2.4399114 3.8599961 8.322423
-1.7889688 3.8462081 8.3248558
-1.133557 3.9041467 8.3593798
2.5033741 4.5666838 8.3926325
1.0147002 5.4981031 8.3555918
0.83457577 2.581048 8.4416399
-0.7130205 2.6510229 8.4845743
1.696877 2.6789024 8.4785461
-2.1945376 2.9905868 8.4080734
-0.21864262 3.0835629 8.4652252
3.9294624 3.5712171 8.417902
3.46345 3.7875597 8.496911
3.421205 3.9071963 8.4887085
2.1706982 5.1941547 8.4075317
1.3767216 5.2065172 8.421771
1.0231357 5.3643789 8.4715385
0.62272072 2.1491456 8.5974464
1.1345391 2.1150682 8.5987701
1.289729 2.2142527 8.597084
0.42083111 2.6407089 8.5355225
1.5859556 2.6320181 8.5028782
-1.8031653 3.1827679 8.5021048
3.5955882 3.1800065 8.522584
3.8842592 3.1383739 8.5786657
4.0481701 3.1210968 8.5660553
-2.0036831 3.7237005 8.5410662
-2.2685552 3.8903794 8.5925179
3.5214672 3.919868 8.5081816
-0.45603934 5.2184291 8.5393763
0.36413553 5.3369837 8.5472441
1.2963607 5.346745 8.5956478
1.7130299 5.4420433 8.5449038
0.45562029 2.1829321 8.6294413
0.66282767 2.2148821 8.6633301
0.042575806 2.3758283 8.6233101
-0.14571059 2.4736283 8.6760283
-0.046841387 2.6956594 8.6026201
0.21905106 2.6642973 8.6026201
0.55713642 2.6714971 8.6026201
0.70430422 2.6392183 8.6375704
1.8417125 2.6775348 8.6375704
-0.38201782 2.895201 8.6026201
2.4981823 2.8010762 8.6558647
0.24817394 2.9228139 8.6026201
-0.47715473 3.0824203 8.6026201
1.2343417 3.0982122 8.6026201
1.8456311 3.0059569 8.6026201
-0.97961056 3.1209807 8.6215801
-0.27031299 3.1394281 8.6026201
0.60144436 3.17349 8.6375704
0.74002409 3.1580606 8.6375704
0.43420929 3.240556 8.6026201
1.2639706 3.2806306 8.6026201
2.0766623 3.2193904 8.6375704
-0.42482376 3.3893032 8.6375704
-0.13723202 3.3377142 8.6026201
-0.93899524 3.4283867 8.6456232
-0.040354326 3.461781 8.6026201
0.13828841 3.4675193 8.6026201
0.4421275 3.4982524 8.6026201
0.40323722 3.5856156 8.6375704
1.0254003 3.531091 8.6375704
1.2853851 3.5593989 8.6026201
0.99825782 3.6826372 8.6026192
1.4426129 3.6616917 8.6026201
2.7861698 3.6336381 8.6417322
3.3473544 3.6903524 8.6841898
-0.61600006 3.7150548 8.6026201
-2.5046322 3.8339911 8.6118727
0.02152919 3.8406854 8.6026201
0.3593713 3.8441219 8.6026201
2.6466732 3.8998606 8.6575317
2.7836161 3.8161714 8.6809731
4.0560541 3.8681014 8.6120367
-0.93649948 3.9741094 8.6375704
0.96269745 3.9163413 8.6026201
1.3268269 3.9924574 8.6026201
1.5712665 3.9700844 8.6026201
2.1413555 3.9092908 8.6026201
2.4236765 3.9604607 8.6375704
0.38168043 4.0242977 8.6026192
1.7173575 4.0877209 8.6375704
3.5450299 4.0756683 8.6364117
-0.25469434 4.1240063 8.6026211
0.63658345 4.1642179 8.6375704
1.1274776 4.1284304 8.6375704
3.6844344 4.130384 8.6900702
-0.46756303 4.3678737 8.6026201
0.19873023 4.3412185 8.6375704
0.21164978 4.31288 8.6026192
0.47556782 4.3318214 8.6026201
0.83100891 4.3198295 8.6429691
1.4452826 4.3758554 8.6026201
1.6601593 4.3255258 8.6026201
-0.15670061 4.4189734 8.6026201
2.1537986 4.4568491 8.6026201
2.4734454 4.4334521 8.6026201
0.0275793 4.56357 8.6026201
1.5585161 4.5704007 8.6026201
-0.32512355 4.6889071 8.6026201
2.3577278 4.6632695 8.6026201
0.83100891 4.7038264 8.6911068
0.46397376 4.8412032 8.6375704
-0.15001468 4.9449677 8.6375704
1.076238 4.9232197 8.6026192
1.2991107 4.9313178 8.6375704
1.9576865 4.9286766 8.6375704
1.1863648 5.0058022 8.6026201
0.36304107 5.2369308 8.6026201
0.96616602 5.382226 8.6375704
1.2524641 5.5200143 8.6922207
1.3364818 5.5121908 8.6001568
0.47839481 2.2581911 8.7036915
0.033722855 2.3113554 8.750474
1.7376051 2.3738902 8.7524242
0.83100891 2.4071996 8.7863874
-0.58354735 2.5170288 8.7926493
0.83100903 2.6186337 8.7751474
3.537478 3.0995529 8.7016478
-1.0124137 3.2389183 8.7997723
3.8904045 3.2960789 8.786437
-0.95682478 3.3483453 8.785655
-1.0069698 3.5119221 8.7166653
-1.8968019 3.6097279 8.7287092
2.5752316 3.6228902 8.7137461
-1.9091172 3.7917998 8.7310276
-0.12881142 5.1927748 8.7835503
0.082943693 5.2652979 8.7639999
0.17019516 5.3281765 8.7903728
0.44038451 2.2708015 8.8814573
1.419956 2.2446961 8.8129864
1.9037516 2.2244139 8.8456192
2.157131 2.4074636 8.8578777
-0.91220474 3.3539095 8.855834
2.7149739 3.3665543 8.8060837
2.6749892 3.6178901 8.8155689
2.6741929 3.9318173 8.8241863
0.83100891 4.0030746 8.8049202
2.6127961 4.1247711 8.8462305
0.024036143 5.2384906 8.8011141
1.4826581 5.4773502 8.8558846
0.53475934 2.2645199 8.9257154
0.83100897 2.2747478 8.9398689
0.19471186 2.3311157 8.9727116
1.7677763 2.4468746 8.9205103
-0.9218967 3.2344077 8.9976997
3.2446334 3.6012585 8.9386482
3.3334029 3.7288966 8.9100962
0.83100891 3.9104986 8.9792633
-0.90421206 4.0801649 8.9321127
2.5174539 4.3972745 8.9431305
2.190048 4.7978773 8.9184608
1.3778131 5.2942333 8.9031897
0.83100897 5.3563828 8.9040918
0.81337166 5.4254227 8.9295702
1.4341592 5.4846468 8.9162254
0.09285786 2.3679919 9.0039158
0.83100903 2.3052878 9.0249815
-0.16083996 2.420012 9.0184498
-2.2951195 3.1552644 9.0035992
3.397464 3.2547207 9.0808945
2.7037663 3.4236245 9.0705357
2.6480038 3.5920782 9.0184498
3.8781855 3.5951126 9.0114641
2.5877905 3.8819747 9.0184498
2.2855484 4.7615118 9.0371027
1.4648581 5.4760361 9.0407562
0.56759351 5.5028672 9.01577
0.24896158 2.0156116 9.1290503
-0.043054484 2.4171991 9.1638832
1.7477467 2.4334414 9.1657791
-1.8005307 3.1921825 9.1276445
3.2535913 3.4546459 9.1226044
3.4882164 3.7286429 9.1427002
-1.7194226 3.9811089 9.127923
3.6815884 4.2407303 9.1432981
2.2412109 5.0570784 9.1617413
1.4382772 5.3107944 9.1497555
0.51975334 5.5064721 9.1007423
0.14184722 2.0572715 9.2293606
1.9580511 2.2759643 9.2094688
3.7164221 3.1638098 9.2825298
-2.299212 3.9504592 9.2326984
-1.6404603 4.1088238 9.2648945
3.8067009 4.1667752 9.2002573
-0.98802233 4.3069887 9.2149067
1.0571575 2.2466769 9.3750381
0.83100897 2.3851027 9.3217869
-0.4789024 2.7051344 9.3146114
3.6541963 3.1848059 9.3309746
3.4375305 3.3648124 9.3331528
-1.60085 3.4409859 9.3068085
3.3188934 3.414712 9.3122673
-1.6447723 3.5779352 9.314539
-1.5321267 3.5468335 9.3795748
3.7799308 4.017621 9.3934336
-0.063095085 5.3937273 9.303298
1.1029391 5.381392 9.3366222
-0.08881323 2.1557236 9.4910011
3.7746978 3.2165473 9.4749794
2.5616589 3.3189728 9.4103947
2.6546397 3.7347431 9.4680939
0.83100897 4.3378057 9.4541054
-0.79128951 4.7443495 9.4416466
2.4815607 4.7201462 9.4468079
0.32290405 5.3362331 9.4491529
2.1960497 2.7649221 9.5943003
-2.4580007 3.433486 9.5131941
0.83100891 3.4687567 9.5390978
2.6128597 3.4464478 9.5122795
4.2486982 3.7961836 9.5953474
-1.8924763 4.0113235 9.596364
3.3751204 4.2379937 9.5062637
-0.68023694 4.6922193 9.5577106
0.66963297 5.3749409 9.5457611
0.45942301 5.4879084 9.5661659
-0.19115485 2.2356763 9.6703529
2.0207903 2.3459415 9.6996613
-0.95194924 3.1629033 9.6976604
-1.0144607 3.4144568 9.6591167
-2.2438045 3.5335131 9.6573906
4.1702943 3.5034287 9.6164246
-2.0472784 3.7618937 9.6232519
0.83100897 4.0376587 9.6954155
3.9736738 4.0649328 9.6648359
2.6112883 4.5017233 9.6889887
0.26688185 5.3021188 9.6153517
1.5891479 5.4228525 9.6249456
0.68489373 2.6868329 9.76756
-0.77026898 2.7947183 9.7172318
-0.2585116 2.7350249 9.76756
1.0042043 2.743185 9.767561
-0.58719599 3.0211694 9.76756
-1.9143264 3.2998724 9.7901049
1.1225784 3.5897031 9.76756
-1.7393124 3.7130232 9.7606163
-0.57759571 3.7587883 9.76756
2.6660771 3.7113001 9.7647362
3.177618 3.7238584 9.7187138
-2.4974308 3.8086541 9.7014484
-1.8603752 3.9083557 9.7810154
-1.0615227 3.9200697 9.7973833
3.3105359 4.0189281 9.7411108
4.2195191 4.0170841 9.7913437
0.7296375 4.2941923 9.76756
1.0123713 4.4542961 9.76756
2.2371821 4.4946461 9.76756
0.041387953 4.5345497 9.76756
1.8263726 4.5500102 9.76756
-0.69598591 4.6731901 9.7553368
0.70667696 4.662806 9.76756
1.7454741 4.6235757 9.76756
0.83100891 4.7010193 9.7630997
-0.13709539 4.9733953 9.76756
0.89265847 4.9329023 9.76756
1.5527219 4.9796696 9.76756
2.0625305 4.9667287 9.7236929
2.3804996 4.9032063 9.7932749
-0.23204735 5.2824249 9.7047186
0.34700459 5.3169317 9.7730656
1.1133562 5.3458166 9.7117567
1.5017152 2.0759287 9.8029633
-0.26236901 2.2905724 9.8863926
-0.45921957 2.6898675 9.8047771
2.6543918 3.2177117 9.8873301
3.8104258 3.4151511 9.8253241
-1.9786886 3.5519719 9.8009453
-2.4089615 3.7796717 9.8734283
-1.4380798 4.005125 9.8710346
3.1539657 4.0696583 9.8155193
-2.1021495 4.1047378 9.8217421
-2.301789 4.2959447 9.8553753
2.697154 4.2261047 9.8324337
-1.7705292 4.4101453 9.8394012
1.8406879 5.1097388 9.8655891
2.3327489 2.6528792 9.9779778
0.83100897 3.592252 9.9993725
-2.0351722 3.9165459 9.9896793
3.2546792 4.1185074 9.9105787
3.6943076 4.1797895 9.9849606
2.6101048 4.246984 9.9581547
0.83100897 4.5106068 9.9912577
0.16220999 5.4268975 9.9530535
-0.31422165 2.3262312 10.026365
4.0416317 3.5607462 10.043713
-2.3003788 3.6857395 10.03454
2.757421 3.6577547 10.096748
4.1516175 3.6810665 10.062325
-2.5483346 3.9477997 10.014949
-1.7322532 4.1321821 10.098772
-2.3293848 4.2354598 10.039488
0.83100903 4.3561773 10.024779
-0.7201438 4.6566277 10.007461
0.83100897 5.057776 10.05883
0.766734 2.251375 10.164042
1.8601842 2.2337008 10.146567
2.2279344 2.5258324 10.155326
-0.54300177 2.7612417 10.10962
-0.98982406 3.2338269 10.115557
-1.9012852 3.4589372 10.126103
3.1337736 3.6548116 10.125377
0.83100891 3.887774 10.115837
3.8528674 3.8509209 10.168913
2.664361 4.02458 10.127808
3.8572826 4.258955 10.169643
-2.0872414 4.450294 10.156178
-1.6622419 4.4204149 10.160868
-0.23486005 5.2843771 10.153787
-0.31087857 2.5767868 10.285921
-0.28119344 2.5572376 10.290133
0.62817711 2.777535 10.2107
2.2057085 2.772393 10.210699
-0.10932283 2.8382397 10.210701
-0.39514434 2.935756 10.2107
0.87516356 2.9652362 10.210699
-0.71816605 3.0707521 10.210699
2.1540318 3.053622 10.210699
0.17290267 3.1791577 10.2107
1.1566744 3.1703699 10.2107
0.23468587 3.2279029 10.2107
1.3165815 3.2265828 10.2107
0.83100891 3.4544168 10.266723
-0.94316781 3.5637178 10.2107
0.54337806 3.5698438 10.2107
0.83100897 3.502461 10.200778
2.2271051 3.5222979 10.2107
-0.6969409 3.6310296 10.2107
0.80969429 3.6635432 10.2107
1.9122895 3.6341257 10.2107
0.057746548 3.8887448 10.210699
0.20478252 3.861069 10.2107
-2.5011744 3.9104908 10.223228
-1.0080543 3.9367485 10.2107
-0.36823741 4.0383453 10.2107
2.5293312 4.093401 10.2107
4.0782237 4.0557928 10.205403
0.21793282 4.1541042 10.2107
4.140677 4.1563883 10.215538
-1.019083 4.289875 10.205037
-0.97112197 4.225235 10.240956
0.99429095 4.2192492 10.2107
2.4511693 4.246089 10.2107
3.169713 4.2794132 10.261652
-1.8957394 4.426733 10.297017
2.1199145 4.7800107 10.2107
0.49204215 5.0664244 10.2107
1.8869934 5.085331 10.215609
-0.12373635 5.1503754 10.242985
0.61156428 5.3478265 10.200796
1.7388932 2.1479373 10.332026
0.83100897 2.2565613 10.326782
1.919805 2.531039 10.381792
0.83100891 2.6998992 10.355744
0.83100891 2.8252459 10.388143
0.83100891 2.9208746 10.394824
0.83100897 3.1740468 10.370912
-2.2693717 3.4685562 10.358829
0.83100891 3.4945662 10.388401
-1.9777341 3.5691481 10.310573
-2.407738 3.6161799 10.381712
3.1367202 4.066442 10.366502
-1.0334251 4.2536788 10.392346
-2.0368588 4.3831968 10.320338
-1.9681982 4.313796 10.308992
0.26622888 5.2909327 10.326525
1.5260897 5.4248004 10.376585
0.42267913 2.2646017 10.422976
-0.5435093 2.722234 10.484002
0.83100891 3.0564961 10.474463
3.6604724 3.3224506 10.462666
-0.99905032 3.48263 10.40104
4.194911 4.0072703 10.438805
-2.1098316 4.3100076 10.487664
-1.5272914 4.3875952 10.428776
-2.2022135 4.4746575 10.404149
3.8111403 4.5089707 10.498941
2.4373446 4.8433962 10.493838
-0.42907038 4.9550314 10.465512
1.9038637 5.0754762 10.442285
2.2201657 5.0693932 10.468718
0.84625924 2.1501985 10.542199
0.2203919 2.3051851 10.561087
0.66649336 2.4679427 10.5163
0.81275833 2.5505636 10.5163
1.1453898 2.5502083 10.5163
0.21618903 2.6386762 10.5163
2.2670064 2.8046279 10.5163
2.3375564 2.9908457 10.5163
-0.64675415 3.1818097 10.5163
-1.0428681 3.3848329 10.501479
0.32837993 3.3594286 10.5163
3.8224854 3.3973501 10.596107
-0.96853518 3.4581175 10.5163
2.206954 3.4325185 10.5163
1.4131477 3.633945 10.5163
1.8783606 3.6724994 10.5163
3.9496868 3.673563 10.515689
0.93847674 3.7525787 10.5163
-1.7873535 3.8104525 10.585031
-0.23904598 3.865644 10.5163
1.8846358 3.9109504 10.5163
4.1628838 4.0758195 10.541312
-1.7229803 4.1407137 10.574569
0.62320536 4.1456065 10.5163
2.6075923 4.1130977 10.5163
2.7457161 4.1348662 10.503051
-1.8229065 4.2607689 10.590804
-1.6481936 4.4889417 10.5624
-0.68575448 4.9364991 10.514197
-0.29225618 4.9323988 10.5163
0.75935853 4.9482083 10.5163
0.29138324 5.0817494 10.5163
0.83100897 5.1923332 10.586145
1.2179332 5.2934942 10.5163
1.6329174 5.2089624 10.537085
-2.0935309 3.5207641 10.634787
-1.3823005 3.9360516 10.698718
0.83100897 3.9910977 10.621429
3.6208148 4.3741407 10.608817
0.80979335 2.1494646 10.742867
-0.70033193 2.6475122 10.718014
-1.3895512 3.5961649 10.79055
-1.5563238 3.8602107 10.726589
-2.3273234 4.3834882 10.751425
3.4560103 4.4798522 10.760625
3.190959 4.5075583 10.779069
-0.44558477 5.1717463 10.787651
1.2581917 2.2556648 10.809206
-0.14184083 2.4368129 10.839796
0.79822659 2.6926446 10.898201
0.83100897 2.7458816 10.834844
0.3099485 2.8870139 10.8982
0.96762937 3.1580746 10.8982
1.4308269 3.1181486 10.8982
1.8903661 3.1826739 10.8982
0.029132035 3.3758438 10.8982
3.7848637 3.4991145 10.813386
3.926481 3.4961267 10.86297
1.537869 3.582257 10.8982
-2.0900204 3.7544065 10.812132
1.0045731 3.7618766 10.898201
2.3194828 3.7458913 10.8982
3.9289398 3.772424 10.836416
2.7533624 3.8398366 10.877965
1.5826559 4.128406 10.8982
-2.1392453 4.2155848 10.819995
1.9097204 4.2142563 10.8982
4.0289068 4.2378168 10.852448
-0.50161284 4.3632264 10.8982
0.86810648 4.4531245 10.898199
2.2852759 4.4564023 10.8982
1.1822606 4.5397711 10.8982
0.13197491 4.6172185 10.8982
1.9540362 4.8650098 10.8982
2.1525338 4.86165 10.8982
-0.32781619 5.025321 10.86849
-0.26025817 5.0681772 10.835608
1.4983797 5.2570415 10.84492
-0.15071231 5.3334827 10.821568
0.4517709 5.470161 10.824905
0.96959448 1.9719293 10.950382
0.52256376 2.0269308 10.904629
1.8182958 2.4444125 10.95135
0.83100897 2.7103732 10.90633
-0.95833457 3.2838821 10.995351
-1.442398 3.4820187 10.942234
-1.4876313 3.7492714 10.943161
-1.3461248 3.8758843 10.921093
-2.4555032 3.9258027 10.905667
3.1786366 4.1827564 10.943804
3.1028228 4.3265877 10.931973
-1.3549181 4.4154758 10.932859
1.4427584 5.2772355 10.989764
0.26105645 5.4536438 10.991817
1.1827343 5.4678268 10.966936
1.6295836 5.4119234 10.960295
0.70997465 1.9529935 11.00597
0.74899751 2.2177 11.052589
2.3568339 2.8655803 11.030161
0.83100897 3.159287 11.091345
-2.0922899 3.4037437 11.095613
3.0801051 3.5236053 11.029567
0.83100897 3.6067708 11.032095
-2.0707858 4.0934896 11.034195
4.0568571 4.2943263 11.075661
0.83100903 4.4997063 11.062759
-1.4135497 4.5235367 11.055343
-0.43874055 2.3540432 11.171139
-0.6911267 2.6068368 11.194737
2.5027175 2.7670438 11.190667
0.83100897 3.5036011 11.180743
-1.5479648 3.9027505 11.109215
4.1050758 4.1251402 11.114368
2.9119272 4.2354765 11.128137
-1.7079934 4.663363 11.134161
1.859336 5.1137123 11.145179
1.1030829 5.342411 11.185101
0.77246034 5.4426317 11.184111
0.94208241 2.224668 11.265001
0.11596068 2.3375933 11.250288
1.263382 2.3825097 11.265
1.6323717 2.3673332 11.224052
1.5139222 2.8392293 11.264999
0.19687456 2.9899902 11.265
0.83100891 2.90587 11.280689
-0.83774114 3.0641716 11.265
-0.095870197 3.0815783 11.265
2.6716449 3.0893636 11.269244
-0.94174373 3.245769 11.265001
1.0781057 3.2046432 11.265001
2.6270354 3.2710516 11.292709
-1.8933988 3.3428433 11.294409
-1.6964022 3.3363934 11.295524
-0.51537693 3.3024693 11.265
-0.36582762 3.3663824 11.265
2.2465768 3.3865764 11.265001
2.6520536 3.3850038 11.265
1.6600882 3.5544083 11.265
1.7038307 3.5423257 11.265001
-0.32948059 3.6119623 11.265
1.703144 3.6570268 11.265
-1.1382568 4.0000787 11.269701
-1.1310717 4.1213679 11.247241
0.91329718 4.1761007 11.265
1.6843956 4.1603303 11.265
1.8307261 4.3662572 11.265001
2.0504317 4.3211846 11.264999
-1.4549599 4.598527 11.254531
-0.053544272 4.9259043 11.265
-0.14360514 5.0686736 11.265
0.86737502 5.0816517 11.265
1.3166525 5.1101499 11.265
0.74651772 5.2183228 11.265
1.097477 5.4628124 11.273629
1.1504093 5.468328 11.273472
2.6481299 3.0433397 11.382664
2.6869044 3.1206913 11.305795
-1.6443002 3.3425908 11.37392
-1.0347214 3.4720738 11.387715
2.7772646 3.4342947 11.361059
3.6724291 3.4804494 11.359684
-1.1194973 3.5172606 11.330967
3.3120046 3.5227587 11.303432
3.3935983 4.1279898 11.316175
-1.9145174 4.2108212 11.34862
-1.959095 4.335865 11.355568
3.4970541 4.5826101 11.332315
3.8033884 4.5888357 11.358651
3.6162324 4.6836448 11.394599
0.83100891 4.9534426 11.338503
0.87062252 5.3676662 11.33726
2.6249056 2.9973383 11.453506
2.9855897 3.8828449 11.449198
3.0975761 3.997664 11.464023
3.3486142 3.9818265 11.497208
-1.1642954 4.1977344 11.43273
-1.5685294 4.5605283 11.484879
-0.85715342 4.524518 11.410093
-1.9570132 4.6725812 11.444045
0.93324006 5.3608637 11.498758
0.83100897 2.5155559 11.542865
-0.89267242 2.885572 11.53069
3.8289752 3.9506462 11.560652
0.83100891 4.1371908 11.562694
3.8558636 4.141942 11.564194
-0.98239464 4.5768228 11.570231
3.0708778 4.5875349 11.533025
3.18729 4.6602983 11.561916
3.4509311 4.6510119 11.510715
1.4671383 2.0116038 11.641667
1.6001004 2.0622897 11.615165
-0.18861428 2.1743047 11.639499
0.87765205 2.2990956 11.6622
0.34796518 2.4131875 11.6622
0.83100897 2.6492665 11.669601
-0.85461819 2.8095601 11.674186
1.2673558 2.8159571 11.6622
1.674601 2.8386188 11.662199
-0.56644815 2.9662383 11.662199
-0.98201221 3.0633347 11.691441
1.2422323 3.0814052 11.662201
-0.32392278 3.1285853 11.6622
1.8641931 3.167527 11.6622
-0.20813723 3.2199483 11.6622
1.266203 3.2360203 11.662201
1.502249 3.2891836 11.662201
-1.6887627 3.3332906 11.601059
-0.76890355 3.5180159 11.6622
-0.59013671 3.5091619 11.662199
2.342849 3.5322437 11.6622
-0.34148282 3.6770055 11.6622
1.008 3.6084435 11.6622
1.5882145 3.6777449 11.6622
0.83100897 3.7172892 11.603424
2.3771024 3.8169596 11.6622
3.1442442 3.8301635 11.632909
3.4807019 3.8463929 11.677371
0.28780884 3.9036937 11.662199
3.3384395 4.0207248 11.658571
-1.4237285 4.1558771 11.628485
-0.064696521 4.1543612 11.662199
1.2927338 4.2082686 11.6622
2.3063319 4.3504171 11.6622
2.5425229 4.423007 11.662199
3.3337843 4.5255427 11.657945
-0.60318547 4.6108851 11.662201
0.14853705 4.6718597 11.6622
0.74298227 4.6658201 11.662199
3.4187472 4.6596193 11.669172
0.24021986 4.7692513 11.662201
1.8480678 4.794157 11.662199
2.2914529 4.7316809 11.6622
0.17234825 4.9156647 11.662201
0.537835 5.0077996 11.662199
1.7909952 5.1570358 11.6622
1.7193968 2.0896475 11.791204
0.59736532 2.127357 11.775201
0.62112057 2.1354654 11.727004
0.83100891 2.3569956 11.746442
-1.9944174 3.4937332 11.703863
-2.2106538 4.2403879 11.73245
2.7369354 4.3477612 11.714814
-1.293497 4.4917555 11.786497
-1.5455153 4.6898775 11.754423
-0.72698569 4.688663 11.770272
2.4590573 4.6132073 11.745155
3.2823291 4.7031374 11.788885
0.83100903 2.5353703 11.892904
3.510252 3.6543918 11.856494
-1.690382 3.9911797 11.838923
-1.7147174 4.1453009 11.842135
-1.5332943 4.1098013 11.818149
3.7630098 4.2759519 11.88984
-1.8720121 4.3914371 11.862921
3.6678791 4.4543657 11.877291
-1.2763906 4.5333748 11.827903
2.5196342 4.5182743 11.845535
1.430459 1.9524368 11.980906
1.3344382 2.251349 11.967799
0.47978199 2.3502979 11.9678
0.26448113 2.4944613 11.9678
1.5591161 2.5731614 11.9678
2.3500566 2.5413182 11.947109
2.211798 2.687151 11.967799
2.4356551 2.6388729 11.986842
-0.65045935 2.7814479 11.942871
0.78962582 2.855413 11.9678
-0.86529338 3.0509889 11.916673
0.93335152 3.0640955 11.9678
1.2203679 3.4824457 11.9678
-0.89467561 3.5526388 11.9678
1.3901533 3.6713929 11.9678
-1.1116966 3.7244363 11.948141
-0.46088159 3.7343473 11.9678
1.4305127 3.9797297 11.9678
0.37306911 4.0014191 11.967801
2.709496 4.0151119 11.940836
-1.0546005 4.131361 11.954685
0.88185573 4.1209011 11.9678
-0.80000001 4.2619367 11.9678
1.4493363 4.2606568 11.9678
0.30574957 4.499661 11.9678
2.0880611 4.482286 11.9678
-0.34538418 4.7589488 11.9678
1.8702031 4.8176064 11.9678
-0.44728637 5.2063756 11.978598
0.027917072 5.2114997 11.972081
0.83100897 5.2754126 11.999304
0.15838808 5.4412398 11.930573
-0.23758857 2.1592669 12.01425
-1.7262486 3.4117019 12.056456
-1.1550081 3.6097708 12.032671
-1.4271011 3.8043113 12.016909
-2.2695181 3.9821835 12.051716
0.83100897 4.0039644 12.08831
-1.1290392 4.1293597 12.012859
2.7582529 4.28301 12.097566
-1.5342897 4.3286524 12.031063
2.7159934 4.4237051 12.002168
3.3242471 4.4935589 12.04467
-1.7758813 4.6721807 12.062989
-1.6147561 4.6647024 12.041698
-1.4195975 3.5735295 12.191142
3.1671431 3.6962152 12.199145
-1.1312523 4.1187358 12.11121
-2.1399515 4.2554564 12.11109
-1.2797287 4.5983396 12.176055
1.4267522 5.4638968 12.136587
1.0587865 2.0465918 12.232261
1.7421727 2.047358 12.271809
0.078796446 2.2969584 12.224559
0.83100897 2.283205 12.202488
2.2904112 2.4393892 12.298054
-0.38831961 2.5375209 12.228849
2.6509857 2.9850008 12.253658
-0.97376639 3.2572567 12.21367
-1.8524959 3.4122205 12.248356
3.1895299 3.6757948 12.202095
2.678561 3.9924738 12.266096
-0.994762 4.0439239 12.261735
0.83100903 4.3803682 12.251425
-0.87303013 4.48774 12.279699
-0.26181626 5.0828953 12.276017
0.83100903 5.1059718 12.201837
0.078041233 5.2393346 12.219971
1.2150893 5.3431616 12.249156
0.50642455 5.4825258 12.229772
0.76833838 2.380549 12.3193
1.9595141 2.6327333 12.3193
-0.024476262 2.8219931 12.3193
1.2587217 2.8186541 12.3193
-0.42625058 2.9898567 12.3193
1.3731719 2.9869962 12.3193
2.1402929 2.9467072 12.3193
1.9290408 3.0425246 12.3193
2.5728047 3.1471591 12.379737
0.95918721 3.2529306 12.3193
2.2669108 3.2973702 12.3193
-0.46730354 3.395823 12.3193
0.83100891 3.3700004 12.361032
1.5340126 3.3000708 12.3193
2.198247 3.3613086 12.3193
0.016137518 3.4113507 12.3193
0.40857753 3.405232 12.3193
0.83100897 3.4661634 12.360629
0.31967935 3.5593917 12.3193
0.77782023 3.5062404 12.3193
3.3221915 3.590498 12.394917
-1.058707 3.6858816 12.337792
-0.9366231 3.6321363 12.3193
2.0260398 3.6413937 12.3193
2.9627757 3.6302683 12.347354
1.2502946 3.7955437 12.3193
2.4911273 3.773252 12.3193
-0.2470964 3.9614797 12.3193
1.9397238 3.9363928 12.3193
-0.62345958 4.071846 12.3193
2.8694386 4.0228744 12.335037
1.3189777 4.1402683 12.3193
3.2146506 4.155849 12.380699
-0.72732335 4.2498941 12.3193
-1.6736321 4.3511143 12.399986
0.34774792 4.4075913 12.3193
1.105423 4.4294701 12.3193
-1.8388201 4.6623106 12.3214
1.6436861 4.6426764 12.3193
2.4314239 4.6361737 12.36474
2.0782537 4.9770279 12.39444
-0.34735891 5.0069375 12.3193
-0.20837989 5.1188192 12.305784
0.83100897 5.1612253 12.315807
0.71966517 5.2012854 12.3193
1.6306959 5.2274213 12.327488
-0.19069475 5.3383074 12.381704
0.83100897 5.3064322 12.327146
0.098421685 5.4418321 12.393679
1.5185292 5.452404 12.399234
0.68359077 2.1758876 12.465799
2.4036932 2.873754 12.407301
2.6932254 3.0948927 12.427599
0.83100897 3.2945526 12.440006
-1.6997194 3.3736787 12.403423
3.4794078 3.3662188 12.434034
0.83100897 3.9493341 12.472198
2.7975192 3.9812536 12.421223
2.8114986 4.4889297 12.425951
2.1021729 4.9528937 12.482382
-0.47486484 5.1679893 12.43664
-0.39644891 5.228797 12.439134
1.4817604 5.2766471 12.429476
0.17734094 2.2431989 12.552944
0.83100891 2.3247569 12.506716
2.1843491 2.650481 12.593218
-2.0917811 3.6619883 12.576472
-1.4049797 3.6575255 12.566233
0.83100897 4.0801892 12.570155
-1.1758776 4.2776885 12.535177
-0.99431032 4.2794514 12.503597
-1.4809053 4.3212934 12.576513
-1.1808457 4.3497486 12.535851
0.83100903 4.3370175 12.562231
2.6599522 4.4230175 12.570911
-0.77476454 4.8157053 12.585255
2.2382035 4.8208747 12.534814
-0.4005897 4.9742546 12.526716
0.83100891 5.1530495 12.584932
1.9963657 5.2559624 12.534029
-0.015568979 2.0024266 12.611841
-0.62575495 2.4645786 12.675944
3.4336634 3.3665755 12.665134
2.6279104 3.7118208 12.632423
3.4988446 3.7354736 12.621232
-2.0182896 3.8094106 12.649233
3.7184017 3.8947296 12.650996
2.553211 4.0740581 12.636519
0.83100897 4.1915636 12.618509
2.6168432 4.5076275 12.649234
3.371758 4.6198444 12.604084
0.83100897 5.1183867 12.630019
1.75621 5.1744142 12.629251
0.60386711 5.3666492 12.60898
0.88680577 5.3878269 12.66643
1.0953631 5.4808683 12.612161
0.73558068 2.1696801 12.730799
1.505863 2.245635 12.767164
-0.54856503 2.371237 12.731308
0.63657057 2.8283284 12.7624
0.89376628 3.0900626 12.7624
-0.85395241 3.1653156 12.75308
2.1470034 3.1837058 12.7624
-0.93683118 3.3954279 12.760631
1.0249839 3.3673863 12.7624
-0.19967997 3.5842955 12.7624
-0.98171353 3.7012856 12.763422
0.95102108 3.7414336 12.7624
-0.33025864 3.8756754 12.7624
1.5774927 3.8812058 12.7624
0.83993232 3.91079 12.7624
1.5246724 3.906934 12.7624
2.6052256 3.95576 12.762401
-1.3590558 4.0459208 12.762835
3.2625165 4.053308 12.793067
-0.40017861 4.1652217 12.762401
-2.1320662 4.203104 12.723948
2.5698764 4.3687334 12.771524
0.69140708 4.4222932 12.7624
2.1306658 4.4344339 12.7624
0.42243111 4.624845 12.7624
-0.3365567 4.8613687 12.7624
