# .PCD v0.7 - Point Cloud Data file format
VERSION 0.7
FIELDS x y z
SIZE 4 4 4
TYPE F F F
COUNT 1 1 1
WIDTH 1530
HEIGHT 1
VIEWPOINT 0 0 0 1 0 0 0
POINTS 1530
DATA ascii
-17.554024 3.1316233 32.922844
3.7908301 -14.99827 33.101486
5.9855504 3.1814907 33.360565
7.4308791 -15.712128 33.527489
-11.684675 -11.48681 33.641205
-25.083668 -11.1868 33.733788
15.216896 -9.3710089 33.850273
9.4582806 -15.578806 33.906277
-15.261414 -15.336896 33.961197
-10.590616 -5.1922336 34.180622
-14.929691 2.3294158 34.428516
-25.592999 -6.6282535 34.656643
14.017223 -1.6949552 34.649319
10.626581 1.7472398 34.710529
0.76183259 -1.9937402 34.855728
1.7722018 0.65548581 34.874912
-16.986256 3.1376789 34.850948
-20.506132 -15.379441 34.902748
2.6485624 1.8784747 34.921577
11.321375 -13.43139 35.074013
-23.962471 -0.54952443 35.200264
13.143457 -0.26224071 35.209778
-0.1859206 -10.126217 35.397564
-19.089766 2.4157987 35.32576
-16.5014 2.9634886 35.379124
-18.383846 -16.687994 35.585976
-25.16835 -2.830441 35.501297
-13.159171 -14.53042 35.677097
-25.156555 -2.84372 35.624332
-18.591351 2.5502589 35.68993
-25.748217 -7.9266887 35.978813
13.256009 -0.67150557 35.933052
3.3591957 2.1459179 36.061752
-10.252157 -6.1982574 36.156639
7.4308825 -16.691845 36.272514
0.76296836 -11.874653 36.522465
12.951095 -0.3134523 36.631012
-0.200893 -5.1412649 36.708626
14.468396 -3.1352406 36.839649
-19.874447 2.0355716 36.948357
10.500417 1.5966003 37.209045
9.3460779 -14.971304 37.472599
14.205252 -11.87836 37.453331
4.0680447 -15.557182 37.711735
1.4808335 -12.944969 37.821537
-0.46639821 -6.0693855 37.923054
-18.813026 -16.919268 38.121063
-0.34001645 -10.350267 38.254353
-25.722021 -8.1630211 38.29351
14.139194 -12.035399 38.538452
-14.167831 1.5749973 38.67704
9.1790667 1.9190369 38.618053
-11.881305 -13.374293 38.92355
-24.578613 -12.389245 39.237686
-25.210594 -9.8648434 39.481411
-23.572302 -1.2648865 39.456806
14.171911 -4.9678726 39.63382
3.791203 1.3663855 39.734283
9.3676729 -15.343859 39.885681
3.3986454 1.2544099 39.819084
-24.960434 -11.550707 39.90659
-0.56491035 -7.6779861 39.946293
14.820337 -8.4127789 40.171635
-0.28337622 -6.5369234 40.11784
-24.131485 -2.2462859 40.117008
-9.9943485 -8.5511684 40.298759
-10.228088 -7.2008586 40.250977
13.613161 -12.594469 40.557125
-0.57973659 -9.4036942 40.512539
-0.48885185 -10.369452 40.861088
10.373561 0.8593899 41.083542
12.704767 -1.682656 41.13866
0.38365448 -12.334255 41.216248
11.564611 -0.49104583 41.246944
-20.892651 0.93768215 41.276642
-10.755826 -3.0494189 41.393158
-19.491554 -16.115133 41.624649
1.782547 -14.755241 41.691696
6.6111484 -17.540447 41.879913
-20.042721 -15.816071 41.849144
0.33642307 -12.248211 41.880665
10.392159 -15.193389 42.038269
-0.22006634 -4.0059485 42.013279
-25.291647 -11.24902 42.195198
12.328596 -1.727511 42.337128
-0.93168873 -5.7715349 42.870888
-25.14992 -11.605668 43.02388
1.0156945 -14.488596 43.802979
10.517264 0.0632478 43.892738
-19.091816 -16.951111 43.93182
9.2002201 -16.542488 44.048191
4.3054752 -18.37554 44.10257
-11.664637 -14.604701 44.127811
-11.590607 -14.703918 44.567757
-19.477654 1.2673179 44.531475
3.4527307 -18.364296 44.885689
-19.95248 -16.781996 44.85704
-22.962349 -14.209244 44.801353
-9.0831919 -8.6906281 44.821213
0.89404929 -15.096747 44.944332
-18.363447 -17.875113 45.061584
-12.294191 -16.975721 45.113583
-13.623198 -18.10696 45.276886
0.98605287 -1.8886138 45.231819
-21.468115 -0.48201025 45.284706
7.5486078 -18.221912 45.337498
-18.890459 -17.867989 45.332344
3.3415051 -18.410761 45.447346
-15.290087 1.1263143 45.413033
-1.3503299 -6.2838068 45.518173
-0.73227578 -5.0295944 45.519409
-11.007689 -14.919898 45.631813
-10.382837 -13.618644 45.761364
-17.060516 1.2790145 45.740387
1.7264979 -17.238361 45.802151
14.502449 -8.2734385 45.813332
-22.81028 -15.364068 45.99017
13.321684 -13.180285 45.960293
2.3737085 -0.41333842 46.131905
-14.744642 0.7538265 46.348942
10.486802 -17.78977 46.489567
-10.107862 -14.159445 46.442223
3.5068138 -18.641924 46.599495
2.8878558 -18.353184 46.625381
-24.759094 -12.074766 46.622574
-13.534024 -18.370411 46.745888
-21.497429 -17.812319 46.891914
8.1687069 -19.274418 47.161545
9.8372278 0.27348208 47.164268
-1.7754074 -7.3718061 47.376617
-24.854277 -10.930202 47.411385
0.31104714 -3.2878821 47.795986
7.7300463 -19.480911 47.822937
-24.487753 -6.7233052 47.930885
-0.055815473 -4.1671772 47.921432
-15.73444 -19.475462 48.141869
-11.077335 -16.39784 48.159187
-21.620974 -1.1076806 48.180614
-12.58346 -0.9179284 48.252056
-13.688721 -0.014478385 48.391426
3.4570136 0.23064733 48.305904
0.82753891 -16.917725 48.519501
-23.711082 -3.8061898 48.640343
-21.683973 -1.2767351 48.807602
0.24224749 -3.5592432 48.908314
6.3694091 -19.794094 49.196636
-12.295975 -17.96657 49.143307
-2.1094987 -9.1492119 49.191353
7.8442326 -19.484026 49.246437
-10.614126 -4.3466544 49.389336
-9.0817528 -12.317694 49.588577
11.806196 -18.28126 49.823257
-17.209707 0.67674661 49.822029
-15.955582 0.76180261 49.98687
5.9039855 -19.655096 50.004818
7.6624517 -19.564381 50.001656
-20.814716 -19.006016 50.124317
-14.55435 0.22849429 50.43425
-1.8079944 -12.222097 50.615974
1.8499224 -1.0256202 50.896732
-8.7282362 -8.2944469 50.911461
-14.328559 -18.935829 51.463631
7.1139965 0.46389043 51.430363
-12.668566 -18.188536 51.524136
-1.2483346 -6.8799553 51.527966
-20.656195 -0.68807685 51.839973
14.297094 -11.505255 51.947571
-23.72323 -15.743085 52.025791
-1.096891 -6.6718626 52.130333
4.9124322 -19.299162 52.211319
1.7929833 -1.1031712 52.427086
2.2769818 -18.268251 52.587112
-11.678261 -17.089001 52.761772
14.457848 -8.4887342 52.837719
-8.5583153 -11.875018 52.988014
-21.079763 -1.314996 52.936169
-25.078434 -8.8130627 53.195873
-17.163465 -19.603737 53.435997
-17.315193 0.2220279 53.53323
-11.454048 -2.3547957 53.65913
3.9610956 -0.093516469 53.741852
-19.082094 -19.614819 53.97237
13.811194 -6.9033375 54.099052
10.600953 -1.6947795 54.062447
-12.042272 -17.682987 54.12112
11.228076 -18.526676 54.376499
-1.3647592 -7.5611115 54.534794
10.426091 -1.6224561 54.705315
-23.296419 -16.937243 54.866371
13.917185 -7.0627656 54.989838
3.1937604 -0.59412754 54.912849
3.8775568 -0.26398492 54.951347
-1.7594968 -14.484083 55.088047
-25.084593 -9.7794476 55.071529
8.8085966 -0.021233439 55.176098
-10.569719 -4.9448748 55.336868
-14.303267 -0.42686021 55.403732
13.6073 -6.5231171 55.52282
-23.887726 -5.875968 55.603447
-22.882833 -3.7989361 55.64949
-11.770863 -17.31741 55.702209
-18.106964 -19.535065 56.081062
-10.438254 -4.8590584 56.24168
-10.696564 -16.4163 56.336002
-1.6563877 -6.9801655 56.453606
-2.1842291 -14.314844 56.591675
11.825387 -3.396646 56.582825
-18.355156 -19.513885 56.777527
-9.8828106 -15.836543 57.027939
-24.852043 -13.295476 57.074127
1.2105824 -17.511408 57.135254
10.466336 -2.1044624 57.290844
2.3565052 -1.2539119 57.25008
-16.091362 -0.22636677 57.253044
-0.72929007 -4.9958563 57.451
13.187992 -15.813241 57.515518
-11.863111 -17.5165 57.676605
-8.6372128 -6.8974314 57.73452
4.7963929 -18.96365 57.841213
-13.777554 -0.94118857 57.804775
7.5012054 -0.18231311 57.819729
-11.767865 -17.475668 58.018761
14.103554 -7.1921391 58.092674
-9.4836397 -5.2919598 58.193256
14.282644 -13.115746 58.210175
7.1888194 -0.23825198 58.207417
-19.824974 -0.93484712 58.364983
-0.20407972 -16.469961 58.516571
-25.042398 -11.810825 58.625847
-25.02767 -8.1679335 58.76944
-21.42211 -18.396788 58.890297
-2.8779078 -13.131386 58.842216
-7.586792 -10.083261 58.835304
13.417189 -5.9604416 58.896332
-20.331381 -1.6044589 58.97121
5.2809777 -0.41792929 59.020191
13.550463 -14.986998 59.145947
-3.0884356 -10.043673 59.151348
13.863235 -6.6890817 59.114998
-8.8382902 -5.8072934 59.104912
-24.354666 -6.3554001 59.567383
-12.50176 -18.094542 59.635574
-7.723217 -12.867115 59.631104
-18.789661 -0.21855558 59.804676
-15.528197 -0.28701317 59.931854
-12.55657 -18.211704 60.24786
-24.99637 -11.440246 60.206924
-19.871431 -19.179407 60.358475
-14.426903 -19.043554 60.304993
-24.701843 -7.3182464 60.337418
-23.669979 -16.39798 60.454521
-24.590748 -14.115138 60.545723
-24.699591 -13.869281 60.510326
-25.085806 -11.816051 60.603226
13.468778 -15.276724 60.899452
-24.03245 -15.520123 60.979195
-7.8455601 -13.719496 61.147282
-2.3644931 -6.8540039 61.265301
-14.503452 -0.044146165 61.551544
-19.751583 -1.4303184 61.713436
-13.794823 -19.002731 61.848244
-9.876544 -16.2118 62.102982
-15.509933 -19.321934 62.559822
-23.518736 -16.882252 62.637325
-3.0210063 -8.6145201 62.693584
14.381321 -7.6699753 62.614029
-1.8281626 -5.6310806 62.657482
-2.4791679 -15.111274 62.764187
-18.328369 -19.485455 63.067497
-16.73638 -19.590168 63.109665
-22.88905 -17.630682 63.14782
-0.87318152 -16.623846 63.394661
14.511284 -13.107774 63.426994
-21.066416 -18.642416 63.577541
4.0567875 0.41309538 63.696411
6.9145145 -19.696175 63.826904
-3.357029 -10.954877 64.197609
-12.256471 -18.736649 64.798416
-9.9030781 -2.4845467 64.852478
7.2597075 -19.66448 64.979698
14.383427 -7.8373299 64.943756
8.748807 -0.74164689 64.905441
10.696611 -18.716354 65.39711
-3.4799325 -13.610316 65.463509
-24.921864 -13.875042 65.577576
13.630386 -6.1033726 65.515625
-0.2839283 -2.2445898 65.528717
-16.733253 -19.732645 65.755676
5.9785619 -19.722374 66.001572
-20.150497 -1.0249617 66.098068
5.6986661 0.49040118 66.020538
2.4718604 -19.410936 66.537514
-3.5447409 -14.265732 66.580383
-22.15089 -2.6986401 66.507828
-19.022079 -0.15799084 66.516838
-11.311558 -1.6105113 66.961334
8.2875338 -0.30585501 66.940002
-0.41536126 -17.893663 67.054695
-19.883642 -19.1127 67.242836
1.8908432 -19.239595 67.511932
-1.2317564 -3.0286942 67.506744
11.957095 -17.792431 67.68988
-3.4274476 -9.4662247 67.654999
-2.3180342 -6.3558888 67.674942
-24.422771 -14.912187 67.881378
13.67055 -6.2748609 67.895988
3.0084407 0.20440793 67.957008
-24.364834 -6.8755431 68.296402
-14.528068 0.48438421 68.337852
5.9322214 -20.137268 68.459785
7.7079325 0.087215424 68.442505
-24.6964 -8.1388893 68.549065
-22.678341 -2.6282692 68.556496
-1.0119467 -2.4819613 68.598419
5.4904399 -20.081596 68.674255
-20.538185 -18.690393 68.698479
14.783112 -12.787707 68.691124
-22.831123 -2.9440994 68.632401
-8.6826658 -16.869789 69.030457
-18.922016 -0.18852329 69.086998
-15.469419 0.71346498 69.031578
-7.3556538 -8.2979107 69.253258
-19.912546 -0.85487187 69.279991
12.285307 -3.1825366 69.335533
-11.811998 -19.059671 69.452217
-2.9951186 -16.009212 69.622643
-24.975397 -9.8382359 69.627213
-23.270679 -4.0969319 69.689346
-24.81431 -8.9794989 69.783745
12.446298 -17.615604 69.926674
11.705395 -17.878839 70.272476
1.0911174 -19.121235 70.351425
9.9027138 -18.548279 70.664581
-6.7715912 -12.40665 70.617027
-11.620593 -0.85896617 70.754868
-18.123051 -19.59873 70.868958
-23.208517 -4.4013171 70.899292
13.179085 -5.7920895 70.91748
-6.768878 -12.991374 71.05957
-25.091276 -13.203084 71.158539
14.346886 -10.336755 71.202713
-16.458508 -20.170986 71.358849
-3.7551837 -15.070379 71.381981
-2.4628623 -4.2856479 71.424545
-10.882328 -18.852871 71.974457
-24.919014 -10.017914 71.974113
-7.8895378 -5.7867708 71.923515
-3.7892151 -15.857962 72.065857
-1.6693081 -2.1385312 72.017685
13.189488 -5.955337 72.133354
5.3898993 -20.745646 72.254959
-22.112679 -17.449421 72.332573
13.711535 -14.771391 72.300194
-3.3364565 -6.8074589 72.366653
12.824551 -5.2228594 72.436378
12.343571 -4.2143841 72.465179
7.5437803 -19.589773 72.660988
14.210506 -13.739752 72.647285
-7.3357463 -16.620964 72.725891
-25.250767 -11.67951 72.706711
-14.66856 -20.267273 72.823471
-22.298008 -17.254765 73.007065
-13.686522 -20.204399 73.370087
-1.0064532 -1.2217014 73.465508
-18.426544 0.11089262 73.51445
-6.7318935 -8.4288387 73.803085
-1.0850308 -1.2486293 73.849129
-32.685875 -24.806538 74.011269
6.7198133 -19.862755 74.153046
-31.026138 -26.551941 74.289307
-24.606052 -8.8190861 74.248009
12.285881 -4.2055697 74.262085
-18.236115 0.24512297 74.228737
3.3440137 0.70199043 74.227348
8.0369959 -19.174795 74.464287
-4.2770176 -12.371931 74.457245
-6.5386353 -8.7016048 74.583778
10.478723 -2.3513627 74.704056
-29.934097 -30.289518 74.877968
-34.341171 -24.000839 74.85762
2.6662924 0.51334584 74.838516
12.684011 -4.9576044 74.964035
-14.346048 -20.679398 75.075714
-16.967205 -19.936802 75.199226
-6.2716789 -11.718391 75.621124
-33.737335 -24.058069 75.832649
14.016843 -13.83824 75.884026
-7.3050585 -6.016911 76.057137
-21.562544 -3.0322032 76.004105
-13.25697 -20.686289 76.235237
-6.2145395 -11.031651 76.286324
23.141235 -34.454285 76.365204
1.5030745 -20.162302 76.330872
13.210404 -15.135014 76.315231
-30.995544 -33.598335 76.457176
-35.162754 -27.906717 76.415039
11.073414 -17.848999 76.42704
22.290051 -35.972301 76.579224
-2.3678625 -3.4028683 76.564316
23.271351 -31.985666 76.657654
-8.7256432 -19.52425 76.781776
-22.756191 -16.600815 76.789284
-20.951218 -2.4399004 76.849754
22.836689 -39.120998 76.936653
-9.1076927 -1.4150586 77.066864
7.5541182 0.42794538 77.030556
-9.7524567 -19.818695 77.155266
-24.977949 -12.982836 77.178596
6.5157475 0.8040626 77.171066
-34.945007 -31.038673 77.258682
-6.0833631 -13.74174 77.269417
23.590855 -37.084087 77.318909
-23.980015 -14.583277 77.352783
-9.4733477 -0.37465313 77.395737
-32.863689 -33.075596 77.530174
-2.286648 -2.8630431 77.567802
-33.25024 -31.31332 77.649002
-9.2161875 -0.7127952 77.876343
24.45278 -31.489611 77.972809
-15.592559 1.3576604 77.985008
-9.2598705 -20.073505 78.077774
14.274302 -11.2274 78.042244
22.333408 -40.558628 78.253242
25.553528 -35.259377 78.214706
-7.4457703 -19.654238 78.248413
-4.3002048 -17.279045 78.221169
-14.33268 1.4380223 78.290886
25.884377 -34.928867 78.379929
10.010815 -18.142353 78.302628
14.345781 -12.821011 78.539322
-17.168894 0.74518061 78.605721
3.7883093 1.4917172 78.698898
9.7060633 -18.252483 78.744331
14.400024 -12.716248 78.735405
24.553841 -32.223808 78.883385
-3.9402575 -18.866211 78.897774
24.816025 -32.143078 79.108078
-8.7212267 -20.570538 79.694008
-4.7895098 -10.562267 79.636284
-14.237232 1.7706547 79.617218
-6.5617542 -6.8357468 79.793877
-16.567633 1.027397 79.751671
-35.46019 -32.174541 79.877296
-8.580246 -20.634315 79.932587
-16.775867 0.9948799 79.995888
-2.8068762 -1.8220768 80.037903
-36.441471 -29.475203 80.127937
-24.284048 -13.687048 80.10965
-3.842149 -3.9213576 80.297409
-2.3288553 -20.761044 80.393288
-7.7190762 -20.655399 80.364883
-22.782253 -15.885191 80.325317
14.26985 -12.695573 80.308411
-21.849224 -3.7236342 80.337662
-34.879345 -27.685171 80.459694
-35.280918 -31.974718 80.584061
-6.1359301 -8.3348513 80.589478
-8.5619411 -0.50866383 80.506355
-37.859482 -26.197857 80.911446
-6.0363398 -17.591961 80.959915
-20.931379 -17.351044 80.996315
-11.137229 1.8035169 80.917244
-22.867874 -15.494884 81.090775
-30.676207 -34.296532 81.183083
7.1607337 -19.775419 81.134743
13.380982 -8.3753309 81.194016
-21.477961 -16.960638 81.233345
-16.035965 1.4158002 81.218315
4.8045106 1.6128451 81.285492
-30.542286 -34.293396 81.353912
25.518501 -32.655396 81.369446
-34.233051 -30.00465 81.351723
-7.7894535 -1.4128225 81.320862
-17.478603 0.59882915 81.350349
27.400198 -31.061672 81.426277
-37.219055 -22.783398 81.43898
8.0479717 -0.41600972 81.402695
-21.797104 -3.710427 81.565216
6.0901365 1.2270546 81.666275
8.3560162 -18.954449 81.782005
-24.101456 -13.581166 81.735382
-10.17066 1.6295586 81.753799
25.917389 -31.752285 81.879578
-24.128349 -8.9936714 81.842804
-22.008736 -16.547146 81.949974
26.673306 -34.067757 82.083595
-6.3945413 -3.3007469 82.065651
-1.6435788 0.75926554 82.121613
-31.815983 -32.467049 82.269531
-8.5354567 -21.434433 82.305351
-30.829636 -32.676884 82.535805
-37.056946 -29.411798 82.546692
14.004401 -11.638025 82.591965
1.0490689 2.5851254 82.566689
-9.5847254 -21.08157 82.674774
-6.149847 -19.287195 82.628311
-4.9962897 -19.042759 82.628807
26.426098 -37.947411 82.743782
-2.2666378 0.97750127 82.88887
-22.721504 -15.300687 83.027092
27.923065 -32.642555 83.395111
-16.011395 -20.191456 83.386093
-19.130064 -0.50861502 83.328857
-0.96162033 -21.251705 83.471802
8.5182343 -0.50921512 83.597954
26.735338 -37.668888 83.673264
9.8262768 -1.9800459 83.624496
26.592535 -38.159348 83.827682
-10.391678 -21.674179 83.847664
-6.3332834 -21.249062 83.982872
27.796648 -34.576805 84.062363
12.615607 -6.666214 84.05542
-30.604172 -32.229591 84.115494
28.083328 -32.090103 84.147919
-8.3610954 -21.827877 84.136528
-1.6000977 2.531446 84.176552
-23.722622 -8.4594507 84.278709
-23.459286 -7.4715905 84.285843
-4.4334955 0.7546615 84.318184
12.488008 -6.3791351 84.449356
-22.143915 -4.2873912 84.497742
4.5607634 2.2806807 84.411926
24.68693 -30.873623 84.642624
21.611486 -39.991314 84.723953
24.517841 -28.869366 84.700272
-17.010376 -19.80583 84.76329
-1.3746213 -21.628008 85.088554
-20.120461 -17.660646 85.057007
9.5481281 -17.575178 85.184669
-23.012665 -14.467266 85.144623
27.41209 -35.025551 85.201019
-19.607954 -0.76193225 85.246574
-10.185655 3.51545 85.277496
-18.106949 0.65927106 85.383087
-14.119569 3.0350225 85.349609
24.165308 -31.966467 85.477135
-24.086147 -12.833876 85.400871
27.024321 -36.994007 85.541901
24.075422 -35.836185 85.556946
-2.8424022 2.9816303 85.605965
3.1893816 3.2225084 85.615852
-32.316666 -32.805275 85.775536
4.1139717 -20.833941 85.740997
-21.69854 -16.302362 85.79715
-22.676443 -5.0737815 85.833839
-20.205343 -17.465416 86.04995
23.952974 -28.917646 86.113449
-20.909374 -2.5096049 86.149811
-24.079243 -10.245707 86.229042
-10.516756 -22.188429 86.418228
-19.383039 -18.074873 86.43129
-10.170877 4.15376 86.508507
-16.523785 2.2045565 87.045921
5.412148 2.5971179 87.176773
13.358675 -9.882988 87.236664
-23.510639 -7.9655628 87.284393
-19.257027 -0.27771282 87.295906
-11.82294 4.2434368 87.308884
23.188984 -27.928883 87.416565
-16.790642 -19.618984 87.563843
12.361292 -14.008585 87.5131
10.336119 -16.630138 87.640747
7.4608765 1.1047454 87.73941
22.322086 -35.887592 87.843529
-30.686085 -27.18396 87.834671
21.603849 -36.601624 88.040771
20.905869 -36.964363 88.296227
23.303326 -37.508045 88.350128
12.862435 -7.8695416 88.332199
3.0531073 3.9162378 88.318542
-31.754843 -29.022438 88.40876
-31.033146 -26.631683 88.413429
-22.363626 -15.103677 88.460472
21.970953 -30.675964 88.683701
-11.883736 -21.831791 88.712364
-36.039867 -21.722645 88.790512
-36.233788 -20.737553 88.862793
3.5720112 3.86485 88.816422
25.810556 -35.231674 88.992966
9.004117 -0.73391575 89.041374
-36.713486 -21.437349 89.101006
-36.262226 -21.448431 89.19735
26.972067 -28.981627 89.257744
-31.798508 -21.85351 89.254456
-24.182785 -10.958893 89.290306
20.72172 -33.26091 89.307106
-36.72477 -23.056158 89.333412
5.7186279 2.9195979 89.503799
-16.155857 3.15097 89.663902
-37.652557 -22.498016 89.752449
-22.214214 -15.215618 89.768196
-35.828812 -26.4438 89.822411
-22.192228 -4.2298841 89.910912
22.253275 -38.109329 90.075363
-23.705379 -8.3264217 90.099129
-23.500212 -12.791817 90.158653
-11.114014 4.4942384 90.129242
-34.877678 -19.140913 90.288895
10.241285 -2.2971632 90.232216
25.006281 -25.564331 90.370224
-18.084639 -19.039457 90.320137
13.19577 -9.0646505 90.326859
12.613851 -6.6490173 90.47879
-8.7012568 -22.827595 90.527451
-33.676533 -27.19442 90.658875
7.6894565 -18.752998 90.675819
-16.76182 2.5151386 90.647507
-36.624416 -20.065815 90.799637
13.361201 -10.361202 90.811401
12.454712 -6.2830987 90.848022
-15.368316 3.5976305 90.877426
26.68684 -30.566261 90.919632
-17.727348 1.5197904 91.265388
-17.972767 1.2699022 91.394745
-35.659924 -19.459929 91.504761
-33.295879 -19.017496 91.570892
-21.896061 -15.413147 91.500801
10.728153 -15.772559 91.891014
-35.638252 -26.941109 91.963211
-9.359086 -22.489479 91.994965
-36.447968 -19.86562 91.907028
-15.080083 3.6417143 91.912727
-11.72855 -21.961411 92.305687
12.815822 -7.1658092 92.315109
12.276527 -5.7479978 92.34333
-3.5715947 4.6870136 92.318901
-11.423273 -22.059883 92.60733
-5.939744 4.6577034 92.752617
-16.579712 2.3980186 92.957855
1.2744279 4.448782 92.907944
21.050274 -26.204962 93.16877
-22.701504 -5.498755 93.199173
6.4148798 1.8908756 93.276817
-14.250959 3.806848 93.239723
-1.8501881 4.5877275 93.5103
21.926432 -32.306831 93.605293
21.304234 -24.474018 93.78141
-22.959309 -13.297335 93.850754
-4.9117084 4.7317929 93.859207
-9.6859093 -23.505445 93.98304
-22.438303 -14.253687 93.99778
27.209608 -26.674191 94.074295
-30.51638 -25.408981 94.140182
-5.215837 -24.336899 94.24588
0.83550721 -22.462523 94.240494
-15.723598 -20.773453 94.240082
-24.315536 -8.6137352 94.231033
-14.515548 4.6555686 94.264557
-3.6650248 5.8676858 94.286606
19.871246 -29.574427 94.347748
-0.079529345 -22.527832 94.354759
-15.557839 3.1262188 94.34993
-14.048372 5.1762958 94.365822
-7.7107873 5.5488558 94.318481
27.622372 -27.798267 94.470543
-22.419939 -5.34094 94.424606
-20.7202 -0.95810968 94.412094
-2.5555804 4.6287274 94.420776
26.456661 -31.080782 94.566574
12.317532 -14.689939 94.500656
7.3140259 0.76802075 94.51355
-37.147751 -23.131634 94.603157
20.352283 -27.243732 94.796463
4.0898871 -20.837355 94.773239
11.339306 -15.914924 94.799179
-21.386446 -16.390352 94.859039
-24.556519 -11.579066 94.87896
-22.261967 -3.8368096 94.815582
-11.469933 4.4341707 94.859001
-4.3494873 4.8821836 94.896469
-22.069389 -4.6408191 94.919273
-2.4849622 4.7268667 94.93206
-24.849586 -10.69759 95.065315
12.101482 -5.7391205 95.047592
-14.476581 3.5745378 95.054825
-36.419769 -23.574841 95.145721
-36.664921 -20.073503 95.171875
-19.007032 -0.70869255 95.177856
-7.4912 -23.740877 95.436249
26.402014 -24.661221 95.845932
26.534637 -29.165096 95.987442
13.119169 -12.863085 96.098999
-4.9357567 -23.99176 96.191727
-29.302742 -23.397984 96.147629
-3.7131116 -23.728634 96.274811
21.431831 -22.458729 96.303596
-8.4627342 -23.384493 96.498611
-7.2182021 5.7775345 96.411316
25.827229 -23.37553 96.590668
-31.151176 -17.366459 96.594017
-8.6135645 -23.3325 96.640961
-31.725132 -25.902517 96.705261
-20.172138 0.29796332 96.801094
-19.267443 -19.165056 97.053146
-5.8732996 -23.824135 97.118332
10.833403 -1.526153 97.16008
-36.523495 -19.484728 97.25975
12.680224 -5.1127172 97.217621
-20.926794 -0.79700124 97.420998
-29.931999 -17.532364 97.562653
19.879848 -24.160866 97.782532
-31.244114 -16.593206 97.746811
24.732054 -29.448786 97.831169
23.470175 -30.004368 97.904732
12.016295 -15.568489 97.986412
26.151875 -27.382839 98.147186
26.629799 -25.01866 98.125046
-30.463022 -16.604794 98.191216
11.576718 -2.7690625 98.14196
-7.8040333 -23.258987 98.250114
-29.236717 -19.259266 98.270073
-29.447693 -18.292219 98.212257
-22.999088 -4.5210466 98.341461
6.4007449 2.5095322 98.445541
-11.500628 -22.468594 98.599167
-22.124119 -16.457989 98.503448
-8.8804245 5.4331532 98.541946
-23.545269 -12.297176 98.876404
9.1668043 0.064547837 98.86644
12.104071 -14.76053 98.974632
-19.265427 0.71033382 98.981331
-34.686146 -23.835644 99.041077
-28.948599 -18.601599 99.049385
-23.410358 -6.4460659 99.051056
12.296622 -13.904713 99.180443
12.600323 -6.3253522 99.193657
11.975601 -3.8857574 99.111389
19.201851 -22.274702 99.38945
-31.605743 -15.522843 99.316849
-23.961863 -8.7374916 99.465889
1.4191134 4.8081379 99.436661
11.861207 -15.442493 99.565819
20.341074 -20.019218 99.630981
-23.307854 -12.819782 99.758118
-22.325197 -3.2507761 99.836769
21.136795 -19.297733 100.15335
-22.812496 -14.481497 100.10567
-23.634026 -11.430856 100.29907
-23.727032 -11.094151 100.29836
19.9972 -28.664371 100.36787
-36.564075 -21.416845 100.31271
-15.978083 -21.124893 100.38231
-31.68264 -14.897188 100.33218
18.822174 -19.914417 100.55525
-28.387476 -18.27256 100.52744
-22.884251 -14.041799 100.57503
13.170441 -9.859273 100.63852
18.565205 -21.084015 100.78922
-23.908998 -10.275838 100.71361
24.850372 -19.989624 100.83245
-29.904217 -24.301708 100.94905
21.853834 -18.397482 100.92241
-22.822859 -5.4848361 100.91806
18.480188 -27.042725 101.13986
-23.762268 -9.1490116 101.32549
-22.304718 -15.952422 101.66753
-22.752222 -5.5690479 101.62904
10.846407 -2.6859286 101.64548
22.670631 -28.076178 101.91811
-31.622337 -13.939977 102.02489
12.248215 -12.176609 102.06516
4.4117932 3.2021875 102.0951
-14.511029 -21.493843 102.26556
-35.209091 -15.45443 102.25787
20.368698 -28.322927 102.30357
25.062813 -19.21273 102.32473
-21.375469 -16.825687 102.33015
22.929619 -17.551262 102.43787
22.431107 -27.913086 102.51788
-10.435705 -22.288645 102.56815
-23.621935 -10.714162 102.52698
-22.967136 -13.35433 102.62682
-20.809296 -17.330956 102.7177
-16.350273 2.1485445 102.79396
22.410526 -16.975161 102.80616
-19.648172 -0.60077965 102.82494
-33.846947 -14.321876 102.93892
8.7591848 -0.49149397 102.98505
-15.665838 -20.901608 103.02283
18.752338 -27.411873 103.1056
-20.743269 -1.8584962 103.2749
-20.51638 -17.546894 103.35708
-21.766079 -16.361883 103.60767
-23.332254 -11.404839 103.67159
19.769537 -27.482876 103.70255
-23.147528 -12.295837 103.71091
22.030651 -16.157543 103.88123
3.2494326 -21.245911 103.97301
-20.595406 -1.8785778 104.13817
17.105705 -22.169004 104.26945
-15.882914 2.0581877 104.35558
-32.619484 -23.206972 104.41022
-23.045628 -12.318821 104.45069
-0.85728389 3.8876801 104.44541
24.461159 -17.670338 104.55717
11.762237 -5.9174109 104.79334
17.552105 -25.052713 104.97031
-16.74159 1.2846055 105.14804
-3.4961309 -22.78228 105.27197
-17.411932 -19.641779 105.33707
17.202076 -16.951878 105.33633
4.7209454 2.0697999 105.3784
-0.076259434 3.5143113 105.40852
19.607357 -26.393482 105.6703
-6.8682208 -22.82288 105.6366
-11.417324 3.3225722 105.67081
-36.24403 -18.615482 105.7697
-35.828438 -16.301197 105.75482
-16.459539 1.2967017 105.74781
-31.656658 -11.818246 105.88658
16.60956 -22.860453 105.91411
-34.211315 -21.72546 106.01243
-36.22411 -18.507591 106.02899
-22.830475 -12.341814 106.13779
-21.677361 -16.191086 106.45461
11.636009 -6.1696401 106.48884
-27.536783 -21.448139 106.64673
24.661669 -16.770685 106.70691
-26.80048 -16.951923 106.89104
11.632922 -12.247231 106.96779
-22.411461 -5.8151293 106.91848
0.84911036 -21.722782 107.0623
11.830355 -7.375669 107.00459
7.7551656 -0.33544183 107.17397
25.373755 -19.009983 107.46711
11.626486 -6.7421064 107.4548
-13.327639 2.6730905 107.56516
-22.969479 -8.8356409 107.6313
-19.432665 -18.099787 107.78575
-20.440327 -17.16748 107.74872
-30.650322 -21.923828 107.91248
11.029676 -4.353682 107.93509
1.6843333 2.7646623 107.96974
4.400219 -20.401873 108.11156
-26.744202 -14.721001 108.20569
16.291763 -15.749449 108.30518
23.648069 -24.083241 108.46571
19.287083 -13.534595 108.49109
-16.421637 -20.017738 108.52402
11.829725 -7.8157444 108.56024
21.054146 -24.815886 108.67542
16.024824 -19.363441 108.69072
-22.237606 -15.004333 108.64515
-22.65727 -12.118151 108.68882
-30.031731 -21.464903 109.03431
15.821918 -20.739225 109.00418
-22.327991 -6.6332417 109.16014
-22.418589 -13.61825 109.24722
22.60898 -24.390131 109.30898
15.976419 -15.604659 109.30551
-22.341869 -14.192032 109.31421
-20.0613 -1.6313943 109.35681
15.740959 -20.177809 109.46622
3.9977829 -20.616812 109.62596
17.615757 -13.5005 109.6382
8.7974319 -1.4992059 109.68993
-10.474177 -21.962854 109.71657
-7.7692986 -22.743225 109.82765
-26.354698 -13.375559 109.8275
-9.7459478 3.1192551 109.93784
-14.601339 -20.668777 110.09025
-26.405418 -19.50666 110.18636
25.054516 -18.240229 110.15083
0.62657768 2.7143435 110.15343
11.834691 -8.0216951 110.32207
-12.607158 2.3872597 110.36229
10.427911 -3.2569497 110.47781
16.250547 -22.483995 110.54382
-11.966945 -21.480646 110.50125
21.744816 -13.383075 110.5117
4.3531222 1.1796603 110.59239
15.85573 -21.624706 110.64558
2.4955809 -21.081093 110.61887
-19.01442 -18.130274 110.60139
-7.359293 3.6481071 110.68703
17.119755 -23.15464 110.74995
-29.177734 -20.672724 110.836
-28.552727 -10.841486 110.83134
9.7403326 -2.3463092 110.9668
-20.12542 -17.096796 111.17624
-30.277813 -10.031564 111.10352
-5.4100165 -23.348299 111.28246
24.219152 -21.410168 111.28951
5.3301883 -20.010605 111.38988
2.1237149 -21.238924 111.48255
22.760159 -13.921895 111.49763
-22.285833 -7.2319813 111.44143
16.496851 -12.61984 111.58823
9.7097759 -16.392788 111.63382
15.089104 -20.063475 111.86412
-25.797583 -13.525556 111.90321
-17.040359 -19.373512 112.11224
23.520155 -14.813034 112.33357
6.5520496 -0.38788113 112.41649
-18.216019 -18.587378 112.53461
-30.836891 -20.248926 112.62598
-19.738581 -17.298006 112.68406
-28.631466 -10.221016 112.72256
11.457414 -7.0025988 112.81648
-28.21854 -10.304631 112.98301
-34.970558 -16.268141 113.01144
20.055031 -22.251863 113.12371
4.6488447 -20.260395 113.11948
-33.925751 -18.639299 113.14329
-25.46174 -14.044554 113.11952
-2.9080145 -22.664095 113.20389
21.616024 -12.208226 113.21674
-0.088832676 2.807826 113.20131
-5.694253 -23.15411 113.3388
-6.7232471 -22.902855 113.45032
8.918231 -17.058796 113.5959
8.4727325 -17.480156 113.61713
-25.436235 -17.81971 113.75758
14.787889 -19.612366 113.88756
10.310627 -3.3352523 113.93208
-12.704251 2.3292449 113.94537
-9.5060339 3.0691605 113.90577
14.516504 -17.332102 114.1888
11.690788 -13.777126 114.24445
-8.7144728 3.261306 114.25989
22.604 -13.270535 114.52575
-18.402439 -18.289577 114.69876
17.825354 -21.54925 114.85632
-12.953842 -21.208094 114.83971
21.788338 -11.815344 114.96619
-28.044727 -9.8521328 114.95944
23.805195 -15.99072 115.09824
-16.581573 0.83236146 115.07478
0.16279066 2.7068632 115.09139
-3.9194295 -22.895889 115.11287
22.251759 -20.160986 115.18003
12.363164 -9.984005 115.14096
-24.79998 -15.144553 115.27454
-21.592896 -4.6937532 115.29901
-15.730139 -19.885912 115.38939
14.726643 -19.299715 115.34724
-5.815752 -15.557127 115.55807
-25.906313 -11.126699 115.73015
-6.2540712 -22.189993 115.881
-21.169426 -2.9497333 115.87704
-3.9733024 -22.773098 115.93978
-28.722258 -9.397316 115.94714
-8.007019 -22.851654 116.04834
15.727972 -20.536005 116.22243
-11.054656 -21.968161 116.3896
2.5076518 -21.462454 116.3718
18.533077 -21.158207 116.37729
-3.4087119 -19.090174 116.36941
-6.905159 -13.797408 116.35945
12.15283 -9.2583828 116.31025
-7.2302341 -21.23341 116.59932
-20.266476 -1.7721255 116.53464
-8.1848974 -22.932095 116.65337
-7.5880127 -20.802979 116.86259
-7.5281539 -19.56982 116.81847
-24.308191 -15.043389 116.83592
-2.5628443 3.3491197 116.82679
-15.809677 -20.311584 116.98143
18.579796 -10.133695 116.92169
-2.4659469 -18.928896 117.08679
-2.5797789 -17.516203 117.00018
18.586445 -20.952345 117.22011
21.041336 -20.427532 117.26292
11.377682 -6.8214502 117.38246
-8.4192371 -11.466042 117.47379
1.9665859 2.2290637 117.41241
-6.3620672 3.7577844 117.45065
-4.8045111 -10.5302 117.52409
-15.627679 -20.48538 117.61918
-8.7830858 -20.250996 117.74126
-10.216494 -22.570253 117.88828
-1.4417664 -19.026663 117.8662
-1.495553 -16.503147 117.8252
-23.106075 -10.572632 117.88233
-21.035221 -2.6044052 117.86751
15.352987 -20.385563 117.97366
16.664051 -10.908178 117.95521
7.2797041 -0.56999624 117.97792
-1.1396718 -19.731474 118.09631
-26.532101 -19.65361 118.16495
7.1893969 -19.390484 118.14285
11.95997 -13.465943 118.11896
15.972456 -20.996069 118.20942
-22.460205 -7.1043639 118.2267
-0.81319213 -11.685938 118.34444
12.327425 -9.24648 118.35332
-0.61625141 -19.684128 118.49457
10.829197 -5.0283642 118.4212
11.031506 -16.011337 118.50703
-4.2215133 -23.472549 118.61536
-10.167534 -20.611576 118.76014
7.9571204 -1.302494 118.77841
22.38154 -12.281542 118.81981
-0.073220402 -18.763092 118.90759
-10.626968 -10.577836 119.09856
-11.529099 2.4635303 119.06858
15.297215 -20.483824 119.16734
-21.543976 -4.2349329 119.15155
0.92752796 -22.772125 119.26838
-10.789536 -12.819922 119.21813
-25.944353 -10.967655 119.29379
-27.165455 -9.84093 119.21312
-10.995328 -15.390426 119.36949
-11.012091 -13.995701 119.38187
-11.369973 2.4307003 119.49934
0.074210286 -23.222672 119.57713
-23.711494 -17.012545 119.51929
0.81630933 -17.076746 119.58476
-25.396255 -11.460747 119.56545
12.177082 -12.9736 119.68922
0.90660465 -12.436209 119.65363
-11.562543 -13.1868 119.78699
8.6020479 -2.1194685 119.79851
17.002447 -20.729795 119.8664
-22.642113 -14.330164 119.87619
-22.822838 -8.3883295 119.83482
-8.4360304 3.0037162 120.02528
-12.095849 -11.022206 120.17954
-33.636711 -13.073185 120.24603
-12.287977 -17.924509 120.32089
15.749355 -21.302879 120.48595
2.0394328 -20.243725 120.51598
7.4671521 -19.99482 120.50629
2.0981383 -12.076351 120.56087
-23.124006 -9.187232 120.55899
2.1961403 -21.765909 120.63544
2.2444406 -19.920269 120.67225
2.2460008 -18.082798 120.67344
12.395714 -17.707266 120.64859
16.018286 -21.378475 120.71126
-4.0588889 3.3460319 120.85579
-4.3264999 -23.905542 120.93123
-13.069864 -15.498867 120.95197
-20.316967 -2.7055061 120.97131
-11.690025 2.1358762 120.98656
-13.22436 -11.068872 121.10137
-29.701183 -9.47616 121.13292
2.9419746 -14.550409 121.20306
3.0357552 -12.325914 121.27441
-3.8835876 3.2528372 121.20666
-23.296783 -14.01233 121.3748
3.2834067 -14.219172 121.46282
-22.589491 -7.4114022 121.492
3.3564668 -21.684847 121.54556
-10.783883 -10.530201 121.54227
1.0058511 -10.5302 121.58875
3.6200786 -21.785332 121.89173
22.490528 -15.647664 122.03668
-33.2659 -11.710604 122.06956
3.850723 -17.001997 122.19426
-14.112939 -16.693539 122.15504
-14.207754 -12.889737 122.27185
3.972774 -21.2901 122.35431
-14.266527 -20.56303 122.34425
-22.844418 -15.242727 122.37917
0.55126029 -10.5302 122.39274
-14.384372 -16.470755 122.48944
4.0081506 -11.739909 122.40076
-22.765604 -7.6579056 122.42117
-1.12474 -23.693222 122.54448
-9.2072716 -23.544933 122.53171
-7.291708 2.9738841 122.50754
3.7239742 0.70007384 122.67726
15.410906 -21.700499 122.79927
12.578811 -10.687656 122.72119
-28.095184 -9.682497 122.76389
-14.519833 -19.168249 122.84253
-14.509663 -16.856133 122.81374
4.2609792 -13.913169 122.99602
4.2661781 -20.447201 123.00938
-8.7447605 2.5541906 123.0222
6.0053334 -21.706898 123.18117
15.318413 -21.753838 123.13991
21.275661 -11.899939 123.18061
-0.52012849 -10.530201 123.11443
-31.195572 -10.106605 123.32419
-22.925995 -7.8267012 123.4139
-31.416801 -10.199295 123.51003
-4.9596486 2.9117582 123.56496
-14.828009 -20.748787 123.71591
7.6420169 -20.644072 123.71001
-19.919544 -18.841888 123.74358
11.361792 -16.26808 123.80824
-17.196617 -21.084078 123.97833
21.158014 -11.961934 123.92732
17.257362 -10.701454 123.90447
-4.1740112 -10.530199 123.91162
-1.0557497 -10.530201 123.95624
11.554256 -16.191704 124.02448
-5.4157677 2.7968631 124.01766
-29.338835 -20.687847 124.15788
-31.62315 -19.047573 124.22308
-33.065552 -16.766041 124.28448
-1.9571686 -10.5302 124.2674
7.929296 -1.4045839 124.42416
-16.796021 -21.30093 124.53577
13.197305 -20.999859 124.53676
-23.885311 -11.113978 124.53649
17.165714 -10.621473 124.53365
-13.232817 -10.5302 124.50674
-27.302748 -21.0023 124.68369
-17.281446 -0.28535512 124.66399
-14.9924 -21.040211 124.70636
-32.890965 -17.370136 124.75894
12.544916 -13.393317 124.77824
-10.372524 -10.5302 124.82265
-13.06498 -22.635685 124.95158
-14.9924 -17.716789 124.91671
-20.803429 -18.109669 125.16686
-33.178047 -13.32173 125.16519
-23.42499 -9.0221777 125.12077
-3.6670573 2.4389319 125.12656
4.7281399 -12.994731 125.21645
2.1806285 -10.5302 125.23916
-30.795225 -10.015524 125.21172
12.462425 -9.0149107 125.22126
0.062760592 1.543166 125.27592
-14.180155 -22.215246 125.32219
5.6072145 -22.015108 125.30228
10.769313 -18.084196 125.332
22.01055 -17.948498 125.44232
12.706007 -13.173008 125.48158
-5.8680162 -10.5302 125.41141
4.6845064 -21.977152 125.59566
6.0058122 -21.84877 125.54546
4.6939912 -21.709726 125.56379
-33.180454 -13.908398 125.52351
0.67972255 1.298622 125.50758
-13.028389 -22.556835 125.60793
17.503183 -10.407362 125.66539
-13.110814 1.1506238 125.68542
17.143208 -10.410443 125.74007
4.6007719 -15.242798 125.87714
-6.1175051 -24.533443 125.92061
-32.596626 -18.324484 125.92263
2.6281996 -10.530201 125.97562
3.0044482 -10.5302 125.99174
-22.085716 -12.998257 126.077
-14.791067 -19.640205 126.18508
4.5168877 -16.388008 126.15902
-14.805104 -11.461359 126.13463
-25.905745 -9.3435688 126.16733
-13.338758 -22.686132 126.25717
3.6007295 -22.440395 126.23273
4.4820089 -19.777418 126.27603
21.411728 -12.615541 126.26997
-28.510071 -9.210103 126.28572
-13.88553 -22.447126 126.3542
10.892218 -18.553307 126.33418
4.4571137 -15.759017 126.35954
-22.17984 -15.297816 126.4455
12.468779 -8.0545807 126.50974
12.261584 -20.882473 126.61111
-14.616993 -19.143778 126.6921
4.3219876 -20.278179 126.7568
-14.60001 -15.464188 126.72241
4.2676678 -14.302319 126.83871
20.712458 -12.2315 126.94575
-14.326516 -10.5302 126.92227
-14.402639 -17.572088 127.0748
12.421171 -11.81825 127.06315
-20.167028 -2.8780549 127.08147
-11.731786 1.417588 127.05558
-16.622328 -21.89308 127.27174
-9.7341404 -10.530201 127.39042
-4.2389669 -10.5302 127.32003
-9.090807 -10.5302 127.45246
3.0714231 0.47431558 127.4395
-27.156591 -21.436453 127.54227
-21.254959 -17.958509 127.52968
3.8225675 -11.634845 127.50977
-0.55879498 -10.5302 127.53301
-13.960122 -10.5302 127.781
-0.70213187 -10.5302 127.71141
-11.59082 -24.863228 127.88057
-13.960298 -21.18062 127.85651
-21.132208 -16.408909 127.99146
11.381613 -12.55208 127.91975
13.394622 -11.850972 127.9682
9.2136297 -3.078114 127.98707
-7.5900297 -25.597725 128.02216
-23.150032 -12.295288 128.01378
-13.624763 -18.79389 128.13547
-25.634014 -9.3738871 128.10504
10.285792 -15.853268 128.29022
-3.7114341 -10.530199 128.2648
12.023684 -5.7067003 128.22914
3.1096408 -19.403017 128.349
3.0580184 -11.522062 128.39882
-22.744509 -19.894405 128.47495
-22.355907 -14.243268 128.4604
1.3479754 -10.5302 128.4637
-9.3030376 -10.5302 128.58047
-21.473394 -18.316486 128.65097
-0.58515716 -10.5302 128.67406
11.899244 -14.930885 128.75073
7.8574338 -2.0034857 128.73039
2.7480848 -24.758591 128.81462
12.4723 -6.2706084 128.83989
6.819571 -23.107866 128.93341
2.5283568 -18.257391 128.90794
-21.945677 -15.692291 128.94046
12.606872 -13.369862 128.96066
-4.9369898 -11.045853 128.92471
0.88455844 -10.5302 128.92456
-4.8248296 -19.14563 129.07832
11.387007 -12.085385 129.01013
-29.091085 -9.4899473 129.09822
-20.716688 -17.308599 129.15015
-5.6995616 -24.717737 129.29425
9.5330296 -20.350365 129.21881
2.00418 -18.86928 129.27139
-5.8235102 -12.784534 129.35063
12.741179 -9.7363529 129.30684
6.9785051 -1.3334367 129.37303
-12.027987 -25.156536 129.41873
-12.0327 -24.835262 129.41623
-16.202488 -23.678885 129.45744
-23.429586 -21.112617 129.47318
-27.027422 -9.4255562 129.44623
-11.789917 -25.409523 129.5834
-1.252625 -10.530201 129.53543
-6.4430475 -18.694139 129.6319
-3.7166986 -14.313018 129.66299
-11.606124 -13.608694 129.64323
1.1146945 -16.643766 129.70517
-7.1605439 -26.014118 129.84367
-7.0132704 -22.71899 129.80338
-11.186087 -22.470676 129.80223
-20.702986 -19.889053 129.81059
-2.9857235 -16.267616 129.89162
-10.931276 -15.579885 129.85953
-22.117472 -5.3775759 129.82394
9.1784096 -3.42766 129.8082
0.56431031 -22.198448 129.94763
-7.6902647 -18.708567 129.98964
-7.6803727 -17.997198 129.98691
-2.8506908 -13.28618 129.92267
-2.7937424 -11.887009 129.93578
-1.2104707 -24.304466 130.067
-9.1686506 -23.940298 130.078
-8.7113514 -23.118904 130.078
0.18531531 -21.849842 130.02631
-0.34225455 -21.72401 130.067
-8.9461346 -20.187119 130.078
-1.1636709 -19.330593 130.067
0.14036475 -19.261749 130.03564
-0.1975783 -17.205488 130.067
-10.021483 -15.703833 130.06497
-8.0718594 -15.463635 130.078
-1.7093284 -15.415449 130.067
-9.2538471 -12.850601 130.078
2.3792081 0.54120958 130.07324
-9.0364151 -26.071445 130.15634
0.23261985 -25.986649 130.18924
21.683294 -17.922371 130.1552
12.320516 -22.270306 130.25645
12.268064 -9.1054497 130.2644
-15.023512 -24.526457 130.49388
3.5280399 -25.068373 130.50302
13.386161 -10.690863 130.54926
8.7245417 -3.2950408 130.55492
-1.7553669 -26.339094 130.63268
17.132591 -22.872194 130.66896
10.203015 -21.59572 130.66
-15.468935 -0.091895133 130.67805
-15.137047 0.02171357 130.68283
10.388317 -19.581703 130.81863
-7.0294018 1.1672771 130.8896
-12.617218 -25.714283 131.03244
-18.125557 -23.402405 131.02997
4.8496103 -0.57969165 131.09492
-6.2020092 -26.843124 131.18314
-22.189068 -19.834866 131.28262
-10.585289 -26.215 131.40681
-32.456829 -14.71733 131.42532
11.942922 -9.8882027 131.48277
10.765317 -11.811093 131.50854
18.101349 -10.872162 131.57269
11.909666 -10.439293 131.57372
21.089521 -13.474459 131.61209
10.311524 -12.888394 131.63129
3.2426186 -25.567701 131.77658
-28.527998 -21.367331 131.73874
9.4096146 -4.3522825 131.7652
11.824319 -11.2946 131.88406
-11.458097 0.73807335 131.84692
7.3173199 -2.2510457 132.05524
3.2139931 -25.712711 132.25764
20.108727 -12.395225 132.22023
10.738335 -11.682817 132.29396
-22.058556 -9.0224905 132.28441
10.391663 -5.4006672 132.22607
20.651651 -13.233291 132.35876
-20.941252 -21.916098 132.40782
-17.304247 -1.3848341 132.45854
-21.40591 -21.685299 132.59193
11.049564 -21.202759 132.65547
20.936832 -19.494894 132.62007
10.622831 -11.998188 132.63454
-21.131523 -16.494352 132.71205
11.077617 -21.088327 133.08562
-12.678703 0.28672388 133.02951
3.6648974 -25.74122 133.15407
-4.6529636 -27.109606 133.22134
10.701751 -15.019641 133.26418
11.481345 -15.570185 133.34824
10.744324 -14.204563 133.32123
7.0753756 -1.994311 133.32564
21.286057 -17.893404 133.49036
10.764204 -18.199596 133.55856
-18.118677 -24.158825 133.69763
14.676609 -23.259659 133.83289
-21.972216 -17.633116 133.88911
-4.6723661 0.17277911 133.94167
11.12798 -22.003819 134.00201
-20.633753 -22.825974 134.16481
11.123316 -21.327679 134.24567
-21.682903 -13.282724 134.25571
-27.415314 -22.181107 134.39275
-2.7972677 -27.181248 134.58792
-1.1332769 -27.040871 134.56055
-9.5534277 -26.89883 134.57394
-1.972831 -0.055797756 134.58823
-2.2106471 -0.061063588 134.66879
-18.079399 -2.6073148 134.79251
-16.510616 -0.90165895 134.87254
-1.2740464 -0.17612375 134.82668
-23.79282 -9.0085144 134.91107
7.0088592 -2.0509515 134.9913
-24.271305 -9.0731926 135.00699
11.336163 -11.901052 135.15791
-25.25 -9.1260014 135.19768
-30.974525 -19.394615 135.22351
-19.679493 -4.5739055 135.24242
-30.662788 -19.687206 135.32822
-12.061617 -0.21133614 135.37511
10.963653 -23.709667 135.42795
21.234306 -17.50461 135.47818
-8.9064245 -0.093841575 135.42995
15.877634 -23.628149 135.54642
-30.181381 -20.107445 135.57512
-22.252148 -8.4951916 135.57507
-27.930868 -21.825254 135.70952
8.913168 -24.729973 135.83246
11.608121 -9.8297424 135.88484
5.26859 -1.4989991 135.86104
0.31681293 -0.58324325 135.83159
7.3964763 -2.755518 135.99039
-6.4662561 -0.40075731 136.14493
4.8972726 -1.5160558 136.24054
-0.23616624 -0.65068924 136.24295
7.9888644 -24.993288 136.32181
17.229761 -23.028921 136.35373
14.386326 -10.197068 136.32016
8.5291014 -24.976139 136.42155
15.229183 -23.89896 136.57976
20.444359 -20.125755 136.55225
-0.26731712 -0.72764021 136.53239
-0.48513091 -27.344622 136.75764
-25.456638 -8.9435272 136.77446
6.304482 -25.404278 136.84982
-31.869278 -17.629263 136.87003
-19.939821 -5.2366848 136.80354
-5.6710134 -27.784641 136.97292
11.17015 -8.2348156 136.98192
12.544476 -24.357811 137.10728
21.235861 -17.396881 137.13681
-32.023483 -16.956007 137.1373
19.680662 -21.146896 137.42059
13.730633 -9.9657011 137.65227
4.3333549 -2.3434703 138.07542
18.04941 -11.392164 138.1705
9.3043537 -5.7103801 138.13362
-0.58343172 -1.3917984 138.20212
11.406524 -25.289406 138.33424
8.4205685 -4.1350517 138.48145
4.033782 -2.505528 138.44313
-30.498848 -20.080454 138.55789
-15.129192 -2.1645446 138.53732
-2.951807 -1.6233604 138.65678
-28.176239 -9.6132336 138.76031
7.74792 -4.0491948 138.86716
3.3243704 -26.509415 138.96503
13.198851 -24.928888 139.40195
18.90505 -12.065768 139.53029
-29.914061 -20.598391 139.64351
-19.738121 -25.101147 139.7532
-25.984659 -22.965195 139.79283
-31.585041 -18.338577 139.8614
14.733974 -24.253803 139.96788
13.280735 -9.8955727 139.91708
-17.029879 -3.4904134 139.9839
-31.507587 -18.51553 140.17726
9.3819942 -26.05769 140.21703
12.62162 -25.244009 140.25723
-5.1077976 -27.794563 140.45557
1.8188431 -26.846109 140.56351
20.369072 -19.399927 140.98962
11.412094 -8.2103748 140.93033
-2.7231429 -2.8934314 140.95432
-8.0604191 -27.553402 141.1165
12.024403 -9.003685 141.23804
-8.6827164 -27.449936 141.36641
19.434509 -21.251108 141.41124
-0.19773431 -3.3477623 141.48438
-8.302722 -3.1008091 141.55765
-3.8268216 -27.688139 141.61284
-0.085719287 -3.4984422 141.67192
19.442917 -13.692109 141.71582
15.926315 -23.815474 141.90312
19.504303 -13.95682 142.1321
-0.029888958 -3.8476529 142.12341
-29.537529 -20.653084 142.26985
1.9996563 -4.168581 142.32004
17.816023 -22.267096 142.5686
11.848562 -25.390369 142.6676
19.881794 -14.666946 142.67348
8.2833853 -6.5521431 142.66785
-1.4945457 -27.37479 142.74156
-27.682827 -10.291124 142.73349
-13.584019 -4.2712436 142.89188
-30.601389 -19.277208 143.04501
-10.408449 -4.2270951 143.07817
-10.698216 -27.029638 143.53815
-11.008511 -4.6731901 143.69983
2.5429134 -26.726845 143.70444
4.789238 -26.617006 143.73157
-15.547629 -5.193481 143.79333
19.776537 -16.209568 143.8839
-9.886116 -4.9855213 144.06697
3.5005991 -26.644997 144.10013
-1.9062507 -5.3185749 144.18169
15.348579 -23.499838 144.26642
-22.53392 -9.0678453 144.46532
18.566162 -20.28661 144.51453
-14.118986 -5.6396227 144.61682
8.0099297 -25.145054 144.77827
-24.08358 -22.999668 144.87511
-13.750443 -26.403126 144.93987
-30.139229 -17.48201 145.03638
-16.295639 -25.767702 145.13538
8.2640629 -24.814697 145.35115
-21.175732 -23.403187 145.33594
-22.236534 -23.038652 145.38966
8.4544687 -8.9607258 145.37236
12.134131 -10.837378 145.45343
-15.074814 -6.6250334 145.59933
-15.573263 -25.825949 145.64606
-26.528057 -21.755264 145.73303
8.3139915 -9.2579193 145.95329
10.173049 -9.9650402 146.05679
18.290556 -18.354305 146.19872
-9.3419228 -26.942125 146.32172
-20.299454 -8.8925581 146.35156
-4.682241 -7.4197211 146.41136
-18.940287 -23.852257 146.65631
-14.573241 -7.4299059 146.66396
-16.903515 -8.1784668 146.74478
7.4827037 -24.472479 146.89635
17.798532 -15.893553 146.84949
10.434829 -10.607388 146.96748
-16.585005 -24.478575 147.07156
9.0196161 -23.839531 147.03656
-26.12237 -20.519115 147.11613
2.1272223 -25.153549 147.2916
16.070038 -14.366446 147.31943
-27.946955 -17.690397 147.51628
-26.463259 -12.641919 147.66547
-10.262386 -26.50576 147.74355
5.2865591 -24.442562 147.80243
-27.862162 -16.072605 147.89624
14.40994 -13.287201 147.88675
-15.619531 -23.846796 147.9511
12.533245 -21.826931 147.90245
4.2043676 -9.2495432 147.95691
-27.754997 -15.720836 148.02489
15.224369 -14.527452 148.06165
-0.94138086 -8.4813213 148.08272
-2.1852777 -28.359219 148.17227
-26.711975 -15.092829 148.70219
5.0920229 -10.49653 148.80406
-9.46521 -8.9691992 148.91562
-23.0898 -12.434507 149.17166
7.085681 -11.307165 149.12627
-6.4319105 -30.267246 149.22641
-16.429968 -22.439163 149.27666
6.1050506 -11.265624 149.23288
1.5262551 -24.491966 149.34077
4.8092899 -22.985136 149.42061
9.7112532 -21.046099 149.63757
2.8461342 -23.418402 149.74416
-5.1769085 -33.231712 149.80695
-4.4853024 -33.501835 149.9162
-17.770741 -21.309618 149.98126
-22.638908 -13.575676 149.90186
-11.840347 -25.67662 150.12698
-4.0514894 -30.841459 150.45798
4.8719234 -21.923473 150.49091
-20.605358 -12.94215 150.47157
-11.579677 -26.634293 150.66637
-7.0888472 -10.733131 150.60919
-16.566479 -20.970058 150.71188
-7.4482937 -35.50914 150.97192
-15.861457 -20.846003 150.92902
-3.4857283 -30.305157 151.00912
-8.7746267 -29.435488 151.07599
-20.251846 -13.753965 151.02669
-14.557981 -12.215573 151.01891
-7.8444982 -11.189947 151.00934
-2.4404414 -33.197071 151.21234
-20.859959 -16.613998 151.32324
-19.757164 -14.941533 151.36111
-9.0190525 -11.820877 151.53319
-2.1818771 -31.930569 151.69762
-12.982334 -22.177195 151.66957
4.6731873 -19.767088 151.61691
-7.222074 -35.833691 151.70003
6.9957047 -18.239109 151.72598
-2.1043408 -30.907747 152.02557
1.8524339 -21.815939 152.04134
-15.968061 -16.449743 152.46216
-16.081026 -15.84554 152.55936
-15.594702 -15.308347 152.76624
-1.8549325 -13.530306 152.71283
-1.4928575 -30.001331 152.8559
-1.3703347 -13.732704 152.84125
1.2906516 -14.509885 152.90817
1.4511925 -14.557722 152.90582
-10.738486 -14.673876 153.13934
