# .PCD v0.7 - Point Cloud Data file format
VERSION 0.7
FIELDS x y z
SIZE 4 4 4
TYPE F F F
COUNT 1 1 1
WIDTH 1549
HEIGHT 1
VIEWPOINT 0 0 0 1 0 0 0
POINTS 1549
DATA ascii
16.902077 -17.036806 156.44186
47.189381 -6.1382675 -15.856219
-10.969254 -21.403343 62.965015
-35.673172 -19.868193 10.243016
8.9089775 8.9525585 166.9053
48.561096 -8.4635859 161.69092
54.44828 -21.039772 7.8488312
-22.071453 9.400754 192.2058
38.27195 -28.044886 147.15279
-19.707367 -32.841217 -30.575314
37.676048 2.1273477 211.6458
26.138189 -18.390789 229.41644
28.974737 -23.897593 145.94565
18.085037 -20.225836 222.25171
6.6495972 -21.658867 67.020355
-26.266008 12.674072 -8.923398
-3.5386486 -19.763056 215.10475
36.270008 15.196102 152.93611
10.820339 -4.6924391 104.62811
42.631901 -14.711373 209.95947
6.3604422 12.255081 174.57811
40.477627 -30.431515 32.936398
36.132526 0.8519783 172.61908
-36.104095 -6.432128 23.692877
33.819069 -0.89452863 211.90749
4.5778742 11.392708 156.31314
-26.018486 -1.4315274 -16.831024
7.6477594 -17.964251 288.02505
53.188976 6.0577822 38.59341
-20.661249 -19.330454 214.74294
17.00359 10.053457 97.226303
35.604103 -15.819456 215.19331
-49.510429 13.105108 188.20132
-23.615538 -15.710741 148.9259
-35.745483 -8.5839634 28.785145
5.8039379 -22.095165 128.11862
14.982224 -0.44013679 289.06573
-19.596081 -31.928469 68.896217
-4.0884171 -28.163145 193.22183
45.231026 8.8281088 163.37051
14.683857 -9.15308 152.01608
2.4055114 -12.988252 85.153084
31.847918 -20.465672 199.73325
-6.8731108 9.25916 196.64352
31.467106 -0.52367115 159.72705
39.554871 -30.512756 41.276932
-14.712271 14.087877 198.64917
-0.62320089 7.2532988 155.16556
42.940834 -11.72475 12.628004
11.286428 -27.025932 106.63515
49.056442 11.302926 43.617371
14.481588 -9.2749062 146.3259
-18.746365 7.4044733 141.48824
-6.6355543 12.774803 126.81076
-12.303288 13.394865 117.7793
1.4393388 13.271172 139.48689
-20.273245 6.8364439 131.4631
10.724956 4.6682868 158.12599
-22.508009 10.520717 69.650024
-9.4724741 -22.658051 145.63885
-9.5365124 -16.844387 188.20859
6.999608 3.2697012 284.89001
-6.7454643 -2.0362959 287.35565
2.9403768 -4.2173343 9.8853016
-9.4793282 11.300097 152.65553
-23.19446 -23.317759 124.57188
9.0934582 10.924314 111.73489
-20.489201 -11.596947 126.56876
31.157576 -30.479576 35.520618
12.209381 15.106434 120.21498
-27.329382 -20.735157 -30.678085
-18.816963 -3.8481376 155.48206
0.60793686 -30.434505 79.165825
-13.337273 9.9755707 9.580739
-15.958506 -19.759348 144.76572
24.3988 -30.661942 107.43929
-25.881731 -24.282475 89.175713
9.0728626 -0.71807313 136.65704
-6.69768 -21.239443 64.29129
-23.434982 5.8667979 173.55748
-18.949224 16.394711 -22.185486
-1.7320538 -25.748964 172.77014
-16.125828 -17.725952 196.78638
29.110462 -14.970631 120.77831
-24.808226 -8.5554295 -3.1560264
-2.839848 12.46394 186.35011
10.22574 21.315697 177.39243
-33.601837 5.5583272 228.04706
22.114632 -1.382265 238.55481
31.603306 5.8683062 238.2637
-5.1071806 16.554014 169.5043
16.016487 -15.117617 40.670574
22.136625 -9.0738468 50.66716
17.967825 -20.995432 262.53952
51.415489 -9.0349483 109.64363
-23.625074 13.591457 -26.86327
0.49099427 -23.097073 11.688114
50.031101 -5.131125 199.19514
42.063255 -17.301668 177.64282
12.495557 -19.724239 101.30899
-22.758736 -23.898602 168.2316
32.735111 17.052334 111.09936
29.086718 -27.771233 166.39203
-3.5984616 14.247942 115.08267
12.601402 -5.4795699 92.44651
-0.24154416 -14.641308 65.195595
19.575165 3.6004508 263.64075
-5.6293516 12.301624 40.985779
-14.733824 8.8953686 1.577127
-37.358307 -20.650072 -10.664478
-6.1965413 -0.40329358 14.860946
-19.970316 -18.643551 155.04506
53.560131 4.6271853 201.68028
30.352558 -9.3460732 166.47656
53.815605 -2.3027463 69.533264
28.947258 15.537912 25.61911
13.022628 -22.717014 159.86592
-14.56201 4.9722385 -21.492088
-12.096964 6.2208238 196.22195
-26.14596 -0.038034171 -20.889557
-7.0473123 -10.239163 287.5347
7.572854 -14.533916 52.143612
15.470779 11.901473 147.01598
-22.63493 5.0543113 -19.761509
36.030418 -20.23415 18.086277
32.306068 -31.091402 96.490448
4.5217156 -8.3059711 104.42146
34.247543 16.465528 -14.898355
-14.339347 9.6609192 -20.145613
41.473122 6.3811398 -24.767693
14.236764 7.0908504 107.59113
33.300148 -15.277435 15.940201
-7.5643206 -21.630524 152.69646
16.989506 -23.167156 89.871704
13.78674 -6.6213427 59.380707
39.044353 2.1762633 22.448853
-23.543457 -10.13793 154.09564
-26.950338 -32.235737 -15.474518
18.901375 -11.26703 -13.506775
17.689732 -29.540848 169.81772
33.260349 -24.656628 160.55081
30.501175 7.5766039 122.43391
27.937485 -14.533318 159.48044
38.611656 -29.326727 108.63712
26.311157 1.8354362 79.917465
12.769694 -32.380772 131.16026
13.667551 -21.958389 206.04984
14.447652 11.027005 166.14926
-9.4538803 14.144943 67.171127
31.87262 5.6759958 225.09712
28.892433 -11.600641 -35.52314
-10.470857 -32.832188 8.0145063
-14.636887 2.1520076 -20.58053
34.188702 16.528231 134.84457
-4.803062 -10.146858 238.22099
28.469719 -5.0348835 -18.540789
-17.185913 1.2592604 143.42274
-14.715134 -20.353355 68.686554
-9.0039473 -31.053547 -9.3771248
28.218203 6.0689678 167.03101
26.727043 -3.1064134 -21.593239
3.8756952 3.4593456 44.860287
-1.7973452 -27.251822 18.592121
46.225002 -22.15777 120.17331
16.736828 -6.0379038 74.712242
34.202156 -15.506542 189.06467
38.462078 7.9304419 195.99463
-10.418125 16.264471 172.71262
32.324665 -25.566401 73.282013
36.755074 7.2375007 198.97298
20.247881 -1.6086363 258.84152
34.98201 17.201923 51.064346
-20.342026 -13.550725 127.99353
34.837662 -20.971916 214.16032
-25.862755 7.4068608 -18.234957
0.33985138 10.063292 122.57292
18.063726 6.1137123 42.456753
11.22265 -11.680326 158.59593
-18.245453 -18.419039 -38.028927
-30.081535 1.791478 -45.532898
29.431044 -26.267609 79.156654
40.80262 7.1687922 -6.8570309
-4.3699436 -24.661989 167.09033
35.396194 -30.299995 116.92361
41.354073 9.1896267 191.17802
19.37339 11.910673 182.71875
14.441216 -8.4567814 120.1251
32.632832 -19.916592 11.000512
13.142891 7.2550721 125.22038
13.213561 -8.7240753 239.78101
4.6078534 13.832222 206.59207
33.390499 6.8252554 146.09645
-34.027397 -5.523922 44.701172
10.81565 -16.927458 158.64153
32.004856 -0.60892874 -38.012478
11.684635 15.414953 211.5365
-0.44936252 5.7410259 106.66575
16.387163 -1.2896717 25.698561
42.406525 7.5095758 178.41367
-4.5617704 -23.235325 109.20407
30.539577 0.11385012 152.92407
17.013693 -17.985495 43.597797
-26.514481 3.2632198 -22.191814
6.4240294 11.304048 162.53351
-24.314966 -9.3021059 31.747189
-19.960684 -27.68483 -20.886574
3.3056955 14.271881 198.2794
-14.99339 6.2592468 -36.708595
-6.6798806 -30.139513 -1.9942808
-34.98035 -2.0168276 227.36789
-10.171344 -32.913452 14.234916
27.590292 6.6751928 153.87109
38.229176 -22.412849 61.830887
-28.420847 -29.862976 9.3640423
26.569672 -22.728497 138.11705
23.823832 -28.752485 80.793175
-7.5126104 -22.677094 197.05852
34.419125 -20.569695 104.85477
11.471514 -2.6849885 158.56793
0.8001039 -23.742718 113.2048
-4.3571825 13.656558 198.54388
30.504667 6.665391 167.03101
-17.199163 -20.309244 162.63657
-19.226105 -26.498016 141.20653
17.847015 -26.225054 90.798332
60.148712 -1.2510484 -20.370983
37.259373 -15.022286 -13.730042
6.6682744 9.9591856 132.70317
0.48423022 -22.243198 292.69012
16.457169 -12.3412 70.944496
30.05941 13.709567 159.6476
10.324086 -25.7188 129.70963
-22.67576 -0.12648094 147.43143
26.960154 8.984705 177.5033
45.485661 -0.53976244 -8.4199581
-6.4579153 18.337305 200.6776
40.185604 -11.598118 176.15271
7.9981794 15.704338 138.35654
56.009163 -10.975857 -19.288719
-26.783377 -4.3783765 148.77481
-14.834606 14.019323 -4.5190763
-17.124464 -19.551462 68.220764
4.9573555 -24.177954 151.09868
-7.8381667 14.091291 77.231216
30.522951 -1.7525265 158.91672
48.862301 14.80917 -19.551685
-16.53434 -30.879978 119.48734
36.847122 2.3450208 184.93439
24.890579 -2.3817647 288.2962
41.87146 -13.207296 196.39481
-28.806398 -9.8789091 -17.744453
4.6429911 -16.506504 228.87231
26.356247 -22.034836 21.093189
30.782145 10.015884 130.73576
-31.651199 -16.092695 -29.42168
22.35214 -26.380968 99.249779
10.87916 1.682062 108.3558
40.554264 -17.969099 167.28149
27.036385 -16.080839 282.29935
3.0574737 5.1853895 246.55084
13.512437 -10.90079 65.496635
-11.259963 -32.341339 -32.256683
8.7714729 -9.7049904 132.85675
-10.123857 6.6399994 236.92465
-1.5450929 -33.092442 116.86107
15.264905 -29.977596 186.45119
24.325741 -9.091609 -5.6395774
25.360405 -2.4616296 -21.700806
-5.6977634 0.45549059 34.806507
-31.231472 -6.5601997 222.34453
-19.113642 10.80407 169.00441
-7.6450067 -33.925381 109.91884
-25.894894 2.0682869 9.1204605
-3.5150244 14.71004 130.0103
-8.9836292 12.448978 203.79468
11.462911 -23.711161 129.43216
-5.7988086 -22.143589 153.15829
4.1121721 -19.075336 98.136047
-8.3622818 14.38133 108.18309
39.440037 -11.809534 72.862
37.932327 -11.119181 192.53996
23.795496 -19.476782 235.57339
33.611683 -21.83662 169.46088
43.459347 15.287488 42.981495
3.9624453 -0.37382078 29.128529
32.288105 9.1546154 -28.52198
-21.753811 -23.760456 136.11958
-2.139343 -1.6132705 260.31741
-8.3665648 11.927407 119.36571
36.790268 11.826253 181.61578
-22.250137 -23.007412 169.2796
21.05117 11.373119 176.45518
37.851826 4.8894944 19.304356
3.2633257 4.9279251 166.96951
42.516129 -52.013981 -27.913643
-17.041933 -17.439156 155.59148
26.719414 -26.810551 226.40237
-26.960838 -16.000183 142.15393
12.703382 -20.697941 100.42554
-19.961044 -5.2346454 153.60283
20.038538 -5.9084873 166.66203
16.628994 -15.318289 148.30331
-14.484452 0.056135654 -38.038971
-1.2626094 11.467187 167.88203
4.2652488 14.091553 118.59077
-9.2278099 4.6832914 66.544205
35.643131 10.690827 226.31744
-23.701385 6.6517739 17.114523
-10.11542 -18.134119 -31.641699
37.938778 14.158988 154.81551
-27.285774 6.1270285 65.207375
-25.26572 5.7571702 6.6093183
38.664524 -14.356461 -16.648685
42.016117 16.985258 -14.528942
-31.623039 11.797144 211.21631
34.582294 -1.9379587 166.7934
-14.012244 7.9625006 109.42999
-15.654218 10.817196 2.3197391
16.029009 -25.899345 87.754776
27.762005 0.55996853 -21.534996
25.850857 9.4989204 191.54669
-20.044451 6.7062731 -35.456406
9.3912153 -17.991568 81.321419
0.36429673 -21.01354 217.59251
5.7734623 -31.619606 154.60123
44.897636 -12.213286 -27.192368
9.9606133 7.1272697 277.8273
-5.9708624 13.546988 69.589165
28.927814 6.773685 -10.355278
26.10799 -16.7724 281.1163
41.678593 -12.88917 178.02979
38.317192 -6.7852316 112.33967
-30.257126 -15.947697 -19.731623
-8.3953381 13.818209 51.392456
-23.553745 4.5684023 113.40152
32.001419 17.309258 73.875809
-15.64068 -18.647095 236.15114
-17.750418 4.5182471 100.09775
9.4850464 14.64817 194.34694
47.10849 15.097572 -4.1456466
32.767906 5.0366902 164.95358
12.839304 -5.0379438 113.25476
4.7721057 3.8983328 57.257633
21.030483 -27.109661 69.245567
23.873964 -17.1828 268.22916
17.29336 -26.937681 105.79459
40.02597 -8.575983 167.23839
-25.893438 -11.435513 131.72668
5.1586614 12.891862 177.59622
-28.190735 -10.69351 108.6449
26.800241 -17.192505 -21.587479
11.274657 -21.858969 116.29903
-28.849567 11.571356 -15.541266
3.2640853 -23.281004 94.391548
28.637344 2.8271093 -26.02725
15.621999 0.75722557 46.029263
39.692314 -5.4764438 152.42029
1.349947 13.602076 147.10103
25.746782 -22.031912 167.03101
25.248999 9.8682356 119.77805
6.2049241 -21.981829 189.68288
59.617714 -10.360895 -13.168185
-23.090446 -11.373557 48.135128
26.724558 -28.023813 53.123314
8.9470663 4.1260624 160.06841
14.788364 -17.120598 71.250954
-19.642282 10.418131 6.4424596
39.070858 2.1491785 217.58516
16.827015 -24.722296 76.186722
20.149572 6.2843266 12.995049
43.110546 -3.970176 150.01093
-11.288889 7.1914539 -9.5137501
-17.687355 -16.053988 214.92633
35.874763 17.455082 166.89937
49.957371 -3.7951548 198.112
13.38207 -14.709324 112.67786
25.065752 -21.9771 167.03101
15.314533 -1.0489107 144.18881
-8.2948828 -22.847191 92.004143
12.068716 21.206099 176.58791
57.002831 6.1068106 -18.257835
55.644917 -17.552631 19.127312
51.513306 -3.0242453 199.30054
17.267218 -32.045448 140.14159
-16.014101 -19.063808 199.69766
21.209051 -18.913404 266.0405
24.637939 -3.1127069 277.97147
-0.40257275 -27.844591 39.187969
-2.217936 12.010307 180.37828
-12.822402 9.5872021 142.38406
35.54335 0.95029223 237.54883
-20.792473 -8.6182899 224.44482
9.1197395 -18.965694 81.504234
33.177799 0.94246244 118.36121
47.803173 -1.9073488 -18.822746
-19.470978 -18.45071 50.131821
-0.27600461 -9.6538248 256.3111
10.957275 -30.297192 208.92993
0.43861991 -21.497349 166.88054
-13.548018 -20.72205 177.90842
57.607433 -9.2947454 17.600891
-15.495387 8.9237318 229.99371
-3.6552744 1.6878583 273.3327
-26.9165 6.5312757 -23.034925
9.8594818 4.6067753 160.05716
-1.4961945 -29.125017 40.995708
6.59235 14.32833 205.32503
27.312685 17.234331 158.98933
-17.466013 -9.0597715 216.42068
27.355267 -26.041443 159.61732
42.597198 6.5368004 181.30006
4.3826256 -22.876125 50.803131
49.603638 9.1666126 59.458633
26.206991 17.150051 129.94394
48.42466 -17.181652 -41.225231
51.565624 -23.578653 25.423708
-24.633228 -20.549377 157.09354
-21.48102 8.933548 225.05783
49.01329 -15.988001 124.32254
19.902031 -8.730669 159.83505
-33.022762 12.095083 206.69557
36.590546 17.017796 60.104187
13.206944 -25.918453 122.68588
-1.6054497 15.834715 165.66484
-4.15346 -3.2060454 284.64194
-15.429034 -11.200526 21.89006
-7.1152987 10.394859 -4.8090892
30.40452 1.1349024 140.6741
12.60385 7.4980741 135.29973
-10.259912 5.1033316 31.928583
15.674232 12.489109 180.4921
-30.470467 -11.306854 -19.707695
-19.385042 -20.214539 153.17783
40.323944 -19.033607 180.02307
51.01017 0.43442136 104.414
-5.8405209 -23.516512 -22.470406
3.2959588 -23.696733 166.82672
-22.154568 -14.942902 42.155117
33.766117 -3.7844949 209.45169
30.611029 7.5179634 129.49188
45.080647 -23.591999 121.38104
21.371611 1.4026272 145.95602
17.463552 -25.782604 117.11114
33.561871 4.4697342 167.94016
7.9257746 -24.875715 90.821762
-16.720957 -11.563224 188.06967
49.602901 17.431787 -21.643169
12.262897 -10.431093 98.287415
30.174686 18.809212 163.99985
5.6901855 0.7078855 51.780064
45.90416 2.2214766 153.95461
43.414692 20.592535 -22.276487
24.356293 11.238899 193.51187
2.9677391 -0.155141 293.83609
32.214573 11.256443 159.78787
-11.556051 -33.079426 7.5093327
-5.9489751 8.2346315 102.0651
-20.92522 -12.808345 -44.289963
37.281494 -16.917612 169.31499
19.986229 -29.227684 155.15469
46.950264 -1.6315809 -19.585463
56.978691 0.46445245 15.844709
31.728432 16.183828 3.9322624
29.713516 -15.442318 233.23834
-13.554433 4.8356571 227.53682
22.480066 2.8383098 154.28937
55.64135 -5.2536421 49.703106
42.073418 3.5363312 -37.901382
17.096249 -25.972387 111.15524
56.005417 2.7858105 17.042055
51.157028 7.776412 196.1358
-27.61529 -18.913797 157.95891
-7.2746305 -7.3095698 167.4283
-26.23151 -14.699578 -23.954683
7.215858 -16.304382 247.36954
-18.651108 -2.6323109 161.93942
-26.292126 5.1800156 -25.046204
21.13962 11.77185 61.066628
-13.28617 9.8309727 140.99393
38.389214 -3.277318 160.57578
0.77079391 -4.6731124 249.42851
-27.258329 9.7120848 29.274132
20.894314 -25.538239 50.730614
9.1763992 9.76229 137.50562
-4.0060601 -21.836378 225.83582
-7.8241663 -31.10445 3.8192024
2.6530149 -17.897278 10.996317
32.080532 4.3033438 123.21106
40.466476 1.1150341 16.051392
-26.473373 0.012996197 -20.156048
-35.186676 -12.220063 34.676971
12.332003 -5.5892034 81.272156
-8.3804455 -13.62351 284.36816
48.29882 3.9683156 124.005
42.46566 5.3389225 190.64888
-40.72139 3.1820824 224.56784
24.265827 -17.710161 20.549551
33.559464 8.4851065 234.3107
27.328102 -19.225227 163.72101
-17.127954 -14.863313 238.73026
28.228939 10.229374 159.80946
1.1860921 12.155678 206.38991
15.629019 -6.4394255 29.646587
-33.484558 0.92686766 230.5457
-5.2764888 -12.618893 274.89215
-18.974041 -3.443526 153.69482
25.268341 -0.10589695 68.290222
-22.570103 -6.3482571 159.89584
17.942358 -0.25346947 7.1884346
16.015203 -19.821798 69.743797
38.992523 3.8618603 196.3791
-7.5144138 0.30139446 -18.13331
25.955055 14.93095 54.132179
3.755373 -10.283182 9.7694683
-22.342974 -0.033267975 41.877075
36.761566 -11.013685 203.84793
-19.663839 2.8970027 60.384201
25.106075 -13.362822 239.22099
-14.249173 -16.22016 9.1094122
-20.285357 -28.244225 115.28313
48.93964 -6.5719123 204.72954
34.423557 -23.502935 159.96823
12.61904 -3.1464391 77.248543
19.246922 15.447472 166.78363
-10.764587 -34.022259 65.337151
-26.417498 7.6280708 -34.153488
0.95987988 -30.803883 89.601761
-7.9698095 -19.443699 221.96231
45.359707 -8.0168457 -20.981255
-9.3545618 -16.859737 186.70135
-24.432835 2.3590226 20.042431
55.943356 -9.6810274 41.925327
32.680893 17.126616 98.634773
25.301746 -23.886833 206.43579
8.4520092 16.776083 160.91582
-14.132786 4.4226665 198.66095
0.48852715 20.365705 218.29047
-8.489995 -8.3295383 167.03101
-23.075642 -6.8280697 230.64639
55.570137 0.71480429 177.9928
41.091595 -12.246485 170.22548
15.778519 -9.9179659 29.486137
-27.803053 4.5494556 202.32869
34.320923 -26.927036 -42.962898
-20.453707 -1.0567231 106.40245
-12.462482 -24.44499 208.55728
-1.1801357 -29.035416 43.358803
-22.680874 -5.9235277 78.941483
58.27494 -19.235001 -20.211655
6.3039804 -21.310059 127.78868
36.645573 0.015860319 -37.954987
-37.47554 1.5123706 186.85349
15.327225 11.024956 164.11925
24.714939 -0.4686434 266.82028
-10.366107 -0.91023022 -21.85141
35.927376 -10.127055 192.68906
10.052259 -0.58247584 122.73079
-13.188309 9.4431353 20.019354
-14.774433 -33.777855 6.3197422
-10.874797 14.170164 55.56781
27.913849 -19.3883 8.8457413
17.712067 -25.237062 103.17955
26.028328 9.4166546 208.11113
-25.312134 -7.5151367 -3.971833
34.640709 -2.234612 112.08585
46.333496 -20.702091 161.89986
39.795269 -11.440164 195.47243
-37.587578 14.901472 206.76245
11.50149 -13.007228 104.2912
-10.20349 10.254944 172.98605
42.110359 -29.68626 47.372112
-8.0850048 3.1722503 63.60907
43.994602 -9.9863148 167.56209
25.280399 13.052623 215.16846
-28.489275 -3.3517852 -20.169037
19.768595 -1.0402696 81.098427
15.108853 -27.97748 100.97808
24.873434 -10.365061 -15.519011
-21.700289 -25.02492 161.88266
-16.57795 4.6676745 224.52182
28.131659 -25.596182 95.714798
3.3430078 -13.388062 235.84001
-27.241848 3.9839113 -5.6711802
-31.048479 -0.73197961 62.275673
42.517616 -4.7733641 183.08768
-7.4084463 -0.40845728 -14.989223
-27.13578 17.048401 -22.457958
-26.707115 -22.227127 -29.547993
-28.790108 -17.995453 150.93088
20.462849 -22.958145 36.070007
21.310331 15.273269 131.9342
-26.417 -25.010115 77.981346
10.784207 -25.938782 122.92471
35.691402 12.667524 188.56772
3.2996402 -4.635251 13.161913
26.444983 -31.192701 143.34662
5.3074951 -20.429653 295.8736
-17.286636 -2.490428 166.79794
-17.578114 -31.557514 99.447601
-26.593456 3.9210253 -23.007906
42.181068 -36.040623 -42.717682
-15.006269 3.8843923 238.16913
18.104195 -13.89764 234.56375
21.624315 -25.39201 122.6388
-16.572653 14.270777 8.9729061
-2.5940771 2.4799764 160.14517
17.10614 6.8356643 277.08563
-20.239296 -8.9600935 162.60901
3.9313107 6.7736559 70.769836
-33.164097 -16.297462 48.670238
-47.80957 16.419931 192.96576
-12.088826 17.808933 169.54482
26.423443 -27.970524 46.366066
26.76263 -23.867222 184.06705
26.038914 16.950075 138.6682
3.4781582 -21.612106 199.96448
-23.603945 17.985085 -22.722637
24.955149 -30.640348 159.24594
4.8867292 -37.487778 278.58228
30.204464 -25.196926 223.99008
22.923637 -25.678652 -25.365726
58.554417 -21.020809 -21.813288
29.558687 -12.767363 -33.429054
-21.588676 -15.020237 146.8606
34.154243 6.9301124 4.0489569
49.117302 -22.072474 78.022041
16.725857 -5.3159523 131.89517
38.729137 -4.8584008 209.78868
-26.564528 3.4398975 -12.048164
-1.2875627 -15.934736 281.72583
44.269764 -11.98874 -0.14853287
8.3248796 -12.470525 58.65086
-17.81609 9.7181482 227.06396
-22.582243 -25.319288 115.44583
-0.15146232 14.993749 130.62509
-49.715042 4.1050887 213.27176
-11.180054 14.198029 55.892155
15.410974 12.991642 184.51952
-7.0149708 -32.758827 42.587349
-22.17063 -8.9246531 155.8327
49.045841 9.2609034 219.69305
54.175194 -5.651154 71.781395
13.988632 14.462683 115.63572
-29.281927 -10.708484 97.312927
27.429615 -30.590807 166.40242
-40.352585 -8.6007862 -18.727467
-18.994705 -33.712242 18.702185
42.815422 -23.460148 156.89801
-26.334272 -5.2233415 124.47015
-10.965006 -33.370506 121.37385
-9.3163471 12.794437 15.387997
-20.20138 -17.086485 -20.37591
8.4656944 -22.122208 206.88412
3.6927769 -26.859303 141.57861
24.297956 -9.9713373 5.0618062
47.556244 -23.504608 85.955139
29.796974 17.31525 106.95527
-13.248583 -4.6714454 -32.776058
-3.0401201 -10.606479 43.707954
-19.880201 -15.839918 159.99228
-9.4006834 -33.020981 27.211765
6.1080027 11.234121 143.70479
-35.156731 -5.1340208 32.715946
9.9821835 -16.298422 148.07716
33.251583 -30.915142 50.986729
-18.876953 1.4692533 197.36256
29.856777 11.428859 205.58607
19.58798 -26.259712 94.573334
10.343719 1.3242664 126.7794
-22.49515 -14.767149 25.864983
29.000443 -21.805775 130.30566
-6.856637 1.6546319 61.086292
41.902805 8.6556015 179.29051
55.009708 1.7490737 38.208626
39.767708 -27.263672 145.37866
13.907946 16.23436 147.28195
25.453285 9.6832151 223.06183
43.039448 -15.001981 27.802073
-38.375626 -0.95747596 -13.184662
-19.409868 -17.656776 43.241341
-16.599213 11.501632 -20.715866
42.372986 0.4760325 165.40221
20.06329 4.7254953 0.88691521
9.8762112 4.5312877 262.87708
-41.597244 4.540422 222.61044
-22.87788 -22.941885 129.89523
-26.274605 -3.6087811 120.7663
-17.556627 -18.344955 120.46558
5.1624184 -21.917093 197.3495
16.742571 -31.921404 124.44798
10.851295 -23.124973 115.00287
-3.8604047 12.763205 127.46634
35.79488 1.0412177 195.74377
17.141043 10.04797 95.107918
38.719906 -9.9778957 114.1963
51.403 -4.2360005 110.04844
48.870422 -0.50817394 -19.850506
-27.85672 7.058156 -20.000883
-15.170736 11.173509 133.93147
16.582521 -10.245932 297.25204
-41.639282 11.034361 219.75183
-20.31546 -12.75593 121.4838
36.198456 -31.327593 -29.603836
10.391507 1.7903728 128.11694
-3.4260828 -25.689535 191.94312
-23.682213 -22.485146 123.5172
18.536716 -18.099174 61.103905
-9.1782961 8.0429897 235.32796
49.115479 12.758964 15.393833
12.647519 0.033885121 121.16739
-32.221626 -22.589157 34.31015
-28.671202 8.2893753 29.228054
-9.580616 -16.711439 23.037998
28.664818 -27.981861 142.03577
-18.092844 10.920914 2.1235337
-13.72687 9.1661968 -14.078101
3.7266006 -0.91604519 290.63931
19.359703 -14.138232 -13.258278
-24.2132 -9.5406504 154.62926
-11.967988 -13.272694 231.45477
-6.6915207 -22.631407 86.682358
40.198189 17.037052 3.1735749
-18.344566 -13.107027 155.35782
-14.037713 -3.1143179 238.23346
54.418774 8.1099949 186.84566
48.230717 -15.804579 164.18793
-11.881822 -8.4038506 167.96448
-25.259779 -9.4567766 -43.767948
-20.334812 -16.561039 71.543869
-14.102814 9.4705296 -15.418022
4.4002309 -19.347546 101.13099
49.349464 8.2114763 73.74791
7.5664077 -23.273882 269.05136
0.19049489 -17.723782 -15.133326
-16.759306 -16.552588 -45.098087
24.142841 -8.9597197 8.2164459
29.517832 -11.112104 131.6037
30.304718 -27.403214 43.433083
30.383831 2.3395143 134.8506
-29.431667 -10.46738 95.603607
28.410435 -27.60766 124.7937
-6.3673096 14.40154 160.51033
-11.294731 -33.769753 91.514542
54.641285 -33.203522 -37.974869
-17.692877 11.459461 210.06264
-25.806158 -23.727053 149.60008
42.646786 -35.377632 -22.850349
-3.7416315 -4.252584 167.03099
20.205791 -25.48111 136.10414
48.154434 8.5040016 88.244675
-13.275436 13.535312 101.18764
20.099646 -25.047039 116.17109
-18.445396 -17.861919 97.883018
10.595664 -24.855263 127.32174
-3.4500518 7.5940542 150.7585
14.776903 1.663106 150.36902
-29.171152 -8.6459818 219.13753
-13.405107 5.9770966 -11.981203
29.913738 -3.1990957 -10.406411
25.335258 1.4968472 159.27563
-14.822599 6.4901381 35.036045
33.654285 12.198693 218.97079
-23.408777 -17.563557 147.715
31.225315 -12.526953 20.235825
54.763237 -15.817543 39.816246
-25.595108 -5.4667382 -17.020367
23.700233 -27.063065 79.90126
14.915638 -12.152757 81.471497
37.838879 -28.10638 151.9678
-4.0603638 11.035519 240.22099
-34.376404 1.2514718 201.88235
11.350593 2.7101607 117.93422
3.7520974 5.1342196 56.220249
-28.515064 -18.63496 89.993156
-40.539539 -0.88019502 208.16403
16.639359 3.72088 43.954643
28.801386 -26.969542 146.72362
-12.638381 4.3078289 56.967342
-5.7274933 13.498103 70.85656
45.525463 3.4792318 -20.303436
-14.361797 8.4604712 -2.7495701
-25.982304 -11.938322 144.73798
-37.92556 -2.6821461 -3.1875768
-0.64601886 -5.143764 256.93317
-10.990541 12.728542 148.84467
41.23056 9.184145 197.11429
-34.238235 9.93647 223.04121
-22.813723 -6.3406525 161.77029
17.988789 -22.47472 67.679489
33.842194 -1.7899657 208.25931
-21.411039 -11.398706 89.473267
-5.6354756 18.934372 183.5705
42.252533 -4.4387579 186.91763
-35.600288 -15.049535 25.500551
-26.697458 -12.46013 162.18356
31.689877 -23.527102 -38.032299
30.855749 -30.754864 57.881348
-29.923801 2.6858537 58.552448
-39.320564 15.122969 205.39835
2.7912591 -20.371201 292.95502
28.909115 -27.538822 155.57243
-19.395222 2.0940356 114.25925
42.706631 8.277422 185.67345
-19.360241 -24.139935 -38.027824
-29.320177 -0.12054773 232.83484
34.955322 -30.013149 142.32011
-9.9293222 3.6048138 40.35078
30.183102 8.5977135 123.39962
-10.36503 -33.766846 101.54221
-15.528996 10.604502 140.6501
36.227913 -3.1477833 -20.84548
-2.0009692 10.912709 55.181183
-0.18843985 -33.756618 142.05688
-2.4593904 -18.713985 224.26486
-9.1039667 4.9306965 24.828255
-14.18177 -2.6225228 238.28766
-2.4892051 14.798758 131.13799
16.804825 -2.8991399 288.99481
3.0910375 -22.479237 163.72099
-19.198418 7.4150581 208.29504
17.301947 -9.7533455 239.78101
-19.216555 -6.2193236 164.73064
-16.130531 11.022681 126.72334
-20.946941 -6.3746467 154.74771
-3.5830145 -19.970524 283.7381
25.416245 -28.069838 46.96442
16.154343 -29.817394 186.20541
-21.086145 8.1481533 22.13007
28.143684 17.156687 192.03571
-23.452206 10.597722 58.423035
10.10411 13.154655 181.57986
24.111084 -3.8592882 -3.4343696
-41.969936 12.177539 194.6241
28.217459 -28.805155 117.29208
10.17419 -0.10489535 239.78101
46.962959 10.098576 88.347137
-19.295343 -18.474667 157.57245
45.978264 -6.8417063 200.77185
-12.689895 -14.790733 198.57083
-29.107807 10.212219 211.11295
-10.410504 7.2737026 226.12224
32.678085 -30.811325 123.6064
17.477098 9.7876406 159.96918
41.72422 16.288994 31.906626
16.342604 9.6726522 101.44996
-20.619511 -5.6837153 147.15964
1.0407262 15.094488 131.17523
22.105421 7.2548981 -7.6689978
40.549606 14.361406 163.46344
-15.857466 3.1911049 203.61526
51.857365 -4.1947656 145.77499
-27.372757 -24.708145 -31.581095
26.916296 -29.671394 68.708084
15.274637 -8.5019073 158.14136
32.560337 1.3976148 87.165215
47.245926 9.2839565 -19.978365
-15.069069 11.282135 2.0483828
-4.3657227 -30.312626 278.38531
24.995426 16.868587 148.78276
-12.07585 -20.826963 216.78912
44.431087 -8.3503742 158.36861
27.66024 3.1708508 159.45863
-6.2221713 9.5609064 174.44186
22.64793 10.610853 21.700447
25.122795 -15.591475 -21.7195
8.9701586 6.8910022 286.00842
16.923437 -20.719004 73.436714
-22.562361 -7.8041315 93.515144
-21.177607 4.9032416 168.97614
-24.706726 -27.344952 77.688766
-15.175632 -33.084728 84.988358
37.181549 2.2572021 175.6572
29.383827 -0.049587488 36.873768
2.5032501 11.563208 160.4783
48.33411 -3.8225508 -21.96191
-27.81205 -24.266687 69.234879
-12.770808 -12.676881 233.42368
42.474907 10.715132 148.10077
34.398922 -27.438427 166.77858
-45.620964 0.77260268 212.74274
33.291267 -31.056547 98.395874
-13.569871 -13.018261 167.03101
6.7839847 -3.1345265 239.78099
-4.355948 11.588284 219.10062
44.30788 -14.077816 118.10223
-2.6064134 16.517021 222.58409
22.322309 -29.847235 143.28445
6.1955671 -23.989231 159.15974
10.955915 19.980301 165.67209
18.589573 13.402871 118.08018
-1.0036628 -6.1434636 166.97821
32.25045 1.6691346 99.158958
-4.1405191 -12.261333 34.78331
-45.699066 11.88862 182.80936
-13.240059 13.258585 -13.410235
-22.540737 -7.1991892 107.63898
-17.606144 -1.2903879 164.16664
26.119314 -0.33944416 286.39017
-24.664772 -20.459009 155.38554
2.8448596 20.927074 154.02261
42.153175 7.9320841 198.21124
-26.244957 -24.11939 86.66256
19.299976 6.2849998 25.597858
-12.264595 -20.868256 186.75523
-17.728151 -33.08284 58.507072
-1.5902739 12.81072 204.67418
-43.779526 4.9995537 219.84979
24.994801 -1.2085862 -21.032036
43.297791 8.545166 159.80151
19.155949 -30.35998 100.89268
36.65675 6.3492975 179.85229
25.503613 -31.000179 117.88783
-7.2854395 -30.696072 1.9246693
24.097689 -6.3776994 166.59401
18.129044 10.436213 86.144501
4.121789 -24.407198 119.43706
34.598465 3.7295241 194.56967
-4.9301934 14.52573 135.10909
47.829956 0.80685222 153.3611
46.51313 -19.450638 160.95531
-21.522858 -30.83024 68.294815
26.169243 9.3513317 179.40912
12.110371 -23.44426 106.28191
-13.423555 -17.648983 26.394096
24.672489 -25.369884 173.47058
23.693825 -27.981468 195.82217
-15.596659 -15.587559 183.80304
-12.028886 15.676713 210.70747
45.924255 1.8655474 -15.588624
-13.652268 -19.540043 42.952816
-46.377068 1.0466725 203.97931
47.127506 5.687912 130.75191
17.385427 16.540392 150.43665
9.2253752 -2.1000612 294.94165
-27.481915 9.862442 25.403191
-8.365778 8.585515 167.03101
-28.108084 -21.143463 83.338158
12.044071 -12.433859 159.93973
-26.013683 -4.9587111 -15.323714
25.356808 -37.35405 -34.06472
33.71257 -1.1148388 100.1888
48.803482 -2.7268918 144.88876
14.290772 8.2661438 145.25797
-6.88938 -3.6460075 160.57115
13.316515 5.0780096 103.94872
-25.966564 -29.910841 34.241318
-24.096674 -34.213699 -31.779802
6.1753845 3.2359822 284.56122
-15.789701 -20.096767 72.684998
5.0838351 -3.8760726 111.51534
-24.909584 -22.423191 166.27609
-11.922992 -43.313435 -40.376286
8.8173485 4.2383657 116.46302
-12.435128 -20.850712 216.5663
-29.325218 0.25531396 164.60173
-32.876495 3.9698145 20.115902
-14.956267 4.3333902 66.953911
17.789629 -27.076469 136.57819
36.272121 2.590642 213.61836
41.249725 13.203396 -20.450279
-17.900558 -7.7323222 236.14151
-44.386322 -0.5594185 197.14075
42.657089 -17.258816 -26.01804
41.049557 -15.299223 -10.591063
-14.569609 16.953543 -23.494371
10.099251 -3.0432997 85.080963
3.8652897 16.34676 167.38124
29.457115 -16.16501 -31.382446
-18.438496 -18.934752 60.501534
35.419174 -3.9841254 119.84186
-22.698702 -1.7982252 236.23734
30.16995 -22.58802 -21.32225
32.097904 15.897478 -11.704589
33.240849 4.6318908 -6.3796263
9.312583 15.715301 155.30206
42.722504 -23.98488 150.59167
-22.86834 -40.410454 -29.859219
35.673981 -10.202856 196.64828
-26.162857 -31.476217 11.543741
51.450325 6.3916941 -19.647449
31.485565 -0.75884628 166.5405
11.201035 -11.451537 105.59097
27.678867 8.6515446 215.9256
-0.69460773 11.649172 174.96133
-38.03339 0.82362676 -15.120849
29.881933 -28.051685 55.793228
11.975706 16.051632 142.21722
19.529495 -16.356647 249.70604
5.9255524 -26.195061 172.83493
-25.981747 -24.570004 143.01822
8.4609089 7.986187 242.45706
-8.6410723 14.264248 90.591766
-2.0737889 -24.399078 -7.1130724
-39.675285 1.1451929 -21.299725
17.986403 -3.0788689 123.38953
-18.545757 -4.6362901 183.25629
21.769539 -14.537802 159.77206
-28.666286 1.9943147 75.795303
15.724339 -5.0026994 251.2471
-13.4885 -19.02442 220.87645
-20.935238 -16.027447 147.96814
51.510101 0.40688401 202.04765
4.5780663 -4.2626734 105.66566
-15.351973 -12.857934 -21.735081
-18.178505 -9.1369858 235.20943
43.821995 -27.778578 71.81739
-8.5945568 6.955647 85.575745
16.795803 -31.961426 128.50293
35.360603 2.1032882 193.2917
52.50235 0.95757997 80.273796
11.151461 -21.747026 112.04588
25.589298 -25.410006 35.37645
-28.208717 -12.395293 -34.135887
-34.720188 4.9395041 -4.8978515
45.145508 -31.192965 -20.690058
-35.693882 -6.1200752 174.82323
33.73872 -12.0841 236.09305
14.838955 -0.13908267 98.057602
19.841442 -1.1645882 151.86629
-24.476223 -13.89759 -4.3477168
-37.85918 -1.7516119 223.95758
-0.30748585 -0.54143536 81.139389
16.575045 -14.454651 157.99506
16.560535 10.699013 113.24476
-36.228207 5.914546 172.95857
8.7229767 -27.019457 125.54602
-13.610249 -6.1811104 168.1658
-4.5904326 -5.5485005 29.770632
-35.55899 13.444206 202.72879
23.501001 11.326901 223.34079
20.429932 -20.438387 8.8033295
14.752902 -26.063057 279.5665
49.746834 -25.401051 25.702488
48.475029 -13.126361 -19.881617
17.349627 -27.316139 147.60385
39.246273 2.1930025 218.6844
-23.152971 -33.060024 2.7125044
47.942474 1.4982226 144.54404
-17.612682 -6.1181278 168.63162
38.37553 -11.145258 194.8374
-18.422617 -3.6905506 184.72171
-20.023964 -12.697119 113.73003
1.1995237 15.024994 145.16402
44.290718 3.1936619 -24.542629
-21.126114 -0.94090992 213.35406
-31.312878 0.082896218 57.0144
-5.190012 -30.138994 13.481351
-14.431538 -9.3371706 -16.713703
49.217812 -26.778725 13.370628
-21.743446 2.8395846 214.58377
7.7307453 -3.4610658 60.399529
1.4866414 5.2818699 275.61847
38.779167 -3.5376284 160.32368
-21.254288 -16.083843 34.282028
-19.914097 10.480682 187.82339
40.346748 8.1672287 -2.2941797
13.066429 0.69737673 128.40045
-24.285477 1.5505718 124.00545
-31.040104 -9.1984901 78.081169
-23.582096 -31.003294 -37.358067
-32.016632 -10.172321 68.549194
38.558434 -11.038349 156.12952
42.541161 6.4161615 -13.309174
24.802296 18.611996 225.91635
14.299486 -9.055171 49.298771
39.719902 -28.23003 120.84834
32.952305 -18.521576 202.24405
-48.862453 9.6970692 208.95827
38.783604 -22.191069 34.838245
-9.8860636 -33.615353 49.621605
-4.2676139 -19.817581 278.14828
29.524103 -28.282795 48.851593
44.416946 -26.205704 92.945
-3.3366935 8.7029715 12.137484
10.482868 15.893297 135.70425
-19.666826 0.75749516 106.19691
48.083073 -26.523108 33.93882
40.408813 2.5771422 13.442407
15.002709 14.261553 205.39403
38.527409 10.580042 196.69116
21.953352 -16.360985 167.03101
36.111359 -4.1167789 58.27877
-26.141953 5.2629128 82.309937
35.419079 -24.869699 66.671982
-24.628109 6.4638748 90.033707
41.729477 13.34484 113.9024
17.724545 -25.313568 89.360527
-10.278999 16.650154 197.79291
-15.673994 6.5696797 189.13745
44.195755 -11.621852 -24.160473
17.959509 2.5891912 19.413004
44.953079 -7.5039492 164.13742
-41.784687 7.5596504 220.39133
1.0843837 -13.359063 74.691803
12.896996 -21.058012 128.32799
14.194074 -20.794476 158.39888
-17.107437 13.486825 -23.402702
-5.7415814 -14.142246 236.15631
16.784031 11.522662 175.5238
19.307976 -2.7794821 76.639191
41.597622 16.92317 2.7664316
36.32954 -53.641777 -29.416332
1.6431109 5.4226484 275.99835
-7.0836692 -9.6936712 -3.4287307
-11.368107 6.675859 165.29124
-7.1207066 -13.51272 282.49268
33.242714 -15.104418 3.9825013
-28.487022 -4.2716656 -2.0235682
-18.830563 13.345425 52.220921
40.502655 15.489024 79.414673
7.5666418 4.5970516 91.709999
36.622391 -39.401825 -25.087173
28.692661 1.496623 166.56502
18.986013 -31.924801 144.24692
20.932096 5.8453779 -2.377213
-24.402472 -7.3983541 44.431889
27.330101 3.0567908 -21.545776
-14.255314 9.9993076 -20.953873
29.437447 9.2675533 116.22227
-15.228512 -12.379883 -44.195282
-13.779999 -20.625647 67.246201
33.730854 1.7737743 138.90007
-25.481163 -12.884915 2.719461
34.190048 0.25090599 135.01227
-14.289699 -7.0790796 161.43195
24.38998 -3.838068 262.79736
-23.05879 -15.260705 136.24532
24.953094 -3.1321125 276.13593
-20.365137 -11.195327 152.967
13.436253 -2.146667 66.034325
-9.3833704 -33.963287 87.093575
-23.779202 0.011156559 -20.458267
-41.869205 -2.2488868 171.13887
8.0269508 11.517555 169.48192
42.067471 5.7450361 -1.8534431
35.883503 4.4391375 224.89824
19.594187 14.71104 142.69366
-9.4305038 -11.389845 -17.968657
-10.098542 15.039844 165.48222
-19.955133 -10.699669 214.25256
34.9725 1.954457 187.72133
-22.154619 -3.1066718 59.299877
16.046751 -31.938114 119.90205
-14.753095 -13.004721 204.23894
5.6256924 5.9185209 160.12694
16.819014 9.2126818 87.650101
25.788849 10.733982 192.18669
-17.615376 4.2557712 42.344475
-19.332104 2.5280201 80.569626
-5.328701 8.8768215 -6.2724771
-30.185495 -11.200535 88.233658
43.09713 11.436998 129.4586
26.152473 13.020696 159.34012
5.9199862 -28.955858 155.45345
4.3581247 6.0580397 69.668045
46.079304 8.9164257 114.47026
-38.098595 -3.9869897 -0.96164703
-27.536396 6.2370715 202.79277
-35.533669 -13.998767 28.004269
-22.26453 -15.362481 30.763859
33.051586 16.449154 154.61037
47.621162 -22.248409 98.694183
-21.822062 6.6460481 117.3243
15.986477 -25.693653 121.56407
37.319408 -6.332881 52.448792
16.863722 -12.693996 235.66504
40.384148 9.9747362 218.35381
43.704712 -11.772685 5.6112957
42.037743 -6.2060213 22.947023
-9.360158 -22.197336 167.03101
6.7634406 11.288311 158.61537
9.3530807 -23.642073 208.48534
-31.69696 -6.5524387 69.575409
22.869904 3.4909225 152.82632
32.441399 -26.015179 153.61478
9.3784857 -19.890129 120.62805
37.857235 -11.897065 167.59973
-21.141474 5.3283687 219.33498
8.0961351 1.3593425 124.15176
-36.847923 -15.524931 11.713619
9.0894775 -8.075285 129.8075
-4.3069029 10.093798 143.51599
-4.8932514 -33.800865 154.14468
9.14645 -30.362123 193.85437
24.73074 -16.234266 16.060072
-33.512711 -16.529158 -19.36644
-26.137081 -3.613852 -16.731339
17.50758 -3.9745476 4.0184264
9.1806068 -20.463301 254.91789
-19.504417 -36.774117 -44.131699
-19.099697 -1.188145 158.80377
-9.6686764 -16.039062 -22.041018
49.1157 -19.832909 97.279724
31.685562 5.1311898 122.02133
35.205181 -31.006941 155.74908
19.246706 9.9766569 115.38776
13.461452 -12.757953 289.6983
-20.947371 -33.049191 25.916433
37.251835 15.877385 113.34377
24.533966 -13.563908 291.20383
-15.028189 -19.992405 57.939453
18.826504 13.683541 127.23204
21.495838 -15.121519 37.614197
17.171143 -25.477404 115.71431
-9.1453199 -26.211563 152.925
-9.6478405 6.2803431 -35.033779
-38.404629 4.8586984 -21.279119
23.861628 -28.015692 64.189758
-9.62533 11.713456 210.69016
7.4239678 -6.5201006 56.230564
14.175379 -26.608044 179.84352
-23.565569 -31.929436 27.613827
15.46207 -19.671558 77.017296
30.872978 -5.3985305 166.21165
20.128687 10.903878 172.29404
0.92053401 -7.4663563 -19.018007
-22.394638 5.043395 -20.09856
-19.961416 -15.71792 148.50816
45.885708 -22.255978 124.36061
2.165844 -21.365143 198.79758
21.201469 -27.302139 153.01208
36.479668 -6.1414909 73.38797
-12.461652 8.2640257 148.05977
-17.778839 -16.248707 184.35983
30.197803 -29.23967 4.1883616
49.84774 2.0720649 160.40375
23.836922 5.5109048 98.679214
-17.71834 9.6275034 162.84059
30.950562 16.948629 156.08241
49.746078 -16.591509 110.80873
17.646976 -14.652765 64.469627
11.784826 -9.224431 86.99884
-28.921125 -0.12681425 82.520264
19.390465 10.825864 230.93161
-33.50013 -5.9371576 50.443562
30.780457 -13.88661 167.03101
-18.899296 10.968163 205.17845
17.859274 -8.1358757 155.87317
39.966385 -19.351986 209.97011
25.589891 -1.184302 280.50363
7.2274923 -33.089424 146.60895
44.461422 -22.066597 147.10504
-20.212851 13.44321 33.337055
21.245728 15.749638 145.33762
0.67637527 11.820936 136.39053
-27.648268 11.021075 7.0422535
-46.041611 8.7618799 179.60878
59.826599 -3.4435606 -16.792679
38.910744 -20.968773 -20.634336
19.387348 3.3407679 1.5416718
35.786865 -30.89156 9.1840448
28.223255 9.6982651 125.07274
-14.43709 -13.371683 211.61371
30.372841 -20.604471 140.71867
30.593323 -30.82663 74.591133
-0.76889491 2.0070877 289.07834
43.53429 -26.598162 100.28464
24.077927 -3.4150801 -2.9655204
36.756489 -1.7230282 -37.953888
-23.30262 -22.777899 126.19222
18.818653 -26.897337 72.119949
8.4157982 9.591176 239.08478
4.8038077 12.836575 213.80266
3.2555943 15.265237 140.71552
14.649291 -2.2189322 47.983318
49.040367 6.5409865 96.731071
1.7588845 -4.7264919 81.059883
-23.129694 -21.001261 165.76299
26.783924 -27.409069 78.912521
37.460949 -11.208879 176.18921
17.232677 1.8174405 158.63814
24.448696 -13.807943 15.882962
-30.974411 -29.510147 -12.520771
-7.2584767 4.5270734 76.006546
36.238369 -1.3626393 149.61063
-0.30742025 -1.3386617 -19.437893
17.350283 -10.519135 7.6564579
7.0450649 -5.1071687 239.78101
40.796883 13.32193 128.1604
-5.5141521 11.219955 214.28152
-23.36199 -14.448608 171.25259
49.133549 -12.61807 162.87381
17.224289 -10.868843 64.223816
35.813061 -4.0562406 137.27762
18.651455 -14.862302 57.506325
17.401558 12.46738 186.80948
42.69936 11.655347 167.45604
-17.612934 11.513628 102.3073
36.584206 -0.20469272 34.469826
-12.039377 10.60368 161.17
28.030418 -13.375368 240.72099
42.494301 -9.1555557 111.6523
-26.65657 -23.232359 89.248863
23.393007 -23.218353 -4.5094929
-41.893856 -0.53727806 168.81546
53.2929 6.9228554 179.85605
28.2561 -15.586848 277.03604
24.989704 7.0366659 104.87032
51.098427 -24.833317 13.976654
-21.755342 -11.821788 186.78584
-21.146442 2.3375051 184.84708
3.1080856 20.837528 170.81403
7.7055268 -26.44581 218.97101
18.088867 -22.246525 218.37383
-18.534107 -29.131235 166.98247
9.7245636 -9.2436962 117.59351
-3.1458001 -31.895401 278.56357
5.8343015 -31.291506 116.35647
-38.893482 -3.3175926 -11.287992
26.919182 -23.628153 112.27525
54.135265 8.343401 185.45828
15.660627 -25.79808 144.13409
-26.949863 -20.961506 -26.296463
-38.660221 -18.519859 -14.952555
-28.946024 -1.2800789 -8.1245861
27.481482 -20.382126 167.03101
-13.072556 10.121772 124.13634
32.637592 16.734541 26.65852
15.235681 -15.054112 133.00699
49.651009 3.1730561 108.86731
6.4322505 -21.470768 138.47791
-40.3964 -0.26426458 187.6584
21.380066 9.758091 28.010639
17.104813 -11.994291 149.60419
23.505932 0.63585424 -21.846743
-1.5162572 -22.185572 80.807243
20.33865 -22.907841 37.357391
-32.299286 -4.9050722 62.145878
21.55039 4.910347 95.759697
-18.671444 -16.944712 100.80733
-18.236319 10.350697 116.47462
13.574157 8.2314148 123.95482
-24.999071 -18.067965 159.68091
7.9660549 -19.197899 141.49261
-24.482273 -25.460876 153.57556
-4.9992514 -5.8912854 282.11316
42.146442 10.896131 196.64621
28.424702 -21.330517 232.13834
0.23372459 -18.799015 281.45175
25.101616 -27.524858 204.83258
1.2772331 -29.65403 144.54042
3.5520949 -4.81499 166.91676
12.492412 -23.400072 103.55054
39.630901 18.292963 -21.159618
17.386185 1.5432159 294.94467
31.359831 -24.681278 152.22128
-2.155951 -28.25013 25.136623
-13.531689 10.198713 -44.358589
7.2582264 -4.7677746 55.288235
50.190231 -2.8301854 124.58089
44.43013 22.615355 -23.50383
46.732231 -27.427414 37.838863
-2.6184626 -14.163601 281.44675
-5.6230764 7.3664494 151.55249
43.90163 -0.5508337 -19.4785
-30.337936 -3.9194725 -22.853565
11.51952 15.233384 121.29446
49.488655 -9.4507399 -27.017605
34.902905 -17.916166 174.34735
-5.8532691 -16.223181 -22.468971
35.403603 3.3019443 197.0408
12.895905 -7.9267569 111.93323
-25.239393 -9.9679832 138.85989
-24.791851 2.2045834 205.20068
15.219506 -2.6552966 138.35864
-14.219429 -18.516987 34.780876
7.9290776 -20.733799 260.09225
43.854698 0.34979177 157.77902
-24.928499 -9.914465 141.9583
-6.4110603 -35.603432 160.5152
-37.542942 -18.249397 -18.914383
-34.999851 -10.561355 37.789383
27.614216 -9.5531597 284.45148
28.139988 -12.385727 159.49638
-15.702116 3.3192425 176.9511
-27.083172 -7.9619169 2.2481253
44.626678 -5.2299061 197.38147
31.612211 -19.61528 153.32358
29.698711 -25.437515 89.505615
29.989376 -20.157219 -28.830006
7.1264534 9.5318432 131.82562
-30.560295 -6.499733 -19.697624
18.698423 6.9082332 39.86953
17.811995 3.1332316 23.98838
-4.3178129 7.3629417 -10.40798
14.234426 8.5014143 238.06544
-5.0708914 14.587924 233.27612
11.670345 -11.723258 94.827187
-14.178318 4.6434731 69.050186
-20.774452 -22.951939 147.80789
-17.241629 -15.10528 175.78076
3.7272725 -10.684812 95.854454
21.224207 -26.903326 159.71057
51.334633 13.788033 -20.188118
-4.1335239 11.879252 45.771236
46.866783 -50.901726 -34.773205
13.052795 -28.321211 92.282104
-3.7730381 -28.240353 156.16742
30.369936 3.7773762 128.57181
-13.001963 -14.255181 191.09258
9.7449055 -30.278793 99.576416
30.625963 15.922352 200.45651
-24.233456 3.8955812 110.39663
-12.634779 13.762533 97.350723
23.168173 10.875759 172.54086
52.902412 -15.53305 68.655464
-13.818922 14.616825 222.78206
49.277649 -7.6507654 167.58331
9.8909788 6.2965431 129.02036
-1.8198038 14.241227 113.90752
-14.640912 12.730943 110.86008
11.043806 -25.477055 120.34237
15.780185 -16.122269 50.379257
43.67831 9.8980131 -19.823402
16.678345 13.950888 206.08957
40.160175 -29.218563 -29.330568
33.733513 -1.1473508 91.364212
14.261071 15.232982 119.86519
39.501472 -17.688631 59.300667
44.089035 -43.036701 -25.447868
33.303726 -18.903605 224.87915
2.1150119 -28.877001 75.977425
-19.056744 -10.892157 182.34576
-7.1205506 -13.036232 -3.5514312
0.21056771 -25.934338 137.97804
32.306538 12.606727 166.6076
35.380386 -30.370827 112.50101
6.0412164 -21.191341 114.52314
-27.40811 11.478139 1.1512661
-3.4000392 14.515371 152.12617
41.566566 -7.7640772 -41.363182
39.588066 10.45706 -39.717827
-9.2389355 -21.830132 199.1965
-18.012854 -26.192461 156.18127
55.603256 -2.5189979 -19.320648
-6.4945335 11.189327 176.17885
30.800543 16.339525 27.926353
14.607651 -32.19593 130.5387
41.711014 10.406152 197.56612
-42.432369 7.0908813 219.88013
-26.038666 -21.312819 160.80739
-30.854649 -22.185387 50.270107
34.032616 -30.105541 149.92639
9.3362179 15.139277 205.74423
2.3711557 -33.613853 151.48206
-7.6108346 -6.9171543 -18.865519
-11.543385 11.235347 167.03101
54.129559 -5.2002401 71.987366
-2.3395004 15.814461 160.29497
37.426701 -30.600439 167.05173
21.994026 -28.501696 169.4472
-22.382168 -33.704578 -15.544374
18.017843 10.983718 158.38481
30.209444 5.0104923 103.02272
19.234577 -13.555099 158.79544
18.739901 10.866833 83.3936
-6.1859384 10.245712 2.8821197
37.114933 0.91800725 31.024273
-12.340131 2.1987257 -10.791101
-3.7963936 3.2551038 167.03101
-22.420052 2.65481 166.5327
-23.225433 -19.480751 -38.024376
4.4386463 -13.154148 102.75203
6.2381191 -30.189175 168.40965
8.0631161 -33.104195 155.19464
-23.034975 -16.542606 153.52603
12.715618 -32.574932 148.11647
5.1087074 12.88876 198.64607
14.378972 8.1434231 118.19792
10.650247 -15.822263 165.02457
35.766785 -13.95372 183.36127
-17.376192 4.3301506 -24.11805
48.595551 -6.1299534 184.25861
-5.5966063 -30.882862 22.905518
-12.755797 -1.2534115 -18.853237
19.264645 -13.641216 -24.909504
57.07127 -16.702806 1.709156
39.493141 -3.827256 185.69617
44.828518 -5.4631329 181.75739
-14.118762 9.7740898 -7.4487286
-23.2586 -17.04603 158.97327
2.6561837 -18.251984 86.489151
-19.505219 -19.601576 209.37186
56.39896 4.8352551 -1.4508202
4.0040674 -24.450499 201.16698
-19.867352 -13.068785 117.15559
33.718048 -30.257355 144.60898
12.558464 3.326319 250.42004
-7.7720833 14.369823 112.8734
37.280739 -29.371923 170.54628
18.577557 -13.511209 -3.1996918
47.047272 -29.863428 -23.783539
-4.4145932 14.091084 112.78859
5.1952639 -18.157957 250.08751
36.08596 -17.164076 -2.8688841
-9.7876282 -14.33761 -29.273565
-29.428261 6.6875257 37.841454
24.366753 -24.554749 116.1078
30.266222 -7.3081317 -33.718151
50.722145 -6.0247593 122.64233
4.5234227 -7.661479 104.53646
34.78817 10.299079 -22.433147
-13.595015 -17.726654 -24.202007
-15.119476 -29.65873 -29.758448
10.18564 -11.251354 113.25465
53.99033 0.99755234 199.92314
-24.884607 -15.552801 168.85017
28.114328 -23.18751 25.816935
1.5524631 2.9180043 166.98508
-20.971603 1.6939447 157.58366
-12.077577 -20.038115 -35.655025
35.441971 -15.358523 180.29263
24.970583 -7.7099628 -18.285931
32.536373 11.73419 212.31453
27.004189 -27.134176 81.061172
-19.663868 13.36915 42.463856
-7.6017962 2.248013 -22.272835
-14.128047 -20.166246 51.45813
29.744507 14.647892 137.48303
-9.062664 7.8957548 234.22092
15.404085 -29.545925 96.12529
29.248255 -2.2466962 57.079414
5.1123719 -33.188057 137.08511
-4.3688264 -23.448191 204.94711
-9.0008068 -22.773594 136.99094
9.6676731 15.837371 137.67336
33.968475 0.8598181 207.29001
-52.521393 7.5161176 208.82454
19.857458 -2.8165979 74.924973
29.043133 6.8908405 111.58159
22.722084 -22.142338 35.047707
36.369537 -20.249226 84.103142
25.529833 -29.7992 93.961739
-20.83218 10.234039 207.91087
-39.558197 3.6863241 225.49744
19.144758 -0.94126487 -13.658902
0.40323389 7.5030437 39.744907
3.7746441 -25.112103 124.42245
-11.72146 -14.700727 229.06711
35.115463 4.7645922 154.08974
-23.11632 3.9211233 121.85361
-20.642263 -17.299082 153.85843
54.129745 -1.8681154 160.78671
36.651558 -3.3032045 150.42108
8.085825 -15.231842 159.98492
-17.385145 -17.827507 235.45236
-51.954967 5.6310916 210.46283
27.392498 -16.737263 283.57156
20.451122 8.0391035 23.594244
