# .PCD v0.7 - Point Cloud Data file format
VERSION 0.7
FIELDS x y z
SIZE 4 4 4
TYPE F F F
COUNT 1 1 1
WIDTH 1611
HEIGHT 1
VIEWPOINT 0 0 0 1 0 0 0
POINTS 1611
DATA ascii
22.986151 15.775 3.9605792
19.019875 15.008699 4.0536404
22.118818 15.607428 4.1084704
22.854853 15.749655 4.1173444
23.293995 15.834508 4.1548591
21.09709 15.410022 4.2084217
21.106529 15.411845 4.2043447
22.95303 15.768633 4.2500095
23.295214 15.834749 4.2278233
22.992483 15.776266 4.3771343
17.504435 14.715909 4.4340277
19.792877 15.158041 4.4878092
22.738907 15.727282 4.5385313
22.190838 15.621395 4.6967249
16.710634 14.562541 4.8048439
18.656834 14.938566 4.8573856
20.501942 15.295078 4.8798113
22.949774 15.768045 4.8160777
22.069866 15.598031 4.9018803
19.548759 15.110911 5.0370073
18.887775 14.983195 5.1640153
19.593153 15.119486 5.1328316
22.443386 15.670193 5.1423082
16.678474 14.556314 5.2848058
20.303747 15.25678 5.2515483
23.048767 15.78716 5.2036114
18.120342 14.8349 5.3514585
18.770878 14.960594 5.3546047
21.754711 15.537115 5.383481
19.901098 15.178956 5.4976935
17.532482 14.721298 5.5328131
20.736706 15.340405 5.5821848
23.112661 15.799491 5.5395441
21.94632 15.574126 5.7168889
20.514656 15.297499 5.8493528
20.634882 15.320735 5.9453907
17.738852 14.761147 6.099227
17.911974 14.794597 6.0009856
19.94425 15.187293 6.1899676
21.84758 15.555065 6.1104488
20.331184 15.26206 6.2531853
21.443659 15.477019 6.2324705
21.719732 15.530363 6.2021718
18.478516 14.904077 6.3901577
20.333162 15.262444 6.356822
20.752123 15.343398 6.3184128
18.221189 14.854357 6.5203657
19.758223 15.151354 6.5691528
22.116663 15.607071 6.6404948
18.624714 14.932333 6.7225161
18.949875 14.995164 6.7585106
22.546383 15.690096 6.8886161
22.87805 15.754178 6.9094019
17.307842 14.677885 7.0988994
18.459816 14.90048 7.1942368
20.294962 15.255079 7.1878948
20.550488 15.304455 7.1658564
18.485516 14.905447 7.2067499
19.878691 15.174646 7.2982688
20.881767 15.368467 7.2005181
22.361151 15.654303 7.2285604
22.485638 15.678332 7.396564
19.228037 15.048927 7.467576
19.559174 15.112911 7.4250312
21.604164 15.508011 7.692029
23.431013 15.86094 7.6286421
17.937653 14.799599 7.8842974
19.380636 15.078421 7.8777757
21.027294 15.396547 7.8793678
22.672249 15.714344 7.8215122
23.291843 15.834053 7.8043399
20.963924 15.384292 7.9721661
20.626127 15.319034 8.0060549
20.019213 15.201773 8.1455202
23.682981 15.909629 8.1320372
19.745689 15.148927 8.2070932
20.425461 15.280256 8.2305899
21.426294 15.473623 8.259841
21.662947 15.519346 8.2542439
22.918468 15.761921 8.2401428
17.809767 14.774897 8.3260984
19.227966 15.048894 8.3964558
20.190395 15.23484 8.3314857
20.343872 15.264494 8.336689
21.146284 15.419527 8.4578571
21.381958 15.465059 8.4168825
22.004148 15.585272 8.480464
20.666071 15.326748 8.5814009
17.597746 14.733934 8.6407051
18.288479 14.867382 8.6464367
21.040457 15.399081 8.6153765
21.20941 15.431725 8.615221
21.800175 15.545868 8.8868084
22.294413 15.641356 8.8544521
23.077522 15.792659 8.8754539
23.108488 15.798642 8.9059753
22.065083 15.597052 9.1826515
23.519712 15.878097 9.1824722
22.38764 15.659373 9.2251549
22.580435 15.696621 9.4982834
22.525806 15.686068 9.5541515
17.563217 14.727255 9.6548042
17.868382 14.786215 9.7076092
18.988363 15.002605 9.7001934
23.795826 15.931446 9.7443876
17.446882 14.704778 9.8356953
22.694765 15.718709 9.9959412
19.854729 15.169992 10.057796
23.207014 15.817679 10.146285
20.924824 15.37674 10.229794
21.668842 15.520492 10.226462
21.54327 15.49623 10.47105
21.950958 15.574998 10.468324
22.265169 15.635706 10.495874
18.064009 14.824009 10.555775
21.226484 15.435023 10.56917
22.089289 15.601724 10.53532
23.193798 15.815129 10.544479
23.524717 15.879069 10.554984
18.210699 14.85235 10.648342
20.263477 15.248962 10.670295
22.561161 15.692892 10.690923
18.999107 15.004675 10.70849
18.029678 14.817375 10.893427
22.219727 15.626925 10.802883
22.916431 15.761538 10.820307
23.634192 15.900225 10.844513
22.81249 15.741455 10.967968
18.853195 14.976483 11.077774
21.572947 15.50196 11.059253
17.563459 14.727297 11.170568
19.302481 15.063289 11.299937
23.590836 15.891851 11.203713
18.484468 14.905242 11.300074
19.07308 15.018965 11.409489
19.170372 15.037764 11.445304
23.921619 15.955767 11.417902
19.749521 15.14966 11.516834
23.505249 15.875317 11.541582
17.710417 14.755687 11.829669
22.41466 15.664593 11.820604
19.226625 15.04863 11.97443
20.89793 15.371538 11.92666
23.273537 15.830547 11.960497
20.902164 15.372356 12.012327
24.113003 15.992753 12.044106
23.253578 15.826693 12.12055
18.373898 14.883875 12.28323
18.591427 14.925903 12.284819
19.270988 15.057199 12.287514
20.479225 15.29064 12.261686
22.280796 15.638732 12.237034
18.495235 14.907317 12.47064
20.566126 15.307429 12.408208
23.988373 15.968674 12.424417
23.547968 15.883581 12.586178
21.208775 15.431598 12.625478
22.535751 15.687998 12.669413
18.933302 14.991955 12.84026
20.973467 15.386133 12.887402
18.641201 14.935516 12.936672
22.311327 15.644637 12.970963
22.582253 15.696985 12.980091
19.437666 15.0894 13.010059
20.685814 15.330554 13.016726
22.240147 15.630884 13.030739
22.883057 15.75511 13.01799
23.448095 15.864286 13.098147
18.983818 15.001713 13.119959
22.136837 15.610924 13.174248
24.337564 16.036152 13.132167
21.916695 15.568388 13.219163
17.937618 14.799578 13.353919
19.521425 15.105581 13.377134
20.685402 15.330477 13.321741
19.560703 15.113169 13.507719
21.578299 15.503006 13.550251
21.609035 15.508945 13.589733
21.215124 15.432835 13.659259
21.586426 15.504578 13.617027
21.240225 15.437684 13.741976
18.6189 14.931204 13.814704
20.085415 15.214551 13.848868
20.898016 15.371563 13.863412
20.276045 15.251387 13.900435
19.682869 15.136772 14.061025
21.688347 15.524275 14.076309
17.789526 14.770962 14.182195
21.167789 15.423695 14.34749
23.873323 15.946467 14.307635
24.199949 16.009581 14.317945
21.774996 15.541021 14.462158
22.341278 15.650438 14.415192
18.668077 14.940702 14.51903
19.097172 15.023608 14.55374
20.071983 15.211962 14.529329
22.117151 15.607134 14.552485
20.591267 15.3123 14.659073
20.642452 15.322191 14.68903
18.723982 14.951503 14.729487
21.674503 15.521608 14.737
22.14665 15.612841 14.758075
23.53018 15.880171 14.776496
17.859715 14.784519 14.889228
18.113281 14.833511 14.815366
20.354477 15.266548 14.821413
21.076626 15.406087 14.90872
22.655905 15.711243 14.929098
18.101614 14.831255 15.027514
20.179012 15.232651 15.175253
21.383259 15.465339 15.187798
23.024837 15.782519 15.199276
20.352314 15.266138 15.237071
20.84717 15.361755 15.254986
22.637428 15.707664 15.254375
23.571276 15.888099 15.267891
20.153784 15.227779 15.378284
21.049883 15.400919 15.391201
21.404697 15.469477 15.353196
23.610489 15.895672 15.439554
18.959358 14.996989 15.521844
18.608505 14.929195 15.670362
19.509869 15.103356 15.609221
20.677753 15.32901 15.674171
18.121115 14.835025 15.885771
21.278816 15.445143 15.816
23.38854 15.852777 15.807594
18.0602 14.823259 15.971738
18.259079 14.861685 15.968945
20.221207 15.240791 15.99389
21.808596 15.547503 15.939054
23.944633 15.960221 15.963642
19.530674 15.107372 16.083969
19.494358 15.100357 16.107698
19.870649 15.173062 16.189362
23.096931 15.796427 16.115456
19.881575 15.175176 16.242598
21.904591 15.566044 16.369497
23.31776 15.839088 16.357815
19.446419 15.091106 16.410208
19.935568 15.185613 16.417919
18.288765 14.867443 16.559172
18.965687 14.998231 16.55378
19.956656 15.189693 16.559998
20.026031 15.203096 16.522678
23.846138 15.941175 16.581413
19.208965 15.045238 16.662148
22.486164 15.678419 16.623352
18.565741 14.92097 16.875706
20.601198 15.314235 16.82869
23.082581 15.793659 16.853979
21.317699 15.452674 16.939377
19.420744 15.086173 17.136581
24.108948 15.991961 17.186754
24.681414 16.102564 17.191912
18.506176 14.909476 17.247051
19.754154 15.150595 17.296322
19.289516 15.060825 17.392879
21.444332 15.477146 17.37587
18.509743 14.910171 17.491373
19.732891 15.146488 17.412992
21.11755 15.414012 17.476734
22.172813 15.617893 17.475271
23.655952 15.904442 17.415514
19.865814 15.172171 17.587744
22.61124 15.7026 17.508318
23.213898 15.819036 17.54973
23.711508 15.915177 17.523907
20.08226 15.213989 17.62228
18.373613 14.88386 17.751152
24.897364 16.144291 17.705788
20.552509 15.304847 17.942719
21.829189 15.551508 17.996988
20.07058 15.211738 18.080015
21.028988 15.396906 18.060036
21.89344 15.563923 18.058838
21.923841 15.569797 18.038467
18.722313 14.951227 18.23357
19.271666 15.057378 18.324013
23.442217 15.863158 18.364058
20.779526 15.348713 18.490139
23.83997 15.940005 18.427702
19.162333 15.036243 18.578388
25.15451 16.193983 18.579403
21.401266 15.468839 18.678808
18.608398 14.929201 18.783167
24.284681 16.025928 18.738108
18.528257 14.913712 18.887035
20.791225 15.350977 18.893482
22.995489 15.776852 18.878325
24.14123 15.998215 18.828304
20.854366 15.363178 18.973465
24.743496 16.114576 18.988892
19.531986 15.10766 19.057529
19.606674 15.122093 19.064358
23.881603 15.948055 19.02314
24.022535 15.975285 19.084137
20.036575 15.205162 19.144684
20.085499 15.214612 19.288027
21.085657 15.407867 19.277269
22.151344 15.613762 19.226376
24.132124 15.996459 19.254461
24.942911 16.153107 19.252121
19.185461 15.040692 19.353083
19.568077 15.114628 19.340969
22.694099 15.718626 19.370129
23.430691 15.860939 19.388624
23.457451 15.866112 19.472485
18.581511 14.923982 19.656197
19.240345 15.051291 19.619081
21.657459 15.518347 19.658112
22.255344 15.633862 19.67218
23.850773 15.942104 19.631508
19.628729 15.126336 19.768459
21.066607 15.404181 19.761986
23.796766 15.931671 19.70224
18.295666 14.868751 19.85998
19.38483 15.079203 19.866142
20.132668 15.223712 19.816044
22.361515 15.654375 19.87711
23.86499 15.944855 19.885002
20.564753 15.307199 20.036263
21.052179 15.401386 20.040379
21.466866 15.481514 20.166998
25.27153 16.216608 20.102264
20.590242 15.31212 20.205597
24.787376 16.123068 20.313194
25.267313 16.215796 20.34465
24.94117 16.152782 20.455303
21.538227 15.495295 20.512329
24.996809 16.163534 20.550089
18.15254 14.841096 20.609301
20.446154 15.28427 20.748215
21.008446 15.392916 20.761002
21.326088 15.454294 20.772049
19.022028 15.009098 20.832329
24.517967 16.071022 20.831341
18.20993 14.852186 20.989033
18.858154 14.977434 20.947903
21.387493 15.466157 20.9121
18.825848 14.971193 21.070797
19.167315 15.037171 21.094198
20.593847 15.312807 21.096331
24.739328 16.113792 21.081783
19.103182 15.02478 21.101208
24.791857 16.123941 21.118805
18.230556 14.856171 21.253325
20.712721 15.335775 21.258934
24.285519 16.026115 21.28739
24.507158 16.068937 21.222626
18.724464 14.951603 21.315578
21.412436 15.470974 21.363026
23.434231 15.861643 21.333952
19.128225 15.029619 21.470848
20.496883 15.294071 21.466755
22.083954 15.600727 21.418299
18.428679 14.894451 21.53882
23.36581 15.848416 21.588842
25.346825 16.231169 21.582031
19.8585 15.170722 21.614697
21.339706 15.456922 21.61582
24.103172 15.99089 21.68013
25.445755 16.250284 21.663866
18.410446 14.890928 21.859404
18.836658 14.973282 21.825565
19.700891 15.140269 21.891758
22.108469 15.605462 21.879911
19.488863 15.099301 22.087629
20.305407 15.257074 22.088766
20.640953 15.321909 22.157301
23.771338 15.926762 22.372915
19.309738 15.06469 22.448082
22.463699 15.674101 22.424477
24.699804 16.106165 22.422417
22.911959 15.760714 22.582029
18.268938 14.863586 22.700321
21.881624 15.56163 22.727921
24.126329 15.995355 22.797575
20.723846 15.337925 22.895882
21.225445 15.434843 22.898369
21.765059 15.539108 22.825039
22.195845 15.622345 22.870695
22.793871 15.737896 22.871185
19.087965 15.021839 22.935383
20.769318 15.346711 22.916719
20.868952 15.365962 22.942303
23.834951 15.939054 22.924286
18.915354 14.988486 23.025297
24.900574 16.144953 23.008324
19.382391 15.078728 23.124678
20.507381 15.296099 23.194435
21.974489 15.579574 23.13888
22.646837 15.709486 23.195116
19.361961 15.07478 23.210569
20.866566 15.3655 23.260429
24.452019 16.058285 23.245443
24.939547 16.152485 23.282892
21.944311 15.573744 23.321608
22.678741 15.715651 23.303522
23.751364 15.922903 23.36924
18.605629 14.928642 23.432333
18.948044 14.994802 23.434818
19.359501 15.074305 23.434837
18.148218 14.84026 23.697712
21.770151 15.540092 23.613611
25.073231 16.178314 23.660446
25.102005 16.183874 23.676563
25.206371 16.204039 23.768826
25.674566 16.294504 23.712402
24.316961 16.032187 23.880316
24.791561 16.123888 23.889723
20.703938 15.334076 23.953438
23.872158 15.946242 23.948254
19.204344 15.044325 24.049597
24.432165 16.054445 24.028851
25.334782 16.228849 24.029495
21.122917 15.415033 24.13751
19.012701 15.007296 24.269209
21.727264 15.531803 24.543127
22.908112 15.759967 24.520363
25.494324 16.259674 24.588102
21.82589 15.550859 24.63855
22.433275 15.66822 24.634583
22.131884 15.609984 24.759829
20.249727 15.246313 24.846569
23.42268 15.859391 24.883007
18.266861 14.863184 24.90093
22.832146 15.745289 24.91819
23.587254 15.89119 24.92453
18.677076 14.942447 25.028055
23.258766 15.827719 25.056
23.773228 15.927124 25.049147
25.620361 16.284025 25.146261
18.460936 14.900683 25.361378
18.898043 14.985141 25.334705
19.530041 15.107255 25.302475
24.358547 16.040218 25.382492
24.847816 16.134754 25.380032
23.024136 15.782383 25.406536
24.254562 16.020126 25.422859
24.241518 16.017605 25.510502
23.192837 15.81498 25.664806
18.271152 14.864016 25.71483
21.703163 15.527144 25.749603
24.510075 16.069496 25.764999
18.398544 14.888632 25.879818
19.730982 15.14608 25.801954
22.686665 15.717176 25.84129
24.548981 16.077013 25.893143
25.937683 16.345337 25.958868
21.448038 15.477848 26.01609
25.217556 16.206194 26.042812
18.234152 14.856869 26.158119
18.315189 14.872526 26.15276
21.561798 15.499829 26.138462
21.958385 15.576458 26.152718
20.114273 15.22014 26.256111
24.878857 16.140751 26.277077
19.34337 15.07119 26.358383
20.993881 15.390097 26.305241
23.798176 15.931942 26.370239
26.019823 16.361206 26.319746
17.837013 14.78014 26.467552
24.025497 15.975863 26.450861
24.982582 16.160791 26.474016
20.134098 15.223972 26.559591
22.434046 15.668364 26.602325
24.007698 15.972424 26.68969
18.106581 14.832222 26.777725
19.114849 15.027037 26.776062
20.133728 15.223902 26.737682
22.981758 15.774193 26.717482
25.063967 16.176516 26.757992
25.405798 16.242565 26.755844
22.343052 15.650782 26.854305
23.285503 15.832882 26.820089
25.164133 16.195869 26.812218
21.719954 15.530389 26.931
22.808052 15.740628 26.933865
25.004265 16.16498 27.071741
18.662481 14.939633 27.185738
19.285656 15.060041 27.154034
19.653423 15.131101 27.151228
20.499866 15.294647 27.11322
21.844709 15.554494 27.125923
19.291447 15.06116 27.220514
23.585863 15.890916 27.284561
24.070133 15.984487 27.268055
18.716011 14.949977 27.318787
23.396795 15.854385 27.315134
25.422918 16.245871 27.384386
26.190174 16.394119 27.300821
18.177448 14.845917 27.476521
20.809977 15.354567 27.438772
24.530857 16.073507 27.408031
24.667419 16.099894 27.472149
19.452179 15.092218 27.532246
22.791636 15.737459 27.520546
23.96207 15.963607 27.562656
18.101902 14.831322 27.608551
20.781309 15.34903 27.666605
22.990667 15.775915 27.674219
24.978802 16.160057 27.689989
18.085142 14.828084 27.796371
20.680103 15.329473 27.734348
22.942978 15.766702 27.749002
23.634605 15.900336 27.744164
24.410267 16.050205 27.739012
24.56332 16.079781 27.796515
17.921246 14.796417 27.883453
18.191776 14.848688 27.820076
20.294266 15.254924 27.826845
21.657524 15.51833 27.84943
22.552181 15.691193 27.823952
25.324135 16.226782 27.869324
18.695747 14.946063 27.921825
20.486254 15.292021 27.909317
21.998833 15.584276 27.93639
22.878942 15.75433 27.931103
26.179605 16.392076 27.919001
22.432795 15.668127 28.045889
17.628286 14.739813 28.12714
18.589418 14.92552 28.156961
21.29026 15.447369 28.197348
24.43239 16.054483 28.139181
24.305195 16.029909 28.241722
25.019382 16.1679 28.283705
18.852516 14.976356 28.356497
20.289825 15.25407 28.385824
23.210617 15.818417 28.381662
17.509987 14.716957 28.461506
17.849571 14.78257 28.475168
26.29003 16.413412 28.421194
23.578184 15.889438 28.528545
23.826429 15.937403 28.532072
24.214516 16.012386 28.52249
25.923958 16.342682 28.680183
18.236889 14.857409 28.855579
24.844179 16.13405 28.853762
25.039394 16.17177 28.896654
25.820154 16.322626 28.8412
26.159389 16.388172 28.829721
17.636791 14.741459 28.942131
18.352045 14.87966 28.968391
23.31872 15.839306 28.92728
23.590881 15.891891 28.961966
25.283701 16.218973 28.903919
18.513918 14.910935 29.002741
21.38282 15.465257 29.088242
22.223631 15.627716 29.049463
24.765873 16.118921 29.149517
19.147882 15.033429 29.255527
21.074194 15.405626 29.215176
19.938551 15.1862 29.358646
24.418579 16.051819 29.324135
19.339069 15.070371 29.460653
20.38232 15.271946 29.439344
20.490768 15.2929 29.415607
21.056803 15.402265 29.408012
21.099457 15.410509 29.591454
23.294987 15.834723 29.573853
25.57176 16.274633 29.521694
25.888987 16.335928 29.577513
24.364967 16.04146 29.607494
24.902069 16.145239 29.638344
25.506851 16.262093 29.67276
19.923563 15.183306 29.766867
23.078106 15.792818 29.799438
25.004547 16.165039 29.703934
19.934969 15.18551 29.831593
22.743383 15.728144 29.874229
23.961206 15.963448 29.83489
24.215977 16.012674 30.062611
19.103857 15.024925 30.110432
16.315804 14.486234 30.200768
21.95649 15.576103 30.237082
25.828529 16.324249 30.273964
29.432373 17.020525 30.284321
25.083954 16.180384 30.320335
25.695065 16.298462 30.347473
15.557817 14.33983 30.438492
15.91569 14.408943 30.496666
16.866163 14.592601 30.433903
25.360115 16.233742 30.491039
29.084274 16.953297 30.411207
17.312675 14.678871 30.546919
19.755247 15.150785 30.58147
21.43405 15.475159 30.549847
24.65741 16.097969 30.551592
25.249287 16.21233 30.559464
16.320707 14.487221 30.674047
20.719069 15.337014 30.623383
26.139091 16.384254 30.667645
15.401855 14.309691 30.761198
21.271063 15.443668 30.733751
21.686443 15.523928 30.763662
19.885994 15.176037 30.864552
15.361029 14.301803 30.908363
15.851658 14.396597 31.030222
20.943764 15.380429 31.001781
23.183529 15.81319 31.035522
21.402946 15.469151 31.183855
21.905199 15.566196 31.18836
22.058277 15.595773 31.171097
24.583954 16.083776 31.153614
28.811626 16.900568 31.126436
19.397022 15.081577 31.295925
29.346668 17.003962 31.22517
17.382 14.692255 31.36314
18.124067 14.835595 31.359749
26.235828 16.402948 31.391436
29.233337 16.982056 31.366741
29.989 17.128088 31.329132
14.600857 14.15486 31.402176
15.924742 14.410679 31.481607
18.607979 14.92909 31.452724
20.351582 15.266025 31.439779
24.553982 16.077986 31.480644
30.059666 17.141741 31.420326
24.403257 16.048864 31.533993
24.919437 16.1486 31.558613
26.249235 16.405539 31.501953
29.259163 16.987041 31.591936
29.330521 17.000832 31.516327
15.996489 14.424562 31.683376
20.182207 15.233281 31.619457
21.346035 15.45817 31.611666
22.454174 15.672268 31.621603
23.295662 15.834858 31.631325
25.361378 16.23399 31.673264
17.728874 14.759263 31.787479
23.484657 15.871376 31.704838
26.184797 16.393089 31.723377
30.269585 17.182297 31.78446
20.583876 15.310884 31.806332
21.193188 15.428623 31.886055
29.25316 16.985886 31.81097
21.154488 15.421142 31.91378
21.529289 15.493565 31.961569
26.64757 16.482504 31.985729
29.923683 17.115446 31.914375
18.064928 14.824174 32.048569
21.483437 15.484696 32.071056
23.076696 15.792549 32.099571
25.945204 16.346796 32.070122
29.390699 17.012486 32.032734
15.468447 14.32254 32.181793
28.885597 16.914894 32.104164
30.564604 17.239298 32.148605
14.754794 14.184649 32.276249
16.927803 14.604506 32.294968
28.792557 16.896917 32.235271
16.61437 14.543947 32.384262
17.054806 14.629045 32.314846
18.331526 14.875685 32.304043
19.937641 15.186021 32.380199
24.661877 16.098835 32.315269
26.657692 16.484461 32.370968
29.782219 17.088127 32.33852
17.79916 14.772835 32.441833
19.095879 15.023373 32.428108
19.312178 15.065166 32.418831
19.64127 15.128754 32.473671
22.435322 15.668609 32.444653
23.735117 15.91978 32.458809
14.465214 14.128691 32.563698
15.605432 14.349007 32.50948
19.332333 15.069058 32.578201
22.08919 15.601719 32.510204
19.345055 15.071514 32.698555
21.930187 15.571019 32.685398
23.855785 15.943084 32.648026
25.327297 16.227407 32.689411
26.499922 16.453978 32.69846
14.652584 14.164889 32.795689
18.23135 14.856327 32.703056
21.055376 15.401987 32.728626
25.073206 16.178314 32.722321
25.158276 16.19475 32.714294
25.511778 16.263052 32.785503
27.79401 16.703985 32.760193
16.163925 14.456912 32.802635
19.090925 15.02241 32.810574
19.901085 15.17895 32.863037
21.783237 15.542623 32.873821
23.424253 15.859695 32.801197
23.66922 15.907036 32.884289
23.252228 15.826462 32.943947
23.442677 15.86326 32.913429
23.670572 15.907294 32.951492
19.292139 15.061289 33.093807
25.218718 16.206423 33.081322
28.837755 16.905628 33.071758
25.441195 16.249409 33.168827
30.269825 17.182318 33.126869
14.976316 14.227432 33.233009
18.380228 14.88509 33.269745
18.689201 14.94479 33.275181
24.172235 16.004223 33.250778
29.341854 17.003017 33.281662
22.233917 15.629701 33.348476
26.725084 16.497484 33.321068
29.726921 17.077414 33.373901
16.993378 14.617163 33.40884
21.1049 15.411553 33.463791
21.902845 15.565733 33.49057
27.661318 16.678364 33.491837
14.60117 14.15494 33.521439
21.265612 15.442608 33.597607
25.209381 16.204618 33.550106
29.893881 17.109667 33.52227
14.320787 14.100761 33.670586
15.908599 14.407561 33.606525
18.741507 14.9549 33.617249
19.824919 15.164235 33.671116
29.079948 16.952427 33.698952
17.788189 14.770701 33.729923
19.048332 15.014182 33.722496
19.344648 15.071436 33.773487
26.749386 16.502172 33.722061
27.368267 16.621737 33.776329
27.911367 16.726662 33.727234
14.549512 14.144953 33.819439
20.197794 15.236276 33.856979
21.16798 15.423735 33.825233
22.356537 15.653385 33.861927
24.828735 16.13106 33.882088
28.652361 16.869814 33.808086
14.538165 14.142757 33.956715
16.860712 14.591501 33.96521
18.847145 14.975308 33.942871
27.843092 16.713463 33.994301
15.084558 14.248329 34.093914
18.303143 14.87021 34.084141
21.084915 15.407673 34.18848
23.988171 15.968638 34.154701
14.661557 14.166595 34.216396
14.993463 14.230717 34.268135
20.043941 15.206546 34.273842
22.512329 15.683475 34.209
24.378925 16.044136 34.262161
25.254217 16.213259 34.311821
26.248714 16.405411 34.398819
29.567787 17.046667 34.359097
15.474065 14.323582 34.43298
16.304632 14.484063 34.471382
27.094498 16.56884 34.437687
28.349295 16.811258 34.426224
28.451403 16.830986 34.444771
29.550529 17.043333 34.471001
14.671278 14.168465 34.534187
14.989181 14.229887 34.58852
15.20155 14.270923 34.539326
20.918804 15.375583 34.564114
24.537666 16.074797 34.571571
28.527102 16.845612 34.531712
29.558348 17.044844 34.589188
16.385645 14.49971 34.699677
18.220135 14.854171 34.644505
19.843821 15.167895 34.632763
23.790863 15.930498 34.665512
25.511927 16.263041 34.625156
26.225748 16.400965 34.640903
27.509281 16.648979 34.670937
28.693472 16.877758 34.662884
15.474288 14.323615 34.782047
16.947506 14.608271 34.75666
17.178766 14.652956 34.742466
22.890783 15.756583 34.729832
25.7836 16.315527 34.796947
27.658382 16.677786 34.738247
14.528559 14.140894 34.865059
15.879122 14.401834 34.840496
16.357384 14.494246 34.826756
17.893658 14.791082 34.843979
19.712854 15.142584 34.878788
19.867676 15.172497 34.878811
23.62318 15.898094 34.803726
26.124578 16.381409 34.895897
27.564358 16.659622 34.870186
16.30645 14.484401 34.922577
17.359859 14.68794 34.95842
19.105667 15.025261 34.976372
19.577419 15.116413 34.944401
23.474531 15.869375 34.981171
24.287659 16.02648 34.930206
25.90884 16.339722 34.933693
26.38209 16.431164 34.944382
16.718403 14.563993 35.091076
21.319906 15.453091 35.057693
21.507578 15.48935 35.079659
25.70772 16.300859 35.045868
28.700397 16.879105 35.082897
16.769928 14.57395 35.109974
18.52503 14.913066 35.181934
21.040648 15.399127 35.185081
21.124676 15.415363 35.174366
21.771582 15.540359 35.102844
23.828484 15.937763 35.119751
24.613991 16.089529 35.14682
24.282269 16.025463 35.299587
24.5495 16.077097 35.277924
16.355291 14.49384 35.351616
16.43177 14.508616 35.332367
25.078215 16.179251 35.377449
27.832352 16.711407 35.362
27.978298 16.739603 35.335449
17.088411 14.635474 35.458542
17.954178 14.802753 35.473579
19.746494 15.149063 35.437569
26.442289 16.44278 35.42902
27.915497 16.727474 35.47514
28.944584 16.926247 35.459953
19.987652 15.195658 35.585663
22.930859 15.764341 35.594498
24.064619 15.983406 35.517204
26.453289 16.444904 35.552414
20.05394 15.208467 35.692547
26.067966 16.370459 35.65173
15.147856 14.260569 35.793308
16.498196 14.521476 35.776264
18.525866 14.913216 35.766079
22.722334 15.724056 35.798122
14.434528 14.122738 35.803612
15.845874 14.395441 35.874062
17.554098 14.725491 35.887672
24.07053 15.984554 35.805946
26.151005 16.386497 35.817364
26.585657 16.470486 35.889107
28.578251 16.855459 35.896736
25.184788 16.199818 35.99527
27.910275 16.726429 35.909256
15.791631 14.38497 36.077694
20.968914 15.385269 36.082996
21.764427 15.538977 36.012299
22.096819 15.603201 36.012459
23.249531 15.825927 36.047977
15.963556 14.418186 36.185116
22.386889 15.65925 36.140495
26.214664 16.398821 36.136021
28.620577 16.863636 36.137897
15.763679 14.379559 36.263344
19.221518 15.047644 36.280193
19.359594 15.074322 36.287155
20.234383 15.243349 36.264103
22.652925 15.710657 36.241459
26.379261 16.430632 36.21954
23.670071 15.907171 36.379936
24.758921 16.117559 36.397636
27.793098 16.70377 36.363274
16.498856 14.521622 36.476997
21.213017 15.432444 36.448734
22.62561 15.705386 36.482887
27.136026 16.576834 36.405819
17.251896 14.667124 36.512936
20.576181 15.309399 36.566582
28.595428 16.858776 36.503464
15.248264 14.279955 36.61879
15.37734 14.304897 36.607872
16.037374 14.432444 36.61377
19.602602 15.121308 36.770367
26.418076 16.438148 36.70063
20.071726 15.211948 36.89452
21.152878 15.420835 36.832706
14.354076 14.107164 36.98904
16.569197 14.535208 36.948296
21.496408 15.487215 36.965672
25.323828 16.22673 36.928051
26.139494 16.384331 36.909378
26.962511 16.543316 36.919674
17.126625 14.64292 37.001129
19.32893 15.068424 37.037601
20.1185 15.220984 37.024872
24.304577 16.029797 37.090034
26.006672 16.358667 37.082188
15.16727 14.264303 37.182178
19.920761 15.182774 37.179283
21.895702 15.564365 37.151665
28.092213 16.761555 37.132393
15.074239 14.246325 37.207432
16.021763 14.42942 37.281868
16.681574 14.556919 37.206184
20.483458 15.291496 37.223679
20.619938 15.317867 37.203064
23.083164 15.793802 37.280975
17.215792 14.660153 37.391338
22.131741 15.609973 37.333229
27.887173 16.721941 37.340012
18.331144 14.87565 37.425694
24.933208 16.151258 37.437717
25.639061 16.28764 37.431709
26.844343 16.520493 37.459148
18.090158 14.829091 37.535065
21.017927 15.394764 37.597069
27.2456 16.598001 37.53014
25.285557 16.219337 37.658253
16.986542 14.615845 37.728687
19.443035 15.09048 37.773918
20.306742 15.257354 37.712917
21.310913 15.451374 37.777657
21.675131 15.521748 37.70171
24.231564 16.01569 37.788383
24.622671 16.091257 37.771599
24.855246 16.136194 37.719536
17.156622 14.648706 37.807934
19.042984 15.013188 37.820595
21.087891 15.408282 37.812294
14.901201 14.212898 37.979439
23.068691 15.791006 37.91333
26.105158 16.377697 38.07724
15.395725 14.308457 38.191669
24.038498 15.978388 38.137062
14.247103 14.086508 38.298485
24.776554 16.120993 38.212841
25.07736 16.179111 38.263897
25.992893 16.356007 38.275284
18.180229 14.846476 38.372982
23.918896 15.955278 38.356094
25.536983 16.267918 38.36837
14.589415 14.152655 38.436256
16.372477 14.497168 38.495483
16.917492 14.602474 38.424149
17.276226 14.671793 38.461323
22.840754 15.746964 38.462463
27.664042 16.678831 38.425056
14.975719 14.227301 38.500648
15.709755 14.369137 38.504662
17.875402 14.787567 38.582767
20.195272 15.235831 38.590813
22.684366 15.716748 38.521755
24.395077 16.047283 38.525803
14.132451 14.064356 38.638496
15.295471 14.289089 38.685207
15.596407 14.347233 38.656937
22.294746 15.641466 38.650833
14.30668 14.098023 38.755943
15.672465 14.361926 38.710751
16.533318 14.528237 38.734833
19.377029 15.077717 38.755116
20.936453 15.379036 38.772171
21.186043 15.427258 38.747215
24.718731 16.109819 38.782631
26.253605 16.406378 38.74361
26.355276 16.426022 38.790241
18.440657 14.89678 38.827991
19.81897 15.163111 38.827755
23.440102 15.862768 38.898773
15.214084 14.273365 38.90715
22.090618 15.602032 38.979015
22.281837 15.638976 38.993347
23.110996 15.799179 38.928406
26.221802 16.400234 38.961239
26.471491 16.448473 38.999146
24.625038 16.091717 39.085831
26.287045 16.412838 39.016724
26.781967 16.508448 39.02647
27.324821 16.613304 39.037918
27.655766 16.677231 39.07737
18.365532 14.882252 39.168163
18.536407 14.915269 39.179768
25.697952 16.299019 39.129425
27.423496 16.632359 39.194393
20.385696 15.272601 39.271683
23.491432 15.872686 39.293579
17.721699 14.757835 39.396698
20.929394 15.377656 39.323212
23.234308 15.823007 39.318199
24.368134 16.042078 39.34993
18.430033 14.894703 39.456226
19.146761 15.033196 39.44693
21.703386 15.527207 39.493134
22.556244 15.692001 39.495007
15.231607 14.276731 39.595654
18.435007 14.895662 39.522583
19.913563 15.181355 39.656982
21.010405 15.393297 39.659
22.13765 15.611114 39.621761
22.499056 15.680947 39.604904
23.996597 15.97029 39.653645
25.282139 16.218679 39.649612
17.024694 14.623159 39.789299
17.273411 14.671217 39.717567
21.569403 15.501308 39.72551
24.699299 16.106066 39.790539
25.462353 16.2535 39.788521
15.15 14.260959 39.858856
15.302208 14.290363 39.808758
16.057463 14.43627 39.85981
22.364695 15.654975 39.881573
19.781427 15.15582 39.981308
20.164818 15.229898 39.900303
19.497086 15.10088 40.009388
23.090866 15.795284 40.057384
16.765978 14.573172 40.153629
17.434938 14.702432 40.187218
17.694859 14.752656 40.183899
19.801804 15.159759 40.126938
22.484632 15.678139 40.173367
23.243286 15.824733 40.168228
27.076864 16.565413 40.15065
13.491039 13.940429 40.213699
14.670202 14.168256 40.268726
15.565947 14.341313 40.203316
19.38789 15.079782 40.211422
21.22514 15.434776 40.226112
23.826221 15.937369 40.23798
26.448944 16.444118 40.200386
26.703829 16.493357 40.203079
14.091938 14.05654 40.382023
17.752823 14.763857 40.387161
18.303421 14.870243 40.362926
20.079575 15.213431 40.31144
23.825113 15.937154 40.30048
14.080039 14.054237 40.476883
15.474646 14.323684 40.458115
16.965004 14.611632 40.456326
17.876213 14.7877 40.486458
22.653866 15.710838 40.404373
23.300552 15.835791 40.457539
17.647938 14.743593 40.549202
22.184837 15.620213 40.541271
24.470798 16.061909 40.642941
17.954855 14.802896 40.706921
19.626844 15.125959 40.792171
21.176308 15.425346 40.785385
22.760117 15.731372 40.858925
23.689751 15.910995 40.895554
24.35046 16.038658 40.819244
13.545078 13.950876 40.929829
21.51302 15.490408 40.930119
21.635849 15.514141 40.954716
21.825804 15.550844 40.973423
24.351913 16.038939 40.913773
24.494156 16.066423 40.933483
14.165104 14.070673 41.019295
14.341175 14.104696 41.069843
18.778748 14.962093 41.078102
19.423368 15.086647 41.010334
19.541893 15.109549 41.082108
23.89418 15.950498 41.092876
24.271866 16.023472 41.015984
25.89852 16.33777 41.063435
13.951693 14.029443 41.152889
16.952442 14.609211 41.119858
18.41115 14.891067 41.140484
19.330635 15.06873 41.150208
20.691147 15.331608 41.112705
23.370129 15.849241 41.135708
16.885632 14.596313 41.266907
17.549873 14.724651 41.256535
23.199129 15.816201 41.235298
19.644827 15.12944 41.344822
22.149195 15.613335 41.374718
25.211613 16.205048 41.366982
25.471786 16.255316 41.313648
17.861227 14.784814 41.455292
19.828983 15.165024 41.474869
17.654846 14.744938 41.561054
17.803942 14.773746 41.533783
19.497807 15.101036 41.576122
20.255558 15.247448 41.504829
26.764189 16.50502 41.565331
15.480906 14.324943 41.685326
16.840527 14.587625 41.698471
18.985065 15.001965 41.687088
20.003868 15.198817 41.619534
20.627594 15.319333 41.62038
21.12434 15.415316 41.667679
26.702721 16.493147 41.604939
17.364017 14.688744 41.743832
18.272934 14.864367 41.753525
20.133736 15.223911 41.770248
25.078033 16.17923 41.813148
14.438061 14.12344 41.950493
17.241484 14.665081 41.936043
17.49412 14.713884 41.985664
17.937052 14.799471 41.98465
13.631313 13.967555 42.042068
16.055229 14.435904 42.016151
19.302422 15.063288 42.040157
22.661913 15.712408 42.069473
13.48956 13.940165 42.114384
14.77055 14.187689 42.139977
18.785631 14.963434 42.163502
18.912838 14.988013 42.101784
18.995602 15.004005 42.158646
20.670898 15.327706 42.171757
21.823215 15.550356 42.102585
21.924212 15.569872 42.15028
23.148537 15.806427 42.140144
24.449862 16.057854 42.164627
16.314734 14.486013 42.262375
17.039949 14.626171 42.244194
18.411577 14.891161 42.211983
20.350996 15.265896 42.230751
21.563164 15.500112 42.274368
23.305548 15.836761 42.253078
26.02202 16.361616 42.294582
13.611486 13.96373 42.37999
15.123251 14.255845 42.350212
15.623152 14.352426 42.386028
20.068136 15.211243 42.357208
24.468203 16.061398 42.376381
16.650162 14.550829 42.438347
18.054283 14.822128 42.494865
22.288635 15.64028 42.448765
23.830692 15.93822 42.446358
25.833384 16.325169 42.403385
16.990093 14.61652 42.54351
17.968166 14.805488 42.501534
18.332256 14.875837 42.548161
23.811928 15.934596 42.547527
24.756397 16.117081 42.538704
14.055574 14.049545 42.667877
21.262867 15.442087 42.682915
14.167929 14.071255 42.732758
16.486372 14.519157 42.753681
21.72665 15.531693 42.755508
24.704971 16.107145 42.71859
19.698017 15.139733 42.834534
23.127699 15.802393 42.856674
15.079136 14.247311 42.989281
26.630239 16.479143 42.979755
14.873754 14.20764 43.035294
13.98406 14.035734 43.134514
15.139723 14.259001 43.186996
15.931079 14.411858 43.178207
19.360271 15.074477 43.121883
24.318968 16.032564 43.148281
25.643677 16.288519 43.287201
25.88525 16.335194 43.222923
26.39172 16.433056 43.219852
16.895937 14.598298 43.362877
19.655472 15.131513 43.327984
20.769798 15.346815 43.369179
14.858826 14.204731 43.418564
25.025932 16.169161 43.447239
25.756897 16.310394 43.464039
26.211834 16.398298 43.402035
19.159512 15.035686 43.583073
15.641623 14.355947 43.649769
26.551079 16.463848 43.607132
14.644814 14.163372 43.781475
16.751888 14.570475 43.700417
20.24214 15.244865 43.766327
22.406807 15.66311 43.780815
25.360168 16.233742 43.849297
25.569376 16.274164 43.840405
26.223991 16.40065 43.852024
15.199789 14.270593 43.997074
15.589325 14.34585 43.932102
18.099768 14.830929 43.98896
20.472982 15.289469 43.932343
21.285946 15.446545 43.978691
21.61623 15.51036 43.941669
24.012749 15.973402 43.963303
24.748398 16.11554 43.990883
26.560503 16.46566 43.956684
18.124998 14.835802 44.026291
21.423119 15.473049 44.042377
23.574451 15.888718 44.086494
14.450138 14.125765 44.190392
15.473487 14.323477 44.114998
19.505617 15.10256 44.212326
23.809555 15.934143 44.286957
24.522312 16.071857 44.281895
13.253036 13.894502 44.388733
16.206753 14.465158 44.39534
20.592289 15.312522 44.381737
21.195124 15.428999 44.389122
26.41843 16.438213 44.398335
14.072618 14.052836 44.467518
16.626871 14.546334 44.418514
19.136749 15.03129 44.435452
21.738682 15.534021 44.425114
23.418728 15.858631 44.573639
25.898876 16.337831 44.562431
18.691683 14.945298 44.663223
14.183989 14.074358 44.752384
21.544476 15.4965 44.771553
15.937701 14.413169 44.873684
16.307152 14.484558 44.87553
19.588802 15.118636 44.873787
23.268383 15.829584 44.881245
16.417023 14.505788 44.918648
17.689114 14.751583 44.916752
21.119598 15.414408 44.961773
22.786974 15.736568 44.932365
22.887659 15.756021 44.919807
18.313951 14.872316 45.051163
18.711325 14.949095 45.055382
20.293858 15.254863 45.06488
21.602047 15.507623 45.050377
22.476208 15.676523 45.003941
23.799633 15.932228 45.079361
25.934788 16.344772 45.071789
14.866686 14.206249 45.135689
20.973211 15.386124 45.171074
25.638002 16.28743 45.172668
14.638646 14.162191 45.252209
14.930681 14.218612 45.248703
16.751507 14.570417 45.252701
20.636787 15.321123 45.205219
21.18623 15.427282 45.277832
21.506027 15.489071 45.208618
24.789484 16.123482 45.208878
14.498723 14.135157 45.349083
18.415157 14.89187 45.364399
19.338924 15.070356 45.389191
20.915886 15.375048 45.347198
21.349201 15.458771 45.324471
23.162205 15.80907 45.379925
23.02408 15.782382 45.408669
24.047398 15.980101 45.437057
14.922977 14.217114 45.537041
15.779723 14.382641 45.519646
17.752293 14.763792 45.505699
18.054066 14.822101 45.526112
21.559959 15.499493 45.557442
20.563873 15.307035 45.649689
24.480831 16.063848 45.670616
16.062304 14.437233 45.740437
16.752859 14.570681 45.706604
16.863808 14.592117 45.740429
18.709805 14.948803 45.74575
24.134499 15.996931 45.741051
25.488625 16.258568 45.775021
13.238272 13.891578 45.848415
13.235676 13.891078 45.916985
25.537634 16.268038 45.98259
13.240973 13.892109 46.086899
16.299038 14.482979 46.041714
16.377249 14.498093 46.022633
21.096903 15.410027 46.088997
23.389887 15.853064 46.017044
23.434664 15.861715 46.021744
24.133348 15.996711 46.005623
25.097015 16.182905 46.015144
16.204937 14.464796 46.128258
21.715069 15.529465 46.172165
23.32579 15.840679 46.150265
23.807444 15.933743 46.118885
24.853371 16.13583 46.181694
13.258141 13.89543 46.212769
16.235586 14.47072 46.211815
16.359537 14.494668 46.228733
21.954103 15.575649 46.260757
24.421972 16.052477 46.252323
19.311802 15.06512 46.307579
20.665665 15.326706 46.324577
22.80476 15.740009 46.340485
24.064257 15.983362 46.388187
19.525108 15.106335 46.431854
23.554247 15.884821 46.443657
26.325243 16.420191 46.430199
14.548883 14.144837 46.52198
15.580376 14.34414 46.599865
24.958134 16.156075 46.548546
25.139517 16.19112 46.581825
15.451018 14.31915 46.707172
15.524355 14.333319 46.716679
16.83835 14.587192 46.794106
16.962433 14.61117 46.701813
17.181755 14.653553 46.774628
22.931028 15.764407 46.746162
13.553097 13.952445 46.86113
15.320896 14.294012 46.826878
19.711946 15.142437 46.856949
21.686884 15.524023 46.888153
21.992392 15.583051 46.887657
26.490326 16.452072 46.884453
14.78703 14.190868 46.997196
15.304123 14.290773 46.908775
19.166855 15.037117 46.990608
21.268372 15.44316 46.913162
21.620539 15.511202 46.999863
21.626875 15.512428 47.02739
22.641739 15.708513 47.074223
17.749224 14.763204 47.122841
18.796829 14.965624 47.178719
24.431244 16.054272 47.146427
25.387833 16.2391 47.163651
26.614962 16.476147 47.161743
16.995972 14.617651 47.290596
23.394417 15.853942 47.208408
23.977898 15.966681 47.225632
15.284537 14.286997 47.315437
15.949308 14.415433 47.316811
16.290739 14.481398 47.353642
18.816233 14.969372 47.362747
20.027985 15.203501 47.394272
21.512697 15.490368 47.346794
22.633278 15.706881 47.390759
14.514118 14.138151 47.475723
15.828517 14.392097 47.443233
16.351809 14.493197 47.426525
17.75478 14.764277 47.418243
19.29447 15.061776 47.425011
22.374254 15.656834 47.459267
26.237801 16.40329 47.461086
18.043705 14.820105 47.524338
25.405836 16.242579 47.528896
13.655529 13.972267 47.649593
17.927414 14.797634 47.661053
21.789537 15.543859 47.696167
24.107866 15.991793 47.604359
25.573082 16.274889 47.63076
13.816703 14.00341 47.735397
25.95233 16.348145 47.711918
16.927322 14.604392 47.864708
18.231667 14.856424 47.802551
18.463942 14.901303 47.860058
22.389574 15.659795 47.848866
26.391972 16.433065 47.832821
13.831743 14.006321 47.903328
23.052057 15.787797 47.95993
15.325195 14.294827 48.064285
16.395144 14.501554 48.043961
16.703619 14.561163 48.087555
18.099276 14.830843 48.001415
22.065281 15.597137 48.083023
23.684521 15.909999 48.085018
13.338139 13.910956 48.111534
18.150791 14.840797 48.189171
19.312962 15.065351 48.144302
24.406 16.0494 48.180244
25.603817 16.280821 48.139996
13.183805 13.881142 48.257427
13.744148 13.989384 48.273941
21.82823 15.551338 48.262299
22.375538 15.657085 48.291473
17.493338 14.713761 48.327713
20.38364 15.272223 48.388885
20.459524 15.286883 48.302685
24.134497 15.996942 48.384159
15.068384 14.245211 48.460144
21.378002 15.464348 48.468254
21.610611 15.509291 48.419437
17.020348 14.622362 48.544739
21.942432 15.573403 48.57008
26.675196 16.48777 48.524395
21.37899 15.464539 48.638496
22.168085 15.617003 48.695728
24.762804 16.118338 48.680271
17.315414 14.679379 48.713326
19.078896 15.020129 48.781223
19.37957 15.078223 48.75602
20.484863 15.29178 48.722839
14.415428 14.119081 48.821594
15.706459 14.368511 48.897053
16.61517 14.544065 48.834583
23.306286 15.836922 48.810543
12.897186 13.825741 48.986191
21.204227 15.430774 48.942646
17.461069 14.707521 49.010311
18.451838 14.898966 49.048828
20.570869 15.308401 49.037628
18.819754 14.970057 49.171547
20.76845 15.346575 49.108231
17.091492 14.636108 49.225864
24.332045 16.035107 49.288101
13.841539 14.008198 49.319019
17.730261 14.759537 49.325836
18.217468 14.853682 49.372051
19.708458 15.141771 49.353394
12.868888 13.82027 49.422691
14.582604 14.151382 49.430611
15.595898 14.347166 49.465847
16.651207 14.551062 49.402489
16.950111 14.608816 49.543621
20.042253 15.206266 49.580723
22.031448 15.590605 49.575424
16.304232 14.484028 49.68988
16.427086 14.507764 49.667625
16.510857 14.52395 49.647751
17.055862 14.62925 49.604996
17.869869 14.78651 49.629372
25.297806 16.221693 49.672348
15.550735 14.338441 49.755142
19.579863 15.116926 49.7897
20.473291 15.289549 49.761024
22.976028 15.773107 49.758774
24.211868 16.011885 49.761505
24.330019 16.034714 49.734051
25.164959 16.196032 49.725639
13.281209 13.899934 49.874878
14.602493 14.155228 49.869606
18.132853 14.83733 49.822456
25.589142 16.277969 49.801926
16.352686 14.493389 49.931351
19.711044 15.142272 49.936424
23.939985 15.959352 49.900032
25.076704 16.178978 49.946293
14.363801 14.109108 50.035561
19.660934 15.132591 50.070827
21.442532 15.476818 50.071804
23.267656 15.829452 50.082474
14.10211 14.058543 50.175117
16.41658 14.505734 50.138016
16.825947 14.58483 50.159584
19.904251 15.179605 50.120045
24.157137 16.001308 50.167233
24.722481 16.110538 50.185493
15.811099 14.388746 50.235275
20.596384 15.313332 50.231846
25.441759 16.249504 50.22089
15.155609 14.262095 50.310326
15.392106 14.307791 50.304916
15.823858 14.391211 50.387108
19.131144 15.030227 50.312927
19.64481 15.129476 50.342346
19.790133 15.157557 50.345642
21.860968 15.557662 50.388779
26.122677 16.381065 50.323826
13.421661 13.927067 50.470627
13.549665 13.951799 50.428093
14.181524 14.073884 50.468418
14.639757 14.162422 50.471832
15.870568 14.400234 50.484253
19.514662 15.104331 50.449604
21.931999 15.571384 50.457767
26.494183 16.452848 50.465492
15.492577 14.3272 50.595753
15.802212 14.387027 50.573997
18.274797 14.864769 50.5686
21.8293 15.551543 50.578091
22.195967 15.622387 50.515381
25.388828 16.239285 50.561142
14.630581 14.160647 50.651882
15.288333 14.287735 50.616711
22.61268 15.702901 50.620403
14.063593 14.051096 50.736919
14.202541 14.077942 50.784103
16.824198 14.584488 50.729942
18.353008 14.879879 50.705906
23.397324 15.8545 50.751225
26.365963 16.428082 50.784561
14.500481 14.135509 50.804321
22.489162 15.679035 50.871437
13.578562 13.957377 50.940552
20.824196 15.357346 50.950314
15.350998 14.299839 51.006031
20.875103 15.367181 51.055103
20.998955 15.391109 51.091934
21.409698 15.47047 51.03791
13.095592 13.864058 51.170601
13.496051 13.941433 51.110229
14.226434 14.082555 51.108265
20.161625 15.229331 51.195656
20.219223 15.240458 51.192535
20.468092 15.288544 51.127541
22.412363 15.664196 51.142433
25.266562 16.21566 51.197407
18.544949 14.916962 51.266521
20.537254 15.301906 51.284908
21.941313 15.573183 51.292988
23.035946 15.784678 51.278847
24.095413 15.989378 51.265873
24.773155 16.120325 51.264786
22.876289 15.753831 51.334316
24.930733 16.150772 51.381165
25.574215 16.275105 51.3074
25.601809 16.280437 51.380806
15.782279 14.383165 51.430969
15.823794 14.391187 51.405746
17.617165 14.737694 51.410439
19.714256 15.142895 51.434464
20.934809 15.378717 51.468319
16.767784 14.57358 51.534851
21.040588 15.399155 51.559181
21.688187 15.524277 51.570061
22.233208 15.62958 51.569939
16.996252 14.617722 51.630375
17.334194 14.683018 51.642555
24.028309 15.976412 51.68758
13.49289 13.940816 51.70919
16.447718 14.511735 51.718716
16.562252 14.533865 51.715805
13.728883 13.986411 51.894958
17.387915 14.693398 51.851608
19.270803 15.057212 51.835812
21.395094 15.467649 51.896702
22.290571 15.640662 51.829765
23.436636 15.862095 51.825642
26.196211 16.395283 51.850456
23.234444 15.823029 51.960213
14.382497 14.1127 52.012726
15.011342 14.234201 52.05381
18.04664 14.820677 52.08622
25.634604 16.286774 52.070087
20.825878 15.357672 52.189957
15.566591 14.341482 52.220165
21.358385 15.460556 52.248264
23.118505 15.800627 52.241924
18.576567 14.923068 52.368591
21.544735 15.496561 52.316109
22.795527 15.738224 52.339798
23.673418 15.907842 52.391228
20.678467 15.329182 52.402695
21.00132 15.391562 52.43491
22.077972 15.599588 52.495792
24.117609 15.993666 52.427856
18.562027 14.920254 52.567596
19.386667 15.07958 52.534336
19.629498 15.126493 52.597935
20.884356 15.368956 52.54686
22.896139 15.757665 52.509834
13.471859 13.936743 52.682846
15.8556 14.39732 52.618965
18.53673 14.91536 52.669441
22.698963 15.719568 52.644516
23.567324 15.887343 52.683212
25.847103 16.327808 52.629051
21.540806 15.495785 52.788879
15.279926 14.286087 52.821072
15.651035 14.357793 52.818291
19.223675 15.048077 52.815254
23.527821 15.879711 52.855953
24.127382 15.995551 52.853645
26.075071 16.371847 52.809757
15.682615 14.363895 52.993134
16.066938 14.438154 52.987579
18.814064 14.968933 52.902336
20.822285 15.356945 52.912067
23.437023 15.862164 52.990444
24.397055 16.047657 52.932434
26.057707 16.368488 52.945431
15.985171 14.422355 53.041431
19.81229 15.161791 53.026268
20.419714 15.279154 53.031879
20.685957 15.330597 53.051193
25.072487 16.178148 53.078251
26.218346 16.399519 53.043961
14.258904 14.088806 53.140915
14.719593 14.17782 53.113468
17.598099 14.733989 53.16922
19.599194 15.120613 53.184311
21.307549 15.450695 53.169899
25.122261 16.187763 53.103619
25.786251 16.316042 53.130119
13.521458 13.946319 53.252934
15.640732 14.355801 53.238754
17.136953 14.64489 53.226192
17.653515 14.74469 53.296608
20.042673 15.206291 53.279839
19.340645 15.070652 53.353619
19.422039 15.086379 53.331245
19.557104 15.112473 53.379066
21.718342 15.530061 53.346642
14.035049 14.04555 53.464001
16.894581 14.598051 53.458675
19.254002 15.053909 53.400955
20.703157 15.333901 53.458374
21.682037 15.523039 53.479061
13.021461 13.849708 53.558262
13.314124 13.906256 53.52861
24.536003 16.074499 53.540226
14.452601 14.126228 53.697727
16.7913 14.578089 53.610336
19.921989 15.182957 53.696587
21.863972 15.558194 53.616764
23.248978 15.825815 53.624989
15.487979 14.326273 53.731361
15.578964 14.343849 53.798813
20.128815 15.222919 53.773083
23.665514 15.906301 53.711342
23.792511 15.930841 53.70155
25.942738 16.34626 53.724365
13.876836 14.014977 53.821602
18.159882 14.842499 53.861679
18.964737 14.998006 53.82563
19.32909 15.068404 53.876541
20.574959 15.309124 53.870224
23.319574 15.839458 53.876549
25.759888 16.310936 53.804478
24.128723 15.995807 53.935894
24.556267 16.078411 53.950478
15.354984 14.300564 54.077629
18.912247 14.987868 54.041759
21.45735 15.479627 54.096207
25.35709 16.233114 54.001137
14.682869 14.170704 54.110329
16.167444 14.457541 54.126026
16.820875 14.583792 54.153328
17.069946 14.631915 54.153133
19.484871 15.098508 54.143837
21.824211 15.550515 54.102085
22.272228 15.637084 54.153313
25.119158 16.187147 54.147968
22.238056 15.630482 54.250458
22.45232 15.671884 54.279297
23.893217 15.950303 54.243496
24.469141 16.061577 54.293724
13.610975 13.963603 54.378254
15.545801 14.337435 54.366772
19.904522 15.179593 54.398148
24.57552 16.082127 54.393494
25.072042 16.178043 54.37384
13.389505 13.920813 54.485409
21.307465 15.45067 54.476505
21.569019 15.501207 54.416771
23.6784 15.908796 54.488068
14.724905 14.17883 54.533306
24.976301 16.159548 54.582253
25.073166 16.178261 54.535248
14.947775 14.221892 54.626884
18.108856 14.832653 54.653008
16.450884 14.512314 54.740486
25.233139 16.209162 54.786999
25.49061 16.2589 54.812881
21.152943 15.42082 54.958519
