# .PCD v0.7 - Point Cloud Data file format
VERSION 0.7
FIELDS x y z
SIZE 4 4 4
TYPE F F F
COUNT 1 1 1
WIDTH 1618
HEIGHT 1
VIEWPOINT 0 0 0 1 0 0 0
POINTS 1618
DATA ascii
1137.3453 1208.2219 314.78952
1130.8757 1200.4778 82.905289
1315.8435 1184.2681 902.03522
999.19019 1209.673 123.15617
1113.9531 1299.908 1715.4437
923.0979 1267.9841 1500.4253
1014.3687 1130.7992 1715.5817
1074.6534 1185.4777 795.70685
1276.9111 1204.7325 973.60071
1208.7773 1195.667 96.877975
1171.0354 1122.0646 1049.8873
1159.8781 1229.509 1627.0034
1059.3157 1144.2611 871.41656
1171.1309 1296.2839 152.79749
598.62512 1229.946 1503.0142
977.0094 1260.3826 1125.2297
1033.5441 1156.5192 1726.5735
1230.5676 1235.7214 242.58731
1063.2458 1187.6409 20.822666
1142.6238 1205.8635 1676.3691
1043.8618 1186.9163 479.70435
878.97986 1226.7144 938.56531
1740.3655 1205.6198 1449.6465
822.50751 1200.0576 1448.1621
1066.5321 1290.7039 1118.7765
1083.8894 1295.9084 1730.6305
1137.6246 1047.5829 1344.9125
1148.033 1118.3556 1114.3907
1031.5381 1218.0964 1767.2767
1171.038 1282.8489 0
1234.189 1150.3734 1038.9325
987.60779 1245.6833 99.282043
1019.0884 1247.6957 649.90491
1101.8621 1239.2759 1198.6854
1256.8151 1164.2402 1011.111
1258.5597 1219.0542 1096.7322
1025.8212 1270.5516 519.97546
1120.069 1124.0853 12.373844
1280.7489 1211.368 974.87885
999.89001 1302.3723 280.38281
993.12537 1127.5493 1452.5525
1565.6036 1233.7891 1507.1458
1078.5754 1290.2773 1742.4875
1182.3411 1163.1101 1682.8
1044.7336 1302.4501 1116.5045
974.35431 1143.1039 1432.427
1029.9188 1242.2305 1301.6075
1135.9705 1158.9835 1777.3689
1898.334 1221.7749 1473.5923
979.90216 1245.6747 8.1799946
1165.3108 1205.5308 1765.267
1155.7272 1141.0908 0.99673313
1096.3448 1303.0725 1681.2441
1069.6146 1173.8622 741.71625
1110.7589 1259.2319 1347.213
1213.8054 1185.3652 64.976959
1152.3441 1154.8131 571.61993
865.30164 1263.4958 1471.7177
947.04712 1275.9572 1481.803
1192.9882 1322.1022 1048.7969
1070.9943 1177.6934 778.35071
623.47559 1265.8265 1489.6244
926.41449 1216.2515 992.50964
1198.5699 1298.6489 430.63739
1139.9799 1150.1204 976.2218
1144.4049 1228.76 1611.9897
999.84717 1220.8052 1171.1813
978.14435 1128.686 0
1863.8149 1227.771 1481.4497
1052.8206 1213.094 1670.3467
1224.2903 1271.8545 1098.5337
1080.1528 1070.4955 1388.1091
1134.0264 1174.848 650.04517
1143.4384 1242.6321 0
1052.0269 1197.0947 1784.2617
1117.0754 1149.9817 1779.9181
1048.3926 1278.4618 1660.9431
1319.9963 1196.3108 902.42572
999.7356 1129.1716 1073.8511
1141.6271 1216.3481 245.79448
953.01404 1268.1941 845.30859
1181.146 1300.7168 170.41113
1155.6309 1238.4562 0
1141.8611 1290.9932 1652.2006
976.66943 1288.1848 178.99695
1063.3174 1274.0723 288.49612
1041.2336 1114.8472 0
983.99353 1297.9148 296.34692
1077.3058 1231.9481 1588.6923
1179.488 1301.2515 170.31709
1033.4089 1144.0403 600.40369
984.74823 1197.0746 67.575249
1140.5315 1282.0908 342.74335
1171.8945 1256.1838 679.76672
1047.2255 1153.9669 1760.141
1052.6128 1277.0923 160.30931
840.25513 1215.0566 1440.4037
989.45325 1292.9958 256.74829
1050.7238 1280.418 479.45609
1103.4742 1118.0714 1042.6599
1212.8696 1120.8191 1342.8318
1163.1021 1267.5364 1691.3762
1092.3677 1062.9882 1377.369
1149.2235 1286.4961 1124.4624
1166.4961 1227.7064 1658.5
1243.2979 1166.9847 1073.437
1262.7694 1165.0521 949.22687
1040.7938 1268.8105 1669.9838
1226.3607 1190.1473 1146.3877
1134.7878 1228.9854 247.67209
1053.6947 1250.6007 703.96222
1064.5127 1300.5042 1121.1171
1072.6102 1235.8888 843.27307
584.22852 1260.3064 1456.3861
935.44977 1198.8477 1090.1012
1095.7883 1096.4124 1609.5692
1242.5177 1292.8578 958.05695
1023.7422 1215.9124 1665.0439
1186.972 1080.8905 0
985.93964 1149.1021 50.801331
928.71967 1160.5568 974.23407
954.17108 1169.6522 1499.2065
1010.0676 1185.4396 1239.7361
1047.9248 1291.759 271.52515
1047.0547 1254.8951 1763.7952
1204.0077 1191.0316 312.95062
1044.6465 1115.7517 1055.4387
1036.0784 1274.6936 1682.2242
1172.141 1088.4329 0
1165.993 1122.3481 854.09509
1218.3918 1233.4088 1354.1506
1026.5175 1086.4919 0
1753.9128 1253.3757 1451.6073
986.05237 1318.7925 1025.8584
977.71887 1159.3152 8.727581
558.67621 1243.6125 1497.5688
1041.0339 1170.0068 1764.6553
1022.7966 1188.5559 136.09439
375.12238 1234.5808 1476.8527
1241.1163 1247.7836 441.47861
1128.4746 1301.22 1542.5476
1142.0265 1273.1707 27.992355
1185.5126 1290.2318 1398.7062
1177.6808 1100.3301 64.349678
1265.5637 1190.5085 848.64722
1143.1083 1204.158 338.68558
1063.1255 1238.9062 95.587059
426.16428 1172.329 1458.3248
1106.8998 1095.3254 1056.9048
1160.5752 1321.2041 1452.3933
1005.7247 1097.1476 1425.4521
726.45203 1245.1029 1446.6482
1004.0074 1119.2051 841.03467
1020.3705 1216.9183 0
1225.3099 1256.2107 165.08955
1133.6428 1373.7983 1383.0231
1137.0529 1115.6053 1730.4237
1176.1722 1134.2114 1720.7283
511.09991 1248.1006 1491.3165
1106.9011 1284.4963 1404.6162
424.64926 1186.7227 1444.7714
1097.2043 1069.9978 1326.4304
1101.0242 1060.5173 1362.2373
1184.4475 1179.9585 1678.531
1019.2898 1154.4441 1663.1688
1131.2578 1251.0924 248.23817
1733.6324 1225.0927 1451.3901
983.65698 1164.0403 50.341782
1027.8433 1118.663 1098.8754
1008.7426 1300.5347 249.44305
1146.8303 1148.3188 702.61243
1198.6227 1203.9309 1302.1097
1251.1986 1181.9751 788.45758
1126.3096 1163.5291 949.52289
1215.1493 1277.0304 170.55392
1223.134 1302.571 930.22644
1423.2893 1248.9532 1448.1211
880.40851 1234.428 1427.2997
1564.3656 1214.6006 1502.921
1070.6453 1236.811 341.88016
1052.6492 1163.8173 1777.2928
1065.9532 1311.936 1301.8757
1051.0098 1151.1877 872.54883
1338.8519 1238.9542 1506.3461
1041.9989 1063.3145 59.923317
1162.478 1195.6093 269.44473
975.33337 1136.9017 851.50989
1070.5272 1284.7416 1468.0535
985.31787 1191.4077 633.97418
1059.2844 1088.125 1294.2971
1207.6627 1138.0679 57.310669
1047.6851 1319.3744 1473.8231
999.14197 1317.365 1060.7532
1406.4437 1237.7262 1444.0465
1081.7799 1194.1542 877.13843
1793.9292 1200.2902 1484.4091
1016.1909 1313.3239 276.48376
1058.6219 1258.915 1304.8323
1011.6049 1215.6372 1693.6311
986.60144 1119.6641 1003.9026
1418.3772 1244.7117 1503.5542
394.71191 1209.6196 1458.2004
1286.0416 1166.1907 918.78723
1029.8257 1294.8711 163.08423
1050.0458 1149.6803 1767.4956
1154.3354 1277.3198 1705.8682
1172.2843 1241.1583 1743.9364
351.93677 1273.2069 1467.2139
909.0946 1247.7925 903.65564
1095.7175 1088.5266 1084.5151
1043.2467 1098.724 1710.3873
1059.9463 1235.3062 642.41943
1064.6539 1273.6586 875.03394
1469.6587 1265.8337 1477.5994
1104.3833 1300.2065 1672.8093
1030.8646 1341.2078 1386.2356
1291.7889 1259.3363 1510.9523
1227.1262 1234.3767 226.48541
1176.8079 1328.2487 1341.802
979.90405 1197.2606 39.930614
1131.4873 1210.7209 87.577309
1807.7296 1225.6249 1487.3768
1066.1736 1239.0515 167.53072
1147.1271 1286.1106 1693.6929
1267.5178 1150.4933 982.73755
1142.3114 1109.967 1744.5244
1257.8857 1249.8579 1518.8861
1004.3716 1269.7137 1135.8003
1034.5691 1274.2222 1668.1046
1091.4963 1108.2319 1599.6653
594.80957 1264.8978 1487.4563
807.99365 1231.7776 1442.4409
983.71008 1259.2747 32.596172
1491.6613 1256.8689 1450.083
421.2998 1189.2327 1470.0057
1140.3638 1275.045 843.45599
1078.0753 1270.8396 1766.2832
1000.2266 1151.1635 1289.7861
1059.0758 1262.2943 796.10828
1059.505 1286.9147 1478.642
1227.0665 1233.7823 1410.9924
1510.6797 1204.6436 1447.9065
1210.8573 1253.3434 1356.1497
1130.0309 1089.3468 1269.9727
1125.5504 1064.8916 34.465851
1749.8011 1247.321 1488.3307
883.7301 1178.3633 1484.0706
1100.0355 1277.4478 1458.7177
658.93781 1221.1161 1506.387
921.55316 1202.7378 978.54486
1222.8171 1134.4084 922.77094
1347.2937 1218.2886 1508.3325
1167.3579 1258.9314 1736.2395
1135.1237 1292.5361 1653.4684
1745.2056 1267.4269 1457.616
1071.6794 1231.094 356.15616
1268.704 1193.0381 849.20465
1245.5437 1241.3053 426.89993
986.17535 1279.6885 208.03226
1751.1631 1184.8795 1463.8652
1240.2222 1146.323 1064.7942
970.5741 1151.4922 1082.9056
929.94104 1275.377 998.03308
1275.9224 1239.0654 967.84863
1027.6763 1192.3804 257.64453
1157.9403 1274.4341 1710.8306
1213.5756 1283.2433 222.61885
1147.842 1046.9978 1385.3613
979.07727 1260.4424 499.66232
972.82019 1146.3976 1423.0417
1025.592 1175.8651 1747.5693
1128.3137 1267.9988 1297.9968
1059.6652 1235.5452 651.11261
1199.9257 1261.4652 1376.1516
1037.3835 1019.8174 9.9007492
1215.9094 1094.5151 1351.7891
937.6557 1243.655 912.15869
1235.6414 1287.9805 269.92871
1208.8101 1283.6029 1443.7333
1128.989 1183.2119 1788.6342
981.11938 1261.8323 149.55286
1087.158 1140.6305 1712.4563
1135.4779 1234.9037 670.33496
988.34082 1269.6489 121.32445
1252.5992 1249.9238 1086.9822
1229.2933 1235.902 181.62241
1072.5959 1260.0764 1590.8809
1038.1724 1270.1611 1510.0264
1290.4747 1168.792 857.66675
982.612 1120.3851 988.21899
1148.7186 1286.807 223.72829
1066.5026 1271.7844 307.52832
872.35498 1225.9258 1428.8601
1125.6318 1146.3707 1776.4379
1112.4659 1298.0564 1683.6583
977.36951 1225.2427 1388.0474
1203.2732 1221.4746 0
1014.358 1238.217 1173.0742
1167.6461 1169.1481 1678.1858
1045.2832 1170.0054 1767.6411
1015.7594 1107.7283 1302.9268
1309.2236 1173.0763 875.01324
1218.9136 1133.082 1395.3827
1759.7371 1219.1434 1447.4851
1220.5994 1184.4021 5.4785037
1120.5004 1294.3699 1627.9098
1185.4799 1144.1934 81.150459
1169.0361 1254.3792 1675.5574
975.80188 1221.4485 1.9176737
420.48929 1223.2527 1488.6785
1204.0013 1198.4131 266.30804
1126.9613 1296.2908 949.20752
1036.0956 1288.1646 0
1380.5463 1226.0846 1507.5415
1118.4435 1088.4172 5.9530439
450.05652 1203.8047 1479.3662
987.72229 1208.7413 615.3833
1315.8041 1216.8962 871.42584
942.09637 1236.0234 1084.9998
1017.7263 1277.7711 500.69278
1003.0447 1244.3793 612.45276
1016.5438 1306.0491 378.08408
1112.0236 1198.5596 853.08356
1076.5857 1235.7168 1786.7184
385.8421 1231.1356 1459.1083
1133.4957 1268.8113 369.51212
1118.6533 1092.1772 1069.689
1087.8109 1137.4827 1776.3942
1067.1169 1234.7943 146.17247
1027.6581 1198.3408 1703.4198
1134.3804 1220.2123 30.336235
1009.5309 1191.9208 1260.7462
1149.0239 1225.3735 1778.5603
884.77765 1176.6755 919.65735
1213.3301 1216.6165 84.307991
626.70325 1201.1616 1473.3193
1048.1293 1293.3289 262.77319
980.64813 1222.8875 17.895739
1154.1305 1277.3784 1714.1848
1125.999 1235.1019 1784.647
1089.0371 1110.5331 1564.2787
1422.4688 1234.9694 1505.3484
1264.046 1188.8469 871.58691
1039.4288 1293.6841 446.4357
1040.9188 1137.1785 0.6215114
1175.3269 1208.7849 1697.8501
1205.853 1206.1306 3.8949771
1075.1046 1289.3877 1656.0173
1044.6143 1170.4109 1772.1272
1091.4453 1259.2683 1785.4222
1068.7148 1113.3531 1170.0857
1157.5848 1295.4128 253.78122
730.65808 1250.726 1499.984
1174.9818 1189.1788 288.06152
1131.1862 1377.2074 1360.7734
1068.5071 1270.6471 459.26242
1247.3149 1245.7698 273.06268
1126.8722 1308.0345 1716.1711
1032.5742 1278.0118 1407.7764
1195.8491 1249.3125 563.68835
1107.3163 1088.4015 1388.7257
1028.9746 1188.8582 1738.2063
1131.134 1224.8181 534.41193
1225.5967 1258.2083 210.06851
898.7373 1166.7681 898.7594
1063.53 1290.8912 1690.1038
1000.3221 1164.764 613.60248
1262.6515 1231.8597 839.43201
1235.4445 1223.6099 250.89447
1853.7502 1233.248 1476.7513
1195.6865 1294.9612 205.81233
1119.2668 1196.4453 827.9624
992.00476 1225.478 620.56268
790.48218 1212.8606 1504.9949
450.64328 1254.0155 1486.2959
370.99606 1249.8256 1482.6696
979.92249 1110.8752 9.7490807
1614.4904 1212.9398 1453.9288
1143.6483 1162.2191 604.54675
1137.6401 1160.7983 716.29816
1064.1616 1253.9445 13.47051
1367.4025 1224.9535 1507.8103
1096.0566 1311.6288 1053.7792
973.2334 1233.3643 176.1781
1108.9963 1191.9402 931.49377
1242.9515 1230.7423 340.44354
992.53876 1151.0062 1159.2743
1125.8746 1310.8773 1106.0481
1204.4546 1268.9509 0
1067.3834 1217.0856 86.975403
932.06323 1224.04 856.33057
1095.0597 1334.5847 1319.0294
1049.9691 1022.3588 33.16568
999.33447 1146.4147 1494.521
932.04004 1259.3418 950.52283
990.53076 1215.4108 572.50366
1162.8561 1307.2148 1463.4761
1227.4762 1182.0645 1377.7913
1007.4498 1218.3248 1298.8414
978.76831 1184.1245 16.123089
1165.2103 1148.6853 1733.6511
1127.8003 1299.7783 1596.6667
461.38892 1265.6626 1457.4752
1035.3262 1242.7424 1758.7501
1032.4131 1261.5962 1334.9956
1126.5714 1209.1754 600.75183
1056.3806 1256.2689 1333.226
1003.0332 1082.6464 0
1246.0751 1213.4452 754.1933
1161.2606 1126.5139 1724.9606
1275.2709 1258.8173 929.04333
1183.3773 1125.7667 832.88916
1272.9836 1255.9919 957.67615
1123.8394 1183.2856 751.34119
1091.7939 1144.2715 1779.6564
1011.9373 1128.9908 921.80518
1273.2894 1192.7695 980.86243
1141.6012 1122.9285 1053.6187
985.57477 1211.1985 238.13922
1169.395 1206.4214 2.9397609
1134.4875 1217.4075 0.3961795
1022.1083 1250.0702 1693.9324
1022.8599 1119.3491 1078.0563
1127.5499 1040.7192 14.853289
1390.7439 1192.1786 1482.8923
1138.2341 1087.3561 1693.8772
1149.835 1203.5825 374.34311
1726.7551 1246.1002 1490.1826
1042.8318 1279.4004 1710.9629
1155.2278 1190.6664 1773.16
1164.4973 1113.7446 1693.3721
1010.0724 1187.318 116.547
1056.1582 1155.3145 1778.9635
986.09338 1269.1167 145.4928
1243.0776 1239.1658 1429.3422
1364.6672 1209.8765 1441.5413
1227.5786 1130.3065 861.75684
1138.3655 1336.0438 1325.4482
1078.4346 1245.9694 1291.9215
1171.8495 1313.9731 1076.4059
1030.2554 1304.5461 381.35468
1099.4019 1340.3447 1426.749
966.80237 1181.8549 1125.0322
1106.1555 1275.7939 951.26483
1161.8058 1123.7949 861.76044
1199.7202 1262.7654 0
1179.3049 1124.4087 1050.6073
1131.2288 1131.5013 1760.5604
1080.9382 1246.9189 852.76709
1325.3922 1256.6207 1436.4083
1174.0986 1290.8231 920.21149
1709.9989 1207.9142 1481.79
991.34229 1051.834 3.445549
1146.2227 1092.3231 1276.0739
1177.139 1219.4529 1753.0535
1178.5459 1147.1213 1726.8042
1177.6285 1188.7573 1527.021
1141.3052 1277.2615 239.44542
1092.1028 1084.5916 1270.6809
1158.9568 1336.0558 1333.4868
1133.0648 1289.5083 1680.819
1082.4314 1258.1963 1596.0288
1094.6729 1247.6954 1323.3424
1023.8605 1301.9834 243.85669
1016.0472 1175.7635 481.8205
1025.2372 1191.3522 263.53571
1162.0687 1194.0294 338.6915
446.96149 1187.5681 1449.3954
1055.4265 1187.7607 530.11169
1057.3142 1249.4744 1603.8164
1213.4121 1188.9204 69.656326
1027.1584 1209.3031 1735.3655
1161.6677 1247.4463 1636.0796
1217.5365 1146.2004 1067.5278
978.88879 1262.5873 757.57239
1222.6802 1286.8535 180.51239
1052.3016 1264.4343 1350.129
1092.5071 1100.4402 1080.7744
1085.9086 1097.8252 1758.8622
313.31989 1222.6854 1480.8071
1133.5148 1329.1949 1317.6753
1193.0781 1187.7874 281.94131
1283.4297 1165.9144 927.2926
999.66266 1091.672 57.36985
1166.8224 1285.5964 844.74878
523.09314 1210.7468 1478.3232
1035.5297 1137.3704 887.46606
1133.6597 1341.3572 1406.616
1225.5004 1156.7102 1392.0143
1084.6976 1156.0963 1779.3951
956.37189 1219.1053 1122.7789
1245.7957 1252.3979 823.03967
1167.2859 1292.7053 45.71706
967.9314 1275.2296 1103.6545
1473.7073 1258.1049 1454.3037
1042.9578 1146.0284 656.25513
1044.7947 1292.672 237.00986
1059.5601 1206.4397 1786.1228
1137.4426 1262.1238 210.84731
1203.6451 1275.1819 85.894119
1243.5896 1175.8329 1089.0336
1120.1534 1107.9844 1650.4375
968.05103 1262.6213 467.06595
1272.9392 1235.5145 847.5119
1117.215 1256.7443 1537.8687
1144.9482 1277.1154 53.545425
1175.9143 1217.0438 0
1294.2137 1169.0273 850.74139
1034.1309 1170.7377 106.24154
1192.204 1088.5701 60.090446
1000.6184 1203.1558 128.70857
1084.2122 1215.3975 1791.1067
1032.1586 1134.5593 1756.8513
1036.0001 1172.3717 1516.1942
1242.1411 1220.4604 745.88153
1329.4385 1233.5212 1507.3165
1154.1353 1262.183 734.5556
1483.0911 1202.2942 1489.8794
1057.9786 1276.8457 239.43991
1038.2075 1267.925 1722.0087
1054.1571 1276.6201 926.00061
1127.6221 1310.2931 1106.8104
1081.2905 1242.6359 1281.1934
1047.8129 1271.8972 1637.8081
1059.2372 1230.1936 1784.9686
1211.3436 1257.7137 76.926483
1076.4685 1317.0452 1594.9177
966.7652 1225.5552 252.67453
1128.6442 1260.538 1601.8075
1167.1841 1215.9006 1661.9733
1014.1729 1124.0712 1066.2217
1242.4893 1267.7904 871.0498
1279.6992 1212.4473 960.21069
1178.0178 1296.3064 124.99922
1007.0245 1190.502 379.15604
1099.0876 1283.1322 1401.8129
947.86707 1185.7209 784.85614
1009.4427 1305.8372 376.0386
937.37555 1171.3003 853.87006
977.59235 1119.3324 1.9601177
977.38501 1288.3141 429.64215
1250.6191 1212.7018 775.33282
1191.2422 1266.4106 725.89679
1141.2709 1154.7974 780.96875
1207.8215 1214.7025 0
1088.887 1319.5437 1401.2212
1099.9409 1270.1639 1376.6039
384.92844 1167.4402 1446.198
1031.4133 1221.879 1658.2156
1058.3284 1162.7545 82.028175
1045.2471 1184.9321 1603.8004
1231.7451 1280.0811 294.14697
1177.2933 1134.6257 1466.0352
1088.8281 1289.5518 1701.29
1272.8909 1253.1506 924.70947
1230.4835 1304.1912 161.05197
1106.7896 1287.327 1575.7036
1025.2263 1192.8589 1710.8307
989.55701 1098.886 43.466496
931.2384 1188.4783 871.02411
1086.4879 1374.7131 1324.7189
1188.4908 1131.2671 1085.3376
919.66974 1194.4253 968.28949
1197.7039 1091.4938 58.871841
1175.2855 1295.9469 929.22626
1014.5261 1131.1814 998.15454
1207.8907 1250.5969 109.41045
1122.7671 1311.3873 1419.0616
1809.823 1204.1559 1464.0671
1138.5555 1179.1992 92.108292
994.95239 1274.943 83.951309
1048.1736 1278.6593 869.67993
1065.7648 1267.4506 272.73917
1160.583 1179.1627 496.66504
1741.2603 1234.5233 1452.3651
1138.9219 1127.9077 1773.3784
1148.3347 1174.8956 1775.0314
1129.8921 1283.7607 1439.3877
1083.7469 1186.5332 872.01282
1053.2008 1341.4441 1422.5093
1123.7529 1085.1205 1719.8574
1041.9163 1069.2333 0
1017.3784 1156.3383 1492.8909
1123.3274 1227.6553 816.20374
1151.2607 1249.3195 0
1032.4757 1126.7048 1066.4641
1232.2542 1295.0743 1043.1189
1088.0269 1223.3365 1604.8103
1130.004 1154.2863 59.150261
992.71643 1234.1205 1352.7432
1048.6982 1276.7104 89.247589
1041.7267 1271.2655 1673.4932
1186.7405 1185.9977 406.54611
1407.9409 1256.7242 1494.0808
1047.4935 1132.9117 1734.7861
1059.1826 1241.788 1582.9617
1135.0771 1307.1914 1298.0435
936.70459 1224.0624 839.45166
1003.9136 1186.9902 1277.8417
1054.1764 1217.8735 209.02399
1021.1527 1054.532 58.16029
1129.3545 1318.4012 1054.1356
1173.5745 1307.9556 328.89151
1033.9929 1303.9878 376.23627
1244.5548 1267.7368 350.27847
1208.6761 1148.8633 1495.8887
1037.1211 1160.8635 1758.8553
1161.4115 1290.1594 1471.054
1320.8818 1205.9546 1442.807
971.70111 1203.7288 468.03149
1237.7129 1306.2936 266.45477
677.94672 1267.8519 1488.6248
934.76984 1200.8525 855.80701
1130.3579 1194.0154 1680.0575
1740.8269 1259.0906 1451.1819
1013.2746 1251.6259 1538.4495
1189.4141 1317.0635 1052.6832
1055.7657 1287.1426 1693.1661
1018.7152 1070.1256 1411.822
970.72589 1223.7307 701.78088
1089.5731 1193.1382 1680.4655
1281.5607 1255.0408 989.73254
1149.7969 1284.0756 72.268456
1073.3743 1305.6949 1113.9735
1037.9921 1281.0437 1131.6932
1151.3026 1145.355 694.93793
1083.6361 1167.7271 1565.5486
1187.4231 1280.4362 1351.988
1134.2371 1259.9342 240.94498
1244.4285 1236.8843 1090.7555
1126.1123 1265.9639 853.44647
1151.6958 1053.3768 1397.6772
1148.3726 1190.2986 490.1579
1093.3265 1269.9917 1518.0199
1203.136 1279.2356 804.15002
1150.3241 1287.1053 873.67285
1188.3324 1283.8096 101.56282
1162.7084 1043.0132 1349.304
1204.4663 1199.6703 173.81969
433.43271 1240.2534 1456.5289
964.5022 1304.4772 251.06616
963.388 1250.5266 251.73944
981.36328 1288.1313 1105.4141
982.72937 1234.7513 71.986061
1157.9596 1273.0004 1722.2407
1033.5001 1150.796 1700.8745
942.04651 1254.7063 857.3573
1158.8113 1216.0525 1667.6821
882.83002 1241.2086 943.41052
1023.7645 1120.1061 1036.1774
1137.8633 1209.3601 22.399757
1012.7068 1261.8445 1347.693
1205.7511 1230.214 573.63641
1014.3236 1293.7799 60.774185
1212.4031 1111.8362 40.179596
1132.3059 1225.6338 46.758286
1023.7604 1185.3661 173.77808
1212.9307 1260.8649 1134.8503
782.37488 1215.2021 1441.9558
1018.1304 1190.0312 1639.9847
1050.9998 1247.6614 583.90747
1242.1952 1275.3037 857.65601
419.31082 1244.2549 1455.9661
978.495 1234.9608 35.371799
1148.4761 1287.4215 10.948912
973.35455 1277.8409 247.51959
978.37451 1143.8911 768.94751
1021.356 1183.1904 119.90882
1040.1763 1099.7041 1686.4363
993.74634 1235.9626 1531.8168
1107.7559 1100.712 1590.2267
1091.7985 1301.486 1699.2485
1563.4697 1236.448 1440.4707
1038.5159 1196.8245 253.09026
981.95471 1195.8379 1530.0027
1163.3241 1289.2911 1479.4424
964.45197 1142.9824 993.12128
1151.0198 1044.3485 55.896225
1005.8505 1213.2015 1541.754
1224.2107 1237.3047 201.82791
1055.4128 1150.0338 1.8201706
1179.4161 1051.1321 0.6333282
987.37579 1291.9744 862.83539
1228.325 1148.6471 1042.7422
1058.3488 1210.8821 1785.0879
728.37744 1201.9572 1452.5188
916.98389 1221.974 976.87878
1008.8102 1059.0552 1333.1426
1064.7703 1240.0732 196.15396
1111.2866 1202.2017 1793.3126
1164.6422 1225.8324 1237.9607
947.1026 1233.209 1101.7555
1095.4231 1211.0068 1794.6287
1069.7539 1214.1279 615.57751
1217.7219 1228.2571 61.436298
1171.8715 1196.8635 1736.4749
1314.4084 1180.8944 898.72034
1022.5022 1325.6012 1362.0885
1261.8638 1243.5555 850.05157
1085.8273 1133.5637 1774.151
1020.1893 1038.7587 1.1665614
980.39905 1111.8464 12.853236
1191.2104 1128.5535 1287.2473
1032.7567 1235.6426 1662.4198
940.05042 1211.7383 824.6889
1102.9211 1300.2761 1294.2537
1220.179 1230.1814 171.12576
1248.8132 1255.8943 848.98755
1194.0342 1044.4084 1.149424
1035.1937 1193.9143 165.41379
1451.9121 1263.9332 1479.2059
1107.6368 1135.5237 1560.4272
950.71814 1229.7687 783.65631
947.42407 1173.0005 808.39429
981.8147 1296.6285 271.84421
1208.8164 1277.5427 806.42847
947.54333 1282.9546 1006.8916
1037.2661 1284.3296 842.48444
1049.0865 1286.7567 206.63571
1154.269 1192.8618 1774.8174
1063.8445 1228.2053 153.21738
1105.9595 1099.0597 1763.8311
962.43964 1214.2708 442.9725
1048.436 1121.198 1761.6404
1195.9127 1221.5859 1541.6681
1082.212 1296.3594 1726.4141
1274.0403 1216.2913 893.25598
1269.9397 1205.7928 859.93475
1147.0896 1208.6458 148.78456
989.07446 1207.3771 576.40662
1147.2971 1088.8599 1423.7213
1130.0741 1256.5601 875.57184
994.8103 1198.2042 252.528
1081.1118 1064.3424 1388.6189
1097.1348 1323.9117 1490.105
1140.7869 1294.8042 1129.4087
1030.4723 1250.9995 1660.625
1123.0349 1145.4658 21.363646
1140.8336 1171.4622 609.03699
1029.4287 1288.8156 1484.25
1213.6448 1176.24 1360.4542
960.97815 1234.3895 1105.7971
1165.5951 1262.4043 1153.8206
930.81342 1211.6683 871.41595
1069.5085 1284.8136 1473.4899
1259.3936 1167.8092 1463.4955
976.62671 1151.9004 2.8288786
1132.3833 1221.0508 448.31708
1025.4165 1196.9258 1664.821
1236.1731 1144.3593 1064.2037
1030.6871 1154.9805 1493.2854
1035.2383 1034.5814 56.566387
1194.6895 1319.8315 1057.0334
1184.749 1195.8884 1239.1129
1050.7522 1208.99 237.65483
1221.5035 1137.0964 1096.0734
1097.6818 1310.5782 1496.2985
1012.5792 1192.4368 178.93613
1065.7063 1235.2478 244.28447
963.59705 1234.5083 271.11652
1079.7487 1265.4299 1773.0422
1657.5692 1249.0123 1454.2493
1063.0063 1187.4434 1785.3196
1172.0745 1141.5754 661.48895
1361.2019 1229.3865 1507.5415
1133.2766 1048.7622 46.950722
1173.8228 1119.9404 846.7348
1146.8303 1201.8395 347.07101
416.29749 1243.7739 1488.6139
1156.0696 1137.5907 1742.4926
392.84164 1275.347 1473.5945
1096.4452 1131.6855 1775.7181
1117.7664 1124.4495 1454.8564
1117.738 1090.5342 1086.5402
1028.3408 1338.4539 1359.3649
1201.9993 1172.3811 4.2062755
1139.8374 1162.6899 841.00146
1125.7336 1256.2986 351.73013
1147.4929 1145.7255 875.92914
1196.9142 1200.4841 157.7907
1077.2224 1376.3621 1342.6487
1306.1774 1233.0889 851.77478
911.67139 1165.3293 958.79517
1142.0747 1272.511 13.404934
1307.1309 1233.5997 1427.8657
1061.4642 1205.3916 2.8885872
1162.9445 1258.557 1664.2092
980.70953 1272.0393 206.82616
1038.6244 1319.605 1085.312
1170.9354 1288.9598 1482.8959
1251.0989 1152.7634 1002.3256
1025.4314 1194.6562 1723.446
1168.676 1189.2068 275.94986
1176.2782 1317.6902 1081.4869
741.02338 1197.6238 1459.0707
1207.9823 1194.6787 339.73541
1066.0662 1233.8777 256.99063
1048.8257 1106.988 1090.896
1277.1519 1231.7576 974.90295
1183.5281 1141.9197 1217.2159
1082.9222 1314.1355 1062.4695
408.97192 1198.5492 1455.4038
1144.2412 1267.7478 1336.7551
1203.1927 1161.9421 75.652832
1294.3229 1166.9889 896.33459
1219.5477 1111.2333 18.914513
1143.0311 1287.3856 372.49515
1047.7434 1172.4156 100.12556
1133.1261 1140.782 60.531761
1068.814 1169.016 1690.287
1509.6083 1228.8807 1508.4836
1173.1066 1308.9456 273.85757
1021.2325 1116.7341 1012.1449
1110.071 1253.5576 1306.4259
1062.7125 1213.429 10.27529
1276.981 1195.7939 955.09406
1158.0132 1197.5002 362.43585
972.79413 1205.3435 1372.079
1271.6067 1272.801 997.91174
1205.2095 1120.38 859.13904
1205.0748 1236.6288 1352.0068
981.82544 1160.0732 1412.0535
989.84723 1157.8284 60.819649
1006.4727 1156.0491 583.74768
1068.5731 1252.8453 1590.8362
1175.144 1320.0392 1409.347
882.85571 1239.9152 929.52832
1270.2141 1181.8341 899.10315
1013.7239 1289.6342 1395.7913
996.13403 1197.2767 6.6579971
1053.1652 1341.4364 1423.1967
1135.5018 1100.8079 1079.9724
1297.458 1228.1001 827.44281
1039.8855 1341.839 1415.1865
1003.5043 1134.7346 1477.6213
1044.3942 1136.7943 875.24078
1078.3079 1212.3889 1789.4796
1107.9315 1284.7091 1407.1799
1879.8206 1197.574 1476.1986
1205.3352 1152.0985 1500.3954
1112.5934 1289.7733 1584.1934
1053.973 1307.3934 951.89124
1150.1234 1204.0918 120.26663
981.73065 1248.6399 57.909512
1206.913 1269.5225 14.584381
1063.2654 1106.5397 1073.0664
1049.1907 1259.5647 1332.2905
326.96225 1246.0112 1466.532
1045.1831 1272.6466 1668.3716
1084.9973 1092.7532 1240.1655
936.92188 1172.9178 852.17328
1150.1875 1188.9583 1780.9891
1134.2329 1251.0735 203.23593
1130.2637 1180.5336 1563.2374
1211.9961 1216.9232 177.27174
1601.0143 1214.2017 1497.0748
1243.1714 1263.8201 1099.2925
988.82043 1246.6648 0
1072.7462 1119.9803 1743.6554
1235.3245 1278.2332 399.32501
983.45801 1237.9797 79.46209
715.95728 1223.6251 1441.5936
982.7666 1257.5005 7.5426497
491.59338 1250.8384 1451.5383
1050.6163 1251.3435 1310.0906
1022.5184 1043.0433 0.98227715
1022.2146 1306.2567 1096.1012
627.55762 1206.1547 1489.4652
1151.9629 1203.9265 247.88681
1059.7258 1284.2224 328.8822
1126.5703 1239.1001 349.73007
1215.8798 1148.3766 1421.979
1781.7108 1205.1196 1484.8763
1028.0714 1217.5112 1638.405
1041.1201 1026.0095 41.243217
1115.0803 1313.3364 1290.0159
1095.0057 1120.6078 1034.886
1168.6067 1148.3547 88.209091
943.60535 1188.1161 1062.8159
1101.5801 1109.0513 1138.2571
1040.4364 1103.5128 1649.2297
1005.4937 1300.3124 253.50223
981.79608 1242.0403 68.351486
1033.0002 1326.9749 995.80933
1126.144 1301.1808 1296.2904
1151.7118 1113.6005 1682.141
1219.8882 1294.9199 175.87437
1169.6285 1307.78 1096.4346
854.54932 1187.8073 1464.0258
1622.2952 1222.1764 1450.7131
1047.0494 1151.3041 1757.6831
1165.6104 1325.5808 1038.1277
1008.9664 1309.4951 321.19464
1200.0833 1181.1478 470.5415
1052.2563 1289.3817 276.95108
385.02179 1223.0387 1459.5824
1161.7211 1067.8771 61.538383
1840.1238 1222.6843 1484.2959
1169.3046 1169.2479 1729.6512
1319.9252 1229.2676 936.80957
977.14362 1171.5883 1509.4617
1236.6555 1216.8082 402.79535
1201.6655 1195.6276 270.79636
1105.2198 1252.4158 1307.0094
1027.9373 1237.3035 1610.8396
1105.6954 1340.8557 1397.2268
933.05359 1192.8253 887.08362
1790.2166 1254.8997 1453.4098
1191.3774 1194.9675 162.23965
1003.7207 1257.6414 706.50073
1029.8365 1181.6267 1679.8418
1022.0148 1217.3175 1214.3315
1125.6041 1262.8649 449.10095
1060.6539 1336.4142 1327.1262
1169.1499 1191.7776 391.60538
1213.1353 1196.175 1354.957
1524.8164 1205.2258 1496.077
1020.6013 1285.7795 1438.2188
1036.8622 1131.9498 1040.2628
923.92896 1238.2773 1430.048
1028.5989 1190.1875 330.97644
1147.6812 1033.2452 46.863388
1099.5857 1316.6184 1007.0446
940.99469 1249.3838 907.26953
1130.7732 1233.795 58.097054
1157.506 1187.9194 1773.3445
1066.5664 1225.5583 332.87646
1090.1555 1189.5316 968.27698
1799.5466 1247.5303 1487.8209
1091.899 1167.7002 1537.5424
1217.1196 1222.6003 185.93658
1185.207 1274.8813 764.81763
1042.9126 1201.0205 176.77216
1239.7977 1224.4613 274.66992
1240.4033 1147.9978 852.90161
1188.0028 1184.7018 356.32544
1031.9648 1167.421 3.5952213
600.22839 1211.5895 1451.9666
1024.989 1258.4049 1685.6257
1085.1748 1135.1761 1776.3884
1092.6676 1239.1497 942.46741
1024.217 1042.1957 1385.7941
943.78186 1245.733 1049.665
1185.8685 1304.5155 1333.1798
1115.7456 1188.0833 1681.7178
1274.2888 1243.566 885.11914
977.93372 1232.7261 142.50687
1214.6014 1226.9023 1339.7231
1199.3445 1275.9731 114.31627
1252.6685 1160.7305 870.50916
865.83801 1243.1342 1443.7133
1035.311 1126.1401 841.10181
1375.8081 1261.434 1483.3752
1056.0125 1299.2911 1298.2759
1044.8423 1287.9392 185.49387
965.72345 1146.9904 817.15613
975.8949 1238.3083 146.37952
1033.5505 1147.8193 1675.4121
1147.8094 1251.218 549.93506
1108.5566 1248.2876 1310.14
1022.7679 1255.2446 582.06885
1159.2352 1206.6709 2.204922
717.71027 1266.8251 1488.1323
376.86322 1223.3918 1485.093
1132.9678 1234.1218 32.953274
1033.5184 1213.1565 1765.2529
1021.5052 1282.1735 1442.4573
1028.1594 1196.6586 1752.4391
1312.8225 1243.5767 907.56335
1115.0918 1287.6534 1622.7822
1141.5729 1137.0486 1472.6973
1153.5828 1220.6989 1623.5452
1165.3623 1019.8312 2.1404381
1005.4997 1133.6265 1284.4946
1382.3307 1246.2124 1446.7689
1119.7972 1139.5753 1479.6587
1021.5208 1290.9468 927.18237
1157.3406 1266.1528 1658.3428
999.82373 1170.7246 1189.4968
969.9751 1279.6289 443.77567
1175.0619 1214.5209 1533.1807
1257.1681 1249.7654 844.28448
1203.7339 1129.9852 1463.4528
874.17053 1249.1172 1446.3242
1264.1201 1250.4384 1004.1877
1033.5424 1191.8252 297.70752
1246.2856 1271.3038 855.94061
1208.5681 1271.0697 63.654915
1062.97 1085.3374 0
1257.1943 1204.761 1430.8116
1106.9402 1082.6589 1354.0945
962.58881 1247.0527 253.8172
1084.6346 1101.9838 1624.4973
1105.4618 1336.2222 1676.5422
970.46527 1284.4453 870.73535
980.72021 1206.6782 48.773384
1216.3608 1282.4976 1442.0629
1139.7102 1289.4623 1709.1985
1228.8463 1269.2 466.68396
984.31592 1171.9421 4.210247
1096.1774 1100.6484 1077.783
1026.3037 1188.2185 1747.2812
1173.9718 1186.1844 325.73993
1141.9078 1089.7842 1285.4232
1227.3263 1290.1857 344.00275
1070.7202 1235.83 391.71371
1642.9307 1261.6036 1460.9436
1091.5737 1242.365 1584.8378
1216.1002 1210.3541 259.6694
1144.2546 1272.3899 1630.1707
1185.4403 1115.3339 1001.6965
1315.0023 1204.17 844.12701
1025.6311 1131.205 880.84729
1276.4517 1165.3499 974.33081
1056.5903 1257.7029 90.305458
1028.3423 1240.1891 1698.8639
1196.9998 1136.2491 1105.4885
999.04315 1210.8083 122.45926
989.49451 1199.0901 1336.1042
1101.0792 1340.5291 1414.1968
1072.074 1182.4785 670.45477
1142.2378 1158.9012 647.56952
1754.3538 1259.6207 1484.191
980.74072 1277.124 186.11885
1006.9671 1177.4166 521.9043
1075.5184 1237.2124 472.73486
1222.6726 1285.98 183.43352
1436.9329 1261.2513 1487.0131
1061.1553 1142.8032 1003.7395
1058.6707 1120.826 1040.2654
1275.7645 1208.9888 977.9989
1234.5117 1212.6276 426.20667
1066.8529 1277.7644 1615.353
1087.4835 1058.796 1350.8844
1076.9645 1092.444 1249.1411
928.8551 1240.0245 869.73193
926.95361 1226.5786 884.9267
1182.4531 1314.3693 1336.408
1015.8693 1303.0264 263.30066
1174.424 1134.5796 0.41189936
1076.864 1182.6764 904.06763
1148.8219 1222.1447 1537.2539
1195.5571 1188.1663 5.7284746
1059.1621 1137.3551 1588.5188
1024.2543 1293.9392 29.056904
1084.8744 1129.2808 1774.8442
1071.8752 1237.5415 405.08157
1106.1001 1097.8499 1690.1121
1007.7739 1124.2168 1099.6143
979.74646 1268.4204 170.60211
971.34082 1210.3884 501.57904
1139.5847 1122.5208 1731.7262
989.0271 1135.9318 1496.7107
1643.0074 1267.344 1470.7802
1042.1227 1155.6342 1499.3784
1075.2891 1113.1067 1099.6669
1169.5378 1234.9673 1191.3333
1021.2973 1120.4893 1036.9158
1229.5085 1284.7241 368.39072
1027.6794 1338.512 1379.6442
1664.3354 1221.2645 1455.4174
1143.2335 1038.6021 49.584572
488.11926 1261.4052 1462.5972
1114.4226 1344.6625 1400.9753
1023.6299 1175.1709 1726.8779
574.98749 1229.0847 1500.3152
1139.3564 1162.2322 1779.1401
1211.3694 1287.0441 1100.9523
1142.574 1305.1226 1113.3712
698.60852 1239.1951 1507.9169
585.4693 1266.2256 1482.9302
998.54303 1204.9058 1307.4202
1262.9526 1184.1421 843.49805
704.33337 1262.9265 1495.7543
926.25299 1249.4817 903.11047
417.65112 1259.2039 1453.2383
1032.8949 1254.4375 1656.3038
1052.5009 1257.0105 535.6781
1152.3937 1239.1553 0
1136.3845 1221.8403 1598.8861
1022.7825 1153.0964 1747.4285
1027.7882 1176.7513 4.5164671
1165.608 1245.6309 0
1055.8859 1091.7778 1274.6965
1104.4059 1240.4788 1585.4526
1241.2816 1275.326 319.16525
1105.1783 1267.4517 950.46704
1083.3428 1285.215 1443.4368
890.33447 1185.5073 1476.5065
981.28241 1198.1323 47.939629
913.02063 1226.5815 990.11157
1072.5018 1131.7189 1722.326
1211.2244 1076.2332 37.031544
1067.1987 1274.8635 1376.3674
1167.1975 1288.2148 114.82336
999.30554 1191.6796 382.01678
1107.1699 1278.7217 1459.2289
1083.2937 1150.2998 1784.53
1241.4082 1140.4834 860.60779
945.30518 1198.4824 1107.7172
1127.0293 1313.9497 1498.3696
1157.3331 1184.4159 1610.4268
1118.7737 1291.6191 1676.4551
1073.5275 1318.6174 982.36206
980.59076 1277.8431 169.62216
1127.5601 1297.8413 1704.2119
879.99786 1230.5558 939.99249
1051.7024 1196.4531 1783.9446
1096.7815 1225.739 1792.6819
1058.4847 1238.1443 622.01294
1069.3623 1102.8542 1083.2438
1219.595 1203.962 19.956099
1124.7321 1154.6003 26.052486
1097.8743 1114.4885 1037.9226
1034.4155 1151.3984 1701.012
1069.3252 1260.2704 1344.9646
1233.7838 1230.1381 270.94894
1005.299 1113.9116 0
1054.0791 1275.1824 1374.0303
1145.271 1279.937 1647.8199
970.00983 1252.3759 185.85803
1167.3353 1274.7865 1315.3022
986.83521 1173.9868 1351.0148
1024.1503 1129.5895 1058.1735
1135.0789 1241.2269 691.55035
1060.949 1182.0977 590.47803
1069.8035 1070.7079 0
1163.5704 1232.052 1578.5521
1092.9647 1268.1013 1366.4691
1172.0939 1269.1167 1530.6245
1209.9636 1313.3177 967.54797
1024.55 1293.0303 20.29656
1685.4407 1239.1019 1454.1812
996.32037 1193.3413 337.65176
1064.0226 1117.6713 1076.8796
1132.0599 1250.5254 1775.4847
1637.7015 1266.2659 1478.4493
1176.0702 1302.1477 416.53693
1035.6931 1259.8275 1643.5741
1120.1924 1296.4701 1676.23
1192 1179.4957 109.5024
1018.1676 1143.7784 1496.6919
1111.8369 1292.7056 1646.3839
1186.2468 1187.5242 393.67444
1035.4403 1020.876 21.920555
919.03198 1166.4872 913.45447
1273.4839 1259.8082 935.84558
1093.4872 1207.9927 945.46558
1189.8185 1132.7874 1123.9657
1085.9639 1219.4008 1634.8295
981.72607 1181.4143 38.549061
929.12756 1171.011 909.38208
1197.1544 1126.5312 1491.9708
1052.4937 1139.7866 1476.5895
968.48444 1207.3806 437.01666
1236.5669 1269.8524 267.26575
1166.3083 1195.1035 1629.583
1124.9071 1216.0378 674.35327
1097.2633 1090.0068 1760.8218
1190.6868 1136.0089 1491.4688
970.05396 1257.1652 1120.2163
1089.1903 1323.016 1490.4014
929.02985 1203.4072 862.30359
1309.9841 1209.0669 1514.3293
997.57086 1192.6609 1182.2993
673.05017 1197.668 1467.5872
990.54932 1215.7305 581.98999
1069.4634 1235.4789 1552.8895
964.70422 1272.9279 261.22626
1170.3917 1300.9924 255.51025
1182.6533 1228.5453 1670.9973
1227.3113 1145.9351 1029.8676
1074.516 1282.2067 1454.9493
1153.4116 1341.4575 1434.2271
1158.1019 1021.4588 18.18309
1103.3373 1373.5708 1326.9099
1148.5022 1095.7444 1722.2224
840.31158 1201.2661 1502.3103
1212.7897 1301.0775 306.46124
979.77246 1112.5391 16.025755
1195.2302 1126.3363 910.53821
1242.8524 1231.9724 449.91687
1008.7269 1027.5177 2.5844254
990.61383 1133.7438 788.39325
968.62292 1290.6982 265.06445
1166.5261 1299.6606 251.65483
1232.5428 1173.004 723.21436
1109.0552 1103.8235 1775.6248
950.03772 1146.3645 869.04492
1163.4224 1272.1377 1708.9961
794.48962 1251.1259 1451.2771
928.44586 1163.2697 969.64075
1175.2526 1199.0562 6.6934385
1150.1177 1251.813 1623.7063
1176.7234 1242.8051 1684.6072
1108.3967 1280.0734 1293.6743
1148.207 1069.6226 1410.9565
1034.2026 1219.129 1656.0436
1259.0822 1229.2593 1093.7069
1059.0446 1119.193 1732.7504
1282.201 1259.8711 1510.0308
1222.6323 1242.4266 1130.5928
1058.0776 1284.5159 445.15964
1064.3232 1253.5094 1308.1482
1108.0481 1072.0176 1321.7408
1061.3984 1285.9172 1143.7563
1010.0667 1299.9795 1109.7985
1179.6178 1192.3816 192.50455
970.55231 1227.4934 251.19608
973.26343 1303.2358 939.87445
1008.0555 1172.5847 542.77472
1112.4652 1201.416 1793.2223
1145.5024 1140.7427 842.39673
995.82935 1216.1406 1326.5455
930.53088 1223.0852 1006.9911
1185.1067 1162.5469 1713.7987
1087.9348 1291.8944 1690.6396
1049.7317 1071.9211 1411.1688
1795.5076 1268.0861 1453.7325
1275.5006 1236.104 936.78552
1018.3772 1298.1403 161.41731
1195.0382 1288.5371 134.00519
484.10492 1216.0107 1485.8682
1084.2059 1272.0638 1141.5245
1169.1105 1193.5936 194.50006
1179.2327 1185.1442 266.21545
1241.8987 1156.7069 813.01831
1069.5591 1261.6553 343.09412
1042.7897 1098.5771 1686.4712
1101.1759 1087.1388 1760.5919
1119.9841 1238.4741 913.70288
1243.998 1268.3234 345.31332
1148.6989 1356.7841 1384.3672
1311.269 1219.71 849.62128
1129.6501 1035.1627 10.433105
999.51447 1266.7131 1387.3784
944.88965 1245.4395 1086.4811
1063.4001 1169.0582 3.6258421
1207.1671 1145.3107 1326.7433
935.2807 1201.0852 851.48419
1143.4906 1286.4048 1701.8728
1230.8956 1132.1569 869.87048
1129.8107 1282.8665 1474.0511
1154.3397 1289.0686 68.979073
949.01324 1148.7446 865.84851
1127.8789 1208.9523 1788.6034
951.10876 1266.7247 870.87909
1741.3223 1203.5486 1475.4756
1163.1848 1263.3701 721.14502
1135.0162 1167.4189 689.0274
928.56757 1226.1267 861.92474
1043.7673 1137.7803 1704.3125
958.2644 1146.8962 1062.1351
1054.389 1284.4694 1471.8889
1011.3513 1285.109 1439.976
1122.4589 1223.9644 1788.2649
1073.4613 1162.3126 1783.8635
1026.5239 1161.9076 1717.3054
1263.8302 1225.0767 839.35132
1001.6697 1127.2581 1087.3181
1067.614 1260.9828 274.65506
913.47595 1165.3081 963.59625
978.42468 1282.2638 180.30623
1015.8114 1129.1276 751.82086
1211.5754 1216.3838 178.26054
357.11526 1275.0277 1473.3192
1172.2034 1135.8765 1032.8606
1191.1678 1191.7716 276.38882
998.09369 1140.2877 69.499237
555.54871 1209.8732 1469.3567
1006.3633 1246.0537 667.07251
1177.8385 1296.4473 135.2766
488.79593 1267.5244 1470.3682
1207.702 1118.8849 1009.4504
1260.3959 1158.0863 969.56787
1026.6262 1180.8448 1535.5364
1280.5021 1232.2507 972.95575
1432.5691 1231.2538 1442.918
1132.4052 1243.347 154.00957
1079.3695 1340.9188 1417.1521
1053.5001 1212.4677 0
1067.946 1212.4807 1788.7031
1040.6538 1227.0586 1634.7812
1067.1709 1326.8496 1078.7197
1040.5363 1338.7057 1434.1113
412.96692 1266.8375 1480.9713
1165.8784 1318.1243 1312.9574
1055.2623 1147.297 1765.4882
593.34387 1260.0403 1495.5952
1182.7787 1157.3159 1683.7939
1242.7656 1246.41 1109.6689
1222.3794 1200.4099 1423.358
1192.8956 1188.5759 347.33844
929.71661 1175.7219 891.26843
989.09906 1277.2808 176.00874
1005.7684 1199.9669 127.40614
877.44147 1193.4814 950.65735
1123.8312 1296.0593 950.65417
1129.936 1171.921 1783.5845
1179.8125 1293.6577 43.85994
1163.8601 1137.7805 1684.512
1303.6415 1166.1433 915.85596
1187.0894 1300.9971 1093.8505
1126.3655 1289.906 1748.322
970.68311 1296.379 328.34659
1149.7896 1121.6882 1068.8435
1165.9866 1239.3459 1633.3608
1145.1831 1234.8662 1248.7831
1146.9801 1287.454 257.76773
1122.0951 1242.4535 907.73145
1011.0053 1051.3856 1350.1047
1067.0205 1226.7759 534.58954
1043.7732 1274.5063 1651.7029
1287.2925 1240.4745 877.03296
977.22058 1249.3401 1133.0231
913.07953 1233.8752 846.4696
1030.2319 1257.1212 1326.8541
1031.1719 1194.553 1683.0203
1085.8423 1296.7246 1632.6395
1037.6189 1223.1179 1768.5826
1039.9457 1299.868 329.93347
1200.0662 1280.4894 27.156996
1262.8359 1228.6836 874.06036
1050.9658 1202.1033 1534.5554
1160.2689 1302.5789 311.21902
1002.4313 1305.9939 303.45926
1054.8186 1246.4221 1603.5734
1180.7905 1160.0061 1693.2739
939.94696 1227.678 1093.1265
1042.9961 1201.6708 232.06387
1062.8585 1341.4843 1402.2456
1103.3762 1313.5729 1043.4956
1595.3687 1263.4089 1491.9701
1077.8047 1262.644 1774.2545
1044.6262 1289.0922 69.351761
887.77307 1185.225 863.30994
383.4584 1257.2009 1465.2637
1052.033 1264.043 1633.156
1018.506 1302.9617 338.6846
997.1286 1080.4192 1327.3093
1234.0658 1285.1262 351.80554
1159.0922 1243.1143 1636.2798
939.47668 1170.912 1493.2987
1155.8494 1130.9202 72.888062
993.2829 1241.0737 0
1279.9456 1259.0002 991.29022
1096.3693 1255.8274 1565.3075
1021.174 1241.7736 1679.3092
1014.2832 1292.0591 49.579185
1270.8513 1227.6971 854.97821
1034.1644 1264.8369 726.27832
1109.3601 1219.7397 1791.9902
1048.1055 1277.6658 1391.2975
907.53784 1165.333 952.15692
1069.1195 1272.7908 871.72168
893.73425 1167.2651 884.64539
1046.0015 1170.9363 1774.3595
1073.5278 1251.6825 353.75192
1083.4113 1280.0575 940.59387
1021.3878 1180.0476 1536.0071
1152.3484 1169.8386 1768.7058
1014.2423 1133.2594 1143.0375
1257.1556 1165.9565 888.3548
1062.9426 1228.7225 15.483091
1228.426 1175.0736 1514.0437
1151.4907 1036.2798 53.975048
1125.9612 1292.7245 1554.7908
1225.1694 1167.7683 1379.7025
1039.4769 1283.0055 1479.0269
1209.8132 1249.6449 100.85721
1023.8228 1129.3691 1218.3481
1110.2603 1298.7496 1667.816
1039.6752 1278.2262 1403.1301
1244.0728 1252.588 1081.741
979.7193 1263.9301 175.12453
975.55182 1291.5289 331.79889
1077.5229 1219.9575 755.12451
1240.7424 1218.7262 1106.5896
1154.1892 1271.3459 1648.5364
983.34863 1266.1494 1127.196
1092.4855 1105.4545 1185.1443
969.64996 1226.4568 1532.811
1091.3311 1294.6309 1681.1362
1151.261 1149.7406 919.91534
1199.0262 1128.5254 1077.5237
1161.7424 1141.7706 1732.6517
1116.9657 1268.205 1365.3889
1142.5731 1268.2162 164.22353
1126.829 1218.2345 1651.8864
875.18665 1245.7104 1430.8325
1132.0402 1139.8624 1766.0983
983.00732 1185.8679 51.619526
1180.8345 1269.1814 737.75647
1068.8434 1188.6516 77.419708
1062.1738 1111.2721 1053.1355
1237.7762 1305.0436 247.38237
372.64417 1194.5857 1476.7017
986.99744 1133.7024 980.93372
1008.998 1304.9517 252.88394
1125.6699 1293.0439 1497.2527
1017.7544 1295.4432 453.44452
1271.7312 1192.1208 991.61975
1154.3417 1130.2029 0
1145.0128 1288.3287 285.62323
1216.6279 1186.7219 42.537727
1073.4624 1078.7639 40.803921
1174.2313 1257.1865 1707.7034
877.13281 1236.9792 1432.1924
1017.0935 1239.377 1673.9403
1073.5864 1114.4938 1038.9348
1209.0388 1115.1028 45.212769
1145.3669 1141.9584 984.07208
1055.5439 1206.8147 284.5134
1062.7211 1231.6415 180.30292
1144.7678 1315.0859 1305.093
1077.002 1176.0684 967.14038
1153.2207 1250.0408 578.77228
1149.8403 1290.0579 867.03229
1144.7842 1283.7126 1653.2322
1093.0779 1296.8289 1679.4521
974.77521 1162.2545 1383.6433
1791.0165 1226.4387 1456.6306
1052.2614 1223.994 1780.4242
1180.0133 1060.9446 1405.1936
1218.167 1124.1166 855.74878
988.95905 1173.905 67.519661
1036.5498 1292.5171 142.9662
1036.7173 1179.5654 488.76648
1130.0389 1270.1157 395.40683
990.42047 1055.084 28.243233
1190.1292 1147.8859 1501.4271
848.35089 1215.0387 1440.2594
1233.9695 1278.5874 332.11652
811.53394 1254.984 1455.2778
927.80975 1207.7212 876.22998
929.83856 1227.6639 844.5144
1296.3566 1218.4297 1522.7212
1028.0245 1129.4452 1106.7881
1061.3547 1153.1965 2.1103101
556.61719 1210.0869 1468.6943
1215.4326 1312.5203 970.39148
968.55566 1287.4749 937.06897
1109.7319 1299.5889 1655.3363
1136.1089 1322.276 1042.7455
1044.0917 1175.0039 1768.5615
972.17139 1286.5619 367.71506
1169.1602 1194.4297 217.89856
1219.255 1277.379 828.63733
1221.0013 1228.0654 34.344856
1105.452 1271.3418 1377.592
1023.4216 1128.4901 1738.3171
1021.6996 1132.5662 1217.1897
1170.6617 1228.0414 1675.4575
1248.1565 1162.8132 839.22815
1112.8752 1279.6467 1480.5764
1172.8696 1292.8379 19.518242
1062.708 1280.9604 1745.0667
1510.6371 1236.7521 1509.25
1016.2379 1273.1504 1384.6053
323.70258 1227.0374 1466.6678
1104.5635 1128.4209 1729.3413
1242.4287 1146.0972 989.56628
972.40906 1196.7454 1143.2169
1281.4641 1165.5466 947.7605
979.92212 1146.9414 1453.3818
1183.4614 1300.1309 231.0864
1024.2361 1302.7393 265.89059
1069.1224 1272.5433 359.18033
1221.9573 1134.0864 921.08105
1708.4961 1253.4025 1452.5251
1225.6069 1194.16 1528.7871
1015.1838 1186.4126 253.45393
1130.6647 1290.0249 1684.609
1072.7932 1163.0059 1783.6084
1009.5815 1175.2169 515.75568
1022.0836 1231.6813 1717.6165
1236.2706 1307.567 1001.9228
1067.6375 1129.407 1025.3361
1243.4077 1291.7601 938.89258
1000.317 1129.6785 936.27222
951.10535 1134.7537 974.4646
1096.3829 1275.7352 1293.0077
1243.4276 1237.7739 333.26083
1224.5542 1272.0951 186.05649
1132.8472 1254.5164 1777.6055
1212.9114 1262.9736 744.15393
1067.2095 1214.9635 1783.8704
1180.6411 1127.2057 859.98755
1115.13 1122.373 1735.4629
1225.4653 1148.7391 755.78455
1069.2769 1257.6833 481.70898
1064.7548 1271.496 906.16016
1274.8506 1193.2069 934.13702
954.6239 1263.0735 848.56744
987.46356 1073.4738 36.040169
1138.6071 1339.1312 1355.8234
1266.09 1280.292 1000.6274
1012.9489 1303.0327 1335.8201
1031.0211 1201.2283 1681.1494
908.45959 1194.7817 1513.6721
1051.0815 1106.051 1092.1067
1139.8328 1126.3315 1741.4707
1057.136 1263.1918 518.15424
1064.3612 1030.2382 30.473135
1130.9288 1097.4904 1048.1129
1241.8141 1266.7782 395.95566
1029.0331 1246.6853 1733.0527
1200.6631 1312.6497 958.37476
905.16058 1269.7959 1457.7325
1008.0304 1224.2649 1303.0917
1093.9318 1125.5616 1019.7425
1031.8359 1114.5858 1088.7938
1276.0521 1195.7416 943.09589
1004.9265 1093.3175 0
1020.2961 1239.392 1697.1901
1026.2606 1204.8992 1713.2061
1506.9172 1265.698 1492.4547
1060.0022 1278.9714 1390.8513
1090.302 1209.4735 1796.4269
1221.2041 1206.9116 534.56067
1817.6879 1256.5529 1475.9409
1123.9994 1304.8124 1444.178
1274.319 1221.5144 896.07428
1034.9056 1251.4093 1656.036
1141.127 1373.2649 1355.9939
980.39441 1107.3522 29.862547
1009.4246 1195.3723 174.76569
1315.2014 1184.2596 894.49194
1203.6125 1131.3556 1064.6561
1325.2997 1225.1692 1439.4293
1266.7262 1186.1992 862.94971
1079.4612 1290.5034 1500.9645
1219.8341 1271.5614 482.09323
1128.8063 1058.3948 39.856071
1067.861 1274.4088 854.26685
1188.3611 1137.4316 1466.9169
1078.1846 1193.4623 823.25348
1216.511 1197.1039 350.57248
1127.6599 1240.9001 774.12378
1134.208 1241.9176 1594.8813
1026.6792 1294.458 1449.0118
1116.0358 1200.5367 748.98535
1040.0625 1272.0856 1364.0211
1022.981 1318.4639 1078.822
1119.1979 1221.7108 1608.3702
1111.8203 1262.016 1345.845
983.65845 1234.7726 1145.9283
1077.3875 1179.5591 1787.7162
1133.4294 1222.4463 621.94702
992.48853 1277.993 142.42754
1054.7739 1285.7004 1717.9736
988.34741 1209.3628 233.30946
817.24976 1211.0012 1505.7035
1205.1537 1275.949 49.159237
1062.5754 1124.6178 1592.533
1049.2942 1114.2518 1755.876
1137.795 1208.2931 311.82285
1058.9398 1279.9548 282.9519
1102.7272 1217.657 1660.2782
685.23822 1205.2476 1447.3571
1269.2505 1209.1642 857.00171
1141.3992 1214.0646 266.55679
1080.3535 1284.0608 1752.0378
1127.5901 1238.9968 344.03571
1175.726 1134.8684 1728.8113
1173.3314 1162.5239 3.1345046
1141.8523 1097.8954 1740.983
1200.316 1196.9016 1299.6992
1742.2255 1197.6577 1455.1543
1206.6986 1277.651 1124.1733
1215.8596 1258.3755 31.884176
1083.2389 1184.2155 929.92322
1054.2036 1276.0709 126.13307
1763.9917 1196.0253 1473.1987
944.16266 1163.048 1075.4503
1168.2271 1291.0031 21.173599
1035.2109 1318.9373 1060.8123
1166.5265 1171.8057 1752.8363
1036.8806 1233.5575 1767.9542
987.04712 1198.4468 1349.3926
988.24536 1276.7822 158.92755
919.43854 1257.7365 988.34473
1136.2715 1273.3325 367.64191
1080.4937 1206.8187 712.46631
1744.7178 1205.73 1479.6455
1226.7899 1136.1262 922.56665
976.15198 1276.2603 831.11206
1113.5634 1339.3119 1343.7855
1175.6589 1229.3622 1713.5913
1031.3173 1285.2009 1499.7771
1181.6582 1287.5377 846.30988
1198.7175 1125.0426 63.958103
979.69568 1202.1775 534.18121
1042.2617 1174.2239 535.08606
1131.2889 1171.5907 723.05939
1372.6967 1194.597 1453.6338
1025.7668 1158.526 1722.176
962.11371 1160.2505 770.9646
1046.6255 1140.4348 964.26373
1111.2921 1330.0817 1436.9307
1089.4196 1284.3029 1442.9827
1055.8337 1213.9313 132.28473
1270.3325 1185.418 895.81134
1175.851 1272.9606 1385.9666
1199.604 1187.6497 413.64465
1034.3208 1305.6287 1110.1868
1074.366 1284.2714 1441.249
1137.9144 1232.9469 573.75867
1106.699 1249.0681 1785.6682
1275.2352 1167.183 899.59253
879.96832 1262.6615 1464.0958
1160.1672 1176.5383 1764.4229
1103.5656 1340.4427 1383.0505
1220.2037 1234.2881 692.32568
1735.2025 1218.0984 1486.9066
1078.7325 1315.6984 1672.3474
349.92126 1233.3364 1476.5167
462.18408 1198.816 1468.6337
