# .PCD v0.7 - Point Cloud Data file format
VERSION 0.7
FIELDS x y z
SIZE 4 4 4
TYPE F F F
COUNT 1 1 1
WIDTH 1611
HEIGHT 1
VIEWPOINT 0 0 0 1 0 0 0
POINTS 1611
DATA ascii
18.391348 33.366142 3.3768983
19.076124 39.431656 3.3038266
3.401403 51.137901 3.414474
3.3789299 52.60598 3.4378264
9.0277033 54.99987 3.4119382
17.835201 36.763119 3.5988867
17.807854 45.247063 3.56512
16.609287 37.416855 3.676502
4.4581079 50.204384 3.6468182
5.4383507 55.830074 3.6363783
8.9971476 58.524052 3.6921964
16.973215 46.592987 3.7693772
14.926118 40.115108 3.8232167
19.126427 41.260639 3.864615
14.568194 41.543053 3.8545752
18.565376 43.683174 3.8703299
3.7575676 52.727577 3.8465974
8.9072628 53.185715 3.8693871
17.891378 38.02726 4.0818653
15.407584 39.558296 4.1940699
14.689068 41.287418 4.1894355
9.9764376 56.655624 4.180182
7.8873577 51.350815 4.3198767
4.4399009 52.613258 4.3996267
4.3624029 52.88475 4.3632431
17.668867 38.628036 4.4405432
9.1578026 53.555588 4.6200075
20.228214 42.964378 4.7193842
14.437576 46.888756 4.754478
15.168194 40.313583 4.9156876
19.858751 43.664925 4.9192572
14.124588 45.171761 4.9160185
10.135921 58.532215 4.9844055
19.298044 39.848042 5.051331
20.045633 43.424019 5.0419087
18.69043 38.923531 5.1409917
17.319901 46.674377 5.1436057
15.401106 48.095688 5.2032065
16.23119 39.33699 5.4216962
7.0824184 51.205742 5.5430484
4.5848942 51.664474 5.5789046
5.8794546 51.371628 5.6884155
9.5412674 54.679321 5.6804819
9.7277966 55.126484 5.642684
7.859664 59.485039 5.7543173
18.647121 38.845825 5.9428015
13.464205 40.578529 5.9831853
15.163089 40.680786 5.9878907
14.533155 42.604275 5.9820166
14.320126 43.871696 6.0605173
8.0892868 50.325775 6.0727086
10.205104 56.5979 6.0997229
15.083845 40.848061 6.1411171
12.835867 43.483494 6.113822
5.0262313 52.439972 6.1377563
6.1927619 57.5616 6.1212959
13.486078 45.624622 6.2857542
14.677441 46.900433 6.2528381
15.596371 48.08823 6.2226372
19.065605 42.317871 6.359499
8.93923 59.660641 6.3493185
18.269545 38.32777 6.4361563
17.429281 39.698185 6.5446253
14.352571 43.94598 6.5947647
16.046335 47.772152 6.616117
9.5911455 59.363678 6.6852417
5.2726107 49.597748 6.7653718
12.805778 42.851353 6.887197
20.387531 42.92392 6.8397503
20.381262 43.37241 6.8676949
14.41692 43.530838 6.9966125
6.0584311 57.179512 6.915401
20.02058 43.930542 7.0360746
8.7465439 50.511665 7.0942345
19.191643 39.711094 7.1362982
5.0250397 49.923992 7.1191292
14.831522 46.983025 7.2377701
4.6716003 53.743477 7.3165627
17.248932 39.720886 7.5095224
14.316214 44.146889 7.5134315
3.8387396 55.493496 7.5460691
13.324049 45.609451 7.6866217
5.2663946 57.171417 7.6819572
8.5869236 59.379051 7.6589937
4.8515763 54.623722 7.9430647
10.733821 55.910244 7.9178996
16.023266 40.06044 8.0182085
8.4753523 51.965576 8.2235613
10.714439 55.889252 8.2292948
20.327553 42.286652 8.5201826
18.598717 44.654285 8.5152349
3.4948354 53.838009 8.5300484
18.586447 38.96376 8.7290449
5.056735 56.676273 8.7649441
18.15489 40.092789 8.8692083
10.449875 56.580547 8.8838224
18.039873 38.22673 8.9662151
14.456136 43.064453 8.923315
19.27257 41.672955 9.0850821
4.587081 53.780655 9.0158825
6.8581309 57.295593 9.1753635
20.242332 41.920689 9.2752914
16.908493 46.898407 9.2427797
14.368002 47.225388 9.3911095
3.334846 53.745724 9.3555346
15.9333 47.374615 9.4861345
4.686625 51.517319 9.4206553
15.512756 38.650036 9.5978603
6.7162189 48.175106 9.5788784
4.8788538 49.021233 9.5276976
20.369884 42.242489 9.6802864
14.64608 46.492569 9.6047611
4.0834398 50.419662 9.634243
8.9443264 52.600052 9.6528683
15.50894 48.285896 9.7607594
4.4661646 49.674644 9.7095184
7.2314739 57.472549 9.7777023
16.632473 37.780338 9.8016729
19.13405 44.153881 9.9728975
4.2953176 53.053612 9.9270973
9.8182383 57.602715 9.974638
14.354937 45.541298 10.073071
3.4475865 52.093674 10.000096
10.866058 53.040085 10.062798
18.312481 40.168087 10.173295
4.8490162 48.715477 10.160016
5.6551623 56.917583 10.164897
18.818539 39.270622 10.252003
12.655011 43.366695 10.290298
19.401859 43.74234 10.284112
12.803034 44.270138 10.2349
19.071991 45.98764 10.483486
3.6187921 50.808956 10.44651
14.286467 44.617695 10.674812
17.592546 39.84248 10.738796
18.55932 38.939491 10.911767
14.598495 42.175411 10.999109
7.1395082 47.967667 10.953295
8.8719463 57.713638 10.943058
5.5492749 47.012074 11.029995
19.432892 40.073856 11.173513
19.937252 40.824108 11.16475
17.227333 47.01709 11.145784
8.6830568 49.054031 11.139215
4.7876387 54.38118 11.13627
9.5805569 55.163132 11.103711
20.282166 44.547874 11.243524
17.235132 47.387802 11.226569
4.7695303 48.180969 11.36394
9.1184149 58.0093 11.356826
14.397003 42.731937 11.564032
12.626297 43.859688 11.590666
3.6973946 54.637676 11.678884
14.308319 44.827297 11.746558
20.309418 41.814262 11.833064
9.5060139 54.519329 11.824499
7.7036729 57.205917 11.890797
8.7625666 58.251091 11.852179
19.67037 27.264839 11.950183
19.501591 45.740166 11.951424
13.860836 46.585335 11.940793
4.6801195 49.642517 11.972292
10.512632 55.317894 11.949685
13.932946 40.356026 12.060636
4.8473034 47.678589 12.061729
3.3489356 50.534874 12.025243
20.905403 43.337406 12.193766
12.787401 44.608109 12.185153
19.628658 26.543531 12.291622
4.8210063 49.383415 12.233509
15.622582 40.511002 12.308329
6.5242524 47.075218 12.332066
9.4265518 53.769241 12.323735
14.368132 45.507359 12.419357
4.372859 49.623302 12.432666
18.3964 25.31941 12.5157
8.7831593 56.840767 12.557981
20.739262 28.949497 12.649117
21.451035 31.493172 12.706461
22.647152 33.176418 12.851063
18.36924 25.44516 12.912189
22.980459 33.697353 13.07554
20.939711 43.267654 13.095623
18.287766 46.940479 13.011309
8.8143482 50.922569 13.145198
2.8357916 52.199711 13.17302
10.578705 50.872753 13.292595
9.4291534 54.840733 13.224373
18.474068 39.944191 13.491822
20.416626 41.923389 13.499218
20.674011 42.551868 13.513472
23.565548 34.327278 13.753092
16.360292 38.284035 13.756207
12.816076 41.898945 13.722254
14.182444 44.607971 13.756927
9.3424959 53.342026 13.764744
19.144814 46.493378 13.899636
14.283044 42.689953 13.987381
5.2441072 46.075729 13.991142
9.1418018 55.544312 13.929272
23.347488 35.31049 14.044569
2.8209748 51.362038 14.015669
17.962221 47.063038 14.102972
21.168612 44.229233 14.200415
19.492914 45.237297 14.235537
13.638912 40.759483 14.394277
7.6319208 56.737953 14.498214
16.503815 21.820618 14.536002
12.790339 41.872627 14.508055
19.536303 45.294659 14.572188
16.131315 21.404133 14.67017
10.675633 50.7351 14.658611
10.086782 54.737442 14.618814
12.942368 41.499947 14.797644
4.2189455 53.447601 14.759533
3.3679106 51.469421 14.898791
9.9616795 54.834663 14.85896
6.5799875 55.725204 14.880795
17.065039 39.714771 14.971905
17.594891 47.469421 14.960474
10.52983 50.051285 14.969744
8.4062605 56.953243 14.905339
17.309864 37.729935 15.052267
8.5801344 49.632462 15.136042
16.094372 20.100964 15.211749
16.087025 21.002157 15.217373
14.342113 42.41687 15.321175
12.686577 42.296619 15.411245
13.106298 45.760628 15.459651
6.4459634 46.004807 15.437153
10.710831 50.592857 15.411768
14.521082 42.050968 15.531032
14.107519 44.348335 15.557485
4.3004675 54.519859 15.577411
10.691269 50.442299 15.622871
6.2541075 55.357338 15.669276
15.509593 19.281538 15.740956
2.3153005 51.751297 15.774895
6.0309429 55.494202 15.849453
8.7514696 56.052551 15.828503
12.592754 42.749664 15.930231
12.785963 44.909599 15.963552
4.129602 54.247528 16.058395
20.91041 42.709793 16.123001
15.411987 47.866497 16.107372
10.459778 53.314453 16.13389
16.814383 38.189865 16.288982
13.068929 45.678368 16.258186
3.521332 47.760056 16.287546
8.1236153 56.338333 16.219088
15.907433 38.854248 16.503342
16.75654 47.97366 16.541555
6.6972022 55.294086 16.577957
5.8443394 45.217274 16.610779
7.3826303 55.839447 16.648964
2.632566 49.17561 16.915083
3.2509475 47.797466 17.024677
9.4642878 47.55497 17.16227
26.339853 55.25563 17.158184
36.489594 55.979321 17.156023
32.827724 57.950668 17.192413
33.785854 58.324081 17.197748
31.206167 58.56263 17.199247
5.8040314 44.974518 17.216585
35.716881 48.721779 17.217625
26.389542 45.643108 17.364681
10.232587 48.188404 17.35284
33.05024 45.00256 17.478043
5.1211343 54.532585 17.404835
34.639759 57.278446 17.497442
26.713804 42.103466 17.53097
3.2558515 47.473881 17.574202
3.5823874 52.486782 17.511982
7.044661 55.343662 17.536362
21.03433 42.79562 17.683941
30.963013 43.657497 17.670881
21.438364 43.784073 17.645061
9.1901255 52.601631 17.68874
29.536961 45.325058 17.721649
13.147902 45.882767 17.708698
2.5908477 48.65733 17.724272
2.4898214 52.381042 17.720848
6.9916821 55.238876 17.745243
27.58633 56.077072 17.75131
29.150023 43.911694 17.83917
2.6325202 48.36235 17.891912
36.086067 53.616871 17.877239
6.2110796 54.861748 17.815519
25.813482 52.231377 17.9006
36.195976 55.277 17.952898
16.428255 38.588287 18.084883
20.365025 41.295315 18.04274
27.459967 42.616814 18.008736
27.554949 45.306713 18.098175
29.13908 44.124393 18.121786
21.496283 44.739365 18.159639
28.722279 45.126862 18.154007
30.865988 44.194553 18.272543
7.1122522 55.098434 18.246483
7.5647264 55.307571 18.230139
19.203907 46.859909 18.318834
36.295273 49.777 18.432558
4.3138542 53.748837 18.489992
12.77767 44.92049 18.586809
8.5763865 46.186569 18.656315
14.483193 17.546072 18.79195
2.0497448 49.895401 18.740042
19.574984 46.752689 18.819618
8.2466154 45.774696 19.004036
1.725288 51.041943 19.027462
3.3596902 52.941589 19.03224
27.640682 44.222214 19.261261
1.9299381 49.961864 19.201172
3.4128909 52.918007 19.311863
5.5635958 44.012001 19.444853
12.468678 44.421253 19.463249
16.17795 48.08379 19.41143
16.671444 48.096916 19.609243
28.339607 45.180233 19.702744
14.592559 47.169476 19.785469
9.15833 53.274837 19.748621
3.3533278 46.015675 19.824814
9.8672981 52.166672 19.994944
13.980067 16.456848 20.009117
4.551074 43.618206 20.182476
13.610987 46.344891 20.163208
6.5227046 44.198685 20.380892
6.7347813 44.357513 20.308281
34.527874 48.747856 20.369638
29.084776 46.053936 20.587307
16.237394 48.046871 20.635103
12.280321 43.668522 20.761745
28.70956 46.394535 20.781153
1.8734499 48.830357 20.784225
9.6540146 46.284416 20.857435
17.321205 47.867661 20.826328
7.6945066 44.639275 20.972233
13.141631 41.399952 21.016573
29.252783 46.82119 21.076929
10.613274 49.581718 21.013462
34.548538 46.306572 21.194782
34.9673 53.229332 21.376093
28.091688 55.105709 21.385136
9.3014174 45.75164 21.427546
14.887578 39.785286 21.563438
28.880692 46.846184 21.536283
27.755169 47.006161 21.608803
9.8217192 46.025703 21.841045
14.662838 47.072941 21.881626
34.791889 46.666363 22.072453
5.929719 42.601921 22.257511
13.217348 45.930107 22.236582
31.561831 50.236702 22.270618
19.362488 39.961578 22.376759
14.246136 46.689919 22.300518
10.723504 48.630459 22.339638
30.768057 49.394142 22.381824
32.102665 49.931541 22.356419
31.618946 51.370041 22.366631
20.371933 41.172493 22.465818
20.431366 46.379021 22.447969
10.653422 48.008011 22.430046
34.031044 49.408333 22.474962
10.712713 48.546322 22.544941
34.562138 49.05378 22.506927
10.077796 50.426559 22.533556
16.122919 47.745842 22.641937
32.786358 52.198448 22.632029
1.7499404 47.029594 22.791243
34.03635 49.624844 22.755518
32.973171 50.41404 22.784473
30.729282 51.164841 22.756876
28.276159 51.914764 22.755802
31.374001 52.008549 22.722145
34.949249 53.015274 22.748798
34.200504 47.821781 22.85804
30.360365 50.173874 22.834572
15.494746 39.343964 22.919109
30.413319 48.801109 22.919209
35.132442 50.138371 22.910744
31.629223 51.743496 22.937353
33.247215 53.024704 22.957548
34.283142 53.025902 22.936314
15.737459 39.176983 23.014177
34.392696 47.436333 23.00626
32.95826 48.731361 23.072317
29.057869 53.464836 23.05773
6.3146935 42.307819 23.146198
8.3700962 44.149754 23.130312
10.215033 46.221085 23.173893
29.664474 48.312099 23.166447
29.566624 48.415504 23.195967
31.087198 52.359467 23.169899
31.037006 53.511589 23.18372
4.4680581 42.048897 23.251993
31.902897 48.320877 23.254372
4.2893839 52.051842 23.267855
15.391829 47.324383 23.368561
31.984077 48.244232 23.371115
34.961937 53.1329 23.332485
35.600029 54.920353 23.346979
10.271814 46.39698 23.475761
5.134798 41.147598 23.534752
10.001052 45.898712 23.572283
29.883888 48.002533 23.591824
28.668915 50.576241 23.551115
19.123499 47.063412 23.648119
19.948462 46.756947 23.708155
29.655451 54.081791 23.744953
19.359695 39.67717 23.863791
27.716679 46.562958 23.941217
16.365854 47.653301 23.989983
9.1363344 44.756264 24.016171
0.85691738 47.372746 24.086014
8.7648363 44.270813 24.167871
5.7684813 41.017258 24.22718
1.0325633 46.688095 24.206379
33.550091 46.817726 24.216248
30.681639 55.016052 24.296816
28.28195 57.100246 24.226185
31.992153 46.092171 24.334301
35.306225 56.638302 24.39612
6.5039577 41.624062 24.444168
2.3385997 44.212208 24.412678
12.318571 44.537048 24.473839
33.180187 46.527454 24.415751
0.83750153 46.90258 24.401062
4.4624162 41.839569 24.54217
32.10994 46.391235 24.558064
1.9845269 49.972343 24.584761
21.079815 42.36935 24.677141
21.364399 43.095272 24.670691
27.571262 45.058781 24.604258
30.127415 46.428349 24.673944
25.867283 50.555283 24.631598
4.6722918 51.388779 24.672577
15.15506 47.055099 24.743029
0.66456115 48.088161 24.724009
13.058379 41.440262 24.815763
34.007931 43.324566 24.859421
2.6958075 43.685989 24.8538
32.843723 45.897236 24.850834
29.576452 49.026203 24.853745
28.692881 54.082718 24.936874
12.101906 14.42874 25.048496
3.1048014 43.218849 25.0336
4.0954256 42.216103 25.105505
7.7475309 42.608963 25.134485
33.070145 45.530285 25.166737
28.508873 46.528629 25.162102
34.006714 43.30331 25.269516
12.172888 43.28418 25.399475
31.182644 45.524143 25.36338
31.94095 46.069889 25.323269
12.223509 42.946278 25.462862
26.97768 43.709702 25.413572
26.36231 51.950703 25.495186
2.1747777 43.911346 25.513166
20.282257 46.570824 25.550163
18.252682 37.635193 25.689028
19.73455 39.732826 25.667021
34.686028 45.506615 25.615309
29.54184 48.652344 25.753372
33.400101 53.652351 25.733387
29.918369 55.403587 25.711811
30.256842 55.937271 25.703447
4.6208887 41.332832 26.071064
20.805895 46.004089 26.053413
28.456074 46.092457 26.062973
29.390272 47.093422 26.024889
4.8742046 50.821491 26.067371
17.889429 37.359886 26.135017
13.745438 40.677109 26.165943
33.528305 45.193111 26.149374
32.49707 55.391613 26.129797
0.71629596 45.873817 26.306341
34.738426 46.027485 26.380388
19.402439 46.898148 26.372284
25.7896 51.685646 26.373508
3.1016223 42.622849 26.472996
30.501476 45.673515 26.412174
35.510567 57.832504 26.422646
9.563921 44.849861 26.559542
6.4390259 50.656635 26.589956
33.759296 55.231987 26.508484
28.690338 56.483982 26.582401
21.903067 44.357964 26.637913
33.254906 44.815105 26.606121
10.082301 45.804268 26.616184
27.477509 44.052864 26.721306
32.668182 46.130463 26.744226
29.44273 47.615318 26.767214
7.8500509 42.09613 26.899437
8.4261408 49.642632 26.895241
31.574713 55.550327 26.886471
21.094379 42.007484 26.967983
12.068381 43.624481 26.945072
16.721865 38.089947 27.285234
9.5399246 44.40815 27.285917
19.379772 47.028473 27.210251
35.240822 49.782349 27.297333
5.1989536 50.57938 27.20706
3.0063705 42.608742 27.37035
21.142525 42.015945 27.593246
28.53466 45.725361 27.509373
30.031204 53.629269 27.541407
33.313126 45.187748 27.658623
31.204765 45.434471 27.692005
0.32166985 46.432716 27.682684
31.046661 51.293869 27.664167
29.366333 56.116158 27.626507
6.5856643 40.080025 27.735872
16.334818 47.631573 27.724009
13.110888 41.113823 27.814503
21.195217 42.111401 27.854883
3.050818 42.512001 27.857338
12.114555 43.329536 27.830698
33.108948 50.6241 27.832365
32.830326 55.938408 27.862345
11.11586 13.151563 27.956678
31.716763 44.812298 27.945551
10.367746 47.003868 27.951969
17.929813 47.634724 27.970493
31.20384 56.104759 28.096783
12.445936 41.92104 28.183117
27.435844 43.594994 28.194443
30.393009 49.887688 28.193977
35.698708 55.829956 28.146402
35.344982 56.955845 28.184841
29.142458 45.655766 28.207035
3.5448842 49.591965 28.201157
31.594473 49.80468 28.24929
30.384239 49.909721 28.231304
29.347111 50.036354 28.273392
1.9063232 43.747879 28.384485
28.594442 45.334457 28.30994
1.5219586 48.461937 28.374355
33.700771 55.42664 28.366123
12.073342 43.607075 28.47249
35.267124 54.576023 28.483971
2.9982054 42.480057 28.596867
32.892479 48.391479 28.511597
2.9875946 49.327457 28.528091
29.762068 50.849926 28.552509
14.635259 47.029625 28.618734
25.560226 50.984055 28.625366
29.131031 51.159195 28.618341
21.338202 42.332253 28.732193
4.5885 50.128525 28.779932
11.377867 12.470034 28.827314
34.466415 43.188232 28.807354
31.898197 44.972572 28.803688
34.640339 44.970123 28.838455
29.988453 56.050797 28.887615
28.359365 57.795067 28.871567
15.736952 38.478672 28.978489
30.645458 45.313641 28.922035
13.159293 46.088394 28.929728
15.948093 38.271461 29.019413
21.294973 42.137882 29.047138
12.003509 44.060814 29.000965
32.954735 49.018456 29.031811
32.814365 55.677368 29.014179
12.835407 45.807549 29.162773
0.70471627 47.115086 29.177002
33.222755 55.375668 29.194988
25.805912 51.619259 29.290081
15.73437 38.348564 29.33116
31.771133 45.001469 29.305668
33.740509 45.391804 29.368969
17.881708 37.098663 29.497177
4.9110804 40.652466 29.417353
13.112596 40.986908 29.444435
31.350864 45.345222 29.573009
10.700922 12.427554 29.63979
31.42017 45.565689 29.626261
10.353016 45.20237 29.742197
33.015129 45.595921 29.718367
10.755776 12.663975 29.869701
31.878986 55.262093 29.809334
29.287386 46.778244 29.991772
13.942805 46.809525 29.929192
26.991383 43.751987 30.03661
0.63505524 45.433502 30.015497
33.686481 45.641258 30.006248
30.161949 45.940659 30.074186
30.341682 55.385105 30.004377
5.1148105 50.461231 30.120529
15.093997 38.694305 30.209936
29.035164 46.141418 30.217587
34.128258 54.849586 30.233723
10.531903 12.249269 30.318462
20.69191 40.743649 30.332638
28.282846 56.979721 30.354435
29.804649 45.720333 30.415169
13.058048 46.327507 30.482759
9.270978 49.315914 30.485126
7.4520979 50.037003 30.428116
31.808472 45.436676 30.527674
3.0746815 49.609646 30.527868
33.817104 54.737892 30.550156
12.094603 42.501331 30.607159
33.735428 45.996387 30.684071
30.933479 46.274158 30.695824
29.108528 46.346272 30.631187
29.419813 55.682278 30.66029
9.011425 49.541992 30.742649
6.4959416 50.310127 30.784466
32.650803 54.757771 30.710119
34.690231 45.438248 30.876564
31.208271 55.135784 30.86257
6.6575146 39.642899 30.98547
9.6350975 42.658264 30.957561
0.56969863 45.391144 30.944002
22.011148 45.593056 30.97934
28.863142 45.910778 30.904655
0.54358155 46.840923 30.96133
7.3110256 50.205757 31.049698
31.048222 45.883968 31.156582
32.4095 55.159828 31.179585
12.278834 42.141171 31.226173
11.969663 43.660538 31.270773
9.8462753 42.834076 31.378647
10.349657 44.24054 31.329224
27.218309 46.049175 31.376808
33.45229 54.187431 31.310692
33.62632 54.82127 31.377266
5.6162114 39.848701 31.464434
5.1872921 40.236084 31.403763
8.7717438 41.071659 31.491932
33.146759 45.910057 31.49762
32.005718 46.31147 31.407389
28.831909 54.522545 31.461985
28.200253 56.110867 31.41227
21.260876 41.440331 31.505177
2.9113336 49.588467 31.630932
20.341698 40.082554 31.701336
28.936466 46.497967 31.741879
32.044601 47.039009 31.724487
32.609531 47.06028 31.834969
28.646072 47.337524 31.818993
29.555902 47.386513 31.880592
29.705154 50.196091 31.890856
30.780027 53.853851 31.897732
29.535246 54.935791 31.825104
22.288256 44.175018 31.934542
28.545618 46.842007 31.972181
10.481276 48.145634 31.949406
14.52468 47.75938 32.09185
19.113487 47.844643 32.003071
33.924374 54.210632 32.048855
28.768444 47.485405 32.114185
34.368729 51.676197 32.142769
34.123566 46.731079 32.391811
9.3123655 49.632011 32.353512
31.253815 53.501404 32.33157
29.804201 54.089222 32.329784
33.214874 46.935806 32.488266
30.668056 47.932678 32.574944
30.149067 48.404816 32.524773
31.368711 52.907322 32.518997
32.440842 53.08062 32.513729
17.897827 37.199181 32.636902
32.665466 52.88855 32.665173
9.3882256 41.391087 32.743671
32.078087 52.232956 32.734337
29.214216 47.923313 32.843433
30.604656 48.835938 32.812
28.532202 49.193504 32.828472
30.964867 52.534706 32.816021
28.664021 53.448318 32.852253
8.9970274 40.984383 32.944317
28.84692 48.810165 32.969917
30.937243 49.006588 32.964489
31.148849 52.686401 32.949959
3.4934025 41.510513 33.028465
15.413836 48.364944 33.039822
31.299257 50.6367 33.062984
27.878487 52.779602 33.013271
8.026926 40.094231 33.14027
1.4059752 43.810108 33.151932
18.384809 48.209763 33.147766
33.323696 50.03952 33.115799
25.548021 50.898441 33.149605
10.445803 11.950009 33.227589
34.020374 50.298759 33.299202
13.579205 39.703785 33.330078
32.342873 50.883358 33.321762
34.654366 51.536549 33.30759
31.38089 52.36433 33.362106
10.782415 47.294456 33.444355
28.589287 49.054436 33.406696
29.939569 49.143532 33.407528
19.781784 47.703506 33.591446
29.738289 51.122513 33.545586
9.7648678 41.70723 33.653233
34.278404 50.044514 33.641041
22.013582 42.924854 33.784538
13.553543 47.42268 33.712734
35.047451 49.03648 33.824837
3.6106477 41.265121 33.972366
7.2436585 50.687462 33.978344
28.296837 52.296913 33.920044
28.021496 54.225552 33.921719
8.774559 40.578655 34.007282
3.6247644 41.204075 34.296188
22.351082 43.722492 34.292324
26.13541 50.174259 34.29607
9.8730831 41.639614 34.374924
22.34524 43.703537 34.302376
10.890222 44.010262 34.325588
20.138199 47.611717 34.391171
16.647587 48.981369 34.324539
7.0791054 39.332909 34.458405
21.946918 42.566303 34.420349
22.14146 43.090183 34.478287
22.559561 44.287971 34.443447
12.132879 45.580009 34.432781
35.552139 54.194248 34.492149
11.134239 45.840866 34.555515
1.6966361 48.563408 34.542904
14.923767 38.242226 34.609852
1.2510254 43.802464 34.630802
21.303257 46.783825 34.614582
10.27171 11.023615 34.718063
15.034403 38.193115 34.736515
7.5165973 39.503845 34.702354
19.735701 47.78479 34.763302
17.88155 48.539627 34.793224
28.264206 51.945038 34.744606
2.9294739 41.725327 34.930668
11.82217 44.998871 34.978275
10.695962 48.140877 34.903934
34.751591 50.730797 34.970135
6.1880493 50.925034 34.948853
20.674465 47.446461 35.095741
27.508156 47.605747 35.002529
18.414635 48.324543 35.054745
34.753361 50.747314 35.04652
8.1758757 50.469788 35.197285
35.338829 51.9939 35.159477
28.416201 53.494167 35.137581
10.337683 11.052111 35.282059
16.980473 37.374695 35.366005
15.662374 37.915886 35.428513
21.374134 41.086143 35.406403
26.736116 51.546928 35.402836
10.971189 43.369514 35.692822
8.2895432 39.829929 35.748306
12.224068 46.162582 35.702835
2.7926881 49.195007 35.937317
20.763908 47.46727 36.101959
8.1823893 39.63504 36.25803
13.11164 39.967144 36.224159
10.788425 48.138901 36.277966
6.8496785 50.944633 36.234261
27.067207 50.965748 36.361839
22.785969 44.504852 36.487343
1.8071753 42.649551 36.615589
11.940704 45.692822 36.673634
1.6584543 48.297043 36.792301
4.9845104 39.538464 36.962391
10.221871 41.368332 36.907131
21.345901 46.945541 36.993271
21.282055 47.005753 36.926563
13.811916 48.382401 37.015816
21.639238 46.652962 37.115711
21.079073 47.238403 37.190834
22.816956 44.426758 37.225533
4.3231673 40.083347 37.380642
6.3270378 50.920959 37.389183
0.8603934 44.003414 37.49324
11.074187 47.093079 37.5942
4.4524055 50.35751 37.543888
17.2922 37.436935 37.83617
8.9035931 50.53743 37.896282
10.274091 41.119064 38.019539
0.6569978 44.242111 38.183147
11.392354 45.263962 38.112682
0.96187663 43.748821 38.242767
15.472604 49.136665 38.255375
5.5848932 50.901611 38.268448
12.336344 47.286087 38.303413
16.265335 37.505768 38.406319
5.1468992 50.8918 38.493458
19.280415 37.703026 38.591427
13.106946 39.847797 38.514706
11.055578 47.458954 38.682499
11.044665 47.511581 38.60574
3.2737861 40.923309 38.72419
11.134872 42.366268 38.75761
19.83456 48.156563 38.774971
12.727734 40.829803 38.825077
11.497478 44.751022 39.054626
11.098211 47.271515 39.04808
0.58622432 44.234417 39.155811
0.97868675 46.884876 39.120514
20.119513 38.900394 39.226009
2.554626 41.468315 39.289551
2.3322113 41.639168 39.278076
4.2906766 39.582085 39.492004
11.248152 42.713715 39.432068
2.1508722 48.474529 39.487186
33.920486 50.612286 39.443287
19.936733 38.644756 39.568813
15.858904 49.438583 39.518322
20.135183 38.92696 39.628212
10.64708 41.197563 39.624241
11.911695 43.863686 39.639286
33.032936 49.577522 39.626747
30.313889 49.854061 39.65197
9.8206081 50.1754 39.682175
31.674704 50.510376 39.655174
8.8920078 50.702183 39.695873
22.795073 43.612732 39.717342
11.271179 46.303444 39.780029
15.407911 37.724503 39.853447
34.144695 51.068169 39.828396
31.458414 51.392944 39.874466
22.703037 43.056065 39.98262
9.8251457 10.92227 40.070515
15.539497 49.501999 40.066193
20.109707 38.895943 40.104172
0.046202328 44.973034 40.193024
11.417087 43.390766 40.210987
5.3435082 50.88633 40.20253
2.9656937 40.511208 40.352875
0.91595817 43.576332 40.347549
32.496887 49.509125 40.324471
29.952038 51.711426 40.37735
17.294827 37.30069 40.4184
19.863054 38.549458 40.427078
22.931566 44.060852 40.424545
1.353282 47.35017 40.424137
13.840913 49.053619 40.48933
31.451466 50.763508 40.407543
31.602221 51.134556 40.404713
4.8471236 38.787189 40.555264
11.971245 43.34523 40.591328
19.408812 37.907158 40.631104
22.333134 41.587189 40.779465
30.946945 48.987114 40.729015
29.648136 50.840145 40.796955
29.078232 51.026085 40.704662
2.0516813 41.35799 40.847641
11.175872 47.238132 40.828972
31.141613 49.773781 40.842289
17.740553 37.392593 40.955757
20.992916 39.043251 40.934994
0.89195305 46.450504 40.960594
12.016615 46.592361 40.998592
20.227993 48.108784 40.906128
3.2433302 49.333294 41.049065
22.614553 42.933628 41.149319
33.06403 48.539963 41.145325
30.956341 49.631523 41.136726
8.6521616 50.876259 41.161957
1.0240523 46.631744 41.264641
19.183645 48.711815 41.20256
36.55341 50.120041 41.228691
18.003155 50.129742 41.399208
6.2508488 51.064293 41.320652
8.2068615 51.001411 41.388729
1.1943907 46.932945 41.487812
36.551739 50.098 41.458015
9.3132715 50.674274 41.42065
31.695225 51.483089 41.423248
21.702028 40.817619 41.549255
11.518251 43.958393 41.58057
17.780939 37.396641 41.637558
3.4505963 40.436451 41.684982
15.645888 49.900394 41.666233
31.255733 49.621872 41.749763
22.635511 41.961525 41.843544
1.3806453 47.2729 41.950348
19.81679 48.417313 41.932159
30.962692 52.833801 41.989342
20.624702 38.170593 42.072033
34.474491 50.048264 42.040886
31.010023 50.115887 42.059921
3.8892891 40.032848 42.16301
3.1660464 40.571259 42.24316
12.654613 47.569519 42.208229
20.533663 48.040623 42.205067
31.234676 48.371834 42.2589
17.018316 50.334488 42.284363
28.589693 51.631981 42.370811
5.8311982 38.494362 42.42083
6.0547228 38.402241 42.400059
3.0536313 39.595139 42.405827
8.8153639 50.682911 42.431915
11.777182 39.299828 42.508072
11.994585 39.621777 42.543465
21.878393 39.690445 42.510586
18.146219 50.551033 42.501022
12.77527 38.805233 42.693768
8.6318254 37.808945 42.764286
21.789408 40.783695 42.745865
14.832605 49.119438 42.792297
18.23831 50.569008 42.780876
32.884441 50.913754 42.758007
1.6804664 42.003944 42.813644
11.585896 42.573189 42.864502
23.238136 44.488762 42.845684
12.210108 45.076359 42.817783
13.14115 47.203743 42.868256
18.749268 37.371521 42.96603
21.696922 47.157753 42.941521
32.509399 48.421825 42.921432
33.456608 50.683723 42.986778
14.129693 37.632874 43.000488
12.099705 44.22942 43.049156
13.285626 37.215363 43.152908
3.2965894 39.198029 43.155334
23.450087 45.214142 43.16494
3.5048461 50.934803 43.151348
10.618319 47.134941 43.295692
13.394371 48.289776 43.259918
31.786871 49.079861 43.272736
18.903088 50.335033 43.344582
5.0621505 37.988678 43.446472
12.142384 44.793205 43.443199
11.826051 47.854504 43.409267
12.147605 49.171425 43.451904
3.1808724 49.498859 43.493324
30.755806 52.983299 43.470848
28.825079 52.62627 43.673771
0.47037652 43.975353 43.778519
0.41552341 45.184559 43.758183
5.6004596 50.953178 43.758522
21.911936 47.020302 43.872871
2.5088596 48.602501 43.88575
5.287581 50.993843 43.841942
3.043318 39.26342 43.99305
3.1282578 39.209846 43.903965
10.640729 49.886902 43.92194
5.4101472 38.564495 44.041931
30.143024 51.190926 44.030186
1.2902237 46.899612 44.112938
11.713449 49.880302 44.153484
33.166496 52.532001 44.10878
20.128174 38.54213 44.209602
2.9378264 40.482162 44.226902
10.727474 50.082058 44.298218
18.754953 50.542835 44.24461
5.6128378 50.874565 44.309002
22.770891 42.515945 44.489395
23.228123 43.771416 44.46183
0.65383148 45.571434 44.442654
1.4898186 41.492455 44.568066
21.97035 39.299015 44.668575
9.5281715 10.488405 44.772316
31.653988 49.573616 44.713348
2.6839113 49.771599 44.785252
20.073074 49.726654 44.752151
6.9782295 51.389206 44.795074
7.2592649 51.40918 44.79137
13.625868 35.769161 44.822369
16.225977 50.869965 44.863037
2.7533171 39.313641 44.953598
21.458134 40.1838 44.915436
0.88883686 43.051239 44.910385
2.4813554 49.484581 44.966743
19.919172 38.118546 45.078468
1.7149142 41.719849 45.164055
20.56752 49.426018 45.154541
19.632277 50.039989 45.101662
13.288712 50.566231 45.192062
7.7949905 37.005989 45.215607
21.012787 38.027691 45.358749
2.3675721 39.792446 45.318466
23.505726 44.783875 45.404709
22.059769 40.865704 45.59087
31.181545 49.970642 45.584969
20.269527 37.466892 45.622829
2.1361938 40.18195 45.671661
2.183157 40.976185 45.681732
0.92642736 46.55146 45.644539
19.466087 50.156296 45.686588
17.200151 35.890987 45.742195
10.563204 51.04533 45.716961
16.555292 35.595284 45.89624
4.3589644 51.295029 45.814529
20.135468 49.750198 45.913704
32.161293 52.53688 45.993645
12.58717 35.487061 46.075375
20.308422 37.475616 46.022411
19.803473 37.832668 46.000549
22.521727 39.882019 46.12764
20.628906 38.904713 46.236736
15.387506 51.130177 46.290649
23.169579 42.688324 46.361122
9.4579334 51.711266 46.374084
13.294128 35.282181 46.464672
28.276134 52.37516 46.43224
8.8000546 36.16291 46.592926
23.45266 44.454304 46.572495
2.1937563 49.320061 46.569862
8.8759956 51.945045 46.541481
16.444578 35.538937 46.626598
17.087139 35.675507 46.635838
29.206556 51.057098 46.671021
28.491299 50.304886 46.712124
28.371105 50.617805 46.715672
11.156413 51.409584 46.70303
5.2945642 37.39006 46.856606
28.125774 52.223053 46.811424
29.201263 50.86026 47.085426
2.5304956 40.515911 47.133144
22.78989 40.617668 47.184376
2.117975 41.070599 47.15937
30.60902 48.979874 47.148998
18.409321 36.487366 47.266388
20.095171 38.068359 47.221195
1.3886036 42.15461 47.258179
0.34300897 43.777992 47.258583
9.6829996 51.874439 47.238777
12.246041 35.434937 47.310562
4.4352889 37.58086 47.390766
21.533195 40.001652 47.327217
18.986824 36.84589 47.45747
22.980385 46.454384 47.458359
15.373788 35.265549 47.578484
5.1902523 37.329643 47.549889
21.299232 37.915455 47.586781
16.749994 35.519432 47.656765
3.0609078 49.969696 47.650043
3.7811422 50.566162 47.614563
5.4286418 37.936539 47.788651
23.254251 42.961628 47.786144
5.0545421 51.53019 47.753487
28.983826 49.613304 47.882351
28.740833 53.415245 47.815639
11.164064 51.627434 47.901474
9.0431261 11.265967 48.19891
12.503021 51.564922 48.162472
30.613728 52.995102 48.168022
22.156532 47.399437 48.217888
19.829563 49.713654 48.295151
31.832087 52.190228 48.24382
28.17741 52.629532 48.269073
30.363916 54.133945 48.256588
0.74049562 46.191589 48.42292
5.7996321 51.610779 48.478184
29.18611 53.682594 48.468323
23.534262 45.676781 48.584568
28.484898 52.237503 48.592121
2.5066149 38.984585 48.666626
23.290369 42.871483 48.649578
9.3426628 52.1464 48.732338
32.827957 51.08889 48.84066
30.427174 53.114132 48.872196
13.420694 34.990654 48.946384
1.9351841 40.066624 48.999786
23.19149 46.059738 48.996704
6.450449 36.850399 49.033958
1.4023259 42.353107 49.09528
9.5356169 10.912217 49.122044
9.6152678 11.231405 49.238434
14.993743 35.136147 49.262928
1.9229033 47.618176 49.286133
19.669563 49.563934 49.293327
27.997993 49.618484 49.204594
27.066242 51.948948 49.34354
8.4098568 35.847279 49.477432
2.0814185 39.534966 49.565617
30.151962 54.317528 49.525352
7.4263768 36.292973 49.624485
22.186777 38.722534 49.671082
11.389137 35.103748 49.700039
18.742182 36.509373 49.73357
28.297709 53.85487 49.729446
5.8173542 37.280441 49.872391
3.0199749 40.1689 49.829491
14.749304 51.479561 49.875057
1.5438497 40.797443 49.922047
22.375801 41.95533 49.920624
22.942547 46.342556 50.045177
0.94514525 42.958199 50.164253
18.452229 50.193748 50.100212
28.084816 49.32756 50.287441
31.453184 51.18248 50.363804
21.003622 39.064838 50.449375
32.374645 50.089401 50.434792
9.2461138 11.052597 50.535149
9.00665 11.341758 50.557076
21.557188 47.981567 50.522266
16.35334 51.254017 50.58065
6.7585669 36.574703 50.606018
2.1471772 47.490967 50.792648
9.8995113 51.750702 50.876888
13.881225 34.944214 50.917465
4.1084814 37.404163 50.93644
0.66795224 44.556366 50.932182
30.17016 50.23494 50.987389
15.957578 51.301559 50.982742
27.709126 49.382191 51.068573
8.5219536 35.62936 51.197411
1.9533949 47.109257 51.121674
18.637928 50.135712 51.166725
30.256264 53.23896 51.130089
4.9059448 50.44323 51.271587
11.305642 51.715561 51.234383
31.849627 53.572083 51.36729
11.13548 34.975357 51.401287
2.000026 41.539558 51.493896
0.95750445 45.114429 51.409683
31.49527 53.787025 51.49984
21.648659 47.794662 51.661125
16.073746 35.414227 51.752487
6.0506449 36.933289 51.745972
2.9761667 40.275421 51.751045
20.68327 49.083298 51.701595
27.182041 51.595596 51.701496
5.6241159 36.739994 51.806377
21.149761 37.795616 51.801521
28.502466 48.738079 51.846138
32.069046 49.941376 51.927773
20.696093 49.084511 52.057209
21.90036 44.291405 52.155281
18.838486 50.073402 52.147243
31.110683 51.392319 52.179474
21.315454 46.328392 52.254158
14.750304 51.434685 52.282795
27.631014 53.964108 52.286362
1.1444237 43.672901 52.479633
26.443155 50.749374 52.662567
13.867998 35.001457 52.767052
19.838705 37.884949 52.811287
30.552185 54.279091 52.873795
20.940191 39.916336 52.937038
15.858018 51.251137 52.960842
31.103336 53.925987 52.907631
1.4041467 42.577682 53.02668
4.1263065 39.450649 53.431747
10.037832 51.153351 53.429054
28.956993 54.59827 53.48349
21.192417 45.071426 53.558189
21.145634 45.635082 53.553619
21.12188 46.284992 53.535011
9.0857744 35.152298 53.671097
5.2934127 37.824348 53.632458
4.0140476 39.597813 53.690804
17.355082 50.953976 53.624226
1.8246951 44.312267 53.738876
2.0848184 45.069271 53.757023
21.342562 42.847054 53.878174
21.154972 48.488342 53.808372
9.461628 51.058304 53.837822
31.338875 53.701561 53.860821
5.6699677 37.345745 54.012955
28.940445 54.661915 54.047077
3.9385765 39.687778 54.134651
20.638145 39.729645 54.391724
13.79888 51.430645 54.369186
9.2109661 12.191291 54.480488
4.7386055 38.562538 54.586174
29.151056 48.289261 54.529209
1.5399612 41.37867 54.754814
18.082285 50.52227 54.709015
11.609872 51.142704 54.795807
27.220114 53.329876 54.706753
28.745644 48.172421 54.947258
26.081919 49.880058 54.921543
9.8635759 50.780678 54.962891
3.3621252 40.457462 55.044567
4.9753451 38.241631 55.104263
14.895735 51.266495 55.187729
21.205202 48.015129 55.224785
27.93597 48.194077 55.408768
18.78067 36.688286 55.594791
1.6841271 42.609699 55.576839
21.261539 41.273022 55.74482
1.7677212 42.745163 55.733208
30.112316 51.311684 55.792023
26.511318 53.294403 55.769073
27.233688 54.298347 55.749702
29.874615 48.59911 55.86348
25.906765 53.193989 55.887573
20.063551 38.277111 55.910805
6.6959829 49.95047 55.955433
7.7453537 50.057037 55.902534
21.144526 42.558487 56.01173
12.812367 51.203094 56.092682
5.7830648 49.708218 56.196499
19.293633 37.171822 56.242165
25.477959 50.376957 56.239246
9.6545925 50.404621 56.22168
15.833021 35.0788 56.321125
29.88995 51.457588 56.371319
21.162743 42.647263 56.462002
21.399797 46.032127 56.485214
27.694674 48.026524 56.533966
8.9536514 35.322838 56.616528
5.8565049 37.44635 56.666851
11.562403 50.767426 56.627251
2.6388764 46.575535 56.7696
12.3299 50.930992 56.716255
19.777084 49.466537 56.824287
25.631508 53.065514 56.835049
12.806778 34.374813 56.916012
25.315588 49.788197 56.941612
21.263168 42.329536 57.056023
19.39653 49.765999 57.071835
24.786314 51.401241 57.058388
2.5196662 43.843552 57.16925
25.166702 49.924561 57.123501
24.84358 50.787064 57.15239
25.723434 53.231026 57.145218
7.0092154 36.231518 57.204147
28.351236 48.093102 57.259212
8.8407116 35.244137 57.358131
4.777422 48.91584 57.391991
10.985086 50.426102 57.466064
11.810051 50.579414 57.657463
21.697283 46.632511 57.723621
24.658058 51.386467 57.729851
25.392605 49.288296 57.839714
18.221489 50.693829 57.906616
28.868874 53.339214 58.132755
21.628441 41.364902 58.299454
21.645609 41.59547 58.249603
8.8718147 49.660942 58.296646
17.307911 35.416538 58.330341
4.0309925 39.60564 58.309906
20.266899 37.946022 58.458233
3.8344204 39.862179 58.430347
30.163189 53.564095 58.477818
25.671808 54.108818 58.666065
13.941777 50.745049 58.792259
21.98345 47.472725 58.827278
24.834034 53.667675 58.938881
10.293945 13.346448 59.079483
22.11306 44.965679 59.085922
24.551762 49.756725 59.188766
31.051233 51.312336 59.106926
20.990223 48.599731 59.201881
12.723753 34.147217 59.404209
8.8715334 34.978062 59.468613
21.402924 48.401199 59.43565
14.876017 50.45031 59.47834
30.914103 51.69627 59.481121
24.637775 53.680389 59.477058
9.1875963 49.232307 59.538589
10.311785 49.572029 59.50441
29.503159 54.554901 59.501041
15.844309 34.44521 59.679466
24.469879 49.218937 59.693573
29.949337 53.93087 59.62117
20.703896 37.97073 59.759995
24.033445 49.40995 60.234291
28.710487 48.132973 60.411232
24.150551 48.825375 60.478397
3.7735837 45.926674 60.574207
26.250715 54.553154 60.504333
14.954877 34.20705 60.690636
29.612904 48.565815 60.631973
30.03919 53.083214 60.671432
28.378086 54.437119 60.61076
5.9512568 37.658253 60.760559
7.2957726 36.362156 60.81797
6.9211478 36.781631 60.893833
4.7856035 38.944412 60.851151
15.275024 50.626041 60.887585
22.313471 39.893559 61.095123
22.722292 43.282162 61.073498
5.417932 46.711731 61.013405
30.452753 52.10968 61.075172
26.891396 47.532558 61.107754
24.556847 53.688877 61.154762
3.5008228 44.920811 61.208771
5.8818941 37.679085 61.319931
11.848054 49.585163 61.328129
24.890125 54.015205 61.318851
8.6994133 48.291016 61.477829
6.7870612 47.321732 61.557617
16.416945 34.498974 61.689323
16.523132 34.545795 61.629108
23.623486 52.03738 61.797546
7.9823093 35.732975 61.863132
22.531841 39.630775 61.897919
23.103128 44.426884 61.819485
26.95697 47.265129 61.854309
23.145071 42.540451 61.982998
6.2159886 46.75972 62.028042
20.043417 51.548752 62.065266
9.2909527 49.08704 62.164574
23.476727 49.984375 62.216839
28.780779 47.347694 62.31715
22.683964 39.498993 62.489059
3.4819694 40.915764 62.47612
26.629517 46.977219 62.407982
24.82361 53.850269 62.45192
27.236164 54.297768 62.428997
5.4076018 38.440758 62.511944
7.0423017 47.991844 62.550041
21.81078 50.296665 62.508118
17.379124 51.885784 62.550774
12.593799 33.72406 62.613087
23.178984 41.109161 62.779675
4.0125036 44.963726 62.778564
4.4600501 45.381187 62.72934
5.3875217 46.643085 62.72422
6.8001018 48.142799 62.728458
23.273136 50.58963 62.719009
3.8464534 44.665836 62.800591
23.609844 47.782257 62.892281
23.281002 51.610405 62.852131
8.2405424 35.496799 62.944153
7.6566291 36.131199 62.974976
6.0247827 37.777855 63.075996
28.128403 46.565468 63.039902
20.810097 36.328007 63.218826
19.834385 52.053333 63.207352
15.19342 51.793892 63.355217
28.200006 46.48526 63.41399
24.606697 53.629623 63.446918
16.985367 34.28196 63.523262
20.671129 35.504654 63.54665
23.91555 43.910435 63.584332
23.897427 44.391594 63.514687
6.4730177 48.235565 63.50082
21.319889 35.844925 63.651512
20.096834 35.203037 63.771477
24.604319 46.197586 63.726112
15.539562 33.769173 63.892891
6.019537 37.678322 63.852859
5.5120597 38.275204 63.881348
22.885454 38.361134 63.870102
23.989033 46.244961 63.879688
26.505432 45.813286 63.994644
6.3780766 37.198524 64.087021
23.278074 37.788754 64.011063
5.1022167 38.727406 64.056557
2.9604886 43.118877 64.186989
7.0491018 36.433754 64.292847
24.135754 39.707779 64.230766
10.328989 14.383852 64.335052
21.064423 35.997635 64.36216
24.202419 44.841076 64.331947
14.671 33.509666 64.441521
23.776749 38.623505 64.461876
6.6144996 48.564686 64.463074
7.384316 36.017738 64.552505
24.256052 44.117188 64.508194
22.838491 50.697609 64.516541
17.190762 34.074375 64.695442
22.528824 37.400734 64.603752
2.9714429 42.59903 64.66301
23.051876 37.073475 64.786057
21.170216 35.487686 64.869537
6.9448161 36.382645 64.81356
23.260448 38.263573 64.867218
17.918926 52.167767 64.802345
13.156464 33.238499 64.931549
27.495184 45.277279 64.954041
28.775185 52.310181 64.978348
29.420563 49.343201 65.188713
24.419472 45.018414 65.23999
28.360422 46.414478 65.276733
12.557152 33.287228 65.306984
4.4105115 39.293404 65.377472
29.047989 47.375114 65.310944
28.589708 46.671764 65.534164
22.834026 51.12439 65.597809
7.2274318 35.958115 65.622887
3.3134673 45.092239 65.663307
12.019692 32.611759 65.797691
10.700615 15.203112 65.939468
29.427666 50.451149 66.013939
13.674213 51.414238 66.059395
19.955879 34.816013 66.155907
24.652119 44.754742 66.125389
11.878897 50.883545 66.137878
13.618076 32.684067 66.248619
13.375109 32.928078 66.381729
22.600544 36.853531 66.347748
12.689702 51.097004 66.392876
9.2158012 34.395409 66.401794
3.5168087 46.028118 66.495316
29.292242 49.347027 66.412338
12.219942 32.531746 66.550507
13.11725 32.945084 66.525604
24.368311 39.97065 66.567085
6.6697168 48.72525 66.501823
19.599634 34.611137 66.633385
5.7408447 47.950703 66.612335
15.749803 51.959793 66.661644
23.769897 37.319164 66.814758
24.108547 47.493767 66.852219
11.569126 50.705437 66.852112
11.871666 33.068218 66.990082
3.0916564 42.380013 66.975388
15.053715 33.008625 67.019325
4.8719625 47.14595 67.095222
16.124592 33.286583 67.11998
27.888609 45.273537 67.18956
22.016743 49.979637 67.185448
14.325027 51.498188 67.153931
22.159111 36.157154 67.227951
29.239832 50.293106 67.391663
18.658176 52.076328 67.388939
24.757626 46.26627 67.576683
16.890646 33.478638 67.644341
14.553066 32.757153 67.770958
28.968449 47.05072 67.769836
23.990067 48.032875 67.763824
7.4308052 48.922951 67.725632
12.33328 32.951859 67.882278
22.859581 36.768063 67.823669
28.387527 45.864223 67.810158
22.753979 51.080055 67.844894
25.00338 44.270271 67.941299
29.137558 49.854992 67.926491
9.9023151 49.90416 67.965973
23.475788 51.94809 67.997704
11.541293 33.063686 68.043625
24.628036 46.757046 68.034607
26.048559 43.624302 68.185791
24.436989 37.86747 68.210358
12.669708 32.898262 68.36879
20.135189 34.80891 68.348724
25.305313 42.483841 68.332199
22.424414 50.665413 68.335175
22.72332 36.240196 68.463867
25.006474 45.417633 68.48597
5.6481256 37.502983 68.592041
15.818377 51.76059 68.591507
26.665634 52.151875 68.539703
12.531052 32.281483 68.68219
28.819611 46.417683 68.668304
15.168235 51.573456 68.604156
11.103575 15.503536 68.781822
25.081165 40.184528 68.745529
27.237808 43.854088 68.755013
27.967426 45.00563 68.745506
9.9155102 49.805336 68.722
28.945721 49.125237 68.998077
19.952721 34.773418 69.02253
3.9996815 41.034054 69.008942
6.3339329 47.930374 69.060837
21.777155 35.856304 69.130737
3.5374875 42.522213 69.270279
22.535978 36.122269 69.397041
6.0750499 47.653954 69.483986
7.948638 48.922421 69.476151
19.207344 34.464096 69.556938
14.748909 51.328983 69.503654
15.750641 51.570808 69.75383
6.8147669 48.179424 69.84465
19.796684 34.805092 69.969749
3.9105897 41.550476 69.978127
8.2533255 34.725075 70.003746
20.687531 35.323288 70.162872
21.033636 51.939899 70.170135
3.7435427 42.210133 70.206337
7.8687859 48.734768 70.368645
20.055702 51.987087 70.352913
12.604116 32.097084 70.495232
6.5068684 36.310081 70.444595
12.007408 50.371994 70.48526
22.932846 51.016457 70.536484
6.2679987 36.593697 70.618469
6.3637662 47.693756 70.654999
28.266895 49.961311 70.689011
18.475204 34.210369 70.76281
5.3016133 46.835251 70.785324
7.9846349 34.874264 70.897972
9.8020878 49.445438 70.808922
13.800501 32.109997 71.188553
29.045712 47.315224 71.196968
20.056587 51.982788 71.344444
9.7975149 33.5923 71.433411
4.2169876 40.7911 71.485031
19.237343 34.782341 71.585968
13.369513 50.636002 71.600929
25.848303 39.657269 71.713188
8.4718122 34.495033 71.818085
5.6610212 37.172115 71.866554
4.2574825 40.889614 71.831734
28.615177 44.506523 71.843773
6.6484346 47.607109 71.852524
29.125801 46.665031 72.099205
24.209524 38.107471 72.266052
15.280009 33.659557 72.377632
17.425434 34.227638 72.329178
27.080309 42.218014 72.336967
25.664913 51.37619 72.333221
18.476286 34.615322 72.476357
17.276146 51.581059 72.471085
20.204014 52.104374 72.49044
13.232318 33.282776 72.671188
26.169998 51.292858 72.794281
12.637738 50.08971 72.938263
12.432724 49.993446 73.054962
8.5886269 26.659988 73.164825
19.480057 35.369873 73.101471
4.1000714 42.688202 73.240471
7.6359448 27.101635 73.361984
25.738205 39.96822 73.376534
28.900339 49.103142 73.356094
7.4625912 26.604858 73.495316
4.9698334 38.46151 73.439415
13.315526 50.154037 73.514755
21.387775 52.336349 73.531883
6.5927057 24.117756 73.779572
28.949484 47.132 73.752777
6.172811 25.463326 73.853012
9.9097281 29.425966 73.865623
7.3335118 32.336025 73.897873
14.746479 34.096657 73.863495
6.4696627 47.049595 73.804474
7.7415409 32.940338 73.966743
8.2261686 32.962795 73.991936
10.090759 33.316364 73.969467
15.969006 34.472839 73.921021
25.672863 40.207352 73.939125
10.133643 30.074183 74.096588
23.172943 38.325977 74.069626
8.0073586 20.156687 74.126511
8.5917788 23.328602 74.191689
6.1139536 26.482164 74.14212
10.281385 33.305443 74.172585
6.2995138 22.089176 74.236679
5.7991629 23.000883 74.296364
8.5505924 23.05265 74.258614
6.4115992 27.333076 74.263184
20.119692 36.219467 74.20649
22.188774 37.748146 74.265686
26.694855 41.873798 74.254913
18.246138 51.514553 74.298546
9.8727579 20.654682 74.348755
10.545254 34.074677 74.392288
9.0483427 34.792953 74.369659
23.001259 38.392445 74.372223
15.177325 50.548634 74.308258
10.30195 34.698273 74.47525
27.129856 42.785603 74.491928
28.680809 46.402401 74.462669
6.0872593 30.043034 74.555084
18.801947 35.341103 74.555489
26.629208 41.685989 74.502449
11.23792 22.720844 74.601044
5.2668581 25.685511 74.658524
5.2903247 26.146694 74.650223
10.533313 27.959599 74.638672
6.0521774 30.500521 74.609024
9.0349741 18.816826 74.753693
8.3293839 21.034273 74.761055
5.2484603 26.651646 74.770126
10.715718 26.799606 74.727318
22.015633 37.871181 74.73735
7.7464485 21.078796 74.86348
5.8251281 30.679993 74.871017
24.347324 51.384315 74.817017
7.6847143 17.730728 74.973885
11.273246 33.158875 74.991516
10.211641 18.542221 75.0895
5.0893793 26.072905 75.028053
10.651814 28.408421 75.046143
9.9679213 34.832092 75.133545
5.0192413 46.40453 75.107597
11.586832 22.086136 75.209862
5.2217641 22.877174 75.261963
15.882443 34.952877 75.240936
25.574507 50.990891 75.203979
4.9445081 25.25808 75.372528
4.8851295 25.375015 75.366837
10.910547 27.296978 75.327248
5.3778934 31.15819 75.3993
24.066908 51.508492 75.337204
10.280081 17.480572 75.405899
8.521142 6.2267246 75.58744
8.6148062 18.936861 75.52697
18.421415 35.477036 75.539299
4.0860028 41.60955 75.578346
4.0538864 44.111443 75.505943
10.917005 6.8565269 75.682693
11.84075 13.446045 75.641876
8.6816807 14.466331 75.620728
10.940627 18.659948 75.60305
9.2617979 22.019426 75.674019
10.762669 33.406643 75.687637
11.517639 12.818541 75.731842
6.1468801 20.786776 75.737877
4.7800994 24.624001 75.796967
11.630688 34.362041 75.783318
11.132871 27.150787 75.804153
9.0723524 16.755613 75.936035
3.9414468 43.653214 75.905548
26.976967 43.655624 75.979424
27.834076 46.011726 75.974068
9.878787 5.1316991 76.040794
9.605402 5.7633862 76.07563
4.6794109 28.813446 76.098961
16.292559 35.328873 76.071846
3.9871502 41.640121 76.051773
27.739052 45.491467 76.039551
11.768937 12.960772 76.179039
6.9051623 18.094532 76.154518
4.7761817 23.860355 76.154556
20.536049 51.427086 76.145935
11.132589 17.367643 76.243881
5.8386774 46.666393 76.215881
18.461479 50.905396 76.255486
6.2376819 20.324743 76.352699
16.12867 50.156914 76.362656
22.511236 51.194984 76.341515
10.732512 6.3057737 76.463638
11.064655 4.6579704 76.517487
9.7920179 4.7440495 76.528839
