# .PCD v0.7 - Point Cloud Data file format
VERSION 0.7
FIELDS x y z
SIZE 4 4 4
TYPE F F F
COUNT 1 1 1
WIDTH 1540
HEIGHT 1
VIEWPOINT 0 0 0 1 0 0 0
POINTS 1540
DATA ascii
4.0156584 0.28704926 20.025986
4.2996912 0.29604918 20.061663
6.673223 0.37125707 20.06464
1.0660677 0.19358838 20.140621
6.4318428 0.36360866 20.136372
7.4317589 0.39529207 20.10063
8.701972 0.43554014 20.190218
10.589108 0.49533582 20.130556
4.4902215 0.30208632 20.227776
6.1994991 0.35624662 20.247374
0.68510658 0.18151721 20.332745
2.731771 0.24636798 20.339199
7.9545546 0.41185743 20.321291
10.20365 0.48312223 20.344553
0.98699701 0.19108294 20.560432
3.5668633 0.27282876 20.520245
2.670428 0.24442425 20.677374
4.8157897 0.31240234 20.685078
5.0046878 0.31838775 20.638113
0.518538 0.17623933 20.760773
4.0539618 0.28826299 20.716652
5.9596181 0.34864575 20.746624
9.7736273 0.46949637 20.82436
3.3873928 0.26714206 20.958328
1.6616789 0.21246096 21.018654
8.3614292 0.42474958 21.03533
2.9569545 0.25350317 21.146931
4.9117308 0.31544232 21.19812
10.362618 0.48815903 21.12495
0.69646364 0.18187711 21.239532
3.16751 0.26017484 21.361912
5.6192651 0.33786133 21.485861
6.6521039 0.37058794 21.426281
5.4890099 0.33373404 21.576374
10.010615 0.47700536 21.581553
7.2679539 0.39010164 21.668428
7.4300656 0.39523834 21.654655
8.3460913 0.42426342 21.63102
9.077158 0.44742793 21.674831
10.593856 0.49548587 21.651844
0.70053571 0.18200617 21.794167
2.2212718 0.2301923 21.755959
2.9244907 0.25247455 21.832642
3.2505174 0.26280501 21.885937
4.5939565 0.30537334 21.859602
1.7867455 0.2164239 21.994267
5.2615023 0.32652524 22.090982
7.5276942 0.39833164 22.073658
8.0623074 0.41527134 22.072891
9.9004364 0.47351408 22.059456
1.5663509 0.20944044 22.131754
5.2857246 0.32729274 22.138897
0.48661986 0.17522803 22.285381
1.0685918 0.19366843 22.275129
5.8734097 0.34591398 22.582035
8.7975035 0.43856657 22.524843
3.4197655 0.26816788 22.654659
2.326448 0.23352495 22.734123
7.0136127 0.38204232 22.715549
2.0186303 0.22377142 22.826975
6.8912663 0.37816563 22.816868
7.8102818 0.40728542 22.896631
1.4581175 0.206011 23.043499
4.2635765 0.2949048 23.177032
2.9621649 0.25366834 23.262831
8.9800758 0.44435135 23.234545
10.266966 0.48512763 23.219185
1.9402851 0.22128898 23.325836
2.0289803 0.2240994 23.388668
4.2502518 0.29448253 23.446402
4.6075053 0.3058024 23.418224
6.6384649 0.37015519 23.440569
0.99264443 0.19126202 23.532665
2.8899233 0.25137925 23.582771
8.8151703 0.43912604 23.576408
-0.049760841 0.1582323 23.686708
1.2658718 0.19991951 23.645187
1.4599063 0.20606768 23.614563
2.3693907 0.23488566 23.631147
0.036070287 0.16095194 23.745575
5.5108657 0.33442613 23.751766
0.57793993 0.17812166 23.817926
6.4199977 0.36323276 23.91333
8.6176662 0.43286783 23.905882
0.53941756 0.17690106 24.020386
2.134449 0.22744122 24.0874
2.635551 0.24331908 24.063349
2.7752852 0.24774671 24.042511
5.8889122 0.34640479 24.043779
8.2714767 0.42189854 24.047197
8.9253607 0.44261739 24.041506
9.7126703 0.46756405 24.016586
10.090979 0.47955102 24.015984
10.425961 0.49016523 24.036007
0.80190361 0.1852182 24.115025
8.5925179 0.43207091 24.156502
9.8636837 0.47234899 24.244179
1.1684604 0.19683293 24.331726
1.6975858 0.21359871 24.429735
0.44290778 0.17384304 24.526217
4.4434419 0.30060363 24.54147
5.1627555 0.3233957 24.565228
6.3519969 0.36107787 24.565855
5.1101489 0.32172883 24.618099
7.9910736 0.41301349 24.655025
0.86869967 0.18733463 24.711882
1.2292143 0.19875784 24.788696
1.8013675 0.21688704 24.720934
4.2492166 0.29444933 24.754616
9.7032194 0.46726435 24.755756
2.0152512 0.2236641 24.809994
10.391069 0.48905948 24.824757
0.71157563 0.18235594 24.915874
1.0688373 0.19367611 24.913548
1.6318623 0.21151605 24.934965
5.9990563 0.34989452 24.967253
7.8502617 0.40855166 24.937231
6.8378959 0.3764739 25.055668
7.1335492 0.38584197 25.01495
1.0003406 0.19150566 25.151367
3.3816416 0.26695937 25.105869
4.9094362 0.31536889 25.151546
5.409729 0.3312211 25.115458
6.2705975 0.35849851 25.116463
7.425456 0.39509124 25.121017
8.4004278 0.42598414 25.135826
4.3759022 0.29846334 25.279278
7.556973 0.3992584 25.28841
3.4858377 0.27026084 25.302126
4.9552093 0.31681919 25.374535
9.5547562 0.46256 25.338127
1.7941514 0.2166582 25.411131
4.4950933 0.30223998 25.445778
0.7260133 0.18281326 25.516474
0.24536817 0.16758353 25.620335
3.7440572 0.27844268 25.60997
8.8715906 0.44091323 25.667315
-0.120982 0.15597534 25.770741
-0.036048722 0.15866652 25.748549
0.83898085 0.18639269 25.706469
5.3313489 0.32873738 25.75433
6.2278504 0.35714385 25.754128
10.213107 0.48342028 25.79269
0.078832649 0.16230661 25.884182
0.33082151 0.17029113 25.837105
4.1912398 0.29261196 25.877394
6.8192773 0.37588373 25.833055
9.2079039 0.4515695 25.844349
4.9223571 0.31577808 25.972584
6.2303338 0.35722253 25.900957
9.5177059 0.46138582 25.950813
0.35268965 0.17098397 26.039894
3.0752757 0.25725159 26.06044
4.9360981 0.31621343 26.030895
8.9033384 0.44191903 26.006596
-0.4809621 0.14456889 26.155563
6.5451455 0.36719754 26.122633
7.9783692 0.41261053 26.124027
9.497611 0.46074903 26.25317
10.419645 0.48996451 26.321741
1.0964475 0.19455048 26.47998
1.7993392 0.21682227 26.496784
2.1383936 0.22756556 26.421213
0.41500127 0.17295839 26.580158
4.1494775 0.2912885 26.573711
5.3088727 0.32802498 26.553082
5.9230504 0.34748575 26.588829
8.4364719 0.42712581 26.586575
0.82292557 0.18588389 26.698029
7.580914 0.40001667 26.606709
8.2685719 0.42180571 26.606697
8.9843912 0.44448709 26.63925
9.6528645 0.46566826 26.612793
8.1149216 0.41693717 26.719063
8.4419947 0.42730069 26.729729
6.1236625 0.35384226 26.862404
1.877383 0.21929546 26.909595
2.8357182 0.24966094 26.948475
5.118753 0.32200077 26.934937
5.3720107 0.33002546 26.968979
-0.27956069 0.15095046 27.079149
1.2262756 0.19866452 27.019745
0.32225457 0.17001954 27.165728
6.9734583 0.38076872 27.127825
0.45642295 0.17427079 27.25264
2.3203843 0.23333248 27.235783
7.6048379 0.40077454 27.21979
1.4587367 0.20603034 27.391153
8.217063 0.42017341 27.319555
9.8713846 0.47259206 27.372768
0.87899256 0.18766031 27.403925
8.8263693 0.4394798 27.499943
-0.23362261 0.15240604 27.507326
6.814353 0.37572718 27.568176
8.8447514 0.44006217 27.598297
-0.52825511 0.14307034 27.611881
0.47278631 0.17478928 27.696623
10.251493 0.48463604 27.667269
1.9647861 0.22206469 27.785114
5.0590572 0.32010972 27.813211
5.1414065 0.32271913 27.834953
-0.53513545 0.14285235 27.912891
4.3000851 0.29606125 27.974998
5.6225204 0.33796367 28.026524
8.0328197 0.41433528 28.09432
8.6909237 0.43518794 28.019417
-0.054783642 0.15807277 28.177658
7.5273638 0.39831942 28.10935
9.0389576 0.44621566 28.160978
9.6429157 0.46535262 28.147219
5.5192461 0.33469135 28.222191
-0.5264715 0.14312688 28.331905
-0.47985396 0.14460401 28.387398
0.99662811 0.19138771 28.337168
1.3673024 0.20313288 28.362617
2.5220253 0.23972151 28.357359
5.4225063 0.33162609 28.350719
1.0263802 0.19233046 28.488171
4.1757116 0.29212055 28.452221
0.30051354 0.16933067 28.638096
6.3236961 0.36018077 28.699476
7.5521741 0.39910609 28.638969
7.66504 0.40268224 28.696514
7.9881706 0.41292107 28.631035
7.4552135 0.39603359 28.75318
3.2362261 0.26235163 28.838665
2.743145 0.24672771 28.910507
0.54232782 0.17699282 29.095934
8.4417629 0.42729312 29.067844
2.3168302 0.23321941 29.187305
6.9430547 0.37980565 29.144604
4.7922645 0.31165656 29.246296
4.8449917 0.31332725 29.231152
-0.6115014 0.14043266 29.344341
5.584496 0.33675903 29.442291
8.9816189 0.44439888 29.429718
-0.16260692 0.15465631 29.53441
3.6508379 0.27548891 29.531555
0.92905504 0.18924664 29.609211
1.3336586 0.20206685 29.6707
2.7383919 0.24657708 29.674587
-0.78389412 0.13497025 29.787729
2.9322798 0.25272062 29.791183
4.1099896 0.29003769 29.776791
8.6245108 0.43308374 29.765026
1.5021503 0.20740575 29.842367
2.2012081 0.22955585 29.951168
5.1025124 0.32148701 29.955816
9.4120741 0.45803827 29.932621
10.514785 0.49297839 29.928415
3.794322 0.28003538 30.094196
6.2810764 0.35883063 30.049839
4.9192863 0.31568116 30.159225
7.4954062 0.39730746 30.161579
8.7622271 0.43744746 30.117744
0.41144016 0.17284568 30.259703
2.7507467 0.24696857 30.274534
4.8360786 0.31304461 30.292568
7.9329891 0.41117257 30.269707
3.2026854 0.2612887 30.361357
4.1156282 0.29021633 30.369244
1.5173278 0.20788671 30.448463
3.7860391 0.27977291 30.57531
5.0936599 0.32120627 30.563629
5.4801588 0.333453 30.569439
0.49725699 0.17556526 30.691984
1.0464542 0.19296683 30.636522
4.9390974 0.3163088 30.625648
7.370296 0.39334339 30.696114
8.2916059 0.42253572 30.773397
3.5083189 0.27097303 30.889256
6.7259235 0.37292606 30.820829
9.2634506 0.45332944 30.853825
0.20364805 0.16626208 30.953245
1.1226909 0.19538245 30.964821
6.4305544 0.36356711 30.996792
1.3522176 0.20265511 31.047504
5.3108816 0.32808927 31.063747
8.8851738 0.44134343 31.024569
6.1432662 0.35446423 31.198629
3.8530045 0.2818948 31.206469
8.2068214 0.4198494 31.247103
-0.43733048 0.14595196 31.397877
2.8314657 0.24952623 31.342571
8.1405582 0.41774982 31.321115
10.451579 0.49097601 31.321377
9.3366652 0.45564935 31.548328
7.023366 0.38235074 31.615458
8.2944489 0.42262623 31.666199
8.8102932 0.43897146 31.678619
0.20155153 0.16619536 31.748531
5.2331786 0.32562706 31.759926
6.7801547 0.37464431 31.796228
-0.068032026 0.15765323 31.832733
6.1721449 0.3553791 31.80537
6.8234844 0.37601721 31.947906
8.9375458 0.44300318 31.903894
9.2832785 0.45395762 31.931747
9.4591503 0.45953026 31.985382
-0.060551576 0.15789005 32.084286
1.2069265 0.19805139 32.08918
9.1207113 0.44880664 32.070816
1.0554388 0.19325139 32.177952
1.8699856 0.21906075 32.179138
4.6427722 0.30691934 32.141602
8.2033548 0.4197394 32.18705
1.14893 0.19621366 32.282467
1.3729209 0.20331098 32.2528
7.7814279 0.40637031 32.282398
1.4053588 0.20433879 32.312393
1.9425527 0.22136007 32.329453
0.82909417 0.18607917 32.432442
3.713017 0.277459 32.479687
8.6642857 0.43434459 32.449715
2.2999783 0.23268542 32.554329
2.5792153 0.24153334 32.536743
5.8690052 0.3457737 32.551373
7.5366983 0.39861611 32.52
-0.58000648 0.141431 32.609299
1.8583819 0.21869305 32.632874
4.5880132 0.30518422 32.606483
5.1434941 0.32278529 32.622833
6.7022791 0.37217683 32.654854
5.6741219 0.33959877 32.785881
-0.40672368 0.14692181 32.816448
5.7752671 0.34280372 32.818077
7.4953499 0.39730614 32.856808
7.6307049 0.401595 32.831825
1.565858 0.20942467 32.988148
-2.622309 0.076718792 33.029926
0.96171021 0.1902816 33.056507
1.1095239 0.19496506 33.094002
7.8743343 0.40931469 33.096783
-1.9053813 0.099435389 33.10788
1.7134576 0.21410131 33.130135
7.7059679 0.40397987 33.162193
9.890728 0.47320598 33.292881
-0.3774516 0.14784944 33.384026
6.2870488 0.35902005 33.36972
9.3026524 0.45457229 33.360641
9.5121431 0.46121025 33.3941
0.10269839 0.16306333 33.446503
4.0515494 0.28818616 33.44788
1.2855151 0.20054144 33.546089
4.1239638 0.29048067 33.514633
7.3549991 0.3928591 33.559711
-0.34595561 0.14884737 33.697109
0.33880126 0.1705444 33.674332
2.3803031 0.23523094 33.682159
0.89494145 0.18816581 33.797619
6.6463237 0.37040389 33.797852
9.2744036 0.4536773 33.789528
10.152737 0.48150808 33.731197
0.77430809 0.18434349 33.825855
1.026687 0.19234027 33.800327
1.2913368 0.20072587 33.816971
2.8781519 0.25100586 33.851768
5.0821395 0.32084125 33.889977
5.384716 0.33042857 33.831581
9.2609463 0.45325094 33.819874
-1.4836953 0.11279698 33.94101
1.3645935 0.20304704 33.982117
4.0499263 0.28813478 33.900574
6.0521431 0.35157672 34.067524
8.094471 0.41628993 34.038742
8.7994299 0.43862727 34.038269
-2.0934515 0.093476206 34.169598
-0.32819432 0.1494101 34.136063
1.7716888 0.21594632 34.184059
7.4327388 0.39532232 34.145744
-2.6713471 0.075164974 34.203606
1.4067432 0.20438258 34.226238
2.8125961 0.24892871 34.221855
-2.6723979 0.075131692 34.383347
-2.5101013 0.080274224 34.393715
3.6355579 0.27500513 34.373596
7.8004217 0.4069722 34.361504
-0.9119519 0.13091324 34.444366
-0.85133117 0.13283405 34.488297
0.39301699 0.17226204 34.448776
2.9417467 0.25302103 34.495655
7.0986376 0.38473529 34.467449
2.1170924 0.22689095 34.514824
2.7249889 0.24615282 34.6539
3.4512563 0.26916534 34.618019
3.6367397 0.27504247 34.618401
6.2243752 0.35703361 34.652351
8.9073935 0.44204697 34.621994
6.4301319 0.36355317 34.759338
-0.32382497 0.14954847 34.811871
0.92711884 0.18918531 34.802227
2.081238 0.22575492 34.811142
7.4354305 0.39540672 34.868088
9.5610294 0.46275771 34.860722
2.0004978 0.22319658 34.942547
5.5976791 0.33717632 34.909851
7.3246083 0.3918952 34.982185
9.7013979 0.46720532 34.994232
9.4976473 0.46074924 35.087753
-1.4842747 0.11277862 35.138588
2.3556495 0.23444997 35.162796
3.5656624 0.27279007 35.136505
4.6681156 0.30772239 35.176865
11.653814 0.52907103 35.128639
12.835579 0.56651741 35.127411
-1.9828956 0.09697929 35.243019
2.3657689 0.23477061 35.259071
7.0933981 0.38456905 35.245434
8.3728418 0.42510909 35.221096
0.92026961 0.1889683 35.351315
7.4316506 0.3952868 35.336647
9.0968294 0.44804901 35.349876
12.836151 0.56653517 35.304482
4.3895926 0.29889718 35.437809
6.5014787 0.36581361 35.492805
6.7232795 0.37284154 35.467701
7.5907502 0.40032792 35.46521
7.9648285 0.41218084 35.423653
10.675639 0.49807566 35.470127
10.918082 0.50575775 35.437515
12.303417 0.54965425 35.473923
3.2258995 0.26202434 35.563213
3.3764782 0.26679546 35.596481
10.205803 0.48318836 35.553871
-1.9628959 0.097613014 35.684078
-0.54467154 0.14255071 35.636223
0.24247357 0.16749176 35.677383
0.59824729 0.1787647 35.642128
6.5764103 0.36818784 35.647102
11.804327 0.53383964 35.63895
-2.2153187 0.089614734 35.735149
-2.0821395 0.093834661 35.747139
-1.440624 0.11416169 35.703384
-1.3036424 0.11850207 35.715565
3.855994 0.28198951 35.709389
5.3353214 0.32886308 35.742455
6.6969433 0.37200695 35.753975
9.0979338 0.44808444 35.778267
11.675251 0.52974987 35.778458
11.841351 0.5350129 35.750473
1.7034262 0.21378362 35.896088
3.6032329 0.27398053 35.894314
5.7033358 0.34052381 35.899467
6.0314426 0.35092008 35.899422
2.0580797 0.2250212 35.900101
-1.7216816 0.10525612 36.035412
-0.16325544 0.15463594 36.093769
5.1608486 0.32333472 36.005547
7.691473 0.40351918 36.027611
4.9005523 0.31508699 36.181679
-1.7852311 0.10324248 36.24741
0.058964193 0.16167711 36.241478
0.63744193 0.18000677 36.28096
1.9546685 0.22174451 36.256653
5.3032446 0.32784653 36.256126
13.069963 0.57394296 36.269581
8.5599556 0.43103838 36.383034
12.730748 0.56319457 36.345093
1.8678279 0.21899281 36.481609
-1.9766186 0.097178191 36.503258
0.54239821 0.17699525 36.552032
4.0228443 0.28727612 36.52433
4.9598799 0.31696671 36.569481
11.581686 0.52678525 36.51215
12.347052 0.55103666 36.564896
1.1949495 0.19767207 36.614574
1.9007113 0.2200347 36.609074
5.8123484 0.34397769 36.60141
12.116618 0.54373515 36.626896
2.8410821 0.24983117 36.718632
6.1680536 0.35524839 36.750153
0.013464868 0.16023536 36.806763
2.0848732 0.22586982 36.85041
4.2808475 0.29545105 36.835709
6.0227809 0.35064536 36.858326
6.4792657 0.36510962 36.828499
8.3706837 0.42504138 36.806461
12.040681 0.54132903 36.830864
-0.66517162 0.1387324 36.945286
-0.15786552 0.15480664 36.930447
4.699748 0.30872416 36.915913
11.557429 0.52601665 36.907181
12.63702 0.56022465 36.93671
-1.2683553 0.11962012 37.086494
0.72588021 0.18280914 37.018364
5.5789618 0.33658257 37.054707
-0.25465256 0.15173985 37.195477
1.741631 0.21499391 37.14716
10.460985 0.49127483 37.196297
-2.3144109 0.086474881 37.207043
0.95744866 0.19014665 37.292236
1.3689702 0.20318592 37.262829
1.6672742 0.21263786 37.215538
3.1716156 0.26030415 37.273804
6.8364701 0.37642831 37.234737
0.70722771 0.18221816 37.387127
3.1222267 0.25873923 37.312637
10.60277 0.49576741 37.322571
11.310301 0.51818627 37.346226
1.0773407 0.19394545 37.40303
12.925413 0.56936276 37.471241
-2.3863914 0.084194094 37.502991
-0.26408988 0.15144086 37.504158
-0.038224697 0.15859768 37.510998
5.9871411 0.3495166 37.553825
9.3998661 0.4576523 37.593048
-2.3259206 0.086110145 37.644623
-0.67861027 0.13830644 37.615993
4.0654974 0.28862724 37.648762
5.4238257 0.33166739 37.62521
5.6515536 0.33888316 37.614117
11.894266 0.53668988 37.625759
-0.4481166 0.1456098 37.773758
3.4542739 0.26926023 37.767345
5.0712366 0.32049522 37.707844
5.6273146 0.33811522 37.769547
7.8249693 0.40775019 37.72477
8.2936525 0.42260087 37.793682
5.289865 0.32742283 37.881042
12.601482 0.55909866 37.820473
-0.76573396 0.13554582 37.926331
6.4962263 0.36564767 37.939957
7.5364723 0.39860892 38.098305
8.59659 0.43219984 38.099239
10.589593 0.49535009 38.049057
9.6245928 0.46477315 38.162045
11.491133 0.52391624 38.116562
2.1491137 0.2279052 38.250042
2.2032216 0.22961962 38.272209
4.731154 0.30971968 38.257957
3.2877855 0.26398501 38.388721
5.4947891 0.33391625 38.323097
6.9575787 0.38026619 38.364517
9.7618523 0.46912232 38.371822
9.9307661 0.47447452 38.39336
0.58561409 0.17836457 38.475227
1.3843333 0.20367256 38.487659
3.5695112 0.27291188 38.495445
5.9930763 0.34970504 38.444103
10.35827 0.48802033 38.455688
3.0510786 0.25648478 38.534985
4.4264579 0.30006519 38.57827
0.21943313 0.16676176 38.684311
1.1640807 0.19669366 38.615528
8.4780436 0.42844367 38.643295
5.7403383 0.34169683 38.703693
9.2576227 0.4531453 38.727871
3.3691106 0.26656216 38.85128
4.6176939 0.30612478 38.878498
6.4408584 0.36389354 38.834709
-0.95585585 0.1295217 38.902184
1.9825125 0.22262634 38.940083
3.6669636 0.27599996 38.954865
10.119838 0.48046526 38.91177
0.34134018 0.17062446 39.042221
0.72766459 0.18286538 39.039223
8.3171997 0.42334712 39.052429
-0.85947257 0.13257575 39.144444
0.63916874 0.18006131 39.195961
6.5011435 0.36580369 39.174988
8.1223526 0.41717312 39.173763
2.5308418 0.2400009 39.239681
10.050434 0.47826612 39.202225
0.41080916 0.17282549 39.478394
3.1813207 0.26061198 39.449539
8.5463705 0.43060839 39.435989
9.613225 0.46441263 39.486496
12.289045 0.54919875 39.451138
1.2049488 0.1979887 39.506725
4.5104804 0.30272767 39.510277
6.4646358 0.36464682 39.514366
7.2162371 0.38846195 39.503639
11.753885 0.5322417 39.59893
1.2958413 0.20086876 39.603615
4.7489705 0.31028441 39.640701
7.1143551 0.38523367 39.644859
10.701454 0.49889416 39.697639
-0.089028001 0.15698774 39.709927
3.1584506 0.25988737 39.724716
3.3401988 0.26564625 39.733849
12.304043 0.54967391 39.799088
2.2987165 0.23264591 39.830414
8.2023354 0.41970724 39.892746
11.882658 0.536322 39.804825
12.517677 0.55644315 39.881218
-0.39564848 0.14727223 39.916752
10.800325 0.50202692 39.916016
8.8803587 0.44119096 40.093143
9.4350281 0.45876613 40.018627
9.3035069 0.4545987 40.292843
10.178118 0.48231149 40.287144
10.559026 0.49438089 40.298832
11.32121 0.51853198 40.22113
12.487791 0.55549616 40.228455
13.063622 0.57374185 40.234398
6.6662569 0.3710351 40.32555
9.3522797 0.45614409 40.397713
11.514832 0.52466708 40.325485
0.83911991 0.18639711 40.461117
3.5081632 0.27096811 40.443729
12.807127 0.56561458 40.426285
3.1185036 0.25862139 40.516029
8.9753103 0.44419944 40.590591
-1.8589737 0.1009056 40.666439
-0.044725895 0.15839162 40.692532
6.0867238 0.35267198 40.680702
10.746618 0.50032496 40.648525
-0.7795707 0.13510741 40.733765
5.3452406 0.32917741 40.75663
-1.5260642 0.11145411 40.889332
4.157064 0.29152897 40.830452
8.6561632 0.43408689 40.844315
10.464769 0.49139416 40.859089
-1.7514677 0.104312 40.927666
-1.1081111 0.1246973 40.927509
3.0790234 0.25737029 40.955688
8.2146015 0.42009556 40.906219
8.5605564 0.43105745 40.924477
0.79810333 0.18509735 41.027428
9.3960857 0.45753193 41.038982
-0.2114048 0.15311022 41.211021
5.1888309 0.32422134 41.271271
5.808702 0.3438625 41.261028
7.6834254 0.40326473 41.268539
8.2337208 0.4207013 41.234562
11.063914 0.51037884 41.2761
-1.5148121 0.11181064 41.329781
3.4828827 0.2701669 41.355175
4.3697901 0.29826933 41.349548
11.572513 0.52649468 41.302402
12.506203 0.55607957 41.365818
6.5901403 0.36862302 41.460503
10.217397 0.48355576 41.460705
12.259573 0.5482648 41.454403
-0.8429687 0.13309856 41.591278
-0.42189682 0.1464406 41.516449
5.5987253 0.33720922 41.533894
9.7347517 0.46826273 41.55518
11.619886 0.52799571 41.528225
4.0005217 0.2865687 41.69371
11.5313 0.52518862 41.693523
-1.8518095 0.10113257 41.73447
1.5494 0.20890279 41.796692
4.1755676 0.29211518 41.772472
9.2392159 0.45256123 41.780701
9.880888 0.47289315 41.785988
0.56852186 0.17782281 41.982533
2.6152477 0.24267508 41.991688
5.0657816 0.32032233 41.974075
0.74522698 0.18342188 42.023575
10.771491 0.5011127 42.059196
2.7987912 0.24849081 42.170113
10.089039 0.47948861 42.106636
10.228333 0.48390219 42.172436
3.2540665 0.26291659 42.216431
5.3947387 0.33074567 42.208138
6.264276 0.35829768 42.215836
-1.3300598 0.11766464 42.377457
0.99230325 0.19125067 42.350925
0.54233646 0.17699309 42.441299
1.4617862 0.20612663 42.403481
3.9012003 0.28342155 42.499123
6.354351 0.36115175 42.417355
6.9457726 0.37989146 42.438652
11.642477 0.5287112 42.451214
-2.0850179 0.093743175 42.531162
1.1233726 0.1954037 42.534325
2.6353843 0.24331309 42.559837
4.1119719 0.29010004 42.586891
7.5882902 0.4002502 42.541595
9.5365534 0.46198255 42.577286
11.830509 0.53466934 42.562958
0.39538717 0.17233685 42.654041
0.93730843 0.1895081 42.639969
6.8388119 0.37650231 42.625214
3.3148599 0.26484284 42.706676
6.9496756 0.38001511 42.837379
8.1978474 0.41956449 42.8629
10.962097 0.50715226 42.878929
2.1921201 0.22926785 42.981461
0.22127721 0.16682003 43.093391
8.0427399 0.41464972 43.080025
-1.2524874 0.1201226 43.180992
3.8135664 0.28064477 43.159195
6.1523995 0.35475269 43.120853
11.006689 0.50856525 43.148125
-1.3528863 0.11694138 43.218021
-0.63896656 0.1395625 43.209957
2.3717523 0.23495963 43.203251
10.98591 0.50790685 43.263302
12.200851 0.546404 43.250629
0.56446576 0.17769425 43.325047
5.5207095 0.33473706 43.314941
1.034238 0.19257937 43.405739
6.1753502 0.35547987 43.451118
6.5152063 0.36624852 43.459675
7.7367549 0.40495434 43.400108
8.0423021 0.41463584 43.577995
10.767235 0.50097769 43.526676
0.28967619 0.16898733 43.748653
7.574924 0.39982656 43.776863
11.259079 0.51656246 43.788967
-0.76376766 0.13560811 43.892506
9.5146236 0.46128756 43.857395
11.462874 0.52302003 43.83968
-0.044118524 0.15841077 43.962784
10.165885 0.48192337 43.930614
11.171755 0.5137955 43.9785
12.016222 0.54055363 43.97855
-0.48663449 0.14438927 44.095444
3.4808793 0.27010322 44.075142
7.925909 0.4109478 44.028843
-0.76136529 0.13568422 44.153679
7.1540775 0.38649166 44.117714
7.7856073 0.40650219 44.281502
-3.0792449 0.062240295 44.386337
-2.4276435 0.082886823 44.318348
3.1808634 0.26059699 44.46386
4.7503071 0.3103261 44.450508
6.9652791 0.38050941 44.43626
7.3516564 0.39275208 44.442707
-2.3711562 0.084676668 44.568848
0.51156294 0.176018 44.552422
4.4484076 0.30076015 44.551746
5.145751 0.32285604 44.580227
-0.41859818 0.14654508 44.606144
7.8471537 0.40845233 44.659039
11.934938 0.53797805 44.68676
12.354964 0.55128711 44.656124
-2.1086593 0.092994101 44.749149
-1.7897174 0.10310004 44.779041
1.4729624 0.20648074 44.755836
7.3008738 0.39114296 44.779369
7.6519175 0.40226606 44.781353
8.0820599 0.41589552 44.782349
-2.993562 0.064955242 44.89204
1.4704578 0.20640138 44.874077
-2.3829947 0.084301561 44.908726
1.387908 0.20378573 45.05162
4.7738361 0.31107163 45.017517
1.6905029 0.21337369 45.199413
11.433404 0.52208608 45.198223
6.2930965 0.35921067 45.225513
10.427547 0.49021429 45.27066
-0.57627141 0.14154908 45.330452
-0.43350577 0.14607272 45.329033
10.956923 0.50698811 45.315311
12.631829 0.56006026 45.353394
0.94341087 0.18970147 45.408157
1.5191592 0.20794451 45.435272
-1.2095031 0.12148461 45.563042
0.76443052 0.18403032 45.508041
9.467514 0.45979476 45.558651
11.250732 0.51629782 45.591515
0.97242403 0.19062077 45.614082
9.6746502 0.46635804 45.651344
10.223204 0.48373947 45.66008
-3.4512956 0.050451562 45.787342
-3.3634315 0.053235605 45.799339
-1.245502 0.12034396 45.736195
0.24039292 0.16742575 45.733406
2.3986762 0.23581274 45.779667
7.5245543 0.39823043 45.734409
9.04387 0.4463712 45.705212
11.375534 0.52025241 45.725357
-3.24261 0.05706393 45.866982
-0.93409753 0.13021107 45.813667
-0.46759915 0.14499244 45.875496
0.48041487 0.17503107 45.804127
1.2058995 0.19801864 45.813736
4.4317794 0.30023327 45.801365
5.6814394 0.3398298 45.808498
3.171809 0.26031014 45.94265
5.4329085 0.3319549 45.90609
8.8720589 0.44092718 45.924896
-0.82973897 0.13351774 46.017021
2.3780489 0.23515914 46.062977
2.4553547 0.23760864 46.034058
9.9019022 0.47355866 46.02951
-2.3522484 0.085275762 46.116634
3.4502602 0.26913306 46.12476
-2.9790931 0.065413654 46.290077
-1.3367583 0.11745239 46.25396
3.9814451 0.2859641 46.22118
6.4761353 0.36501038 46.224712
6.6506462 0.3705399 46.242352
7.2399244 0.38921171 46.231323
10.387362 0.48894086 46.220379
11.646002 0.5288229 46.242088
2.4707661 0.23809695 46.322327
5.5907722 0.33695698 46.321789
6.659615 0.3708241 46.335812
9.5455742 0.46226814 46.312996
11.598248 0.52730978 46.338776
-0.59022832 0.1411068 46.484085
2.6968403 0.2452603 46.444283
6.4154005 0.36308596 46.432434
-0.78333449 0.13498805 46.510303
0.98642421 0.19106433 46.508564
1.4711375 0.20642288 46.501411
1.509179 0.20762825 46.694466
6.9459443 0.37989667 46.624275
-2.2618923 0.088138714 46.729977
0.72106826 0.1826563 46.791172
5.3055286 0.32791871 46.746655
6.486495 0.36533862 46.792267
-2.7073216 0.074024908 46.821911
-2.679697 0.074900225 46.891563
0.22757852 0.16701967 46.897575
1.3229754 0.20172822 46.804497
5.2518573 0.3262181 46.863823
6.8634176 0.37728173 46.864891
11.832112 0.53472066 46.876503
-1.2126182 0.12138582 46.947975
3.2898395 0.26404995 46.942753
3.3271804 0.2652331 46.946167
5.379281 0.33025566 46.915054
8.4394331 0.42721909 46.92252
-3.491508 0.049177296 47.090248
0.59293091 0.17859614 47.031067
7.3410358 0.39241543 47.066044
-1.4818062 0.11285637 47.119713
3.437772 0.26873729 47.145481
7.2960172 0.39098901 47.176586
11.133869 0.51259547 47.179459
11.220913 0.51535362 47.143745
1.1958666 0.19770063 47.244576
2.1723089 0.22864003 47.293205
3.1692641 0.26022938 47.278481
-3.4184566 0.051491972 47.375721
6.1770263 0.3555328 47.310333
7.6002107 0.40062761 47.399963
8.375906 0.42520618 47.35799
-1.9388851 0.098373413 47.424202
-1.0819695 0.12552549 47.454121
7.7686887 0.40596601 47.47686
3.2240663 0.26196584 47.517658
5.4713845 0.33317396 47.572906
6.3525538 0.36109456 47.552872
1.2104878 0.1981639 47.639091
2.1144235 0.22680587 47.630966
8.3297863 0.42374492 47.606728
9.932147 0.47451714 47.696857
10.678799 0.4981758 47.681335
7.0511236 0.3832294 47.774822
7.9967327 0.41319183 47.764694
-2.2111092 0.089747742 47.80418
-1.2665938 0.1196755 47.808231
3.0869858 0.2576223 47.813976
1.5362637 0.20848636 47.935814
3.5069458 0.2709291 47.959709
12.117141 0.54375303 47.901405
-3.0930283 0.061803382 48.047539
3.9922237 0.28630555 48.005165
8.5604467 0.4310537 48.020039
12.601179 0.55909038 48.071682
-0.72177124 0.13693863 48.131435
0.18686107 0.16572939 48.123386
5.3083677 0.32800874 48.135979
11.588318 0.5269959 48.114635
-3.526536 0.048067328 48.262901
1.1482166 0.19619076 48.246197
3.0628574 0.25685781 48.223984
6.8835421 0.37791952 48.273609
9.3637667 0.45650756 48.299686
-2.4276638 0.082886003 48.314667
-1.3127249 0.11821377 48.320553
3.0412569 0.2561734 48.301678
6.5246286 0.36654705 48.352898
8.6920166 0.4352226 48.304581
8.9721336 0.44409835 48.325943
1.3445983 0.20241334 48.489117
7.6067505 0.40083501 48.447189
9.4600344 0.45955792 48.469799
10.434834 0.49044526 48.421211
-3.601645 0.045687404 48.562767
7.2707419 0.39018834 48.508076
-0.43804419 0.14592879 48.649662
0.46085978 0.17441133 48.650978
1.7979882 0.21677938 48.616539
2.6874549 0.24496293 48.665424
-3.5845654 0.046228573 48.73003
5.4991255 0.33405313 48.707863
5.7527876 0.34209064 48.710926
-0.59882593 0.14083432 48.887577
2.4271808 0.23671596 48.871147
9.189683 0.45099169 48.891457
-3.6548858 0.044000432 48.998425
-3.3106244 0.054908648 48.975533
0.72776914 0.18286863 48.975288
1.066061 0.19358771 48.985325
1.4185534 0.20475672 48.918663
9.6952915 0.46701232 48.912178
-1.0612892 0.1261808 49.046585
2.1712465 0.22860648 49.078011
8.3316021 0.42380267 49.050533
-3.0827098 0.062130332 49.104671
2.3543544 0.23440844 49.138519
2.7295246 0.24629602 49.195377
10.690639 0.49855065 49.190582
-2.9985864 0.064795874 49.212612
-2.7757304 0.071857266 49.292553
-2.510725 0.080254197 49.248077
4.8842883 0.31457162 49.250832
7.18504 0.38747287 49.22448
-0.12967014 0.1557 49.390041
0.32519913 0.17011291 49.300209
2.2657983 0.23160249 49.38792
2.7483339 0.24689202 49.369144
5.7620668 0.34238476 49.384056
11.677212 0.52981114 49.301384
-0.67989779 0.13826557 49.413445
1.3057237 0.20118171 49.48616
10.062696 0.478654 49.454414
10.635329 0.49679813 49.438438
10.106796 0.48005128 49.558784
-2.2521756 0.088446602 49.674423
0.11277151 0.16338201 49.611382
4.5977478 0.30549237 49.61483
6.02701 0.35077977 49.667858
10.430551 0.4903096 49.613899
11.750586 0.53213561 49.665192
-1.2904902 0.11891846 49.77549
2.7613835 0.2473056 49.776413
11.66264 0.52934903 49.769382
0.87368369 0.18749221 49.899414
0.99380732 0.19129843 49.857155
5.8050804 0.34374776 49.86026
0.14738248 0.16447875 49.99876
4.1600046 0.29162216 49.941689
5.0173416 0.31878757 49.941849
5.5866065 0.33682525 49.999706
11.909245 0.5371629 49.986645
-3.9741659 0.033883866 50.017197
-3.067745 0.062604629 50.075352
-2.1330512 0.092221208 50.060722
1.5901875 0.21019527 50.054642
5.0964336 0.32129374 50.070621
11.123885 0.51227838 50.031925
-3.9252915 0.035432525 50.174522
-0.17070624 0.15439984 50.17292
0.74958611 0.1835601 50.136364
1.0335188 0.19255678 50.124474
6.2755742 0.35865581 50.148613
7.7386827 0.40501565 50.1096
-2.1382074 0.092057854 50.246971
-0.012092113 0.15942569 50.269859
7.3279819 0.39200228 50.21978
7.7777171 0.40625253 50.297173
8.6437807 0.43369448 50.251392
11.009781 0.50866294 50.321659
12.069225 0.54223198 50.321201
1.9528724 0.22168732 50.485497
3.5633073 0.27271536 50.453636
4.5553284 0.30414841 50.402359
8.3833342 0.42544207 50.44117
11.028715 0.50926286 50.50835
-4.1751275 0.027516298 50.64473
-4.0851884 0.030366089 50.612404
-3.3941391 0.052262601 50.651474
5.8723397 0.34587905 50.668762
10.017418 0.47721937 50.694061
2.3535459 0.23438306 50.755589
5.2329469 0.32561937 50.756561
10.100679 0.47985756 50.871857
1.1851834 0.19736247 50.93541
-2.2820494 0.08750017 51.011086
0.88811785 0.1879497 51.057716
5.0292892 0.31916633 51.08049
-2.4328055 0.082723349 51.186592
0.24876106 0.16769113 51.146858
10.617522 0.49623409 51.17955
11.118484 0.51210731 51.120728
1.2435054 0.19921049 51.207222
6.7881694 0.37489799 51.202335
4.6506605 0.3071692 51.315018
5.4459229 0.33236775 51.339058
5.5113068 0.33443952 51.352093
-3.1678717 0.059432138 51.45166
-2.0393031 0.095191836 51.481194
1.639526 0.21175879 51.481888
3.1495657 0.25960574 51.491718
3.3848515 0.26706097 51.433079
8.588479 0.4319424 51.405956
10.222784 0.48372662 51.463463
10.523332 0.49324965 51.447342
11.606522 0.52757108 51.484043
-2.8673041 0.068955883 51.551361
-0.54241204 0.14262214 51.50502
2.4817879 0.23844659 51.587379
10.1439 0.4812271 51.56942
-4.1949744 0.026887469 51.639221
1.535954 0.20847702 51.698765
2.4360292 0.23699668 51.609364
4.1134253 0.29014647 51.675926
5.2598419 0.32647169 51.666965
10.077915 0.47913635 51.661514
12.17391 0.54554939 51.659744
2.3158417 0.23318842 51.787251
5.0729456 0.3205497 51.741825
5.1818047 0.32399899 51.740791
5.3367252 0.32890782 51.730042
5.5300069 0.33503205 51.817772
4.2391658 0.29413068 51.905983
9.8403625 0.47160944 51.930771
11.180203 0.514063 51.994984
2.3492184 0.23424599 52.057362
7.7697821 0.40600139 52.044075
11.783215 0.53316987 52.052486
-3.152812 0.059909299 52.147903
-2.3411303 0.085628152 52.176949
5.6438961 0.33864078 52.130833
8.0710039 0.41554582 52.177773
8.7852297 0.43817699 52.129967
10.565692 0.49459189 52.173164
1.4253511 0.20497248 52.203983
1.7775798 0.21613312 52.268661
4.4011316 0.29926267 52.297832
6.2411041 0.35756382 52.210106
6.7083626 0.37236938 52.285435
8.9217949 0.44250426 52.227516
10.129107 0.48075846 52.280445
-1.445387 0.11401056 52.363922
-0.41297376 0.14672349 52.341389
-0.12159884 0.15595599 52.384277
9.2087555 0.45159695 52.396996
10.33315 0.48722368 52.329948
-1.6275615 0.10823821 52.489075
-1.1786094 0.12246364 52.473335
2.5642025 0.24105795 52.431084
5.5195341 0.33470029 52.442703
-1.2591254 0.11991243 52.50457
4.0153627 0.28703928 52.570526
8.7409687 0.43677458 52.589806
-4.0044055 0.032925796 52.624504
-1.3973901 0.11553138 52.626938
10.77499 0.50122368 52.698158
11.091322 0.5112468 52.634777
-4.6908507 0.01117516 52.771122
6.7417717 0.37342796 52.77367
8.3673182 0.42493492 52.714584
-0.51274502 0.14356214 52.886681
9.4170732 0.45819774 52.898438
0.5116812 0.17602199 52.902935
1.6204152 0.21115325 52.947159
1.8869308 0.21959801 52.999157
2.7068303 0.24557728 52.965389
-0.76046604 0.13571288 53.041138
2.7118902 0.24573758 53.066914
3.5451088 0.27213886 53.008614
9.2146511 0.45178369 53.061523
9.6874933 0.46676588 53.098969
-0.61793113 0.14022924 53.128105
4.7670193 0.31085619 53.183372
10.389715 0.48901609 53.194805
10.893635 0.50498307 53.147556
-1.9667382 0.097491086 53.229233
-1.4722544 0.11315925 53.295639
6.0117903 0.35029787 53.2071
8.7431469 0.43684369 53.210609
9.4694576 0.45985758 53.218372
11.82287 0.53442693 53.260643
-2.6300969 0.076471969 53.328011
-0.97970545 0.1287661 53.329178
4.2769079 0.29532659 53.319374
4.9502354 0.3166616 53.342808
6.2546272 0.35799238 53.372795
8.2375345 0.42082268 53.370407
10.184551 0.48251536 53.388378
11.05635 0.51013881 53.356659
-2.659565 0.075538263 53.417198
6.1518331 0.35473526 53.409203
6.6351376 0.37004924 53.40863
9.6242228 0.46476123 53.439476
11.084307 0.51102471 53.422657
8.4086285 0.42624408 53.525227
9.7097473 0.467471 53.541634
10.140706 0.48112607 53.528992
-4.4985561 0.017268179 53.625294
-4.0569539 0.031260744 53.650562
-2.4563017 0.081978858 53.631954
-1.3688569 0.11643551 53.787071
2.6594253 0.24407522 53.752625
10.985405 0.50789106 53.752029
-0.72787189 0.13674569 53.816753
0.010864735 0.16015324 53.887077
5.1462598 0.32287282 53.807449
6.4770513 0.36504012 53.87038
6.8538561 0.37697953 53.819832
11.12454 0.51229978 53.885021
-2.7578712 0.072423376 53.933006
-1.1327548 0.12391662 53.915188
9.9565821 0.47529209 54.094379
10.671812 0.49795461 54.042358
11.36943 0.52005941 54.013134
-4.7897058 0.0080427881 54.142929
2.8132877 0.24895053 54.197845
9.7710133 0.46941221 54.140335
0.32851776 0.17021838 54.283081
4.502564 0.30247676 54.204704
9.5933218 0.4637821 54.254921
10.450222 0.49093333 54.261639
-2.7796886 0.071732089 54.357761
-0.27581006 0.1510697 54.302879
-0.078763127 0.15731333 54.3582
7.1230617 0.38550961 54.313614
9.0360975 0.44612604 54.378654
-0.37453389 0.14794157 54.49054
5.2284403 0.32547683 54.556423
7.8976607 0.41005361 54.538651
9.4126415 0.45805728 54.528717
1.642349 0.21184832 54.681992
2.3060627 0.23287867 54.698334
3.708456 0.27731475 54.624886
7.6392426 0.40186539 54.676296
7.8345799 0.40805486 54.636101
8.7297878 0.43642026 54.616005
9.992382 0.47642654 54.612438
-0.9978137 0.12819242 54.786701
4.7383871 0.30994907 54.769295
6.1226521 0.35381073 54.775536
-0.40149236 0.1470874 54.851662
6.353271 0.36111811 54.886177
10.897305 0.50509989 54.853714
-0.89572245 0.13142729 54.99791
-0.33726978 0.14912234 54.97456
0.78566647 0.18470359 54.979141
4.6959291 0.30860373 54.957794
9.473135 0.45997408 54.950653
0.51386762 0.17609142 55.098415
4.4583621 0.30107623 55.156265
-3.9819133 0.033638433 55.279541
-1.9296643 0.098665923 55.215733
6.2824311 0.35887352 55.283592
9.9305506 0.47446737 55.231167
4.7853637 0.31143761 55.349361
4.8936477 0.31486866 55.321972
7.4701905 0.39650887 55.349129
0.53355241 0.17671517 55.474274
1.0032541 0.19159809 55.492935
5.5850291 0.33677572 55.475647
6.7254214 0.37291014 55.571251
-4.3461165 0.022098271 55.602051
-3.8608379 0.037474807 55.664104
2.5032477 0.23912671 55.613678
2.6540813 0.24390602 55.691643
-3.9933457 0.033276167 55.716331
-1.6664292 0.1070068 55.732239
1.3866643 0.2037468 55.77002
-2.2306259 0.089129709 55.855385
5.6377401 0.33844593 55.840023
5.7598629 0.34231552 55.826878
9.7485571 0.46870089 55.868111
10.74166 0.50016886 55.861271
-2.9040384 0.067791954 55.908825
-2.8645995 0.06904161 55.929115
2.7391448 0.24660136 55.970272
3.1927099 0.26097298 55.956829
-4.793139 0.0079338765 56.099865
-1.6857148 0.10639573 56.035423
-1.3584337 0.11676592 56.015297
0.18871403 0.16578868 56.021294
7.4824266 0.39689669 56.059525
8.8643856 0.44068509 56.03022
8.9430618 0.44317806 56.095997
-1.8992858 0.099628538 56.15313
-0.71257102 0.13723065 56.141319
4.1399937 0.2909885 56.158295
6.3158231 0.35993165 56.127205
8.477849 0.42843729 56.151249
8.7808971 0.43803972 56.174194
5.9014311 0.34680122 56.254539
6.5874329 0.3685379 56.206608
9.1020603 0.44821614 56.273407
-2.4333751 0.082705356 56.458893
2.2670941 0.23164405 56.445511
-3.6452804 0.044304904 56.529987
-0.16673529 0.154526 56.598717
0.87856895 0.18764739 56.539211
4.9820976 0.31767139 56.58786
7.2669597 0.39006945 56.567986
10.268858 0.48518765 56.535496
-3.8220444 0.038703956 56.690536
-4.536139 0.016077187 56.778557
3.3085966 0.26464498 56.740021
3.6467192 0.27535871 56.769882
5.6540165 0.33896172 56.728577
8.2435112 0.42101207 56.795921
-3.0809598 0.062185951 56.888901
4.4669595 0.30134875 56.895248
9.2094641 0.45161933 56.830994
10.155195 0.48158598 56.855118
-0.23193657 0.15246005 56.988636
0.30892956 0.16959788 56.924137
1.4686971 0.20634615 56.997791
1.9074616 0.22024879 56.953766
8.0702047 0.41552082 56.912395
-3.2365289 0.057256587 57.048973
-1.9929407 0.096660919 57.080078
8.6929674 0.4352535 57.052269
-0.730941 0.13664864 57.115891
2.4258809 0.23667538 57.109184
4.4698205 0.30143943 57.155159
9.0347099 0.44608203 57.199474
-4.2414479 0.02541478 57.333138
6.9157801 0.37894198 57.397083
9.9171619 0.4740434 57.369904
-3.7833266 0.039930802 57.479874
0.55807817 0.17749241 57.421646
7.947825 0.41164312 57.461586
9.9667892 0.47561583 57.461121
3.8768651 0.28265116 57.570583
7.8380289 0.4081642 57.543327
-3.5947378 0.045906425 57.668442
-2.7810471 0.07168898 57.65081
4.9864445 0.31780916 57.636669
-4.7481475 0.0093595479 57.718365
-3.1940644 0.058602136 57.703674
-3.0036922 0.064634271 57.745281
5.6210861 0.3379184 57.761353
9.3354235 0.45561039 57.706978
-2.6416135 0.076107085 57.883942
-1.3614678 0.11666971 57.892616
-4.3569393 0.021755356 57.909172
-2.0856814 0.093722306 57.902946
8.1082296 0.41672549 57.913292
3.0146034 0.25532964 58.046989
3.2944515 0.26419687 58.090118
9.7757263 0.46956158 58.013123
-1.1958289 0.12191814 58.170769
4.8093033 0.31219631 58.111752
8.2708168 0.42187718 58.167633
-2.1022828 0.093196295 58.240467
0.22255063 0.16686092 58.251072
5.965764 0.34883991 58.290443
0.4346042 0.17358004 58.324917
4.8460979 0.31336218 58.316574
9.3871317 0.4572486 58.3769
-1.6928144 0.10617069 58.482285
6.2361207 0.35740638 58.402962
9.1295204 0.44908604 58.601929
9.8173552 0.47088042 58.673412
0.50587589 0.17583831 58.774399
6.3690872 0.3616195 58.737411
0.57617831 0.17806593 58.834522
-2.4954429 0.080738679 58.999229
2.4042139 0.23598897 58.965015
2.6976867 0.2452879 58.940472
4.3589892 0.29792777 58.904095
5.9155912 0.3472501 58.987312
6.134881 0.35419852 58.953781
-2.2307711 0.08912506 59.056568
-0.14077735 0.15534849 59.013973
0.83586764 0.18629442 59.091621
3.3005195 0.26438922 59.171295
7.2267056 0.38879389 59.10453
-3.6089039 0.045457628 59.276112
-1.7269882 0.10508789 59.233559
1.3597189 0.20289317 59.26865
2.758317 0.24720904 59.216526
3.1771486 0.26048011 59.26968
6.1796532 0.35561717 59.264526
7.0805335 0.38416225 59.231705
-3.7752132 0.040187947 59.396156
-0.22530168 0.15267025 59.371407
1.6490382 0.21206054 59.331768
4.0778947 0.28902104 59.384392
4.4441438 0.30062604 59.380608
6.0917306 0.35283124 59.367615
-0.35967064 0.14841266 59.484119
0.45698142 0.17428905 59.42276
0.66982055 0.18103306 59.491356
5.5207348 0.33473873 59.455742
9.1483746 0.44968328 59.440281
7.3938899 0.39409119 59.540791
-0.46659774 0.14502458 59.610126
7.3156776 0.39161298 59.697517
8.9196281 0.44243526 59.69738
4.3688164 0.29823923 59.784058
-3.0627761 0.062762216 59.808643
3.9014533 0.28343037 59.846783
0.091134906 0.16269687 59.93158
5.9675164 0.34889543 59.949623
-2.2760282 0.087691069 60.028011
-0.81875837 0.13386606 60.052052
8.3543291 0.42452338 60.038239
-2.2348616 0.088995479 60.160805
-1.4729605 0.11313704 60.133938
4.0682383 0.28871515 60.183178
-2.3211644 0.086260907 60.271072
-1.111504 0.12459014 60.204796
0.78108615 0.18455866 60.215019
0.86344218 0.18716818 60.225071
3.7643342 0.27908567 60.210571
3.9599442 0.28528374 60.204441
8.6294155 0.43323964 60.219189
-3.8637464 0.037382737 60.455177
-0.32579517 0.14948609 60.439201
2.3920867 0.23560473 60.430759
3.3497164 0.26594815 60.440708
8.3069439 0.42302191 60.459724
1.3992255 0.204145 60.617615
3.2878075 0.26398653 60.607746
4.0233865 0.28729397 60.652267
8.195116 0.41947854 60.622936
4.6802382 0.3081069 60.771759
7.0266533 0.38245502 60.724663
3.3103917 0.26470208 60.869797
6.6049643 0.36909345 60.833176
-2.7271547 0.073396742 60.909248
3.293859 0.26417825 60.949646
2.7842219 0.24802989 61.006821
1.5546908 0.20907104 61.117546
2.9238946 0.25245553 61.192444
3.5079551 0.27096203 61.192352
5.8569455 0.34539181 61.170353
1.2010932 0.19786696 61.25819
1.9598807 0.22190984 61.24453
6.1959314 0.35613278 61.245789
-2.3263366 0.086097032 61.374611
5.0713363 0.32049918 61.324116
8.4795723 0.42849213 61.394306
-2.8683667 0.068922289 61.440414
6.9077845 0.37868828 61.459114
-2.9719832 0.065639094 61.552834
0.41884285 0.17308056 61.582729
-2.3741465 0.084582061 61.811554
4.7067475 0.30894685 61.890179
7.2647324 0.38999838 61.85659
7.3558679 0.3928861 61.854099
5.5834651 0.33672619 61.97337
7.1208997 0.38544092 61.933388
-2.5413589 0.079283699 62.070938
3.0854897 0.25757569 62.056694
3.7946577 0.28004628 62.009281
0.73204839 0.18300468 62.102867
2.0243464 0.22395232 62.180656
2.5018854 0.2390836 62.119637
6.1455636 0.35453653 62.128841
6.8227925 0.3759954 62.167683
7.3198318 0.39174432 62.143005
-1.3524889 0.11695418 62.202827
0.082206964 0.16241384 62.236008
-1.1986384 0.12182903 62.36348
4.6976552 0.30865872 62.42894
4.6607533 0.3074894 62.584404
6.3333349 0.36048651 62.509853
7.1556182 0.38654155 62.511177
4.5438871 0.3037864 62.640587
5.6823277 0.33985862 62.687149
8.1401339 0.41773641 62.650429
-1.4498286 0.11386976 62.711876
3.0906188 0.25773805 62.700905
2.2391417 0.23075819 62.895927
3.036027 0.25600824 62.87262
3.992152 0.28630424 62.843262
-0.78224689 0.13502268 62.926437
2.1025982 0.2264317 62.95583
2.6381879 0.24340233 62.909866
0.0395962 0.16106352 63.05442
5.6633377 0.33925709 63.06855
1.2965977 0.20089278 63.151951
3.4293339 0.2684707 63.17878
6.9443684 0.37984788 63.190968
0.96384478 0.19034916 63.276066
0.48418504 0.17515071 63.321156
3.5300515 0.27166212 63.301605
0.925286 0.18912736 63.539299
1.0424819 0.19284081 63.558422
1.7495947 0.21524635 63.579937
5.4272528 0.33177668 63.548683
6.4544754 0.36432505 63.55587
0.72826087 0.18288441 63.618729
7.4856715 0.39699906 63.601688
7.2403021 0.38922447 63.734104
1.8634417 0.21885364 63.858032
2.9476652 0.25320858 63.836349
6.9268832 0.37929374 63.887959
5.0491967 0.31979766 64.036308
2.3989413 0.23582166 64.10067
5.4926171 0.33384779 64.110451
4.6054811 0.30573815 64.298599
7.3963518 0.39416879 64.429787
1.9736745 0.22234668 64.680191
4.5947332 0.30539748 64.758064
4.836998 0.3130739 64.720924
2.2448068 0.23093788 64.86412
4.2985291 0.29601201 64.882202
7.3636489 0.39313334 65.118446
1.7543213 0.21539626 65.24884
3.3808477 0.26693439 65.364052
7.3517413 0.39275593 65.37886
2.238996 0.23075384 65.400696
4.7897806 0.31157777 65.462959
4.1516075 0.29135656 65.659897
5.5383568 0.33529699 65.685539
2.7631235 0.2473612 65.738319
4.9616947 0.31702489 65.726059
5.4364095 0.33206671 65.921051
4.2483521 0.29442212 66.054504
8.1294632 0.41739839 66.098679
8.3489704 0.42435366 66.033409
7.6172991 0.40117002 66.135956
6.7408338 0.37339848 66.229935
5.5929847 0.33702791 66.370186
7.0338635 0.38268331 66.422722
2.7463157 0.24682872 66.55101
8.0550728 0.41504121 66.57827
6.2789669 0.3587639 66.626236
8.7727623 0.43778178 66.691856
5.0035653 0.31835169 66.734375
5.0353017 0.3193568 66.969345
7.0876703 0.38438806 66.932274
4.7821808 0.31133646 67.097015
8.9797792 0.44434139 67.060051
5.4490299 0.33246621 67.173889
6.6964521 0.37199196 67.131866
7.7445526 0.40520203 67.108292
3.3058839 0.26455864 67.21537
3.5010037 0.27074122 67.245583
7.6606369 0.4025431 67.235184
5.5711217 0.33633488 67.397873
6.8334723 0.37633362 67.312233
5.2977433 0.3276726 67.40995
5.7204351 0.341066 67.442291
6.9538178 0.38014689 67.490311
6.1173306 0.35364202 67.532402
3.2862988 0.26393807 67.652954
8.6550407 0.43405128 67.620583
4.3748136 0.2984286 67.812874
6.0901117 0.35277939 67.862526
9.5111732 0.46117938 67.930061
6.1521072 0.35474384 68.08107
8.8199663 0.43927738 68.087883
2.7066429 0.24557157 68.11689
6.7524567 0.37376645 68.123535
4.869875 0.31411541 68.2659
5.9643126 0.34879342 68.44381
6.9699087 0.38065684 68.472916
8.5853386 0.43184307 68.475975
8.6458931 0.43376175 68.452332
3.546195 0.27217302 68.51619
7.2958736 0.39098519 68.558464
4.0270047 0.2874079 68.73468
6.8861322 0.37800241 68.893967
8.8537912 0.44034952 68.820137
2.8844562 0.25120518 68.926331
3.8816724 0.28280306 68.993309
4.6791663 0.30807245 68.944786
6.1748228 0.35546374 69.13813
5.6854429 0.33995718 69.272461
7.4220276 0.39498273 69.237045
2.4187562 0.2364493 69.318039
3.5771945 0.27315557 69.471542
6.0421858 0.35126105 69.402611
8.5187111 0.42973229 69.463882
9.2003622 0.45133111 69.481735
4.7684898 0.31090295 69.574501
2.3033566 0.23279309 69.695488
8.8474598 0.44014907 69.616638
2.7112598 0.24571791 69.709724
2.2893255 0.23234849 69.869896
2.4089329 0.23613837 69.854912
8.0241156 0.41406056 70.195221
4.0514283 0.28818211 70.211815
4.4402943 0.30050367 70.244194
6.1021585 0.35316151 70.274361
9.3652964 0.45655698 70.283569
3.9259787 0.28420722 70.348534
4.1121101 0.29010493 70.313721
4.1201239 0.29035902 70.451843
5.2832365 0.32721323 70.462234
5.6316795 0.33825392 70.459854
6.021389 0.35060221 70.470123
8.4242077 0.42673758 70.460754
8.8138742 0.43908465 70.419334
4.7387285 0.3099601 70.552361
9.2934933 0.45428166 70.567917
3.1608734 0.25996438 70.684135
4.2382798 0.29410297 70.663681
7.6366754 0.40178397 70.662735
8.512702 0.42954165 70.606567
9.3708172 0.45673171 70.685966
3.4882305 0.27033702 70.766251
4.220572 0.29354188 70.770546
4.3685608 0.29823101 70.780807
4.776042 0.31114241 70.71833
5.0825415 0.32085407 70.833702
6.9292035 0.37936705 70.8908
6.0082083 0.35018456 71.014526
7.5769434 0.39989117 71.022285
3.0938797 0.25784147 71.178848
8.2655869 0.42171136 71.261482
9.4289541 0.45857358 71.26989
5.5553832 0.33583641 71.378113
3.2576106 0.26302934 71.466614
4.2313643 0.29388386 71.479027
7.5421906 0.39879006 71.427948
8.1589956 0.41833407 71.47374
4.703608 0.30884737 71.553551
7.9493322 0.4116908 71.550629
2.1817129 0.22893819 71.67997
6.7322903 0.37312788 71.602699
9.162097 0.45011833 71.608871
9.2004118 0.45133239 71.702148
3.4326186 0.26857463 71.806435
8.8222132 0.43934911 71.955429
4.5969019 0.30546623 72.009201
10.051374 0.47829533 72.044617
2.3199677 0.23331919 72.281067
3.4233408 0.26828077 72.24894
4.0638781 0.28857672 72.289108
4.8821411 0.31450418 72.270561
4.8059788 0.31209087 72.328735
3.4365673 0.26869974 72.491577
4.5737295 0.30473176 72.441422
4.7242513 0.30950114 72.557587
8.0475235 0.41480207 72.693443
5.8273716 0.34445453 72.788727
5.9791274 0.34926301 72.729324
6.5312958 0.366759 72.710182
9.0567255 0.44677964 72.839348
1.9803097 0.22255689 72.973961
5.0701132 0.32046008 72.91568
4.9636111 0.31708553 73.071495
5.8872848 0.34635296 73.008369
6.6586604 0.37079474 73.031189
5.3639708 0.32977131 73.122498
4.8501368 0.31349003 73.239319
4.9007158 0.31509265 73.269203
8.8864632 0.44138485 73.242981
3.3764455 0.26679471 73.343079
5.3840084 0.33040613 73.420807
7.3724194 0.39341116 73.406204
7.6873851 0.40339106 73.501884
2.2767358 0.23194933 73.621582
5.7149487 0.34089249 73.642433
9.1587372 0.45001176 73.640465
3.045382 0.2563045 73.870491
3.1403799 0.25931466 73.830727
