# .PCD v0.7 - Point Cloud Data file format
VERSION 0.7
FIELDS x y z
SIZE 4 4 4
TYPE F F F
COUNT 1 1 1
WIDTH 1533
HEIGHT 1
VIEWPOINT 0 0 0 1 0 0 0
POINTS 1533
DATA ascii
-4.6109056 -3.0888667 9.0494556
5.9747477 -1.070998 9.0910892
-5.5120425 -1.9245973 9.2171116
5.9863329 -1.0025082 9.2884502
-5.4591837 -2.2134819 9.723525
-2.4252129 -0.22636163 9.7269697
6.0307903 -1.7254231 9.8082666
-5.6598706 -1.1992404 9.9145002
-4.545002 -3.1224711 10.103638
-3.0762219 -3.0968413 10.175655
3.5966268 0.4241654 10.134327
-3.8736575 -3.2802596 10.252075
-5.4267588 -2.3546832 10.267534
4.068511 -3.2532926 10.542564
-3.9886575 0.55536026 10.683012
-5.7267566 -1.0559243 10.765418
5.7478161 -0.13405433 10.772314
6.0308819 -2.0745869 10.850989
-2.0762269 -1.9753091 10.836389
3.2952237 -3.011327 10.972573
-2.387116 -0.16875282 10.946091
-2.2519257 -2.4473464 11.034632
3.9325986 0.56312263 11.099978
4.3812151 0.543064 11.277285
-4.1377602 -3.3105583 11.392521
2.4196558 -0.66818643 11.341063
3.9343281 -1.5827506 11.509335
-3.582993 -2.1185858 11.694062
2.9283962 0.11247358 11.814414
5.4630475 0.15398383 11.859718
3.3737068 0.38669807 11.884179
3.7841601 -3.2985654 12.036808
5.3429766 -2.178498 12.220695
-5.8283148 -1.2049767 12.271403
-3.0378547 -2.4817173 12.338609
-4.8463774 -2.3343439 12.318554
-5.1121006 -0.77167183 12.381039
5.7228856 -1.2273629 12.475871
2.8920398 -0.96520257 12.4853
-4.66787 -0.25228634 12.416355
-3.3784204 -2.8029356 12.575518
2.8091388 -1.2247612 12.507362
6.2425003 -1.1840651 12.568501
4.8186936 0.5699842 12.53507
4.6665473 0.60005081 12.591206
-4.4805908 -3.293287 12.680183
2.1958413 -1.2762411 12.797983
5.3539195 -0.28659207 12.702333
-4.4873943 0.54258758 12.733947
-4.4469547 -1.6372747 12.870039
2.4248276 -0.46378127 12.817226
-2.9858062 -0.015797816 12.873993
5.0076699 -0.0072514974 12.813787
-2.1616077 -1.4337676 12.911381
-3.0356317 -2.9199333 13.033438
-4.4370723 -1.9880707 13.072136
2.7793255 -0.49235094 13.019664
-3.2429836 -3.350527 13.152677
2.1869993 -1.1103715 13.121183
-5.6208763 -0.37785223 13.164227
4.830193 0.26739359 13.181536
3.3264303 -3.2212532 13.256748
-5.1872473 -2.9035239 13.267168
2.6064377 -2.6179044 13.201887
6.0211306 -1.2945015 13.200577
5.510581 0.248759 13.307901
3.6574452 0.39702412 13.39379
5.2732677 -3.1612027 13.441591
5.8058395 -2.4303591 13.473722
3.3477557 -1.9921062 13.413795
-1.7977581 -1.7199166 13.448318
2.3269396 -0.62700504 13.446548
-2.6672163 -1.7195405 13.554189
-3.0725052 -0.34745806 13.566366
2.2556953 -1.9142005 13.652925
-4.2137747 -0.072458982 13.670096
-2.5133195 0.20365092 13.606495
4.1307926 -2.7550228 13.781488
4.8118477 -2.6463301 13.751162
6.1766167 -2.0474949 13.789288
-5.7042198 -1.9430891 13.798179
6.299571 -1.3959143 13.743721
2.2979689 -2.2731233 13.892822
2.1364408 -1.319706 13.834936
2.4006305 -0.39816597 13.83479
5.7713881 -0.011825114 13.856009
-4.7327638 0.34079856 13.800121
-3.8105783 -2.8538544 13.976828
4.2961178 -2.8423178 13.946991
6.2048273 -1.0881666 13.972637
2.9149039 -0.66763139 13.931047
-3.8985181 0.13406363 13.944704
-4.238658 -3.4117813 14.09474
2.9736102 -3.1488328 14.075263
2.2555335 -2.3561599 14.074834
6.0413613 -0.42850226 14.071091
-3.2908254 0.09873233 14.047335
5.4088812 0.24183199 14.062326
5.8791671 -1.4245694 14.182028
-1.6012375 -1.1139512 14.189349
5.000236 -2.8383596 14.299961
-2.4537666 -2.2445886 14.215183
2.152961 -0.48310477 14.26842
5.6567535 0.062421605 14.252139
-3.1206081 0.14983051 14.26717
-2.3781028 0.27722916 14.295341
-3.7102554 0.75284356 14.256442
6.1074753 -0.38965037 14.472239
1.8655977 -1.7193406 14.651616
2.3460865 -2.8111408 14.712231
-1.413481 -1.625232 14.709105
6.3243699 -0.96924794 14.793328
-3.7576742 -3.6835647 14.880837
-1.9303057 0.078187004 14.906252
-1.3384831 -0.91282684 15.184547
4.0112247 0.90468299 15.236694
-3.5950799 -3.7619252 15.560976
-5.7990341 -0.41941556 15.628572
1.8883476 -0.27009797 15.677391
1.6674479 -0.60749483 15.791481
-2.6084166 0.77749318 15.737164
-5.889061 -0.54526508 15.873657
3.3010333 -3.7860279 15.933947
-5.5628433 0.013818948 15.972533
2.6227474 0.58319759 15.916033
-2.9430695 -3.8050108 16.003027
5.4637122 -3.361856 16.027739
-4.3086729 0.94515288 16.027304
-1.7486064 -3.1549926 16.435354
2.7533004 0.74374884 16.435846
-2.8731532 -3.7967081 16.528111
-1.6950214 -3.1190948 16.678158
6.4700212 -1.2480111 16.687836
-1.0462893 -0.85126889 16.691465
-1.019621 -1.8512092 16.707783
-5.0174494 -3.4301786 16.832689
-5.0302825 -3.4129291 16.903046
1.6948234 -2.6700008 17.063189
1.4372921 -1.9796479 17.091629
2.9826179 0.91473174 17.041527
3.8621485 -3.9373527 17.144447
-1.6684085 -3.1239605 17.126471
-2.6633122 -3.7544906 17.244495
4.9379492 -3.6994696 17.201607
6.3777437 -1.0092002 17.312927
-4.5370655 0.8628031 17.364004
-6.0147104 -1.6275016 17.468527
-0.8530674 -1.3994875 17.515598
-5.1164761 0.44559208 17.56954
5.7696872 -3.0377195 17.696049
1.3523693 -1.805773 17.625919
3.3218107 -3.8334172 17.886463
6.2589941 -2.1294079 17.868149
-2.9802532 1.0338463 17.861784
-1.4442723 -2.9632289 17.989269
-3.0797958 1.0611663 17.957611
6.1031036 -2.5151403 18.042894
-3.2154589 1.0849122 18.068756
-1.9007728 -3.4247084 18.168642
-2.1721294 0.77450693 18.165157
3.9561026 1.0568827 18.285173
-4.5904403 0.73903215 18.354618
4.3034 1.0147653 18.388552
3.0583858 -3.7761998 18.567102
2.5869415 -3.5495453 18.597672
1.424912 -2.3005664 18.524998
-1.7356861 0.48578167 18.596077
3.4180984 1.034912 18.545322
1.3605187 -2.0966036 18.647839
1.5944481 -2.5563734 18.894396
5.8810306 -0.23727787 18.898582
1.2958093 -1.3947897 18.962818
-5.3430486 -0.03744638 18.958117
-3.4739952 0.97964424 18.993374
-5.7487764 -0.88956976 19.111702
-3.5163474 0.96027672 19.154284
-4.4643507 -3.5411389 19.26371
-3.460979 -3.8157511 19.412077
2.6169281 0.67329335 19.499094
2.8102989 0.78007066 19.497326
-3.3699164 -3.8199043 19.541199
-0.95826578 -2.0273731 19.629753
3.5566111 0.90946484 19.624456
-0.92390424 -1.7732836 19.739697
-3.161114 -3.828476 19.811781
5.9690151 -1.0172139 19.846733
5.9563775 -0.93484378 19.815495
-1.0679202 -0.55201471 19.860855
-5.2671351 -2.746125 19.968538
-4.8061662 -3.2434239 20.003086
5.9722028 -1.2854984 20.073402
-2.5983477 0.74327719 20.065973
-4.7178574 0.25045782 20.196758
1.997664 -3.0768805 20.28088
1.5190377 -2.22279 20.33526
5.6955214 -2.1583347 20.534462
-1.9213706 0.33918303 20.568911
-1.3388959 -2.8004117 20.635748
-1.0986569 -0.92346907 20.633856
-4.9535184 -0.18732704 20.670971
4.6474237 -3.4050517 20.798634
-1.6447694 0.016148083 20.77129
-5.1308775 -0.68429518 20.895313
-2.5556538 -0.021651329 20.853556
-1.8215702 0.11550974 20.994555
-4.4104638 -1.6619318 21.050734
4.2242737 -1.5093145 21.007799
5.5980744 -1.4035468 21.090256
-3.2204347 -1.2989674 21.020824
-4.6133151 -2.8640075 21.168922
-2.8684406 -2.0207381 21.197937
-2.3577852 -0.10350078 21.201948
2.4901755 0.022577941 21.340038
-1.2859144 -0.83946913 21.402477
-4.7722998 -0.52049673 21.494457
-2.6311307 0.42699367 21.404032
-2.679023 -3.2684295 21.5434
-2.3582702 -1.4810326 21.638294
-1.8826368 0.53399354 21.610991
-4.6000996 -2.4063797 21.72447
-4.0251822 -1.5483625 21.755163
1.724355 -1.0825894 21.738655
3.131547 0.36414069 21.720295
-3.0034494 0.88367915 21.750034
4.3621416 -2.8970051 21.853643
-2.5995231 -2.4098244 21.947329
5.162034 -1.7883184 21.96701
-2.7423503 -0.69814336 21.929329
-4.7294054 -1.0816405 22.01306
-4.281239 -2.4190326 22.18812
2.1656497 -1.9166589 22.174164
-4.0525522 -0.16747156 22.13636
4.4230275 -0.14857493 22.144466
-4.1411667 -2.4729183 22.288254
-4.5154276 -1.8777982 22.286165
4.3644676 -0.18718496 22.267935
-2.6336746 -2.8267226 22.333048
2.3195984 -1.0684658 22.331593
2.3623385 -0.68394804 22.346104
4.7596493 -0.73070729 22.40206
-2.2928421 -0.41796076 22.40349
-3.1496086 -0.57102895 22.533981
-2.2471919 -0.32613069 22.587257
3.0160327 -0.11262782 22.521027
-1.7401037 0.65154564 22.508743
-2.4472494 -2.5673163 22.695143
1.8661573 -1.7895871 22.670586
-4.0223217 -1.0590298 22.62883
-3.0518608 -0.33657765 22.652033
-4.1825113 -0.83119655 22.704008
3.8413925 -2.3277183 22.834692
1.9643072 -1.6226689 22.882933
-2.7802272 -2.3922007 22.976263
4.1513939 -2.0314493 23.033916
1.760236 0.36630493 23.006792
-2.5424273 -2.425123 23.201534
-2.9586661 -2.1913373 23.211018
-2.3695059 -1.0836334 23.288429
-1.2821299 0.61406243 23.268883
3.0015829 -1.8317485 23.382769
2.8794208 -0.99328065 23.327747
1.7531582 -0.52347231 23.487045
-3.4992845 0.059683427 23.423065
-1.39252 -0.6756658 23.583223
3.092433 0.18242507 23.52153
-3.1329944 -0.82386935 23.685028
1.8039515 -0.86471039 23.761349
3.5990512 0.23032023 23.746155
1.5722281 -0.74125928 23.868916
3.2857296 1.5623386 23.874241
-0.78090274 -0.05165828 23.9205
3.516814 -2.317492 24.024837
1.6105363 -0.75842059 24.068075
1.7409656 -0.014328271 24.083981
2.23527 1.5651151 24.002228
2.70857 -1.1538191 24.194191
1.1390756 0.08598078 24.155869
4.0850711 0.40334171 24.172407
-0.66186148 -0.22067706 24.230457
4.2829833 -0.02126467 24.205681
3.5364738 0.44875905 24.200909
1.2924373 0.57365882 24.308907
-0.91385549 0.66010433 24.326384
1.583432 1.1161673 24.304626
3.366899 1.6340082 24.341129
1.4943862 -1.5796309 24.440483
2.3732586 -1.1587864 24.421091
-0.68314976 0.16433553 24.469818
-3.2478135 0.64983273 24.453121
2.8219726 0.8720969 24.425032
4.4448256 -1.2018257 24.596275
1.9855843 -2.2158504 24.741419
-1.0122461 -0.53015816 24.709749
4.1981831 -0.0049359649 24.715822
1.7562472 0.52106833 24.700447
2.0198472 1.6124644 24.722246
-1.0460666 0.32940632 24.898266
-1.1061807 -1.7506337 24.980303
2.7162845 -1.0764687 24.950451
-0.86301386 -0.99419272 25.045452
-2.579519 1.8098681 25.126705
1.5328259 -1.818163 25.282728
-4.2912641 -1.1356461 25.297865
-3.6724646 -2.1075246 25.310158
1.844548 -0.88783586 25.336538
4.3325677 0.80131036 25.424805
4.0252438 1.2080337 25.417921
-0.61181784 -0.67278773 25.599707
-0.63964367 0.61631382 25.553444
1.5582308 1.3862069 25.505335
3.2636809 1.693223 25.583761
-4.4911537 -0.48573333 25.608418
-3.8221459 1.0163461 25.729322
-4.576685 -0.10904691 25.886318
-1.459191 -2.3206789 25.919714
-1.0115929 -1.941795 25.996082
-4.5865555 -0.04363361 25.919127
3.1614041 -0.98101211 26.083561
4.30474 0.63106626 26.072243
2.9056869 1.9165263 26.095993
1.5047489 1.3011887 26.148151
2.7709904 1.9567187 26.169327
2.3939562 -2.6602437 26.249662
-0.47947657 -0.91570556 26.246275
-0.59223437 0.51158988 26.20731
-2.7869313 1.9275373 26.381824
3.6878488 1.9591626 26.376377
-0.74515498 0.37387216 26.461718
2.645525 2.0553141 26.499096
1.194656 -1.8004714 26.517889
-3.7898228 1.739651 26.575302
1.9654973 1.8252796 26.570478
-2.4126749 -0.81331849 26.640182
5.2901926 0.16211545 26.666626
-0.98447585 0.050799221 26.735123
-0.93888932 0.96802849 26.76973
-4.128726 -2.3233957 26.879217
-1.2030385 -0.093854338 26.898722
-0.44805926 0.58602244 26.859921
-0.65164888 1.0099318 26.890738
1.6047702 1.6675856 26.832895
2.9975634 1.9918551 26.841164
2.2348025 2.1332247 26.891584
-2.2254901 -2.838654 26.989525
5.1391287 -1.5117135 26.974319
-4.8776331 -1.1842675 26.921782
3.1671431 2.2425809 26.956696
4.2737026 -2.5655565 27.04862
-0.26793447 0.011241136 27.02121
-1.8268678 -0.35069013 27.155231
3.0460892 -0.24567449 27.170219
-4.6178656 1.2170326 27.113428
1.4262314 1.6213218 27.104979
-1.7426217 1.8786969 27.197123
-2.5249841 2.013082 27.167194
-2.4527171 2.2878344 27.174278
5.1338415 -1.7465978 27.207821
-0.48054695 -1.4399985 27.241318
-0.22264215 -0.42689303 27.252857
1.1267011 -1.964918 27.347038
0.90666294 0.88905025 27.326107
-3.7600403 1.1061537 27.3241
-3.283869 0.49912858 27.498213
-0.42561817 0.80139756 27.479414
3.1222155 1.9703891 27.430754
-2.8401816 -3.0341029 27.615719
4.2199135 -2.840394 27.644413
-0.70856678 -1.9836271 27.609688
-5.3601575 -0.14212026 27.679249
-5.1383257 0.70522052 27.683832
2.5320148 2.0029483 27.731556
-4.8821268 -1.986351 27.894428
-3.6406109 1.3999666 27.904474
-5.4095373 -1.0128907 28.086401
1.5001538 0.95161152 28.056612
-4.7393928 1.6519109 28.039547
2.960845 2.50793 28.020449
5.9499273 -0.13623247 28.162422
-2.3041508 2.053484 28.124271
-1.2659384 0.75466573 28.210806
1.969311 1.677002 28.218069
-0.35403031 -1.5686734 28.317596
0.51539958 -0.83327174 28.369904
1.4350026 1.7589827 28.384949
-4.91787 -2.2310586 28.448135
-0.7135222 1.4703951 28.46006
-3.129952 -3.2511361 28.53989
6.0113993 -0.88644981 28.533638
2.1412318 0.84304804 28.552685
-3.0024245 -3.2801635 28.658886
-2.7146165 1.7557402 28.723381
2.9913719 2.592093 28.724602
3.9925013 2.597389 28.784779
-1.2709348 -2.5976591 28.818285
0.5074749 -0.97309154 28.86414
-1.5264412 1.3201858 28.91515
-0.064647362 0.13735217 29.034775
-0.68441075 -2.0897703 29.10054
2.3641675 1.2373174 29.186943
5.5327263 1.6805121 29.1586
-0.57900763 -2.0301261 29.285717
0.45742613 -0.94171309 29.255085
-0.64235818 -2.1010292 29.323492
3.043221 2.7116129 29.309322
0.69503856 1.1155441 29.411869
-5.7967443 0.67518145 29.505743
-5.7152214 0.87085176 29.568989
2.4634619 -3.2689028 29.892845
-0.4030582 -1.9418495 29.804617
-3.421906 -3.473732 29.958061
-3.8835907 -3.4983804 30.032717
-4.4383111 -3.3210635 30.082115
-1.985218 -3.2998099 30.138378
-0.25747818 -1.7105753 30.137011
3.164459 -3.4995222 30.29184
0.28552082 -0.61918473 30.27944
0.5490846 0.8801015 30.205387
2.1183681 2.4936292 30.286163
-2.5714693 2.8345573 30.24081
-0.32693055 -1.8494409 30.367172
-4.9023123 2.3618019 30.493954
1.2505682 -2.5768683 30.519125
5.0351372 -3.3092816 30.644871
-2.6794415 2.8715882 30.625374
3.6803565 -3.5756412 30.72419
-5.6862354 1.4549351 30.709894
4.5862746 -3.6265705 30.887527
1.077008 -2.4815879 30.83651
-3.2193666 2.9022977 30.824356
5.1015472 -3.3021121 30.918846
1.6805872 -2.9531755 30.945272
3.7579591 2.9299233 31.083595
-2.9547851 2.9255261 31.143818
0.24201541 -1.0073985 31.392675
6.5856628 -1.5537958 31.434078
5.7186561 2.1709275 31.48905
2.7206604 2.9265091 31.405046
-1.2087408 2.2801576 31.553738
-11.560701 1.5689762 31.660461
12.059953 1.592056 31.686405
0.50633591 0.85262722 31.769587
-0.74420929 -2.6632197 31.838554
0.23548087 -0.55593252 31.83119
-0.87175429 2.0832441 31.885445
-4.2087297 2.9598439 31.866745
11.386969 3.1247547 31.843039
-2.0418615 -3.5551534 31.968338
-11.572885 1.5921705 31.959225
-11.572521 2.0809581 31.988583
11.594298 2.4727709 31.916801
-4.1764455 2.9714384 31.947287
0.52449554 0.90451127 32.066505
11.771706 1.6382518 32.093113
2.0899305 2.6267848 32.053513
-3.5648632 -3.7961755 32.187073
-10.80847 2.2665358 32.194435
1.5289483 -3.0310438 32.208229
5.5335579 -3.1901851 32.337776
6.9726706 -0.51604652 32.357666
0.11417343 0.32065398 32.321243
-0.046931647 0.80786091 32.379913
12.356894 1.597496 32.379826
-11.254885 1.6827604 32.309605
-11.270858 1.9368241 32.339306
11.242741 2.6396284 32.346535
-5.4771738 -2.8454468 32.401451
5.9701743 1.9892294 32.414284
-12.248598 2.7630095 32.463299
-10.470419 3.4040403 32.419117
10.471071 3.7007182 32.489655
-6.3607187 -1.5412192 32.544064
-11.39354 1.293141 32.569702
-11.742438 1.7615107 32.586483
12.723296 2.6630018 32.517769
-11.054893 3.5900886 32.561089
-11.337337 4.1471748 32.555878
5.0825167 -3.5362492 32.612278
-11.166963 0.96834826 32.664856
1.2775095 2.0376186 32.662849
-2.6665516 2.9941878 32.613094
-0.81825447 -2.759161 32.723587
-0.55453312 -2.488215 32.798729
6.517282 1.4199325 32.77829
1.2636465 2.0184944 32.728882
-11.804656 2.2779186 32.762634
-12.473943 2.4326785 32.788216
11.497001 2.5264802 32.773815
12.70203 3.0202975 32.764275
3.9217088 3.1074529 32.79451
11.472615 1.9978639 32.83313
-11.203209 2.4666152 32.814991
11.324211 3.5160427 32.87151
11.622031 3.5026758 32.858849
2.1618795 -3.5084746 32.913239
0.096642941 -1.1498278 32.943584
11.662074 2.4104717 32.997044
11.339798 3.9475965 32.961861
11.10947 4.2724981 32.913681
4.7505665 -3.6729686 33.081879
11.738313 1.6998742 33.094051
11.426317 1.0265532 33.180664
-0.705338 1.8294556 33.130932
-0.81195152 1.9507167 33.105846
12.763887 2.254468 33.128094
11.584614 2.4021006 33.163513
0.58689743 1.0934393 33.24157
-11.108254 1.4186172 33.204029
-11.079956 1.8893001 33.294769
13.011875 2.0599668 33.215736
-12.369596 2.3529496 33.243355
12.534121 2.5158696 33.202465
10.53207 3.9746628 33.271145
11.343577 4.1522827 33.282791
-11.230089 4.2988257 33.299004
6.315033 -2.586848 33.392975
6.913229 0.34640825 33.309608
11.077064 3.0917063 33.388485
-2.5954897 -3.7342479 33.424248
0.21387354 -0.76999134 33.400734
12.382308 1.0484651 33.427834
11.873573 1.4600219 33.431969
-11.372212 2.3888552 33.45715
-12.498821 3.0745399 33.530193
10.82095 3.9260852 33.526646
11.503158 4.3399372 33.531651
-2.739397 -3.7841301 33.69157
-10.349668 3.5576451 33.664047
11.915453 4.4194961 33.684013
-5.6564264 -2.9081218 33.705376
-0.11015803 -1.7694435 33.710976
10.410063 3.8971367 33.746399
6.9674082 -1.5135667 33.839382
7.1152692 -0.18640409 33.837139
12.761428 3.3579063 33.961731
11.446653 3.5697198 33.948135
10.425133 4.480319 33.975449
1.51627 -3.0600686 34.089172
-0.27860984 -2.2122509 34.015751
-0.16726458 0.92824948 34.018707
12.490185 2.0492957 34.088379
-5.067565 -3.4906409 34.162083
12.016735 2.1775339 34.166161
-11.613033 4.391304 34.124565
-12.06679 1.953214 34.272305
-12.139223 2.2170675 34.276882
-3.9659128 3.1445608 34.219017
-11.42778 2.5568516 34.30336
11.247655 3.78883 34.320274
4.4977441 -3.913857 34.460426
-6.1722369 -2.5610108 34.447563
0.2683661 -0.4418036 34.478996
13.295071 1.1638763 34.468361
5.1978388 -3.6906314 34.574955
1.6225262 -3.1470876 34.545433
0.058144912 -1.0915759 34.591644
-10.852665 4.0118008 34.598019
6.9975085 -1.7767832 34.633553
-6.7486672 0.10724844 34.62022
-11.527639 3.010905 34.699673
0.29449558 -0.8546406 34.722282
6.9898539 0.78726327 34.706139
11.364569 4.4095979 34.792961
-0.91221094 -2.8245094 34.88308
7.1970949 0.095280208 34.872677
-12.324815 1.4783286 34.835556
-5.7483397 1.9889042 34.810299
-11.53451 2.8749745 34.896572
-6.4085665 -2.1850097 34.983292
7.1986527 0.11961372 34.923733
12.724949 1.6392916 34.951859
11.243158 3.1896155 34.952579
12.670921 3.2387824 34.925808
-12.297195 3.5775285 34.968441
11.031063 4.1943502 34.911179
-11.550406 1.5280097 35.01284
-12.768419 3.2151043 35.031345
-10.542118 4.01513 35.038963
7.2391663 -0.2798999 35.156475
-11.843313 1.9100562 35.15192
12.663542 1.4972119 35.22147
13.463404 2.4871674 35.270622
12.850674 3.1025302 35.277721
11.853408 3.4691582 35.22007
-1.0675488 -2.9601376 35.369976
6.2086205 1.9699855 35.321934
12.258933 1.9521979 35.377213
-6.848691 -0.22035035 35.474503
7.2257123 0.34179586 35.479359
13.317015 1.7999032 35.43689
1.2843103 1.867998 35.49361
-4.7312131 -3.8151977 35.50264
-5.3670001 2.4383757 35.580921
-12.295202 2.6650295 35.533302
4.2120929 -3.945375 35.642513
-2.3985438 -3.7769418 35.628654
-6.5324612 -2.0534914 35.669418
-0.66379654 1.4855502 35.669151
12.037161 2.5313013 35.697014
12.321024 4.1282387 35.641136
2.5898559 -3.6404452 35.770039
-5.8023515 -3.1530786 35.712265
6.6906428 -2.552175 35.712063
-0.53793025 1.2367091 35.773666
11.340129 2.6158421 35.758198
12.760338 2.602675 35.757835
-2.287986 -3.6969421 35.809254
5.7576494 -3.4556794 35.887753
-6.175837 1.4311436 35.817047
-12.914949 2.6450171 35.810768
11.799604 2.6366854 35.832573
-12.058976 2.8587213 35.85495
4.3221545 -3.9424343 35.909546
-0.049629413 -0.63802373 35.949211
-11.408188 1.3253275 35.95163
6.4173889 1.699674 35.995483
-12.288446 3.2269428 35.948402
6.6451654 -2.6567793 36.094227
7.2404861 -0.44186872 36.096424
6.8864918 0.91921353 36.08252
-2.4382315 2.9971774 36.022179
-11.345877 2.1446493 36.188412
-0.32633594 0.73493582 36.22654
0.95743394 1.1100284 36.252674
11.72756 3.462939 36.278008
6.7747173 -2.3860254 36.329334
-2.9556103 -1.9917971 36.315834
2.2966218 -1.7314519 36.37075
-1.7539473 -1.6011113 36.391655
11.545836 1.2318327 36.311974
-3.5203063 -1.6714774 36.405548
-12.508567 1.8992131 36.484344
-12.358001 2.9801478 36.409706
-11.912497 3.4730544 36.403351
-11.581015 3.4699059 36.438324
-4.7574568 -4.0125985 36.588867
-3.1871896 -4.0782328 36.54985
-3.3976138 -2.6556845 36.568203
-2.2049809 -0.33842662 36.544395
-5.292316 -3.6957378 36.613716
0.96284747 -2.1029928 36.652733
3.9487445 -0.56308472 36.640823
0.72133815 -0.33603144 36.623024
0.87040114 -0.11597048 36.640942
12.789324 2.5920258 36.611713
12.029299 3.4267557 36.608379
0.7809276 -0.6759662 36.737282
0.76375663 -0.93828714 36.826389
7.1514459 -0.71928352 36.889938
7.1542768 -0.32215542 36.890594
-11.819756 0.93339467 36.800453
11.011719 1.8699605 36.856895
12.269298 3.2621739 36.841045
-1.4594886 -3.1881309 36.953335
4.215909 -3.0945499 36.942432
7.1326733 -0.22312531 36.981083
2.1911678 0.17550603 36.917397
11.103121 1.3770918 36.948624
3.7190976 -3.6117539 37.042294
-6.6271963 -1.4873291 37.038689
-1.0403657 0.76086581 37.066357
-3.7886167 -4.3124027 37.108543
-6.2910109 -2.4970984 37.125286
-6.5500917 0.39258218 37.133759
-0.60880482 1.9077501 37.188839
5.7889528 2.3967624 37.150375
11.42663 2.397718 37.116005
-10.992373 2.5805511 37.177269
4.9461603 -4.2520981 37.203438
-5.2033777 -3.9360828 37.208122
-0.95156181 -2.9843545 37.295727
-0.25352526 -0.85032332 37.298004
1.7073166 -3.5613616 37.39529
-1.2527401 -3.1132026 37.375874
5.0484467 -2.1352382 37.394478
-0.5556308 -1.516148 37.355099
1.5954794 1.0620098 37.352631
11.944536 3.026572 37.336266
-11.805652 3.1163657 37.320602
5.0655384 -4.2544556 37.403107
-5.2399292 -3.9906769 37.454151
-6.136106 -2.7905543 37.480396
0.33238545 -1.8538299 37.414795
4.7512674 -0.024874954 37.476036
3.7325203 3.067934 37.419106
6.3453035 -3.1038132 37.567322
7.0832386 -0.55456597 37.522942
4.9474525 -0.41914803 37.508324
1.5967494 1.4337419 37.514038
-4.4132528 3.0034471 37.516479
5.0389509 -0.40011576 37.646656
-2.9404898 2.9144979 37.60601
-3.4639497 -4.469933 37.727081
4.6959581 -4.4928861 37.776138
-3.2192283 -4.3855853 37.706974
-0.82945824 -2.5663505 37.798038
0.81738573 0.031028457 37.720665
-10.218334 2.1115634 37.797493
-2.2564316 -4.0775266 37.874565
-0.34739947 -2.398479 37.874931
-4.9062672 -2.2735057 37.870388
-6.613493 -1.0148562 37.81987
5.1539254 -0.4095917 37.838348
0.88973534 0.16276959 37.856621
-4.7343383 2.8057666 37.811943
4.6415796 -4.5477171 37.910683
-11.290411 3.1084991 37.990189
0.99023056 -1.8436941 38.03569
1.5731406 -1.221585 38.043709
5.4462414 -1.0707177 38.079765
-1.1998826 0.79975802 38.046524
2.4638937 1.3259972 38.00486
-3.8527207 -4.2420101 38.131721
1.9257019 -3.4027073 38.191071
-10.182891 1.1178393 38.117569
-12.360582 1.2374644 38.117493
-12.379031 1.3055354 38.18185
11.744565 3.0806451 38.116264
-0.78292519 -2.4314711 38.252945
-1.2887663 1.5830419 38.269421
-12.089474 2.6752291 38.25779
12.039276 2.9760947 38.284637
5.0545626 -3.4810703 38.381157
-0.8014521 -2.4395444 38.326107
1.2762024 2.6710577 38.34079
-1.264146 -1.3372178 38.495857
1.7770056 -4.4276681 38.525375
-1.2234793 -4.3893027 38.59454
12.384203 0.79278052 38.524265
1.1135392 2.7800288 38.535641
5.3895717 -3.0489058 38.678379
0.6219281 -2.110548 38.618507
2.1792185 1.7835319 38.673103
12.360931 2.6544993 38.640965
3.0504696 -4.9709225 38.750843
-3.3974745 -4.6796231 38.777554
-3.6996047 -4.5385723 38.705639
5.8586712 -3.7460973 38.798141
-4.9435196 -3.1694694 38.797226
1.119087 -1.7544565 38.737488
2.4580045 0.52832031 38.782745
1.1858549 -4.0022907 38.833908
0.39156055 -1.8198193 38.826839
0.38170794 -1.3537296 38.9534
-10.914421 0.2019956 38.941566
-4.2672796 1.0938243 38.91539
2.5872564 1.6463606 38.927189
-0.53755105 -0.82794398 39.00396
5.5621376 -0.2489416 39.056778
-6.2561417 -0.12496151 39.084728
5.0988569 0.50076604 39.011307
1.5584924 1.2744707 39.094872
-1.6819996 -2.3925622 39.148975
2.5646276 0.053647012 39.161865
-3.0986969 1.7027404 39.124138
-2.4899921 2.4369438 39.142437
1.7645576 2.5614252 39.159527
4.4402723 2.8391988 39.165565
1.2908968 -4.2153559 39.222816
1.9994922 -1.2425284 39.287029
6.6938686 -1.0496299 39.271774
-11.370879 0.25956774 39.205753
1.9582269 1.5388622 39.28614
-9.8472567 2.3421757 39.263401
-0.33129144 3.1005027 39.235767
-3.3914053 -4.9277301 39.398022
-3.6770461 -4.8143029 39.397839
5.018959 -4.4465451 39.398785
-6.2678423 -1.1212435 39.328827
-1.7887533 2.1209531 39.380089
2.1510911 2.1811385 39.380459
4.8716636 2.6879728 39.337006
-1.0725247 -4.4151573 39.464912
3.3174863 -4.370502 39.408955
-2.5477931 -4.1657438 39.497879
-0.61351782 -2.0564709 39.421509
11.005505 -0.079689823 39.491325
-5.8275366 1.111918 39.458267
9.7207165 1.2116537 39.491367
-1.735232 -3.5469143 39.543037
5.7783546 -3.2533083 39.552567
1.0338717 -2.2587023 39.571175
-12.049782 2.0510418 39.574791
-5.1619434 2.1109002 39.534245
-1.7323844 2.3168061 39.622421
-1.2693884 2.8649838 39.697971
4.6864347 -4.5524716 39.755348
2.8783917 -4.0817571 39.714222
-0.0031555886 -1.1265957 39.74649
6.5588794 -0.71454275 39.780186
5.7354336 -0.67387831 39.760162
-10.432484 -0.21714325 39.793949
10.539998 -0.16918325 39.737366
5.5162239 0.15952283 39.799187
12.141678 0.29778382 39.722305
-0.93559599 0.51960635 39.76598
-1.0730853 1.1765112 39.745903
-3.8120635 1.5785464 39.786091
-1.2108675 -1.8243594 39.832626
2.4396863 -0.9898212 39.889557
2.696734 -0.56476015 39.876774
-2.5716639 0.27528855 39.839268
2.9839804 0.91080427 39.857758
-5.4622197 -3.6105649 39.967064
-1.5778785 -3.3417554 39.957092
1.1322373 -1.3368523 39.913994
-0.98644686 0.55749726 39.939461
-3.0769947 1.8323081 39.963753
-9.6331062 2.3554802 39.928917
0.66897333 -3.1057894 40.089005
0.55713648 -2.1832187 40.015778
6.0041018 -1.3804636 40.06398
-4.8475161 0.66441864 40.08527
-2.6339142 1.5439595 40.095901
-5.8932948 -2.2322769 40.189194
-2.4123359 1.8152215 40.116623
1.5107449 -2.4598856 40.212025
0.74725974 -2.2373662 40.202042
0.057306584 -1.2312076 40.210884
-6.0083036 -0.77475989 40.291313
12.562976 1.4348223 40.230659
-3.3909378 -4.8960199 40.458702
-1.3556025 -2.7840846 40.411747
6.3804164 -1.1113372 40.409996
2.9152069 -0.59675092 40.443329
1.7325382 0.85234392 40.488007
-1.5312626 1.5618312 40.438011
1.8942386 1.5548851 40.413429
-3.6328127 -4.7800403 40.526093
-1.5352534 -4.7464318 40.559414
-2.8204851 -2.2368135 40.574165
1.7354087 -1.7454741 40.5821
6.3426604 -0.79230243 40.56356
-2.885381 0.22601138 40.506638
1.080552 0.79395592 40.505318
12.52923 0.95361197 40.544827
-8.7684937 1.106521 40.542542
5.938931 1.1912243 40.53035
-3.3351064 1.6393576 40.567085
-2.7374606 1.7656894 40.559235
-3.9408486 -4.6016941 40.68708
5.3195295 -3.9072185 40.660648
5.8058815 -3.1888185 40.644993
6.2957945 -1.5029571 40.621204
2.6063066 -1.0857331 40.629139
1.2865524 -0.95675874 40.69178
11.379243 -0.45778748 40.618618
4.2082267 1.533121 40.666412
0.94453943 -3.7345257 40.784027
5.9589438 -2.7751904 40.702789
-5.6079378 -1.9622328 40.717133
-0.88652694 -0.88597178 40.739994
-10.122416 -0.62230873 40.787827
-0.88123786 -0.68770391 40.718597
-9.4681864 -0.47513485 40.781879
11.624032 -0.42881247 40.74456
-11.812589 0.27352995 40.775494
-12.087894 0.89277101 40.755665
-5.5816889 0.91817576 40.713051
9.0806789 1.20566 40.750275
-1.3517125 -2.609056 40.875603
-5.7819881 -1.3944798 40.812843
-2.0707154 -1.2879767 40.833851
-1.3893006 0.80616355 40.823505
-12.058016 1.4131402 40.826107
-3.0423436 1.479682 40.85643
-2.1535585 -4.8109937 40.955963
1.9469297 -2.8447406 40.942963
6.0103683 -1.5020703 40.950306
11.823805 -0.21517327 40.992313
-8.6167173 0.42766923 40.976791
-2.2713604 1.6990094 40.952679
-4.9869633 -3.6552448 41.051125
0.56768018 -2.0851979 41.037468
0.36627325 -1.3212004 41.026665
-8.5899906 0.44565043 41.02058
1.6646798 0.41812882 41.075588
0.23937315 3.5948386 41.076511
-1.9478631 -3.2720075 41.196728
0.68653977 -3.1787276 41.120209
5.9309411 -1.8602942 41.165367
0.39583915 -1.1418828 41.158733
6.0337954 -0.50364238 41.134628
12.43599 0.71548861 41.173031
5.7471409 0.83796471 41.128456
4.9988756 1.1571202 41.12056
10.795732 2.7365658 41.102066
-1.2986302 3.2311375 41.101456
-3.2403061 -4.6515784 41.286892
1.699019 0.314365 41.268318
-2.0393269 1.404896 41.209431
-2.5173702 -4.8066287 41.304619
3.298511 -4.7514091 41.399616
1.6022573 -1.8288617 41.368557
-1.1622107 -1.7596954 41.392139
-0.023861503 -1.7370393 41.313816
2.5421147 -1.3764563 41.315689
2.7528114 -1.1845529 41.341423
-1.1269118 -0.26995963 41.379162
-1.4703774 -4.4185448 41.466488
5.4346867 -3.2435188 41.524139
-2.411243 1.3942467 41.563309
-11.606152 2.0733986 41.596935
-2.9959803 2.1552148 41.594345
-2.8817525 2.1962442 41.576366
2.6575844 -4.6231041 41.657871
-1.3088064 -1.6827037 41.68232
-3.4576876 -0.50991309 41.608891
12.342524 0.69290566 41.680988
1.4337759 0.76560014 41.638592
9.6922178 2.4781055 41.673183
4.3685188 -4.1169515 41.746796
-5.3594866 -1.1570438 41.764175
5.6762853 -0.50425863 41.723343
-1.4267039 0.12277882 41.710953
12.331388 0.74521267 41.73246
-4.8881626 0.80921972 41.743427
-4.1939158 1.7007942 41.785027
-11.797866 1.8511138 41.731003
-2.0949469 -4.5324202 41.83242
-0.75183499 -3.6184855 41.805218
-0.44242069 -2.8359568 41.893436
11.552551 -0.54977369 41.887505
-2.0203178 -0.49550951 41.800636
-3.5397394 0.46803653 41.843792
3.9363039 1.648932 41.817078
-8.8404589 2.2028785 41.881687
-2.7209327 -3.4743214 41.933762
5.6346169 -1.9867268 41.959129
-0.20978957 -1.3191639 41.918629
3.8751428 -1.3712136 41.95681
-2.7013237 1.2882025 41.990856
10.511436 2.6682267 41.948601
-1.8356634 -2.4722242 42.061466
-0.086148925 -1.9507673 42.083317
5.3484812 -1.7314229 42.050026
-8.481741 -0.30992728 42.021622
-5.1274366 -0.28665847 42.078671
1.9480387 -4.025075 42.16254
-4.0335574 -3.4082294 42.138508
-0.50685138 -2.6563351 42.119423
3.4238939 -2.1859324 42.19471
-1.6812119 -1.814415 42.191086
11.314743 2.4756989 42.191147
-3.9517744 -3.2971861 42.250694
-1.3882538 -1.6324675 42.216843
2.3326073 -0.71883678 42.207664
2.1097677 -0.057560932 42.220894
-8.0164776 0.61041796 42.21088
-4.4279165 1.4101321 42.21172
4.5412593 -3.5064628 42.348255
-5.0735517 -1.5056421 42.36385
-8.8911734 -0.83604932 42.387993
9.3098545 -0.8290236 42.358578
-5.1298008 -0.70362747 42.303577
-4.7522173 -0.41528645 42.365227
-0.79584861 1.2960547 42.335072
-2.4847898 2.2097714 42.38718
-1.7521887 -1.4852471 42.487587
5.0920324 -0.93547934 42.495953
2.6001806 -0.19888356 42.473244
-1.1674552 1.6139853 42.410065
-0.69419074 3.6790047 42.454506
-3.1102893 -3.9063864 42.596748
2.7729197 -3.9506204 42.571735
4.8312469 -2.9610362 42.581795
-0.5922848 -2.2778683 42.522137
-3.1347322 -2.0351968 42.525753
-3.4975674 -0.98101979 42.515144
2.0510795 -0.19597772 42.559784
-1.9521303 0.1128554 42.504524
-2.3144646 0.41315845 42.581024
-3.01266 0.89227045 42.544178
-3.5747261 1.2494153 42.566299
3.4608819 2.2521036 42.518562
0.59706104 3.7806511 42.585571
1.9286585 -2.9480402 42.653549
3.7315578 -2.8302293 42.609138
-0.14477989 -1.9881707 42.693581
3.874131 0.89117312 42.614014
-11.570833 1.4953038 42.631233
2.1732225 3.1666644 42.688599
-2.1098368 -3.7122712 42.771706
3.8853469 -3.5920386 42.769669
4.2911167 -2.2084999 42.785774
-0.56838095 -0.87300569 42.75565
4.7901583 -0.4236387 42.709591
8.7636147 1.8619318 42.709038
-8.5346708 2.0389676 42.789127
-0.4727447 -2.5927603 42.853168
0.59185213 -2.446054 42.811924
3.9061062 -0.60490704 42.840126
0.62624472 3.7791567 42.888752
-2.7315464 -3.5623097 42.998886
-1.6834961 -2.8535163 42.995323
-2.5031438 -1.0392598 42.947189
-4.049921 -0.80716753 42.953827
11.757958 -0.13206969 42.952888
-3.4809818 0.35784084 42.971127
-4.5279012 0.53719229 42.937466
0.20298401 -2.0125353 43.09108
3.8281264 -1.6333402 43.013496
3.8585529 -1.3702736 43.069206
4.3329248 -1.1540173 43.03344
10.238905 -1.186779 43.067482
-7.8511095 0.8711158 43.081841
-10.745988 2.2409129 43.027042
4.605998 -2.3440149 43.198589
9.9821262 -1.1981974 43.140621
11.29047 -0.76701552 43.14185
2.2447417 2.2257009 43.173798
3.3507206 -3.1897125 43.297184
-3.7742295 -2.8751032 43.252872
-1.5830731 -1.5481511 43.239857
3.0295253 -0.91860771 43.222351
-0.77133316 3.5387015 43.231354
1.6544539 -1.6823437 43.391487
-3.3245635 -1.7910963 43.425701
-0.7019217 -0.87618703 43.420204
-2.0626054 0.67437202 43.453934
-3.9467912 0.84312731 43.440674
-10.867596 2.0664454 43.415855
2.9500508 -2.9266634 43.555611
-2.9910631 -2.8814743 43.51825
-2.2573519 -2.6575589 43.598671
1.9053875 -2.4135447 43.5019
-1.1554685 -1.6882036 43.57793
-1.9112737 -1.3169376 43.560112
2.6831083 -1.0910788 43.521122
11.738684 0.14990152 43.538879
-3.4974504 1.2500116 43.532696
3.8598592 1.3517532 43.583096
10.129814 -1.230194 43.612923
-10.903551 -0.60245079 43.650368
-11.314053 0.16078937 43.623447
1.0704312 0.18209183 43.66996
-1.2981265 0.32786858 43.673477
-11.222255 1.3217592 43.608109
-8.4895344 0.98353565 43.72168
-0.11315637 3.6942642 43.711002
0.92536968 3.6333585 43.788239
4.0401373 -1.7468377 43.809097
-3.3914237 1.104194 43.891262
1.6805755 1.4184526 43.870026
3.4279678 2.3301718 43.866737
-3.337981 -1.6179407 43.923347
8.8837156 -1.0606776 43.989761
1.2991624 0.050833549 43.969177
-9.1335258 2.1851647 43.955128
2.0845108 -1.2883295 44.073586
11.288593 -0.5088312 44.060966
8.401144 -0.34606791 44.049744
1.1363111 0.67835122 44.021122
-8.8582134 2.0996704 44.007221
1.8588697 3.5334287 44.066669
-9.0734949 -1.2813542 44.139145
-3.3834774 -0.014574558 44.14806
-1.1259305 0.95660269 44.180702
9.4933147 -1.3181893 44.25412
3.6159699 -1.2039195 44.236778
-7.7575021 -0.26093137 44.269283
-1.1294951 -0.1007363 44.292206
-1.5831095 1.1467142 44.244823
10.142375 1.3062861 44.20406
-8.1449842 1.5037452 44.257118
-0.46289727 -1.8995926 44.3652
-2.2393923 -0.86891538 44.396553
-2.0092154 1.2906928 44.303734
1.1358881 3.747716 44.319138
8.323101 -0.61132658 44.467415
2.4570446 3.2367246 44.432625
-8.8216257 -1.3310062 44.500381
11.388706 0.15089437 44.527672
-8.7175922 1.2593321 44.591743
0.56954867 3.7926083 44.584621
2.1280437 -0.11137103 44.684956
-7.6688066 -0.0014016908 44.646259
-10.600632 -0.061885118 44.80479
3.229919 0.10594988 44.843002
-2.8392348 0.24217859 44.808395
10.827196 0.64859498 44.826721
1.8225958 1.578222 44.990837
-2.6988237 1.9998758 44.910824
10.112123 -1.075284 45.039818
-1.2326267 -1.0650396 45.186783
1.9395096 -0.41942537 45.187355
3.7242441 -0.19943741 45.192471
-1.4047575 -2.3024368 45.281635
-7.8871369 -1.0549674 45.209431
1.0268519 0.026142094 45.235451
9.5925922 1.6591768 45.296539
-2.3533015 1.8140869 45.229134
-2.1316438 -0.39488873 45.369949
-10.514668 0.040808275 45.335411
-2.4986331 1.872045 45.387703
-2.8620963 2.1631215 45.366875
2.2031929 2.1201842 45.372402
7.9351778 0.24363753 45.445023
-1.1680387 -2.2191293 45.504528
-1.5029202 -1.319903 45.574764
-1.426177 -1.3681121 45.583504
-1.3997465 -2.2279983 45.656208
-9.591486 -1.4088401 45.622986
-1.8165529 -1.1282359 45.637032
-10.446733 -0.23147087 45.675106
10.611748 0.72472084 45.65844
3.5049548 1.316329 45.601997
8.6487341 0.49046934 45.755608
8.4640636 0.98776877 45.728714
1.2339027 1.6251442 45.743317
-2.1961486 -1.2131279 45.858631
-9.5785112 1.1822824 45.815529
2.9261441 -0.38980794 45.950432
-9.9211521 -0.10444883 45.910896
3.5860343 -0.98004192 46.018986
3.5874763 0.82378042 46.035664
-2.3413806 -1.8634411 46.125744
2.7263198 -1.152999 46.16293
-8.9551001 0.36727753 46.109962
2.7873058 -1.1297797 46.206001
2.3046918 -0.43626338 46.269791
2.646471 4.1037388 46.205753
-1.8354926 4.2440348 46.284298
-0.27199823 -1.8772914 46.31097
-0.21137704 -1.3220274 46.302254
-1.8798487 -1.2859433 46.374184
-1.6428748 -0.85825819 46.356438
-3.2555752 0.030102149 46.364403
0.048265457 0.37734407 46.387611
8.8926954 1.2168503 46.308064
0.92879051 -1.754777 46.49094
3.0041924 -1.0479546 46.437458
3.2631781 -0.67131776 46.466373
0.3667675 0.27218235 46.46701
3.461194 3.3478301 46.486507
-1.2539551 -1.9927326 46.580563
-1.1702263 -1.3309427 46.529861
-2.3165631 -1.1286119 46.543945
3.967787 1.511391 46.588139
0.93709749 4.2694144 46.555004
-1.8786646 -1.9174881 46.684643
7.5897365 -1.0780811 46.696793
7.479135 0.25450534 46.69838
0.26695681 0.41493684 46.658573
0.42888299 1.2625948 46.656921
-3.1140947 1.6758995 46.688259
-0.98641491 -1.8827744 46.737251
-10.127232 -0.73103964 46.809319
3.8093505 0.45050377 46.817799
3.8996584 0.74166834 46.819717
-1.5558484 4.5351658 46.853329
-1.8641126 -1.2546966 46.941074
-7.1049967 0.37779763 46.977524
2.5942917 4.3998146 46.942081
-1.894043 -1.2407651 47.001587
-2.707762 -0.96561593 47.038464
3.6207471 -0.32375115 47.012405
4.0205774 0.81310153 47.073704
3.2132959 2.0618937 47.00116
-1.3925753 -0.72495043 47.110775
2.5074096 4.4909258 47.130295
2.5674889 2.6906602 47.240593
1.1745802 -1.4022224 47.337887
0.26446053 -0.12365513 47.378464
3.9863286 0.37559253 47.330467
2.2402606 -2.2349985 47.495506
3.4079618 -0.24441721 47.410259
-1.3717629 -1.351239 47.504707
3.0503418 -1.1765869 47.532181
0.23813571 0.1256305 47.556267
-1.4944662 -2.3195198 47.67038
1.110096 -1.3441384 47.676216
-8.4377069 1.1673082 47.60939
0.95645213 2.6554298 47.668724
-0.3534869 2.514987 47.739166
-1.9979763 4.7156858 47.773056
1.4186784 4.7232294 47.732868
-2.0469134 -1.52836 47.820099
-3.382278 0.4095487 47.860878
-3.8304102 1.5832101 47.830055
-3.4198503 2.4004507 47.881256
2.6527381 4.6746011 47.855995
3.8803935 -1.5101304 47.983662
3.8034365 0.46093512 47.921974
2.3852022 4.7859368 47.973625
-9.364953 -1.6693356 48.084194
3.8572166 -0.028855797 48.043365
-3.6380548 3.850914 48.050072
-0.34092355 -2.0661349 48.157513
-6.8848972 -1.5862863 48.167347
3.9471691 -1.5894654 48.132263
-1.986673 -1.2161708 48.109165
-0.9341647 -1.2771776 48.196857
-3.5334983 4.4890838 48.137978
-3.2971396 4.7373075 48.109703
-2.6157813 -2.4279079 48.214172
0.99071229 -0.77682608 48.218914
4.4607177 -0.71113265 48.225021
4.2296252 4.2914515 48.22567
4.1807671 -0.46267408 48.32769
-3.2926536 3.1254258 48.387955
-1.7435277 5.1601591 48.382805
-0.22152127 -1.1193278 48.477341
4.2136841 1.6792431 48.422653
-4.25034 -1.2086686 48.530659
2.1902013 -0.79859293 48.538742
4.5147085 1.5032084 48.506126
4.7597518 -1.2302567 48.677937
-9.4361916 0.40668434 48.654301
4.8253651 3.1218591 48.609932
-3.8099341 5.2896585 48.682537
-0.91974479 -2.6158895 48.704838
-7.7115297 -2.1783631 48.765816
2.7179608 0.51559407 48.739182
4.4327974 1.3078233 48.753151
-3.654331 2.9825938 48.779018
6.9127021 -1.4470459 48.878006
-8.8164387 0.83107102 48.854195
0.89239562 -2.5034194 48.973942
1.6191761 -0.73380339 48.990627
1.6070442 -0.42148697 48.965389
-4.6154995 4.3758497 48.966694
-1.1288867 -2.7027385 49.019524
2.8478661 -2.7165339 49.012383
1.3007437 -0.68102604 49.020767
-0.12071025 -0.4925532 49.018219
4.59478 0.55987632 49.087746
9.2482128 -1.9691219 49.198456
-1.5870731 -1.5337642 49.188477
8.9851246 0.85921216 49.163666
-4.2626324 0.91274869 49.133492
3.5288761 1.0251238 49.169716
-2.4455166 5.9480977 49.191734
-9.2822952 -1.6427737 49.21104
4.2196026 -0.0072179325 49.220512
0.15355304 0.30176288 49.276356
2.5768802 0.31142735 49.246815
0.73420238 3.2004702 49.207447
-1.423461 4.1526656 49.278618
4.9883714 4.964324 49.270687
1.3885548 -0.6746304 49.354477
-6.4055624 0.020873867 49.362061
-1.8347408 0.02797094 49.314651
-4.1612387 1.1499197 49.353333
-4.8796449 3.0274436 49.377785
-0.16313513 3.1302285 49.36338
-4.9172573 3.9306293 49.317535
7.366684 -2.1197906 49.575706
0.14566447 -1.9806597 49.551376
-0.15191916 -0.89446795 49.515968
3.7728934 -0.36528328 49.53685
4.4522495 0.12924059 49.551857
-8.4559221 0.83463556 49.523315
8.6892776 0.82775444 49.589882
-4.1709127 1.0882289 49.501682
-7.1840687 -2.2248459 49.605484
-8.6723843 -2.0486071 49.622818
3.4913111 -1.6985788 49.610806
0.89662069 -1.2992816 49.696331
-8.8316851 0.52715492 49.668736
4.6722655 0.59253263 49.66909
4.8032417 0.8772819 49.68232
4.3506641 2.9184539 49.610123
0.74836528 4.9148293 49.645927
-3.433758 -2.8695714 49.72036
-9.0524158 -1.8082533 49.710659
1.0833066 -1.001372 49.759682
-3.1410508 0.99731994 49.785427
-3.5329196 1.1074356 49.71505
-4.1923404 1.9597449 49.732166
-3.6075022 3.6073563 49.731106
0.90633833 -2.8058846 49.848145
-0.26940149 -2.545866 49.887115
-4.1260185 -2.3500473 49.892857
2.6241462 -1.697242 49.872601
-1.5230353 -0.78038508 49.879246
-3.0476105 -0.55364597 49.858776
-8.2882214 0.79435015 49.806824
0.29673859 3.9233871 49.817902
5.5115709 -1.4978752 49.955147
-4.1681194 2.288604 49.949394
4.1614609 3.3757334 49.966812
-1.6292554 -2.9901392 50.010624
0.51995772 -2.4072165 50.044464
-7.7030005 -2.3606896 50.013184
-4.330843 1.4743987 50.005589
-2.384407 4.0870924 50.019356
0.11479147 4.0868273 50.019703
-5.0292387 4.1458893 50.090279
1.6509986 -1.5019484 50.150791
0.57994914 -1.0773978 50.174042
-7.1351261 0.67066729 50.12878
1.7055953 -1.5209899 50.339828
3.5723681 -0.53501648 50.346386
4.7322054 0.81141108 50.390976
-0.90538156 4.0464921 50.326931
-0.83562171 4.0085745 50.314232
4.632606 5.7160196 50.334259
-0.90850604 -0.64264023 50.486984
-1.4760182 -0.49067429 50.482964
5.3318658 2.4847355 50.428425
2.9074373 -1.7157087 50.577599
-0.60692298 -1.3312426 50.514771
0.61046219 -0.26278725 50.579433
2.5681045 0.04528898 50.57819
4.7531605 0.65195453 50.51429
5.1498146 2.2117367 50.595184
0.15855789 3.3493462 50.586365
1.0425342 5.4339871 50.534821
6.4926419 -2.34217 50.677723
-3.1218061 -0.51295817 50.602505
4.0841732 3.2950613 50.686611
5.1788955 4.9406505 50.654289
-1.2415221 5.7767353 50.60952
0.71376961 -1.5013191 50.786819
5.8164196 -1.2804394 50.715668
-0.3789573 1.9922917 50.796959
-2.5449138 6.1346273 50.703712
6.7753339 -2.6195183 50.864449
2.4251337 -0.74404466 50.889965
1.5163419 4.1056786 50.877728
3.5056937 6.0842552 50.812122
-6.7352934 -2.6940894 50.923161
-8.4436655 -2.1474252 50.90649
0.37779969 -2.0845063 50.93642
-2.9301519 -1.6384553 50.926277
1.9964244 -1.6068105 50.951645
0.37200123 4.5110273 50.938046
-0.096969545 -2.7100618 51.021263
-7.7196636 -2.4675839 51.032539
2.3368254 -0.73613608 51.011345
-1.1065722 -0.6617192 51.051712
-5.5865507 -0.56411999 51.090599
0.34761435 -0.48451197 51.003929
5.0468025 1.0320919 51.026024
0.77609152 2.0971537 51.013798
-4.1348023 -1.2565799 51.163845
4.9038458 1.4496229 51.106644
4.8959355 2.1178663 51.117588
-3.6456923 3.2159078 51.159843
-4.9959645 3.3174181 51.133812
-0.33019567 4.8913069 51.165398
-4.409801 1.6560276 51.231392
1.8764614 4.1633663 51.282104
2.7935278 4.3085976 51.249809
3.5080585 5.9546952 51.226067
-4.2293959 -3.0639133 51.325974
-1.9686834 -1.6993836 51.34272
-0.71213144 -1.358228 51.392857
5.0323043 1.7880145 51.368988
4.5431118 2.579706 51.353848
0.43502381 3.3059263 51.322433
0.31990212 4.1331024 51.382889
0.62114936 -2.9850533 51.441341
-5.0523167 -2.4522517 51.457619
-2.2562485 -0.031278253 51.463135
-4.5310774 0.64399248 51.449474
-4.69242 2.5102165 51.468105
-0.94383895 -1.4298316 51.547989
1.0512415 4.0330744 51.561497
-4.8115034 4.2169981 51.583511
-3.0669479 0.62771642 51.623535
-4.3534088 1.4964317 51.664589
-3.1228728 5.7330818 51.662548
-2.7675881 -1.5758034 51.780148
3.9246922 3.2507923 51.797554
4.9118099 -3.0773926 51.862957
9.1393223 -1.2287214 51.873741
5.3753567 -1.1137747 51.823639
4.744586 -1.0980259 51.825264
0.49126321 -0.10708749 51.821678
-0.26837721 0.92761719 51.834038
0.73908556 3.8084822 51.836029
-2.9632366 3.9715312 51.823154
0.91717356 -1.5556406 51.915195
-0.061164469 -0.21386147 51.907837
-0.077800751 -0.11661941 51.962273
7.9281197 0.83952093 51.941914
1.805994 5.3385186 51.961967
4.624495 -1.4154426 52.087898
2.4967833 -0.27348971 52.070122
-0.26420501 0.9276849 52.084099
-4.7835197 1.6953764 52.014423
4.8469286 2.3826022 52.055714
-5.9435062 -0.58108407 52.151379
-3.6150537 -0.045607328 52.110527
-7.8453989 0.57621717 52.111691
-2.283257 4.1845241 52.157608
-2.1887388 4.1686363 52.161785
8.2471409 -2.7123511 52.283195
8.8527632 -2.0377183 52.205379
-1.787135 -1.671289 52.230545
-3.1593895 -1.5775615 52.283398
0.93907773 -0.086986333 52.207264
-7.9347277 0.47435659 52.283318
0.65267134 3.6268106 52.203003
4.1351342 5.1870184 52.252392
-3.3738098 -1.5621768 52.337147
-0.98814261 -1.2499621 52.358101
-4.9445839 -0.24557616 52.310463
7.0668559 0.98451626 52.338654
4.7750788 2.4178419 52.338661
-2.7070034 4.0505414 52.366684
2.4283514 4.1084304 52.313965
-3.3303723 -3.7283301 52.466152
6.1364069 -2.1701803 52.447739
0.37899759 -1.1216065 52.45961
-5.3659983 0.38126296 52.421871
8.4449244 0.35287368 52.448753
-6.0652223 0.99424183 52.459358
-4.1077414 2.8048019 52.444515
4.3195081 3.0499902 52.427589
8.2276211 -2.7829957 52.519287
-4.9037685 -2.187541 52.510994
-1.4883615 -0.85906577 52.552933
0.58542615 2.4312618 52.58588
-1.8045064 4.0225759 52.551529
0.50648928 -2.7053044 52.637913
8.859827 -1.9278028 52.601135
2.2562923 -0.57032317 52.640694
-0.95895958 -0.2251799 52.6325
6.0647755 0.72356552 52.668167
4.6849952 1.399739 52.695858
-5.0014887 1.4755905 52.691551
-4.9141636 1.6388001 52.681496
5.0720592 2.0963254 52.609581
-8.3792267 -2.0599053 52.701385
-8.4031687 -0.12794787 52.768536
-3.2737861 -0.16694567 52.785011
-5.5487204 0.66099137 52.79694
-1.7637756 3.9802456 52.71566
-0.143218 -2.5982528 52.847641
-8.4415779 -1.8623574 52.886791
-1.5212852 -0.88318133 52.869751
-0.48309815 0.19262281 52.888107
-0.45596477 3.2015882 52.817326
-1.7668411 4.5621133 52.800316
-3.178364 4.6958899 52.880257
3.7913349 -3.8744812 52.958809
-6.8859973 -3.3422654 52.996361
0.55232334 -3.3831601 52.911438
5.0413866 -1.6400747 52.949963
5.3411832 0.19257677 52.962105
-4.5830746 2.3533001 52.976006
0.47210088 2.8141632 52.977707
-3.0737348 4.6232529 52.921703
7.1509914 -3.4077065 53.087059
-2.8918757 -1.727474 53.043198
0.36202884 -3.007916 53.162605
-0.23147106 -2.7443554 53.101425
-3.423811 0.66092622 53.195145
-6.7839174 1.0045774 53.159275
4.6139145 1.9009016 53.124275
2.8991628 -3.9090705 53.261833
3.6765833 4.0189238 53.273376
-8.3450165 -1.9441173 53.347027
-4.613905 -1.8686934 53.312645
3.4896452 -1.7588139 53.374409
-4.7565989 -1.3830298 53.38813
4.2818975 0.46980983 53.368317
3.3256283 3.982739 53.320835
5.1675229 -3.4212818 53.418369
0.33678746 -2.5380411 53.438747
-2.5890689 -3.9937549 53.55719
2.7437837 -1.730365 53.560944
4.1786871 0.44089523 53.50676
5.2358279 2.0542824 53.5462
-3.6493697 2.9031959 53.569405
-3.5282476 3.2362285 53.509109
-5.7291231 -2.5651884 53.643749
-1.3573486 -1.5216129 53.600025
1.733017 -1.5141908 53.605865
4.8804784 2.7462745 53.6021
-1.0214969 -3.951592 53.73085
-0.24764711 -1.0135996 53.711514
-2.608923 0.0050341636 53.884392
0.12070183 -3.4686716 53.906158
0.094601944 -2.604934 53.905251
-3.154012 -1.8407838 53.944626
1.3194504 -1.5731579 53.92717
5.0420599 0.24967945 53.967873
4.6332417 -3.7603934 54.012001
0.1626775 -3.3906248 54.00032
-5.2744985 -3.2078705 54.082417
-0.66358668 -1.8028662 54.057003
-4.0665712 -1.6481897 54.076439
-0.65632749 3.2766261 54.008949
-0.87849939 -4.0182991 54.155331
-4.1847839 -3.756948 54.139442
-6.1173415 -1.3945973 54.10939
-0.14238484 1.9303885 54.15147
-1.6285813 3.0894682 54.161545
5.834897 -3.3173287 54.206039
6.4837227 -1.9055986 54.218002
5.9395328 0.23913908 54.293076
-3.0341046 2.6556058 54.250942
-0.87022233 2.9352 54.241467
3.58602 2.90976 54.249851
-2.3051813 -3.952724 54.380264
2.3845234 -1.6002192 54.391258
4.6446381 -1.6328794 54.372135
-1.1732063 -1.4041038 54.304478
8.5668201 -0.52388453 54.355293
-7.960557 0.092809983 54.397671
5.490602 0.43634957 54.378284
-1.3772017 1.0701919 54.307198
-6.3566427 -3.5322165 54.449005
-5.0045691 -1.4359727 54.414238
-4.8252931 0.14966685 54.410698
1.5188231 -1.4854997 54.574665
8.3419495 0.097115979 54.500664
-7.7948313 0.21162061 54.581779
2.4174495 1.7246673 54.597458
-2.8622723 2.1256862 54.528572
5.3092546 -3.3122118 54.65786
5.6871958 -3.3474016 54.629002
6.5573516 -1.2532398 54.638268
5.4986768 1.5485971 54.658859
8.5875416 -1.8546679 54.732384
-1.8671657 -0.85847151 54.709427
4.7952809 -0.66783261 54.733608
-5.8002901 -0.57656324 54.768246
-3.845448 0.2851651 54.752586
-3.1231911 2.4494817 54.781227
0.25817055 2.4360976 54.700912
-4.1109953 -3.6855304 54.84761
5.9301586 1.0915613 54.805477
3.1765194 2.4826944 54.828823
6.6986527 -3.5021973 54.974854
-2.3169973 -0.56077361 54.925262
2.8927121 -0.43789575 54.919106
7.9610415 0.24281698 54.951893
0.68183875 0.47247261 54.9161
6.1758199 0.70858663 54.950974
