# .PCD v0.7 - Point Cloud Data file format
VERSION 0.7
FIELDS x y z
SIZE 4 4 4
TYPE F F F
COUNT 1 1 1
WIDTH 1555
HEIGHT 1
VIEWPOINT 0 0 0 1 0 0 0
POINTS 1555
DATA ascii
15.057489 2.2110276 17.847116
-2.3344307 8.9787369 17.975492
9.2416267 11.407249 17.975266
-2.2699199 8.6764431 18.160833
-2.8477578 9.6083374 18.404118
13.941687 7.2470155 18.792557
-7.5150757 12.69701 19.255695
6.454546 -4.7377639 19.485292
-3.1417706 -1.7606219 19.482494
-2.4175177 -0.40082717 19.667156
1.6619999 0.75770211 19.729788
7.4195437 12.737077 19.733252
-15.032177 1.7300953 19.962318
-1.2638781 4.6962061 20.01619
4.6660838 -3.6702032 20.181179
-7.1644421 -5.2451181 20.34511
-8.1094971 -5.8201599 20.471542
2.1000464 7.4891148 20.86721
7.8978801 12.247298 20.990498
1.1800851 1.0108104 21.001083
0.21891452 2.2523608 21.070095
6.8345413 -5.1286068 21.157887
1.9390912 0.2242862 21.159412
8.4085035 -5.7991152 21.297438
1.6464241 0.47220278 21.406736
-15.056765 3.1668851 21.630125
-9.5842485 10.822762 21.616146
4.1816349 10.302427 21.731262
3.7874906 -3.2038262 21.902052
2.4202173 -0.61329222 21.988426
12.424812 9.3579445 22.192936
-0.26252761 2.2864892 22.381481
-2.3470948 8.2533894 22.393415
-12.273975 9.3676109 22.834869
-14.415588 -1.0110884 22.964518
5.6785893 -4.6045303 23.08198
-4.3573217 10.267038 23.074278
2.7075863 -1.2778053 23.312393
11.932574 9.4353924 23.41848
-13.022621 8.3428907 23.511395
-11.431179 9.633131 23.588417
-3.6222932 -3.0447581 23.630268
-0.43113831 1.2077997 24.069683
15.131483 1.3144047 24.107618
-10.878771 9.7970438 24.15299
-14.323301 -1.3223301 24.602058
-10.528315 -4.60745 24.92326
7.6470513 -6.0035744 25.133146
-12.969265 -3.1467021 25.234539
11.392379 -4.1918693 25.350044
6.4715662 -5.3386207 25.48683
-3.0761445 -2.1838708 25.608822
-1.7808526 -0.4478811 25.782963
-7.0992136 -5.7504473 25.873608
-10.252221 -4.8756466 26.075607
-11.253524 9.3580904 26.058542
-3.577368 -3.19719 26.288971
-12.624935 8.4492121 26.350637
0.20531671 1.0090003 26.434343
-10.07191 10.031437 26.575153
14.679919 -0.75212675 26.625071
2.494411 8.084446 26.844851
8.2034054 11.50267 27.231243
-0.0021330193 1.4361067 27.448185
-12.891162 -3.324142 27.572634
-5.7027559 10.777499 27.783043
9.0757008 -5.9768782 27.990917
-0.031589426 1.4762681 27.989885
0.019419037 1.4522179 27.909164
9.8851519 10.063028 28.095989
6.7901731 -5.7898517 28.144228
1.2971184 4.3621778 28.169495
2.1668458 6.4423509 28.394079
11.262825 -4.4601989 28.461775
-4.6072316 9.6604042 28.950737
-1.8477639 5.5709453 29.188755
-1.7398362 5.3185682 29.297518
-15.133131 0.346836 29.367943
-10.745103 9.2589684 29.391945
5.0529513 9.9897308 29.367558
6.7170649 -5.8710871 29.626091
-3.5595281 -3.4860051 29.897028
-13.443729 -2.657979 29.811693
9.6231565 -5.754468 29.911823
-11.43576 8.7225256 29.932581
-3.8926475 -4.0028782 30.078337
14.575737 -1.1607395 30.171761
14.422588 5.4269199 30.123915
-0.20386867 1.7388272 30.60754
-0.59171373 2.6197479 30.734245
11.259047 8.7291985 30.788691
3.5531945 8.4735241 30.872868
3.9945083 -4.1537247 31.029804
-3.5592527 8.4358044 31.180021
15.065047 3.0079315 31.613121
12.058187 8.1798382 31.796715
-14.138519 5.529285 31.978256
-4.6874857 9.2895346 32.093269
-0.88181794 3.2143142 32.109344
-6.5757728 10.930334 32.110481
-0.26759326 -0.11231583 32.332878
7.3762121 -6.5794311 32.673321
-0.14002737 -0.042948753 32.656212
3.0710251 -3.0025017 32.835712
-0.24371782 0.59588563 32.969471
4.1319928 -4.4244466 33.089138
-2.3231957 -2.3169942 33.176945
1.9363623 -1.9327409 33.189682
6.1814499 10.430163 33.229443
0.86848271 3.1171172 33.430939
-3.4911182 8.0601835 33.435665
-11.316257 -4.8333879 33.591259
-12.453402 -4.099103 33.678463
13.826702 5.6995969 33.637447
5.7024527 9.9485331 33.691528
-2.1865559 6.1161909 33.761173
3.985091 8.4377537 33.807892
-13.941355 -2.1252463 33.969955
4.8103418 -4.9904971 34.338856
15.211847 1.2198659 34.405174
-12.68429 7.1334677 34.419712
-3.4004886 7.7748232 34.908096
-15.284389 0.33872733 35.174759
9.0137844 -6.7942815 35.45644
-6.5078664 10.447379 35.467262
6.2715621 10.229356 35.797523
2.3618002 6.4109955 35.849163
1.480409 -1.9710537 35.939816
-10.567221 -5.6759405 36.182693
-15.224165 -0.48990482 36.337162
11.231953 -5.2127662 36.641842
-11.035077 -5.4101939 37.090454
11.160386 -5.3129301 37.080112
-15.014933 3.3584895 37.299633
4.6428466 -5.1352735 37.324551
15.274454 0.3385433 37.46735
13.84341 5.1899166 37.400204
-13.950834 -2.3296309 37.873661
9.2708168 9.7035494 37.917999
-1.6646311 -2.493979 38.117256
-6.8098359 -6.7094507 38.275295
13.205555 -3.3945503 38.291538
11.169521 8.128129 38.262974
-12.191851 7.2863073 38.43734
13.923263 4.9775467 38.705215
-9.3848286 -6.8798752 38.894775
8.5980062 10.128997 39.015587
-8.5195036 -7.5698419 39.121231
13.40641 5.6601868 39.117786
9.9745569 8.9863663 39.269897
0.27831995 0.083788931 39.413567
-2.2716076 6.2236395 39.527309
-7.607748 -7.5356503 39.799736
-12.047753 -5.0546393 39.866478
-3.69223 -4.9426341 40.160503
14.252244 4.4081497 40.169628
7.3937669 -7.5518055 40.666367
-2.942523 7.1557336 40.611351
5.0775452 9.0551472 40.623344
1.4780267 -2.568645 40.721558
-7.7950411 10.581908 40.828094
-1.3587024 -2.495131 41.185101
14.420386 3.9580529 41.117352
-3.6433365 -5.2365813 42.037422
-9.4269466 9.1084766 42.221069
-15.23191 -1.0002575 42.367374
5.4829721 9.1821461 42.448265
8.1668348 10.081266 42.66161
7.6477456 -7.8552785 42.875656
15.175816 0.0041427612 43.066612
-13.032385 5.8681326 43.076515
12.345145 6.6661582 43.093781
-0.29995459 -0.32921419 43.197449
8.0660076 -8.0614061 43.364319
5.2616291 -6.6587992 43.361839
-13.577062 -4.0376511 43.495037
2.004252 -3.4216306 43.485649
6.9143248 9.8667831 43.521069
-5.7371378 -7.0315294 43.649815
-10.221542 -6.8332262 43.819077
-4.1504707 -6.0333509 43.959084
6.8035679 9.718236 44.149124
-1.1602319 -2.6387126 44.587708
11.879148 -6.0540056 45.008987
-2.0159242 5.8359728 45.221844
13.788429 -4.1502595 45.420792
14.440002 2.2997675 45.476067
-10.843172 -6.7748241 45.813995
1.8182275 -3.651454 45.945759
5.6211014 -7.3705435 46.021572
14.528162 -2.724386 46.183762
-7.9267015 -8.2972565 46.466759
-2.6477118 6.7574196 46.48315
-0.30392402 -1.3592193 46.565678
13.815605 -4.2076044 46.805214
14.842346 0.37571383 47.048855
-7.3391886 9.581461 47.474743
0.066861518 -1.8289965 47.506416
13.343842 -5.2321668 47.742821
0.12849519 0.25910342 47.846413
-7.805212 9.8039188 47.82737
4.2489228 -6.8848186 48.031387
-8.5712709 9.1534004 48.174023
14.439799 -3.0838358 48.430485
7.4477124 9.4910059 48.614895
13.306089 4.7658763 49.135292
13.382939 -5.2820411 49.331219
1.5042598 4.572701 49.545456
-3.3457787 6.9685464 49.710621
-6.5971785 -8.1093712 49.926155
-9.9989967 7.7913404 50.189354
-0.12713169 0.43677709 50.48101
-5.4300389 8.0629978 50.547234
11.998625 -6.9507456 50.643349
3.0244963 -6.0735292 50.721035
-1.6010771 4.840446 51.686188
1.811731 -4.4593687 51.765717
-15.073338 -0.82828432 51.703876
-8.4513988 8.8164892 51.772232
-0.25522587 -0.72181869 51.886486
14.045848 -4.1887984 52.060516
9.8239307 7.780827 52.018368
-14.552745 0.91399646 52.107193
-5.9823442 -8.1063862 52.371563
-0.22843957 -0.63870704 52.458111
-13.844592 2.8828862 52.437035
0.4454996 -1.3354713 52.973709
-11.683836 5.9394112 53.030563
9.826951 -9.3401499 53.139175
0.24440199 0.78767002 53.24556
-12.205714 -7.4434252 53.742359
9.0271444 8.3023434 53.712463
3.689656 -7.218678 54.147282
-0.20537758 0.50605452 54.208694
-12.624171 4.9513359 54.209923
11.936885 -7.8552227 54.678082
3.7751 -7.4168968 54.749889
2.9509683 6.0144181 54.912994
1.1726094 3.3392477 55.050095
4.9302311 -7.8290706 55.188541
-0.045385897 0.090806559 55.241131
14.015476 -4.5107417 55.513309
-0.21546832 -0.48370218 55.601044
-0.37182838 1.073759 55.76915
3.3434463 6.1432281 55.788528
-14.876713 -2.8800383 56.03138
-0.37917575 -2.3218501 56.168911
14.479109 1.4020696 56.424255
0.50648785 1.6020002 56.442375
7.8695436 8.9423313 56.664902
1.3579369 3.8655436 56.708118
13.306257 3.9744859 56.876175
-0.64024699 2.0954919 56.993614
-15.163305 0.1607869 57.002468
-15.071709 -2.6161067 57.285103
-13.991199 -4.9894352 57.335087
-14.284593 -4.159317 57.325127
15.44661 -0.59355479 57.360405
2.5764723 -6.7509384 57.484924
-2.699784 5.7218857 57.500957
-0.035563827 0.82946813 57.889065
-9.2530928 7.7581506 58.387558
-5.7734284 -8.8047562 58.651909
1.0799065 3.7078681 58.773716
-8.4682636 8.4561234 58.752026
14.285501 2.5747221 58.921936
-0.44240439 0.05070585 59.157871
-3.0834317 6.3475399 59.139877
12.983992 5.2214699 59.446312
-7.4398098 -9.5706177 59.587723
15.744401 -1.5229673 59.635109
14.283247 -5.1212044 59.991364
-15.392387 -2.2539771 60.123657
0.50363952 0.25667745 60.308304
-1.3159745 4.7532711 60.393093
-1.5692991 5.4326644 60.494152
4.1958327 -8.7979116 60.643372
-14.329994 -5.2764711 60.791199
-14.469099 2.8425817 61.024925
14.51283 2.8620675 61.380299
14.294549 3.2950745 61.378098
-14.370583 -5.4515634 61.596939
-9.2922316 8.4874105 61.590553
-13.603993 -7.6377993 61.671051
0.095121205 -1.9027456 61.842239
-14.943441 -4.0411916 62.16338
-2.6472199 -7.9645658 62.205811
-7.6587009 -10.122439 62.372318
1.2824038 -4.8940072 62.311855
1.5132953 5.8480783 62.450397
6.8442926 -9.9423056 62.577805
-0.59607357 0.8067826 62.852261
-10.524216 -9.7809858 62.905506
-0.49638417 1.0827752 63.39056
10.5383 7.9516683 63.303524
6.5978642 -10.057452 63.449989
-1.5824287 -5.3686628 63.426525
-0.70816839 -3.3907783 63.613045
-8.1880236 9.7060604 63.76033
-0.18220675 2.7464116 63.875244
-0.73782527 4.0785127 63.83139
-11.821711 -9.0834522 64.070824
-8.3204613 9.6648111 64.026154
9.5355377 8.8237505 64.12326
-12.112469 -8.9170389 64.451935
15.428809 1.1498456 64.442192
10.462279 -9.8197584 64.748611
14.939865 -4.7340856 64.858971
-14.859809 2.8310394 64.906242
12.198295 -8.8597946 65.043915
-15.506275 1.0853928 65.058899
1.5646691 -5.0719266 65.166946
-15.901405 -0.058340669 65.701912
2.7820313 -7.9642758 65.992683
0.8221311 -3.2181532 66.504044
13.973744 -7.8508291 66.842911
2.9849184 -8.6811609 67.035316
13.613727 -8.0461264 67.023331
-9.7578287 9.2631226 67.143883
-9.7405634 9.3255024 67.397659
0.13059111 -1.5160248 67.584419
6.546803 -10.006012 67.625763
0.38216662 -0.36346459 67.645523
-13.032814 6.6347828 67.7659
15.467921 2.1277142 67.865311
1.9304972 7.2904873 67.972946
-15.97665 -1.2512468 68.009132
-13.614214 5.523663 68.009293
6.3859625 9.7775764 68.115547
-15.766298 1.2950785 68.425194
-3.3015451 -9.0808792 68.662247
-0.53618348 -2.2680268 68.622726
0.052230328 -0.9332009 68.772835
-13.496307 5.8374305 68.815567
-11.452415 -9.2025433 69.016754
-8.0037394 10.878605 69.27285
-0.50232065 3.9013083 69.536987
5.8355708 9.7551003 69.670296
-10.665125 9.0390081 69.850952
10.096956 -9.9316692 69.988625
-0.27342123 -1.4824986 69.973892
16.190273 0.057918787 70.034752
1.271116 5.8444901 70.212074
1.6418515 -5.0012531 70.550034
-0.081368297 -0.60129958 70.579559
-10.605614 9.2329865 71.007652
-16.183142 0.064537823 71.119675
-8.571497 -10.466187 71.301155
-7.0077925 -10.058362 71.410988
8.104166 -10.339248 71.585922
15.819103 1.9793285 71.560493
-3.6222079 8.8761721 71.515945
16.010494 1.5373838 71.723114
-15.790634 -2.1506135 71.862137
0.35988605 3.728797 71.808372
-5.7214217 -9.7145786 71.917679
-2.5713902 -7.9629383 72.167984
12.801713 -8.4013853 72.333786
-16.000185 -0.93004739 72.348999
-12.930021 7.3130851 72.384926
-8.3404016 -10.373067 72.967369
-13.319934 6.6326313 72.960228
-15.796806 -2.0652089 73.027634
10.83829 -9.4686842 73.190681
11.139599 -9.3032227 73.155327
11.548417 8.6477871 73.118431
16.004965 -0.85959584 73.372147
10.946432 -9.4048491 73.434021
5.4909596 10.264097 73.538208
8.011528 11.664515 73.597816
-14.745434 -7.0445862 73.631088
1.0918682 5.6820602 73.763916
3.8045845 -9.1771154 73.81279
-1.7823668 -5.7712841 73.941681
-1.359362 6.3647118 74.077919
-0.09255892 -0.70969009 74.144676
8.5066147 -10.385993 74.48204
-0.32419634 2.2556579 74.47625
2.3447032 8.702136 74.468857
-9.9647141 10.223392 74.439705
3.4833171 9.36689 74.698326
15.608197 2.7745576 74.777435
-13.307796 6.8928967 74.7966
9.1108484 11.064702 74.876999
-9.389905 -10.236186 74.952972
-16.366468 1.3661888 74.932404
0.5277856 1.8013014 75.063576
-11.5019 8.9562187 75.079826
4.7636051 10.185224 75.252312
4.4283586 10.022975 75.365501
14.978791 -6.6227989 75.960037
2.0287066 8.4714775 75.917236
5.0148077 -9.4488125 76.056862
1.3774102 6.8570728 76.023315
-11.901047 -8.8190174 76.454987
0.42012027 -0.6206975 76.936363
4.5402703 10.437566 77.116257
-0.16022125 4.0399957 77.45266
-0.20748027 -1.9031134 77.62854
-4.6210685 -9.1141157 77.736176
2.0481944 9.2244396 77.842674
-8.8090553 -10.292189 77.904434
-6.8081393 -9.6212215 78.193352
-14.09561 -7.3849368 78.165764
4.9474874 -9.016305 78.865929
-1.5201341 8.263011 78.879158
-3.0242951 -8.4607258 79.135361
0.017603867 2.1609581 79.167389
7.3727918 -9.68151 79.407936
-0.046688724 -0.41180241 79.454575
1.9413513 9.5469618 79.467659
3.9225125 10.923932 79.435783
-15.460942 3.4481053 79.881561
-14.796491 4.6246939 79.806519
-1.7689587 9.2620325 79.884819
-0.025157807 -2.5619366 79.953079
-4.9271049 -8.8156061 80.061386
13.543423 7.6190987 80.053413
-16.389471 1.555531 80.132828
-5.353085 11.71048 80.277466
7.1128521 -9.4994287 80.477325
-0.26946625 -5.7346039 80.414154
6.1527987 12.185575 80.849045
1.7714922 9.3810024 80.934265
-15.141567 4.1008482 81.02272
7.3488522 12.773016 81.01207
13.538557 8.0826874 81.185043
-16.151079 2.3389871 81.484314
-15.723799 3.0989659 81.481506
0.086524084 6.4179201 81.494019
14.980398 -6.3463917 81.56543
-1.2391685 9.385417 81.664314
8.5346403 12.92335 81.626122
6.3445487 -9.1293373 81.765587
19.010216 -1.0917723 81.935867
-19.751099 3.1368341 81.985855
13.816766 7.6292696 82.257172
-10.80673 11.103406 82.242752
9.6183929 -9.3540525 82.399406
-6.0162096 -8.9656696 82.377914
-7.4420118 -9.4345703 82.41478
-18.56609 -3.4167402 82.425659
2.1157894 11.541453 82.466797
-13.53472 -10.78073 82.565033
15.716051 -2.0841186 82.596741
10.908569 11.110765 82.721634
-10.704788 11.2839 82.71756
4.1602468 -8.3115025 82.817436
-19.109411 -0.10369825 82.966759
-19.24962 0.67584753 82.924683
-2.4286447 11.942426 82.986359
19.501245 2.2396717 83.063156
13.179059 9.1822186 83.034592
-10.021111 17.525841 83.098434
12.953544 9.4026184 83.114235
6.0149403 -14.39222 83.204857
18.939495 -0.84372139 83.292786
2.8499355 12.267668 83.258682
4.870935 18.466862 83.213112
7.4581356 -13.761184 83.387566
1.6404035 -8.0393057 83.325272
-14.132998 15.852624 83.338562
-18.547543 9.5784836 83.446136
15.613084 3.4475043 83.523987
-6.0634003 13.340776 83.510818
10.760023 -12.317943 83.791649
-18.361177 -3.9879808 83.781036
6.745656 13.747013 83.890106
6.0670967 -14.338552 84.064003
-18.809259 8.7775335 84.086159
-14.853587 -8.9388037 84.176178
14.032738 7.6937389 84.140854
18.846016 8.6693201 84.168274
10.018642 -8.899663 84.2687
15.066021 -5.7269626 84.262329
10.460841 11.816705 84.365906
19.711395 4.1495686 84.556107
-4.2577419 13.398788 84.544838
7.408083 13.865122 84.590965
10.957092 -8.3200912 84.728661
-4.3033981 -8.1845064 84.760811
19.741035 4.3964281 84.751724
-2.7802742 -8.2020254 84.851364
6.931035 13.991856 84.80423
-14.963006 5.0961819 84.996559
-6.4478707 -14.124067 85.038345
0.096738361 -9.4829941 85.051056
16.585892 -6.7337012 85.063728
-2.7708898 13.123717 85.032135
19.118618 1.0652292 85.15197
16.426628 -6.9187016 85.279396
-18.181982 -4.248044 85.297104
-19.285919 1.8287356 85.20546
-13.920254 8.4686661 85.201981
0.85414517 12.362964 85.223145
8.1218996 -13.397761 85.493446
-13.068532 16.059143 85.500076
-5.2176471 18.21232 85.579475
14.394093 -6.2801733 85.621689
-8.2795792 17.705471 85.671318
-17.23299 -5.7370667 85.929474
-5.337481 14.455199 85.937225
4.4897466 -8.130599 86.048515
-17.5711 11.191486 86.003189
1.3919365 -9.2389908 86.129387
18.226749 -3.5109932 86.182755
15.539818 -2.923105 86.153824
-16.329931 14.096775 86.179367
-13.90505 8.9364138 86.261742
-8.6651917 -13.120625 86.395638
-7.3360872 17.850758 86.382927
19.445177 3.5247259 86.477585
7.4165239 -13.664309 86.560936
16.01354 -0.32179868 86.723541
19.396799 3.3936684 86.791626
19.718136 5.0191855 86.80014
2.0667298 13.850367 86.860573
12.014816 -7.4523525 86.921585
15.883825 -1.0225482 86.937752
-12.899638 -11.252744 87.0149
13.436172 -10.546487 87.375122
8.586174 -13.125776 87.457672
-12.952826 -11.127412 87.63591
-18.472958 -1.7222251 87.782082
-13.875103 9.0702066 87.782738
-0.90561312 -9.9803543 87.834778
8.0385294 -9.141571 87.879425
17.758301 10.250134 87.804016
16.955057 12.13471 87.899475
16.377939 1.6931098 87.913445
1.8983504 18.368723 87.93074
-12.416325 -7.074554 88.13414
18.072044 -3.4379525 88.170959
3.740804 -9.1851768 88.223763
15.773309 3.8825655 88.388374
14.772612 6.8221869 88.39595
-15.154138 -5.021894 88.438644
-14.090363 8.3566895 88.698135
-14.585374 -8.7993326 88.735466
-18.413506 -1.5982648 88.779503
1.7717266 14.945999 88.771332
13.24452 15.423151 88.736137
-8.2528105 17.262922 88.762436
7.7737293 -8.9665222 88.852554
-15.032944 -5.5182333 88.830399
63.012897 -1.1766509 88.803131
-3.6529591 18.108892 88.918686
9.6743994 -8.5047302 89.001022
18.196003 -2.2637129 89.151123
4.3028789 -14.777213 89.23838
18.120676 -2.6072791 89.327789
-18.332779 -1.7422357 89.399437
-11.808769 -11.651991 89.595024
-17.964855 9.2493372 89.616447
-5.9113083 17.7442 89.698563
6.9050474 -13.75596 89.743637
-62.766155 -0.70648408 89.74218
-63.76741 2.9735599 89.884003
18.470287 7.9680877 89.922112
63.058594 2.3058541 90.037384
7.4626503 14.295193 90.074448
-63.454529 -0.94938654 90.196259
3.1422873 15.063655 90.160362
-18.053745 -2.7686107 90.298836
-14.880297 -5.4085007 90.385056
-2.7303419 -9.9470825 90.461441
61.343609 -3.748044 90.487785
15.32254 -3.9839435 90.602257
61.941559 0.18983576 90.745224
-18.730534 0.95557833 90.708672
-61.708809 0.12301241 90.890961
-11.517351 -7.2217884 90.977341
18.589432 0.80917335 90.930649
15.988523 13.543686 91.093872
-3.667484 15.037843 91.081551
-4.8040314 17.774252 91.114204
3.119935 -9.9730549 91.252762
12.407322 10.348284 91.277435
11.140872 -7.3851223 91.359192
-6.5873804 -9.2304258 91.487328
11.312336 -7.2738857 91.478424
15.173812 -4.7715206 91.462105
18.503746 0.55100727 91.41465
62.872322 3.762991 91.456383
-63.742233 0.6443612 91.520866
-63.226395 0.60467076 91.567368
16.333397 1.8886937 91.510971
63.01239 2.2687123 91.566414
4.9691162 -14.376802 91.645126
-61.949802 -4.3701773 91.640518
15.625001 4.1293535 91.754829
3.4991693 -14.925164 91.827477
-0.12867075 -10.47848 91.859604
14.923034 -5.1950626 91.892143
18.716421 6.8491697 91.844452
9.1661339 -12.713327 91.919434
-63.180454 -0.88418823 92.098587
16.092995 0.62109005 92.095741
-8.3393774 16.76165 92.051849
-62.222889 -0.49379072 92.266335
-16.367538 12.307814 92.289856
-16.072046 0.57420826 92.32991
-63.458374 0.16411957 92.537994
2.0433912 17.891994 92.596054
11.056374 -11.868187 92.673531
-15.822784 13.512422 92.620789
-17.143087 -5.1224489 92.856239
-14.619325 6.2607083 92.830231
10.452886 12.04955 92.963684
7.2746 -13.414627 93.033035
-62.553223 -4.06953 93.023071
-15.586506 -2.0028844 93.051659
-8.4225426 13.925833 93.001434
6.0717645 14.794594 93.071457
13.243872 -10.332057 93.189491
14.974527 5.3655686 93.137207
11.702575 -11.567411 93.258759
7.8966403 14.382189 93.313126
-13.324901 -10.129855 93.415154
15.772648 -0.79102969 93.487785
-18.628777 1.5243149 93.472893
10.955834 -7.4066525 93.52774
-18.618614 1.4924458 93.535271
-13.392411 9.2040825 93.547714
16.854036 -5.4606304 93.65535
-18.465757 0.78711808 93.768707
-19.096071 5.3593187 93.955574
16.252621 12.057343 94.185226
-11.129902 15.939627 94.16259
-15.920843 2.89902 94.344406
61.203468 3.6123528 94.303665
-17.988047 7.8795652 94.361496
17.937838 -1.2111421 94.452835
-60.984615 0.56776494 94.470619
-7.2990208 14.613367 94.444412
-12.451491 -11.196626 94.546707
-18.117264 -0.63306236 94.566757
-5.9180532 14.908804 94.551483
18.909309 3.7724681 94.670853
0.10491957 15.064775 94.645958
3.467541 -10.014488 94.729401
15.805159 12.971143 94.722816
-7.4003568 14.613829 94.796494
-59.826561 -2.1047037 94.839706
15.210478 4.4481421 94.895988
-13.599007 14.621471 94.930725
61.552444 -3.8067846 95.046577
12.013397 10.387028 95.014282
9.1961374 16.258125 95.027008
-15.62679 -1.1115645 95.145309
-10.131784 16.15641 95.166489
9.0213737 16.308727 95.108185
4.1215267 -14.482316 95.203621
7.4852238 -8.9886656 95.243103
-18.527395 6.3622704 95.212959
62.87114 1.0089867 95.387772
59.730614 6.8079395 95.354347
-60.754417 6.9888659 95.510284
-2.2365344 15.029053 95.509979
62.039711 -2.6753616 95.677063
-60.145134 -2.504529 95.695053
0.80870956 17.684895 95.794899
10.454254 -7.6662965 95.801376
18.863363 5.3926878 95.835472
10.674151 15.741692 95.887558
-4.2640109 17.371933 95.807693
62.696194 1.2400537 95.966606
14.680805 5.4915152 96.197472
14.079878 -8.9754419 96.243614
15.042387 -4.1390486 96.251083
60.360832 -2.7351973 96.203941
5.1394949 15.025431 96.220917
-12.479441 -11.043214 96.358742
59.239323 0.68403226 96.38765
-59.30558 1.3905075 96.304733
-8.9755096 13.086741 96.313698
-61.907627 -1.96605 96.403694
-18.168404 6.8829179 96.412933
-4.9742899 -14.071719 96.550545
14.064599 7.098671 96.515213
17.607212 -2.0798631 96.673943
8.7980003 13.209003 96.741318
58.995857 1.7410905 96.874802
-5.1267662 17.189419 96.867493
18.41506 6.1371613 96.998795
-3.4090209 -14.637312 97.053772
-3.3675938 14.901147 97.09523
-1.51126 17.491583 97.090805
-5.7304316 -13.746242 97.178741
-15.078986 -7.4082594 97.126999
-7.7558508 16.689083 97.163193
-15.810248 12.267535 97.20417
14.840166 -4.533927 97.395889
57.892189 -1.7889792 97.302505
-61.777908 0.1324715 97.353554
-11.477468 10.666801 97.357269
-12.026298 15.063175 97.324661
-53.487621 -5.1250563 97.580154
-58.485031 1.4805151 97.583588
58.658695 7.3032398 97.608826
-59.558521 5.0129571 97.715675
16.929312 9.4458714 97.797806
-14.058922 -8.7459297 97.878998
-52.357292 -6.8824525 97.812546
2.697109 17.307344 97.887794
-8.6971531 -12.57193 97.931
-57.366028 -1.1693 97.904343
-16.508389 10.411323 97.914307
13.95557 -5.082408 98.02829
-59.514889 0.57556689 98.077499
8.5592394 16.36483 98.033043
12.941588 -10.305289 98.2901
-57.692505 0.44473869 98.215141
-17.218296 8.6334772 98.243271
53.80859 -4.4097147 98.327087
-53.939411 -4.2873788 98.356888
57.759781 2.5153797 98.423035
12.349192 9.7554417 98.413147
-8.2193737 13.525811 98.483406
-60.059311 0.53269726 98.525681
-5.958262 14.733302 98.501503
-8.4513807 16.449352 98.558472
18.212616 1.6945626 98.665016
-12.441343 9.6468468 98.647377
6.6182833 14.515065 98.628059
-3.7388501 14.626863 98.770157
-13.363707 -5.3925085 98.868309
-59.160934 0.46331519 98.824905
-59.209007 0.53796852 98.865791
-57.078964 4.9158907 98.900879
-57.090843 5.3765707 98.972107
56.55867 7.0895133 98.949547
14.097076 -4.8392963 99.065941
59.553802 0.5090766 99.179001
18.701004 4.8702884 99.112923
-6.2966504 16.856361 99.167236
2.619091 -10.048498 99.330269
-10.837512 11.067007 99.306206
56.239861 1.3004842 99.492249
15.197311 -1.7578542 99.572754
15.543787 12.213927 99.683609
-4.8941588 14.446678 99.771461
54.649021 -5.6577821 99.807602
57.416145 -1.9760516 99.882538
-12.657332 -10.500418 99.904091
-60.877354 4.376442 99.997795
9.2431602 -8.1236486 100.07945
15.173052 -1.6348624 100.00699
8.6310549 12.643645 100.01724
9.5663328 11.844118 100.13922
-3.0672264 -9.8035707 100.2825
-55.036266 -5.3501124 100.23429
-14.088057 -4.6828704 100.25999
-16.376316 10.070372 100.27855
-51.355347 -3.5945015 100.34836
-54.324413 -3.2782564 100.3583
-16.273836 -5.5027504 100.42067
57.386929 -2.0241513 100.57479
8.5130863 12.561547 100.51134
-5.623107 14.017797 100.58156
-13.821094 -4.8279533 100.60069
50.364147 4.3994803 100.67437
-51.154648 5.8466296 100.62725
51.910954 7.4205737 100.66558
15.43528 2.7158649 100.70744
14.734937 13.240689 100.76591
3.8496408 -14.257128 100.81546
-5.7164979 13.900398 100.81754
0.28252617 14.042141 100.87674
-1.870316 14.164845 100.8002
-59.170197 -1.4785466 100.98251
-8.3765087 16.368959 100.91742
7.5587449 16.566002 100.95535
4.2337513 13.427419 101.04594
1.9628763 13.616768 101.09489
13.128319 13.999795 101.00332
-49.900265 9.6449556 101.16108
-49.899223 2.1089725 101.20381
51.356327 -1.2683731 101.3176
52.042667 8.1893291 101.49232
18.220909 2.415998 101.54175
47.584454 8.438714 101.55715
-8.6562366 12.003881 101.68184
-7.4518547 -8.3797531 101.72789
15.703518 -6.285995 101.7113
-17.97097 1.1671442 101.70329
-15.369416 1.3947591 101.70459
46.524029 1.4836369 101.77429
14.578545 4.7803974 101.72602
-47.281281 8.3187675 101.78555
58.51416 6.8399696 101.86174
-54.70187 7.8853941 101.8178
-7.2600765 -8.3840866 101.95356
11.800964 -5.9128456 101.91043
-13.346757 7.2152677 101.96931
53.914913 6.5258956 102.03904
-47.236973 0.88335407 102.12248
47.295887 0.65309656 102.26146
59.110115 3.1863248 102.2973
53.084381 3.8428528 102.25803
-50.026649 6.5201092 102.37809
-17.373569 7.7145267 102.34239
-49.222115 10.909957 102.36736
1.4645697 16.974148 102.35303
15.868739 11.265625 102.43945
-50.850822 0.059686184 102.55348
-51.766018 10.717506 102.5462
-44.870338 6.1253567 102.609
-52.168732 2.4897113 102.74212
-9.1278105 11.2496 102.70587
-11.883127 -11.126213 102.84767
-50.844025 4.6737499 102.81972
-51.360977 5.9782782 102.81296
-47.540981 10.3468 102.84191
-54.551651 -3.0641608 102.97929
-44.983398 6.7254295 102.90849
-11.786432 14.550887 102.99603
12.658222 -5.0902791 103.02508
-17.174387 -2.7478194 103.09193
-47.472626 1.0961274 103.00156
57.596806 6.6112747 103.0806
13.500087 -9.3102551 103.11325
7.1308699 -8.1025047 103.17923
-51.588879 -2.2199349 103.18388
-50.417084 2.6386333 103.17358
49.97681 7.7547359 103.17089
-50.526562 9.0911922 103.15492
-16.221502 10.445078 103.10262
-49.787636 8.2372694 103.25021
46.351353 9.2327271 103.20036
-18.492565 4.885211 103.30188
-53.279961 7.9455318 103.32286
-53.643238 8.1675701 103.3271
-51.779709 10.148176 103.37626
53.967232 8.8531885 103.4082
5.1758709 -8.6511745 103.57806
50.471695 9.1558723 103.5434
-14.78268 -2.4096255 103.60229
9.0551147 10.984083 103.64325
-9.420908 15.653512 103.67086
14.599128 -7.8025408 103.76649
14.926562 3.2995248 103.74445
44.21064 4.6897335 103.78793
0.31155199 13.446402 103.73058
-17.37137 -1.6923256 103.82423
-51.115452 4.6160107 103.8936
-57.358349 4.8523655 103.82366
-17.115639 8.3463497 103.80817
44.550049 7.8459768 103.99207
-56.380047 7.9620075 103.96858
4.4458528 -13.938367 104.08702
15.177311 1.6311674 104.06569
-56.539879 7.3659034 104.06561
-51.373215 11.889872 104.02581
52.068184 -1.5232108 104.17047
-51.265312 9.5148983 104.24748
-49.595997 -2.0247674 104.32114
-52.26564 -1.5092595 104.35401
-0.50981539 -9.6391897 104.4437
55.364704 -0.78968263 104.4939
-53.976925 8.277112 104.42685
-10.697617 9.3191986 104.57568
-4.6837573 -13.831836 104.62189
-52.207375 -1.3716481 104.6355
50.256218 -1.2083265 104.61153
-46.01022 11.064295 104.74367
-50.929924 12.014245 104.7432
7.3981915 11.863095 104.83521
7.0118399 -12.911299 104.96935
-12.984307 5.9181886 104.94385
4.4699278 16.513784 104.96328
-54.944199 8.4925461 105.1649
18.294542 5.5853167 105.33675
-42.375809 6.3334608 105.4118
-55.002174 10.724533 105.40252
-51.358131 12.335215 105.48199
13.309732 5.5379128 105.54228
-55.203529 8.7664099 105.56517
42.333401 7.2200603 105.64893
-54.106964 8.3638 105.70109
-11.766235 14.432089 105.77574
-3.6977208 16.526527 105.71465
11.121479 -11.308819 105.82936
47.686031 -1.567019 105.82984
-51.584835 -0.29761317 105.87423
-19.394762 1.2369576 105.85033
42.906319 2.4111218 105.84511
44.445763 10.621885 105.8988
-4.192606 12.19824 105.8352
1.6701282 12.694057 105.88531
-4.7086353 -13.789239 105.90721
-18.099888 -4.8880129 106.12482
-54.714458 10.001431 106.1908
-14.198573 -10.196501 106.21677
17.956455 1.4528689 106.2319
18.081959 2.0881412 106.25124
-18.18935 2.6312923 106.26004
55.231216 4.4454832 106.27704
51.678391 12.005205 106.2586
2.6533589 16.573912 106.24443
-53.771004 -0.054385319 106.38167
3.0151649 16.541405 106.31891
55.366772 6.7393618 106.4128
-11.810037 -11.020852 106.54823
52.950291 11.310659 106.50252
4.0538926 -8.670475 106.62027
16.997568 -3.3976648 106.66772
-42.435616 1.51072 106.60776
10.521935 14.988045 106.63428
11.626803 -11.084717 106.71184
-17.305124 -1.8238263 106.70181
14.899157 1.7984691 106.71385
55.67487 4.468111 106.75056
-41.190605 6.2377143 106.79103
10.249781 8.9238997 106.70995
-43.002945 9.730011 106.71968
-45.644756 -0.67336476 106.85907
-50.901268 12.248464 106.80561
-4.3675098 -8.5528345 106.99698
-52.937641 -1.6120802 106.99206
8.1966572 10.464532 106.96843
-7.4607086 -12.682305 107.05511
-43.857098 0.44604874 107.02977
-18.018209 1.8259556 107.00204
17.692713 7.0313148 107.05016
-43.68277 11.313688 107.09538
6.0296526 -13.238918 107.18263
-54.26329 2.636586 107.11588
-55.26796 8.6301584 107.12564
7.2812686 -12.748161 107.21516
-15.912293 -5.9987044 107.2913
-52.034363 -0.2754502 107.29502
-55.146469 8.1484413 107.25028
-3.2307158 16.469326 107.21107
48.06562 -1.718184 107.39085
-18.689474 0.67868519 107.36717
-41.602539 2.2485118 107.38721
-6.9983597 -12.853579 107.43697
-16.265642 10.409071 107.41132
17.581007 -4.7603402 107.5064
-10.281528 8.6422443 107.51382
5.9522209 11.449171 107.51244
-49.572601 12.550262 107.56596
6.5432405 -13.024429 107.70659
-13.473547 13.523649 107.72532
-52.682999 1.5103393 107.95024
18.247507 3.6301327 107.90778
41.810616 10.114076 108.0161
52.604683 10.924029 108.04684
9.3115168 -11.929556 108.14586
9.0851336 -6.9579859 108.17645
-41.446953 1.6849873 108.12352
12.476918 5.8126669 108.19215
-18.013107 6.2968779 108.12495
5.8754654 -13.271687 108.25681
1.004715 -12.845583 108.21163
9.9264679 -11.685388 108.28043
-9.4833231 9.0926476 108.22955
-14.467832 -8.6011124 108.46794
10.354149 -6.241375 108.42464
-8.628685 -7.1336365 108.5833
17.653362 0.093942642 108.65759
49.724571 12.091297 108.62956
-3.2042058 -9.0083323 108.74548
-40.800674 9.6646156 108.71213
-12.955698 -9.8494234 108.86534
6.4683318 -7.9247789 108.81573
-11.747824 6.8483472 108.84577
49.585777 12.079488 108.84817
10.358167 -11.496721 109.04704
-43.205467 0.28459284 109.17308
-50.78643 11.614483 109.18074
14.529941 -7.7763653 109.27432
-52.103249 -0.66781688 109.28722
12.892181 13.730309 109.25653
-3.5705881 -14.147285 109.3327
-18.143543 4.7665844 109.3083
-12.63279 13.849298 109.3985
18.114836 1.9369161 109.44358
14.96705 12.483479 109.49652
52.687206 0.72409439 109.50567
18.156033 3.3433795 109.56743
-39.417503 9.0634193 109.57478
14.58088 -2.6004279 109.6444
-51.896832 10.89051 109.64122
-10.18081 14.935422 109.89507
-53.364239 2.8482573 109.91271
-38.385487 6.112196 110.09955
-11.643968 9.0048389 110.08878
18.056568 2.3911686 110.16299
-38.445633 5.5830383 110.18721
-49.889526 11.749618 110.14572
11.119561 14.51665 110.13816
-1.8960874 -9.5090103 110.2888
17.877466 1.592029 110.30287
51.579552 0.54027081 110.48341
-38.404213 4.9653749 110.42422
38.355801 5.2340651 110.44576
40.291481 11.662465 110.49403
-5.043149 -8.424201 110.62235
52.983429 7.5919027 110.69075
-16.582098 -4.8354688 110.73061
42.364082 0.67956048 110.75951
40.987885 1.4307063 110.72769
-39.813412 1.9170775 110.94538
-53.337273 6.8028126 110.98541
6.7796755 -12.846498 111.03134
-48.873131 11.918307 111.00703
14.795484 2.5161386 111.10297
14.732697 0.96398675 111.2863
6.5186472 12.717173 111.25575
-6.4159679 12.875813 111.36294
-7.4469018 -12.574996 111.46458
-17.242573 -1.1178546 111.4167
47.41143 12.185241 111.45891
-39.251476 11.76544 111.5415
51.43475 2.4651127 111.68742
52.728661 6.1622305 111.68385
-12.611538 13.755527 111.64764
-41.500656 0.80498099 111.75256
-3.0137074 16.174309 111.72371
0.78169376 16.294655 111.74145
-43.704651 -0.3316254 111.83649
16.740009 9.2647381 111.88298
5.7992754 13.036015 111.81878
-1.0580028 -9.6915684 111.93546
49.493488 0.31357586 111.99256
1.8016733 16.225344 111.92033
-12.239151 -10.540859 112.02436
50.023979 0.72733593 112.05331
-52.406204 6.8976488 112.12743
-6.3099623 15.926807 112.11562
-14.15685 -3.2520816 112.27939
46.873093 12.160925 112.34628
-39.375084 12.484528 112.38068
-7.6513019 -12.470646 112.41582
-5.4428596 -8.3591948 112.46072
-44.131378 -0.046946764 112.51297
37.200287 10.579735 112.63226
6.3312244 -8.2335501 112.79927
16.500347 -4.2147994 112.83563
-14.495694 0.78229839 112.82866
17.618107 0.88712734 112.87447
-49.501942 1.3817157 112.87296
38.692692 12.657644 112.8159
4.264143 16.008801 112.99831
16.764141 -2.7302783 113.10687
-14.716722 7.3292818 113.24689
37.019661 11.293042 113.28143
11.814265 14.007015 113.21628
16.578838 -3.5558963 113.35771
-6.3087969 -12.970919 113.40924
-13.707043 -8.4692087 113.57621
1.5884316 -9.7206087 113.65726
-47.171383 11.858046 113.69886
-36.278671 11.49773 113.81065
-16.679327 -2.7705112 113.9399
-6.5805507 15.792027 113.94569
17.333134 7.9877419 114.19569
-13.30262 -8.9331417 114.25
11.863585 13.914162 114.25377
13.918423 -4.3333478 114.38316
-16.871958 -1.8454345 114.31877
-42.801613 13.297322 114.3446
45.562805 1.1294844 114.43588
46.153702 1.2177744 114.46359
14.797873 2.2722697 114.44597
-48.618282 2.6996083 114.41687
-50.718765 6.3059072 114.4229
15.273855 11.52299 114.44888
16.45166 -3.631289 114.52824
-14.634243 1.8117448 114.67712
-6.2469287 15.774985 114.6321
17.111332 -0.91699016 114.7104
-33.986328 9.4088888 114.7431
-9.6562309 -7.0364571 114.86035
-13.901608 -3.2543993 114.88681
-17.282959 -0.2795943 114.88499
45.498692 1.3067663 114.84602
11.571757 -10.783216 114.96384
-33.620884 8.8233032 114.96123
-9.9420834 -6.88903 115.08997
17.559183 0.7765798 115.04701
35.30069 11.831182 115.04387
-2.4986982 -9.4435272 115.16038
-44.30761 1.2074618 115.17732
-47.709747 2.4965882 115.18761
-15.114732 9.4208069 115.12852
44.820587 12.347753 115.11047
-13.671984 13.079402 115.18591
-37.521427 13.565241 115.17554
-14.018893 -7.862421 115.26633
-16.209856 7.7611141 115.25835
-13.81454 11.721653 115.25819
14.360196 11.176673 115.44401
6.8847156 15.673048 115.47501
-2.0516386 -13.176809 115.53223
6.5726871 -8.2700729 115.65657
16.167784 8.420702 115.62256
14.289276 12.765864 115.61369
-11.754808 -10.675398 115.76698
34.350494 11.872828 115.87863
-6.6134324 -12.750374 115.95741
-0.85638398 -9.8273144 115.95367
-39.136017 1.2751857 116.05798
33.386681 10.64119 116.09206
37.398483 13.949152 116.07939
-7.8350563 14.941081 116.07536
-1.7778341 -9.7232437 116.13954
42.552856 1.4972932 116.17944
1.8833239 15.423617 116.19665
-13.048498 -9.0296869 116.37739
10.979283 -6.2731862 116.39822
-37.208767 14.015974 116.34675
17.277128 7.9462981 116.46841
-15.873198 9.8657274 116.53252
-2.7810614 15.603765 116.54729
-17.207556 -0.49099767 116.60503
-47.632523 4.8696566 116.62192
15.583914 10.797731 116.69283
16.07563 5.1128931 116.72707
-17.666002 5.2512813 116.71819
-48.198601 8.2596569 116.85847
0.16663453 -9.9001112 116.93661
-33.485554 4.6407051 116.92451
47.426865 8.9509983 116.97769
-13.69469 12.950982 116.96374
13.805279 12.900741 116.91794
-10.141807 -6.840117 117.06591
-13.726538 -8.1908159 117.11195
41.020554 1.6728156 117.30589
-36.128021 2.6498709 117.41771
-16.977413 -1.8027016 117.66724
-30.999722 9.5705872 117.89205
17.859379 3.5550737 117.97446
42.723728 12.90881 117.91491
-14.960593 -6.688736 118.09501
-17.848486 5.7515192 118.04284
-31.968849 6.4273825 118.02859
-30.918434 8.8870115 118.06441
-10.737591 14.301431 118.01862
-32.772987 13.404925 118.12582
-15.028362 3.416338 118.35033
-17.933201 2.8194981 118.46674
47.159645 7.5040865 118.4788
-15.047602 3.2569585 118.76851
-1.7056968 -13.217316 118.81084
39.00737 1.9686112 118.82303
32.202679 4.3085356 118.90402
33.345615 14.632871 118.9046
15.138006 -6.5890794 119.02501
-13.785211 13.191372 119.04271
-45.07481 10.308468 119.16873
38.33651 14.668213 119.13988
-14.708811 0.6203894 119.27213
0.036480665 -13.224747 119.40984
2.1186821 -13.224979 119.42651
-17.551277 -0.41789514 119.47986
0.25708365 -13.226439 119.54655
-2.9738927 -9.9605274 119.50117
-18.087059 4.9105105 119.59342
33.756935 3.2642648 119.69746
33.205605 14.698589 119.61842
-33.605453 3.2810802 119.86302
17.479683 8.6174803 119.81337
14.385138 -1.9155872 119.94157
-18.071257 7.4448109 119.96209
2.5206928 -13.234358 120.18476
-8.7142525 -8.224596 120.19347
17.592474 8.5041332 120.17802
-15.357767 12.583643 120.17934
-29.610168 6.8113403 120.2813
39.347584 14.280889 120.28288
-18.100538 2.0706558 120.45953
43.101967 3.8728259 120.44262
14.808326 13.113301 120.44553
-13.247646 -5.2738943 120.50217
45.061905 7.3258009 120.56963
38.581142 2.609623 120.64806
14.532789 -1.4529033 120.76848
29.158995 5.9002361 120.73111
44.7435 8.7158136 120.8813
1.7374941 -10.630452 120.93565
-3.0998623 -10.238403 121.05293
-32.207253 3.3380775 121.01353
-5.6982479 15.807194 121.03571
-42.637039 4.2344198 121.14682
-6.1120548 -9.2792158 121.25657
13.780569 -8.6721125 121.23372
-3.7987857 -13.91351 121.39654
40.709923 13.291437 121.32888
1.1924305 -13.195168 121.44604
-13.056067 -9.6338778 121.47667
-33.744976 2.5230651 121.46281
-34.41465 15.226566 121.44635
16.534063 -4.8221364 121.55058
1.4168023 -13.171677 121.69997
27.542683 8.7771578 121.68263
27.580021 7.8144779 121.716
41.295277 3.5123172 121.86152
-18.237206 1.8966391 121.90592
14.012362 13.616581 121.92455
12.791638 -5.7565546 122.08375
1.8147701 -13.120543 122.25264
3.9557838 -10.17833 122.28313
14.409002 -3.0739553 122.25117
42.240631 5.6050487 122.27407
-29.474556 14.265032 122.26245
-28.163355 5.3828669 122.32832
-27.95356 5.9462581 122.34314
35.989899 2.9043877 122.49056
-40.59436 3.6336894 122.45936
41.265831 4.1729717 122.44002
1.68383 16.274696 122.43881
-6.7684245 -12.834869 122.69028
14.359407 -8.0930614 122.65404
26.898142 6.7385674 122.62552
42.045654 11.280435 122.68538
-12.253012 -10.817647 122.78319
27.73616 11.119635 122.78033
37.598 3.337991 122.84801
41.648491 5.5285492 122.8208
-33.06282 15.14195 122.83956
5.7265034 -13.237266 123.01584
-32.490803 2.4177153 123.00141
-29.376076 2.7989683 123.06192
-32.993282 2.2289689 123.17764
14.565003 13.672117 123.24516
13.661575 13.94951 123.22055
34.76461 15.418695 123.21609
-37.543137 3.5137508 123.30087
26.894371 10.409512 123.39974
9.8215809 15.16226 123.30492
-26.869734 11.212614 123.45676
1.5655165 16.381317 123.45581
-37.316418 3.5239718 123.5552
33.047024 15.285359 123.53845
-4.9262867 -10.053557 123.71304
-14.678938 -1.4755224 123.72769
-9.0514278 15.530244 123.75687
-14.879075 -0.10416198 123.88632
7.0540833 -9.3665848 123.98695
28.439335 2.6812174 123.98672
-35.495483 2.7637753 123.98686
17.698364 -1.4018416 124.08576
-28.192343 2.5112762 124.05856
-42.149426 9.0377893 124.05878
-17.94202 -0.55718976 124.175
-3.3737164 16.264145 124.11281
13.640336 -9.1267405 124.28398
-12.104591 -6.4336662 124.25674
15.119341 1.6491101 124.23594
-26.051449 5.4786158 124.3658
18.027708 9.5888596 124.35493
3.8037477 -13.850101 124.4229
-39.765442 5.0576468 124.4536
-18.930828 7.3971119 124.49905
41.139656 10.453319 124.44919
26.905167 12.685959 124.49935
-37.141117 14.133336 124.45618
29.667408 14.849826 124.47246
-1.4712338 -12.908778 124.54059
8.8956528 -11.959753 124.56866
-18.863762 5.2154574 124.56577
-6.6276917 15.982992 124.5439
12.07458 -10.835094 124.77267
-2.9543171 -10.853126 124.86729
12.68452 -10.291679 124.94575
-16.687656 -4.9732275 124.92853
-10.105875 -8.0123062 125.06623
-30.837091 15.098162 125.0332
-10.600533 -7.5007768 125.18315
31.618784 1.6508858 125.1884
-24.74213 7.0050807 125.18369
26.554218 2.2447762 125.38338
-18.858917 2.5811479 125.33864
39.095497 5.5406952 125.38887
-11.763142 14.926357 125.495
1.6612428 -12.811567 125.59174
-15.061457 13.910994 125.59502
-8.7079639 -9.3887777 125.60971
29.806973 15.159193 125.93155
-9.167098 -9.3369255 126.05776
32.587254 15.493006 126.03535
-23.994381 9.4175282 126.12975
-11.716415 -6.7136383 126.28723
-4.945085 16.340622 126.27853
13.922617 -4.485568 126.36088
-28.395586 1.4038355 126.4912
13.58966 14.514336 126.46024
0.57242465 -12.70979 126.69143
24.47562 11.345484 126.65588
-24.645767 12.570894 126.64711
-10.306584 15.576188 126.67048
-6.6253171 -10.152433 126.77409
30.873041 15.458969 126.72542
18.461939 11.099928 126.81763
-8.317811 -12.032802 126.9633
-17.132273 -3.7089913 126.98122
33.19326 2.1785419 126.96075
28.43364 1.4252592 127.12313
12.3856 -6.2423697 127.25005
-28.9519 15.166119 127.47386
30.200249 15.462604 127.44702
-18.797876 2.0546272 127.61271
19.542515 8.4089699 127.60662
28.522703 15.244772 127.65043
-4.9797516 -13.151716 127.76363
-18.317333 12.288423 127.76974
13.973885 -8.7311649 127.86279
-16.863813 14.073298 127.85648
-17.691576 -1.9380093 127.94894
17.857716 -1.3579005 127.97602
22.103233 8.1887054 127.96139
-21.87896 8.0212326 128.06537
17.303078 14.04555 128.07008
22.555714 9.7335796 128.13147
-12.690393 15.067364 128.10515
26.638571 15.016569 128.17281
1.7924209 -12.556375 128.34966
8.0251398 16.298119 128.36102
-2.7256932 16.808598 128.35316
12.283338 -10.604464 128.49747
22.264414 2.1763737 128.4624
-28.48341 15.249141 128.4472
-3.9630861 -13.461154 128.59346
13.317784 -9.4409561 128.55391
-25.78746 14.844082 128.58215
-11.526067 15.504774 128.54803
0.89946401 -12.530474 128.62939
-7.1981759 -10.566521 128.60852
-36.469601 5.1449051 128.67354
18.945503 11.937202 128.67444
9.2523117 -10.025742 128.76088
-35.487564 3.3175111 128.76363
-21.527849 5.4514098 128.77428
-30.396969 1.1551757 128.83206
-37.270004 7.0082073 128.86148
-17.977896 14.090908 128.97025
30.519857 15.535033 128.92285
8.8063898 16.291149 128.92041
-6.8233151 16.484783 128.93883
-4.1934433 -13.358679 129.08096
-21.242142 5.6454635 129.01538
-21.164314 6.0950036 129.00542
19.308676 11.752171 129.24677
9.4297686 16.271038 129.24782
8.2921152 16.382837 129.26422
8.7526817 -11.792103 129.38054
24.393654 14.843363 129.38997
-21.549463 10.463257 129.45412
12.659151 -10.139742 129.60255
-19.627865 4.8093076 129.6624
-4.5447574 -13.209004 129.7942
5.2869954 -10.939489 129.79219
33.608791 2.6269953 129.70267
-34.523598 2.9270673 129.75464
-6.8007107 -12.438245 129.83655
-17.520506 -2.6483631 129.83269
20.479412 4.0461483 129.96164
16.580252 -5.5073767 130.02393
-18.863932 1.9364544 130.30153
-31.007668 14.559805 130.36993
-10.837399 16.039347 130.48021
9.2418385 16.430611 130.40402
21.28307 12.155378 130.55321
31.672806 14.666279 130.54282
1.4725225 17.129189 130.56659
23.130518 0.54290706 130.66458
35.905296 10.920689 130.61069
-18.686031 1.2147944 130.84445
-11.473304 -8.1940737 130.90936
-20.331024 10.757401 131.01805
22.085329 14.758355 131.11996
36.090488 9.1011639 131.35332
26.879892 0.073222533 131.49692
21.341022 0.29622543 131.48442
-8.7598629 -11.697002 131.57912
0.89871716 17.275841 131.59573
-5.7463803 16.918102 131.6315
17.396275 -3.1082509 131.85847
-20.97901 14.567621 131.86472
33.970146 12.495907 131.92361
11.509892 -8.4909477 132.07312
-33.444569 3.9457426 132.04756
0.65769088 -12.209215 132.10146
12.957193 -6.8997607 132.10138
-24.245472 -0.21697587 132.17664
-11.82202 -10.47994 132.24934
12.697279 15.7505 132.2543
-5.4745693 -10.661083 132.62286
-0.13230601 17.434277 132.60031
-3.8858576 -12.930009 132.81256
-6.8713579 -10.451401 132.86531
30.96069 14.190363 132.81561
0.69492263 -12.127477 132.98488
-21.133106 -0.29918489 132.96918
-12.439355 -10.089517 133.08562
-5.8826203 -10.585296 133.16658
30.769718 14.153074 133.12306
19.818544 14.711301 133.24454
-0.063130945 -11.97687 133.45378
16.526779 15.352614 133.51071
-6.0118752 -12.544401 133.69801
-32.918907 11.266758 133.65167
19.861534 -0.44855908 133.79483
17.740646 -2.7458477 133.89374
28.128754 1.222779 133.80771
-0.5517866 17.527302 133.82684
-7.142477 -12.148302 133.95232
10.900529 -10.715445 133.95441
13.375694 -9.5486393 133.91791
-32.089447 3.9904971 133.96582
7.5520267 -12.005874 134.01935
14.902667 -8.0818033 134.03403
-25.925694 -0.16542494 134.00473
-19.545803 -0.61584854 134.25128
-18.673424 15.15491 134.20746
25.198568 15.712678 134.38034
28.201759 14.958341 134.49802
21.672318 -0.73008484 134.56857
33.337143 7.6164513 134.54225
4.6238675 -12.651203 134.71088
-3.5760434 17.399595 134.77933
-7.856154 -10.246027 134.90863
19.722342 15.176909 134.93097
6.9092846 -12.180785 135.0676
-0.29312831 -11.404197 135.07361
-12.585062 -9.7837524 135.09962
-24.282396 -0.70621359 135.13237
-8.236618 -11.715933 135.3622
-17.752251 -3.2930572 135.36072
-18.059944 -2.2268066 135.30783
32.538685 9.2367525 135.45015
0.68024838 17.684446 135.47394
-11.129427 -10.412663 135.60829
-11.291182 -8.3417387 135.62189
-11.006944 -8.4558096 135.84019
19.639778 -1.1328915 135.8273
29.915955 2.4782968 135.89568
-16.408056 -6.3213434 135.97118
-29.668159 13.276361 136.04312
29.63419 13.404361 136.0639
28.206423 14.217718 136.05632
30.973978 5.1984687 136.11337
13.789143 16.393822 136.18114
31.973433 8.4740019 136.46182
26.310806 0.8193292 136.50626
-20.253754 15.490319 136.55414
-18.43087 -1.573518 136.63306
23.509609 -0.62506807 136.73682
29.710148 3.4658725 136.77287
22.050686 15.593303 136.79736
14.54188 16.430285 136.78302
17.008554 -5.2742195 136.82774
-13.485113 -9.1432791 136.92482
31.049133 9.8014317 136.93541
30.422459 11.285542 136.98865
19.649538 15.702635 136.98169
5.8831849 -9.7491484 137.16959
29.629818 3.9638567 137.183
25.070412 0.30581802 137.21024
-15.916616 16.335648 137.23999
-11.358044 -10.093922 137.39906
6.9845366 -9.4349155 137.49088
-19.100668 -1.8195679 137.45296
-6.3669205 17.463713 137.45671
-16.130814 16.370647 137.50938
4.0912528 17.644207 137.57404
18.151138 -2.8456237 137.62555
-25.225765 14.884773 137.63745
-14.727901 16.648754 137.76654
29.575403 11.347858 137.95193
-20.96661 15.70334 137.92821
16.606377 16.428673 138.02885
15.183633 -8.1911325 138.18796
21.835215 15.752819 138.14221
4.4782419 -11.745753 138.3587
-4.2850862 17.690348 138.36511
0.37691587 -10.203048 138.4711
-22.965801 -0.61986721 138.58401
24.413502 0.24149384 138.57422
-9.4948359 17.051598 138.61572
-10.167915 -7.7468643 138.76189
-23.776321 -0.18203509 138.77652
10.198667 -7.6924524 138.83195
-27.807837 12.899766 139.11414
24.737831 14.708463 139.174
0.80077279 -9.3995266 139.27988
-1.2549444 17.86306 139.28275
9.1226234 -10.505347 139.51959
-26.772518 13.236297 139.60342
7.3933887 -10.782312 139.71237
7.6154904 -10.735024 139.74959
-25.274096 13.902965 139.74966
6.5616817 -8.400528 139.90292
21.951469 -0.79040623 139.91116
26.527815 1.5378034 139.98444
-1.1962025 -9.6534901 140.02553
-24.241146 14.38179 140.1422
-4.0838256 -8.5323677 140.30792
-7.7885709 -8.0278292 140.39949
5.6546674 -10.650373 140.49741
7.7813902 -10.260811 140.51096
-27.37323 10.826153 140.59917
28.681988 7.4710665 140.74686
-2.7482638 17.420361 140.74315
11.294662 16.777966 140.81952
10.145889 -9.4887409 140.94212
-27.04763 4.1067257 140.92227
10.064827 16.767979 140.98599
-7.2105403 -7.7853851 141.09834
-22.971939 -0.039049447 141.06436
7.8910518 -7.6342435 141.25017
-26.798172 10.95824 141.23758
27.754469 8.498395 141.39087
25.468958 13.193873 141.49655
9.2478361 16.724068 141.48901
23.478981 14.187498 141.7816
-13.35877 16.659807 141.9606
5.7713466 16.822838 142.10208
-25.834763 11.324413 142.24031
-23.873606 13.557165 142.4915
9.7469196 -6.1062975 142.58377
26.450237 9.3961439 142.50641
2.8758955 17.070778 142.53545
2.4836302 -7.655129 142.68031
12.43483 -7.7678938 142.76717
-13.643818 -7.2332497 142.81294
12.87571 16.57597 142.86737
10.333773 -8.4884644 142.9928
18.401621 -4.3450685 143.09825
5.3538642 16.697712 143.02505
24.331871 13.051812 143.15826
-5.4518285 -7.0470133 143.22217
15.418816 -6.0115218 143.23106
-19.468218 -2.5732906 143.22504
-7.9038177 16.571907 143.27071
2.6372743 16.973465 143.20096
-4.7995028 16.678089 143.46689
-0.13234556 -7.9151688 143.53079
-8.3158178 -6.3245845 143.65982
-21.561089 -0.80173695 143.75154
11.937595 -7.5355091 143.85776
25.431053 9.0779762 143.84572
1.8211895 -7.0695601 143.93614
22.364891 -0.019958735 143.96739
3.8061366 -6.6451774 144.17455
19.475948 -3.0679317 144.13745
-14.26366 16.424967 144.18658
-6.3215437 16.498083 144.46573
23.506439 12.391323 144.59636
9.7242966 -4.6669302 144.6351
9.0046396 -4.902782 144.96349
-8.4584932 -5.1941199 145.0607
