# .PCD v0.7 - Point Cloud Data file format
VERSION 0.7
FIELDS x y z
SIZE 4 4 4
TYPE F F F
COUNT 1 1 1
WIDTH 1613
HEIGHT 1
VIEWPOINT 0 0 0 1 0 0 0
POINTS 1613
DATA ascii
83.124771 33.55798 29.54022
83.546852 35.004261 29.588409
81.531082 45.244682 29.53326
67.807617 55.981636 29.547676
66.856033 56.536125 29.500599
64.638039 21.056561 29.627199
82.730927 30.98307 29.662693
83.399231 35.317822 29.710865
83.140572 35.870949 29.757362
77.306915 49.391884 29.71899
63.941574 25.330925 29.853441
82.695702 31.027582 29.891703
77.445335 49.138962 29.86237
75.013588 51.06147 29.866095
74.38472 51.535805 29.858759
73.808876 13.583865 29.93593
82.401382 43.251724 29.903503
80.630157 46.045704 29.905579
72.847313 52.519058 29.973112
68.510262 55.289577 29.903368
67.76944 55.660507 29.956896
72.124863 11.760658 30.071449
60.409439 19.160799 30.006533
64.747177 21.539951 30.047089
46.954624 29.058313 30.092463
52.954262 32.810444 30.058636
74.247925 14.141861 30.164858
58.906578 23.554003 30.192223
82.120712 28.314785 30.166231
82.958649 33.333214 30.150686
75.908409 50.092117 30.181309
71.44091 53.335167 30.107464
53.64465 31.130608 30.24383
82.538902 38.408279 30.299297
82.106255 43.403725 30.24489
80.776199 45.462017 30.239149
66.684105 55.914047 30.358974
81.352997 26.264986 30.467014
81.513107 26.693264 30.441261
46.954197 29.82457 30.407169
76.874008 49.064514 30.454861
62.185177 26.200968 30.539219
78.72113 47.346878 30.554337
72.077011 11.828041 30.670815
72.91925 12.714512 30.643021
73.095673 12.917759 30.698151
70.316422 53.51342 30.733419
67.517464 7.4606061 30.82897
68.585587 8.4593792 30.860794
52.541252 27.915628 30.849873
46.999527 30.467583 30.846104
48.743435 32.958191 30.845387
75.33223 49.961388 30.813839
79.405708 22.071787 30.943859
82.195206 38.06139 30.923407
68.97084 8.8632994 31.051411
70.277084 10.10618 31.038296
77.116127 18.162441 31.084843
58.319969 22.135529 31.026571
76.375229 48.896507 31.079693
74.923431 50.033283 31.077438
72.190979 52.034073 31.043177
67.197594 55.100502 31.002296
53.583599 29.1595 31.195675
82.665367 32.933224 31.163206
82.055023 41.22953 31.143419
81.956383 41.568359 31.148506
71.012398 10.867777 31.254957
60.556801 19.083229 31.223667
70.108994 10.00437 31.3255
52.141609 27.352058 31.337543
47.749454 27.60902 31.402355
77.676819 19.126045 31.528938
54.019768 31.678621 31.55155
82.85611 33.57402 31.52239
51.863281 33.482147 31.653357
81.126396 25.983795 31.784311
76.238312 48.394547 31.73381
67.099304 7.361845 31.885323
70.489571 10.508203 31.964762
63.714775 20.216362 31.907896
80.519257 24.537823 31.927158
66.406677 6.7827806 32.027187
80.672844 24.889076 32.092606
49.752808 26.55517 32.003315
82.743118 33.532677 32.009792
75.052719 49.086155 32.012508
71.895355 51.353458 32.041672
75.19812 15.61318 32.141842
62.379211 26.403324 32.173565
72.341194 50.942169 32.155884
68.647736 53.340271 32.114655
66.842499 7.2229381 32.229172
71.914948 11.954171 32.220028
74.393105 14.640383 32.235847
47.080627 30.49612 32.236374
82.357742 31.276184 32.21624
77.754204 46.555305 32.269997
58.874245 20.044727 32.37431
48.689465 26.8801 32.386215
82.647301 34.281425 32.3349
80.706406 42.738804 32.384552
66.012741 6.5713634 32.466522
63.295925 19.821585 32.46999
53.822952 28.051529 32.470795
81.963409 35.89735 32.459301
64.983444 5.715003 32.557373
77.457626 18.916651 32.537388
68.728653 52.918716 32.54863
64.241394 24.93445 32.696278
48.006058 32.094139 32.65118
81.234024 39.77224 32.629448
80.160568 23.921944 32.710976
63.339622 26.093327 32.78907
51.812965 26.522724 32.76347
78.098801 45.745895 32.708012
70.261871 51.838066 32.708447
52.039494 26.494228 32.878288
82.043961 29.458281 32.879501
81.059647 40.567562 32.825523
81.475655 27.2211 32.906437
75.194206 48.159851 32.904812
65.762848 6.5356493 33.08762
66.25457 6.9396591 33.026855
63.804409 20.534435 33.012459
47.227776 30.610386 33.001995
79.807816 43.214409 33.050945
67.899765 53.01012 33.008751
71.017868 11.256474 33.136887
73.402977 13.675897 33.176571
47.084663 28.696476 33.153503
64.137009 5.2203288 33.231514
69.955429 10.282907 33.255405
59.220375 19.40567 33.280903
57.620071 22.242495 33.276604
79.700142 23.070269 33.25515
59.361565 26.449602 33.206673
53.029293 26.852301 33.222672
54.743 30.081614 33.23983
64.549667 5.595305 33.334583
80.518608 24.784132 33.344845
68.428032 52.431938 33.324707
58.666718 26.092327 33.479359
50.696907 33.471272 33.479698
71.567581 11.880991 33.568466
74.345787 14.795488 33.540573
66.680763 7.4617023 33.603851
57.583652 25.06452 33.661045
54.8918 28.741449 33.692474
75.306145 15.996346 33.756126
76.222282 17.23538 33.792809
57.337944 24.279501 33.770817
57.380806 24.477348 33.7402
55.018219 29.821503 33.782204
47.952602 31.685125 33.764977
78.51889 44.239185 33.738892
68.340256 52.034866 33.849014
68.209206 52.143387 33.813572
75.861725 16.750921 33.9165
58.965424 19.525616 33.921219
81.334717 27.108261 33.90591
54.938187 30.445499 33.917465
50.440395 33.383636 33.932629
80.434929 39.912998 33.908054
80.001175 41.500183 33.906879
78.936714 43.303017 33.976444
73.772049 14.229426 34.067402
60.029152 26.876993 34.004269
57.488712 25.281843 34.168392
50.91943 26.097313 34.190361
50.815163 26.108255 34.145126
54.649265 31.66256 34.117302
73.355591 48.447735 34.120171
71.532364 49.745548 34.132156
66.324982 52.944786 34.123184
64.116714 21.258505 34.212875
64.378433 22.063545 34.24342
47.213387 28.564066 34.223671
68.910217 9.597168 34.366673
53.4991 26.543797 34.355576
79.963631 40.44186 34.36533
73.412689 48.196407 34.348564
69.785278 50.754089 34.302639
69.520493 10.161 34.457237
64.497475 12.940348 34.434856
80.632439 25.397766 34.486183
80.696091 25.570173 34.498825
47.24699 28.687855 34.452911
54.232357 32.122044 34.414768
79.176765 22.239552 34.547279
57.804573 25.87109 34.548126
81.644386 28.628326 34.586372
79.929314 40.156261 34.535156
51.519249 26.004063 34.67028
78.903824 21.740379 34.754505
63.689423 20.855354 34.859703
60.111359 27.160679 34.911598
55.342541 30.06996 34.917236
79.438629 40.960083 34.904556
57.683411 20.935802 35.060616
80.589333 25.433754 35.006226
49.163616 26.238544 35.036537
81.356995 27.663927 35.033577
72.145782 48.521709 35.030064
54.690708 31.723717 35.171143
75.893448 45.430367 35.165775
80.853264 26.205162 35.292004
55.520943 28.561916 35.259857
53.54686 32.864464 35.28569
80.314224 37.102196 35.234959
63.271252 12.704226 35.40126
56.773369 24.767111 35.444912
80.100067 37.496536 35.413521
70.551697 49.215549 35.496773
65.949516 52.014854 35.470646
76.529114 17.93083 35.544781
56.7225 23.03421 35.566399
49.664013 32.957886 35.593315
56.682709 24.650761 35.638687
72.509491 47.704899 35.64016
73.645798 14.384802 35.752235
47.445343 27.759295 35.768528
47.423889 29.079372 35.741791
78.918129 40.707176 35.762154
70.702408 48.928329 35.710899
63.264626 12.829771 35.884674
67.665123 50.770226 35.810715
69.065598 10.110021 35.974251
70.224365 11.118052 35.910049
70.152374 11.086201 36.05143
70.259384 11.176525 36.029495
60.45924 18.943077 36.080437
80.929413 26.611164 36.016247
81.694908 30.323322 36.029457
77.189148 43.222752 36.022942
69.30658 10.353267 36.127888
80.203125 24.758158 36.173782
47.765919 27.405077 36.157909
81.318237 28.162493 36.218185
78.6297 40.640434 36.217251
66.102196 51.300583 36.248131
59.57069 27.361555 36.343708
64.763618 51.899719 36.385841
63.4608 5.7147856 36.413811
75.31398 16.422192 36.497551
58.62748 19.553379 36.476738
62.257225 19.83363 36.419113
55.382141 27.546198 36.432808
55.710575 29.806244 36.441395
73.017815 46.632038 36.424507
48.920841 26.069174 36.583862
81.645935 30.673134 36.596748
51.649879 33.31863 36.663582
74.889839 44.839699 36.699341
72.486275 46.806595 36.677223
64.957054 12.875115 36.752449
64.522232 13.396425 36.772278
56.718494 25.656868 36.77726
55.984531 28.724358 36.776955
55.076794 31.514099 36.776695
65.216904 51.334137 36.792973
58.172626 19.74795 36.863785
48.050781 27.101007 36.800121
77.599754 41.642162 36.810013
76.525162 43.081409 36.840282
77.977959 20.474478 36.994793
40.751637 23.804642 36.95076
41.302509 24.677794 36.931862
39.455124 24.781939 36.90477
39.281685 25.014713 36.959206
81.097794 27.648809 36.933346
74.606934 15.663992 37.091423
40.431938 23.5382 37.023846
56.454449 25.917776 37.063259
79.578979 36.599831 37.057198
76.817047 42.473412 37.088814
67.436607 49.905052 37.022785
40.8764 23.216196 37.197815
54.178001 25.844566 37.179226
71.85379 46.826172 37.191605
78.943497 38.266495 37.251926
67.657036 49.578739 37.261288
57.866329 20.081209 37.30777
55.636295 23.889395 37.342236
63.474854 25.67754 37.392464
69.802811 11.080439 37.405289
62.932411 21.036509 37.496883
39.47023 22.919403 37.41132
48.254738 26.8918 37.492554
55.888866 27.412163 37.4347
47.84874 29.350254 37.444733
76.051056 42.920296 37.496567
67.629135 9.3152647 37.527229
67.8815 9.5280113 37.570835
72.404633 13.457605 37.589176
55.481976 31.256685 37.52776
51.269554 33.051262 37.59267
41.934452 23.103254 37.629486
62.647915 26.589996 37.686413
56.198269 28.306765 37.639442
41.413948 22.537766 37.761448
42.761108 25.311241 37.794308
56.327824 27.968777 37.767723
63.147793 51.619518 37.784409
68.410263 10.035201 37.897133
68.931549 10.455194 37.874031
72.668839 13.753107 37.824535
79.13076 22.796482 37.847603
42.683231 23.720722 37.856312
77.714951 40.351627 37.805119
74.061394 44.489883 37.88459
60.999249 19.655798 37.932636
58.279022 19.766455 37.943836
56.592911 28.111019 37.980408
56.327446 29.946011 37.983265
77.316208 40.775177 37.925678
62.196796 14.403424 38.035126
55.987122 22.941729 38.095131
53.132999 24.849592 38.010597
79.114075 36.610584 38.002914
63.835445 24.219757 38.187599
79.974846 24.759449 38.187908
69.857666 47.512745 38.118965
70.170685 11.595484 38.281631
40.349159 21.843468 38.22662
63.712601 51.003361 38.238411
65.846748 8.1424875 38.310036
70.881813 12.221794 38.344707
58.002335 19.908146 38.308483
62.046867 20.494415 38.386452
63.774239 24.523216 38.332947
64.89798 50.303154 38.371273
63.816517 6.6569757 38.443661
64.036652 13.082989 38.451508
78.458649 21.568983 38.449486
48.548248 26.682293 38.478359
79.179054 36.035191 38.436676
79.629753 23.975292 38.540165
39.374592 24.592503 38.580105
40.747498 27.844093 38.555035
77.084915 40.364052 38.597298
63.963387 13.194666 38.625019
37.566048 23.055792 38.654285
80.531776 26.316868 38.601852
68.995415 47.713726 38.623859
59.28035 19.491325 38.758129
37.392742 25.708969 38.78698
62.387928 27.120386 38.757023
48.606373 30.179197 38.763176
63.645634 6.6879468 38.894127
65.517616 15.86284 38.856956
36.101749 24.290728 38.861023
36.363174 24.562096 38.898098
50.663738 25.294197 38.858181
81.123833 29.375824 38.897366
51.338142 32.791836 38.837872
79.73764 34.510365 38.8908
40.048916 25.47677 38.992462
65.284592 13.635889 39.077477
56.692795 21.267281 39.091915
40.184437 22.686056 39.012135
40.062927 22.792776 39.040932
40.860168 25.871964 39.080795
38.652153 24.016708 39.173355
39.327225 24.77109 39.140652
40.776871 24.919262 39.143612
40.855717 25.15325 39.147881
37.453018 25.867529 39.187252
71.246986 12.716947 39.210522
66.22905 14.500358 39.246174
41.268585 23.418816 39.21003
39.62698 28.117691 39.203991
40.529144 28.196932 39.246799
79.424225 34.78112 39.254658
69.991379 11.67191 39.301876
76.122566 17.939056 39.343742
39.659477 22.90663 39.371269
39.835922 25.147675 39.353127
80.175056 25.616957 39.337132
39.268082 28.089161 39.339581
65.362144 49.373795 39.307236
40.450958 23.150549 39.401512
41.195179 24.034065 39.496494
39.027695 24.777464 39.41737
39.448006 24.794899 39.476757
40.301746 25.026125 39.42944
40.415249 25.577364 39.488892
40.824184 26.218296 39.474674
80.955711 28.743219 39.483459
73.096237 43.959461 39.461941
42.884308 22.215855 39.55917
37.541813 22.498667 39.520924
40.230644 23.31004 39.599838
39.211529 25.573967 39.535011
59.252312 29.37793 39.506336
76.695137 18.817272 39.659218
40.614189 21.165302 39.607643
40.885559 23.712084 39.659149
79.4776 23.930294 39.655067
39.233635 25.020868 39.638596
40.039513 25.453575 39.630569
39.400864 25.899536 39.698261
37.368294 26.574541 39.669426
80.717117 27.642307 39.625572
67.823914 47.657459 39.681503
74.505341 15.958571 39.700161
40.162163 23.640749 39.742718
40.906578 23.926512 39.741589
37.82143 24.592501 39.718292
40.065144 26.17585 39.797592
38.847214 28.043343 39.76878
60.745495 29.134401 39.710163
62.180012 21.275185 39.847328
78.724892 22.395555 39.859772
39.229401 24.836605 39.894608
39.876839 25.291759 39.804169
40.596783 25.617348 39.894905
40.122662 25.827848 39.817234
50.751183 32.428745 39.832088
55.070595 32.759686 39.830753
71.26004 45.143967 39.844997
65.518623 14.130552 39.9725
38.855595 23.986317 39.958496
38.64571 24.18247 39.921623
40.231365 24.230934 39.943504
39.817406 24.859451 39.992332
39.955215 24.880428 39.988201
36.358624 25.309296 39.928719
40.929546 25.528784 39.943161
40.870728 25.795567 39.918304
39.921955 25.850199 39.961205
80.600891 27.381023 39.964031
78.491531 35.952911 39.966301
76.003479 40.49482 39.940487
65.782379 48.712257 39.900234
40.643963 22.942635 40.023369
39.295139 23.887749 40.091415
40.335297 25.501003 40.004669
61.580532 28.682499 40.097866
73.545624 43.121124 40.06699
39.456039 21.172821 40.103706
37.801834 22.055201 40.17057
39.249386 23.366436 40.145817
40.731155 24.220316 40.100155
40.675354 24.692726 40.140797
39.912197 25.005123 40.170212
40.964333 25.027576 40.124763
62.702194 27.073023 40.111237
65.238724 48.851501 40.136482
68.605225 10.779667 40.26226
38.764149 21.416599 40.210915
39.577114 23.908344 40.231899
40.030491 24.783306 40.243671
40.191753 24.812222 40.243515
61.609123 28.68709 40.291378
74.003067 42.528633 40.221504
40.873489 23.335886 40.332314
39.606194 24.213549 40.35207
40.033279 24.479023 40.387871
38.485432 27.977596 40.364056
48.937683 29.815899 40.372906
74.881836 16.507954 40.418083
60.045044 20.027649 40.425858
42.025803 21.457813 40.407738
78.245201 21.578081 40.485428
39.168591 23.324503 40.435184
38.754448 23.786552 40.425655
40.384586 24.433868 40.494415
40.449184 25.312967 40.444996
70.40316 12.285353 40.548645
39.971119 23.898766 40.53899
80.778984 30.755722 40.580528
80.733536 31.090437 40.549011
80.003532 32.872238 40.532471
68.290695 10.651173 40.683037
40.674786 23.999508 40.635674
40.105957 24.438831 40.685902
40.656876 24.654829 40.646805
38.856918 25.192389 40.609779
41.396484 25.589073 40.697685
63.154102 25.573618 40.68462
64.404167 48.962875 40.651459
63.922852 14.498828 40.788891
66.104759 14.577965 40.760231
40.968102 23.966682 40.783035
41.604927 23.953037 40.765739
40.366291 24.168531 40.70628
38.911129 24.592499 40.760593
40.095448 24.726242 40.787453
40.177933 25.323322 40.74015
40.843964 25.417629 40.739788
77.097366 37.867634 40.798912
65.44841 48.356861 40.728741
40.756065 23.934692 40.898369
36.764549 24.077442 40.889851
40.284847 24.274082 40.804825
40.919483 24.619446 40.876331
40.544701 24.769779 40.877201
40.7384 24.86548 40.899918
36.687866 25.822659 40.891033
80.06266 25.802282 40.876743
78.741951 34.687611 40.85228
56.188522 21.250433 40.920456
40.29277 24.268139 40.971939
40.419174 24.80563 40.953785
51.65786 32.433098 40.944054
68.51931 46.369667 40.903328
63.154442 7.0892129 41.071892
38.690292 24.162193 41.15905
40.486824 24.564453 41.181656
39.883263 24.937382 41.10112
71.278229 44.236702 41.105717
40.686356 23.136269 41.295578
39.392441 23.304653 41.233109
41.317413 24.764748 41.281574
40.755074 24.983448 41.220161
39.084793 25.386232 41.239532
36.922916 26.055656 41.242615
80.239182 26.723228 41.264294
40.562023 23.067135 41.320812
39.288872 23.625002 41.399948
39.32954 24.168978 41.326584
40.223747 24.116985 41.308014
39.353107 25.309818 41.359005
40.587376 25.944963 41.369209
68.343033 46.190552 41.340294
73.244705 14.945024 41.427284
76.610001 18.985712 41.43084
76.716164 19.13949 41.403465
57.45916 20.415356 41.469761
57.044964 20.562889 41.484669
39.831226 23.429108 41.46133
39.795898 23.656731 41.432419
36.769161 25.331875 41.445286
41.493393 25.679382 41.463799
40.758698 25.721031 41.472675
39.564259 26.086988 41.47366
76.750076 37.804588 41.476067
70.519463 12.593438 41.503399
62.38961 22.166504 41.570881
39.988651 24.220999 41.55405
39.173054 25.071552 41.540646
41.362366 28.17259 41.528969
65.887314 14.638996 41.60651
40.012611 21.246798 41.683289
38.836277 23.547005 41.650734
39.337616 25.469643 41.69894
61.348213 29.058912 41.635727
71.333786 43.811344 41.621704
69.90184 12.165564 41.786812
64.390388 15.422401 41.795723
62.211624 22.021282 41.793362
40.049316 23.089235 41.75404
40.220703 23.4625 41.731518
41.060974 23.496906 41.777866
75.212189 39.895733 41.718899
40.223213 23.357866 41.858471
41.327576 23.412191 41.846905
41.192829 23.606791 41.855583
62.97736 24.623827 41.825832
36.930038 24.526421 41.988247
40.240685 24.543297 41.977676
39.784988 25.287697 41.980671
79.814163 32.110359 41.968735
39.074852 25.021542 42.040173
66.950981 10.061028 42.111843
39.533215 23.15568 42.183102
40.318291 23.322813 42.125896
38.408112 24.592501 42.104122
40.871727 24.655565 42.171047
40.527397 25.759773 42.190071
42.590508 27.179825 42.137604
50.594551 24.939993 42.209705
77.647316 35.455845 42.204014
64.605881 16.051777 42.363514
65.127808 16.944637 42.394562
61.106625 21.106808 42.340752
43.536491 24.964598 42.365746
50.275948 25.203747 42.393272
39.896961 25.682192 42.37339
38.874657 25.915037 42.360748
74.330002 40.529205 42.304993
69.720779 12.170149 42.430359
54.693951 21.665476 42.462749
59.013039 30.122787 42.461872
37.092434 25.38596 42.501633
62.680164 25.73493 42.561752
37.914165 27.193436 42.559418
52.176712 32.151321 42.51067
66.828987 10.116652 42.632107
40.491627 21.71596 42.645714
37.608673 26.763258 42.619179
74.348282 40.231434 42.611485
66.526108 46.486893 42.623539
67.569595 17.662321 42.750984
55.204559 21.405197 42.726372
40.333675 24.592499 42.735161
54.328102 32.527092 42.78746
72.407547 42.092823 42.714451
66.536018 9.9815121 42.848064
62.406021 23.047693 42.804523
38.023968 26.487257 42.842155
79.931274 26.523285 42.830952
37.341896 25.61466 42.958076
49.12178 28.616798 42.93462
66.107262 15.167818 43.042908
73.983688 15.981064 43.065094
60.071831 20.653875 43.069199
43.063282 24.764395 43.033386
39.939682 25.465576 43.098061
38.213509 27.388096 43.078293
72.721542 41.558647 43.019569
70.83905 43.182377 43.028366
67.846138 45.384903 43.011131
67.677353 17.962158 43.115784
76.579147 19.275387 43.13102
37.880974 24.181328 43.120571
79.772804 26.112162 43.144161
41.679321 27.006737 43.168781
66.745552 46.003132 43.144577
60.731796 20.975668 43.233028
66.267296 18.584778 43.341431
40.03521 28.723156 43.326942
49.876221 30.152836 43.320999
66.51384 18.773905 43.407707
54.952122 21.459478 43.472916
50.221996 25.532671 43.419895
56.39576 32.24321 43.485409
75.778114 37.404484 43.512562
65.751747 9.6818447 43.620014
69.697075 12.451293 43.647686
58.840687 20.537634 43.62175
60.599758 20.917709 43.627243
58.478294 30.470901 43.652573
50.248699 30.569202 43.627911
73.809174 39.98172 43.682091
73.25045 40.55035 43.661629
72.899384 40.934677 43.608574
68.220467 44.687984 43.673759
62.351124 48.076538 43.632195
67.12973 10.657488 43.797363
73.740738 15.857627 43.70528
57.686638 20.647646 43.770321
58.78299 30.181196 43.716301
67.972229 17.741798 43.858421
39.657127 28.903904 43.825138
67.353233 16.196051 43.91938
64.978233 16.732243 43.974289
62.568394 23.875647 43.927391
55.953136 32.297791 43.970253
56.119579 32.243855 43.93211
51.527229 23.841593 44.020477
49.4049 27.507713 44.035927
49.50885 29.098997 44.039074
51.826263 31.703451 44.031353
77.955833 33.39373 44.041962
66.019829 45.851627 44.079098
63.40015 8.34729 44.154915
66.292801 15.580287 44.158985
77.420998 20.89974 44.105892
79.337799 25.133942 44.123413
61.114826 28.86097 44.187943
55.323807 32.465435 44.13694
68.56086 44.17218 44.103867
65.420685 9.6754665 44.257832
70.769096 13.405319 44.201839
64.993134 16.411428 44.209503
65.011345 16.754385 44.244236
70.463875 13.204269 44.343464
50.521004 25.042576 44.36797
41.416451 28.78923 44.34977
50.238132 30.300306 44.352715
53.513897 32.13678 44.332245
73.179886 40.107277 44.332283
66.524643 15.755081 44.419678
61.874924 22.708399 44.401207
62.400661 25.300362 44.475853
41.33577 28.023785 44.47261
70.342819 42.587658 44.450367
70.313965 13.146793 44.566116
68.162834 18.083153 44.546532
77.600121 33.474438 44.574577
67.476135 44.611126 44.559258
70.301003 13.159272 44.655113
50.932495 24.459225 44.769257
62.357613 24.448776 44.779179
50.354824 25.479239 44.773521
50.024345 29.814438 44.764
63.493557 46.840717 44.73101
57.734859 20.770779 44.81459
49.686913 27.123302 44.83316
40.429478 30.117479 44.829689
41.361488 30.604336 44.814842
74.458481 38.15966 44.825653
78.156143 22.537382 44.941093
62.357006 24.606541 44.910782
62.372944 25.083031 44.919479
79.590157 29.347351 44.984108
76.251328 35.19994 44.968483
69.951492 42.582993 44.915359
68.361313 19.292583 45.046818
59.526619 20.856506 45.054344
79.470848 29.469059 45.197823
73.593025 38.947567 45.185051
59.295433 20.892517 45.271793
39.175697 27.634216 45.286201
59.157421 29.784149 45.232971
42.746483 31.129608 45.258751
77.00267 33.780064 45.255245
71.860313 40.697712 45.25634
64.116463 9.2090979 45.319359
75.189659 17.885883 45.377625
50.218018 26.004536 45.468216
42.287117 29.112249 45.422939
79.017021 30.535606 45.471912
57.629349 30.851749 45.411064
78.28154 31.860546 45.487698
75.981529 35.175705 45.47831
62.492699 46.912582 45.413284
42.126884 28.782944 45.568237
74.523758 37.50296 45.502258
61.240906 47.40033 45.555611
77.816605 22.158867 45.64394
42.185715 28.832214 45.624168
42.056644 31.760994 45.643181
77.671524 32.537914 45.62809
67.104088 11.206286 45.735256
60.580826 28.731363 45.714893
43.352707 30.545513 45.722649
67.453575 20.763002 45.882465
43.239117 30.151909 45.87344
79.010422 30.176123 45.825481
74.604446 37.033428 45.848976
75.880302 19.028013 45.967148
40.182388 27.225241 45.996899
43.843174 31.359325 45.911919
73.703438 38.172749 45.91732
56.579697 31.339493 46.037292
67.326828 43.707314 46.08157
40.810135 30.918732 46.113209
71.360924 14.43594 46.275532
56.516953 20.968185 46.256989
58.261108 20.927246 46.246353
66.783257 21.076031 46.364395
65.052139 44.966869 46.375515
51.958035 23.224041 46.488548
44.501198 31.44603 46.404705
68.847908 42.381081 46.426281
40.777969 28.023008 46.593887
42.5411 29.001503 46.523945
59.811699 29.056301 46.590069
71.357689 40.233654 46.500355
77.147858 21.403284 46.693726
75.301575 35.239964 46.631504
68.113388 42.76976 46.658604
63.338661 9.2907972 46.787598
64.133606 9.7482729 46.793571
73.347054 16.261305 46.755188
44.026848 30.256367 46.735088
53.299877 31.772856 46.721378
42.258766 32.52272 46.766506
76.636559 33.077908 46.792316
61.000008 22.511328 46.922482
52.608322 31.567095 46.928921
71.239922 40.003899 46.937286
68.886818 20.173401 47.020515
53.112259 22.383186 47.081978
54.75629 31.673517 47.024635
77.36586 31.854385 47.079815
42.520237 32.935223 47.085403
73.432762 37.531277 47.016621
53.505016 22.115946 47.116547
72.902679 16.032114 47.298801
43.417469 33.685539 47.255699
60.111847 21.770329 47.37336
61.739586 26.104862 47.304993
72.854172 37.94619 47.342445
64.482613 44.642876 47.370235
66.235466 11.231332 47.482719
68.190048 17.796402 47.437355
41.849033 32.206528 47.429443
68.187981 42.121681 47.486881
60.396805 28.177216 47.505497
57.634155 30.252007 47.550102
64.252281 10.137619 47.660881
71.252762 14.77281 47.623146
64.929375 19.13155 47.652699
64.989708 20.091423 47.679932
66.550491 21.629702 47.681339
78.674164 26.417334 47.677292
60.277824 28.232075 47.689846
44.699528 30.564484 47.698349
72.021202 38.667652 47.629299
65.855934 11.093678 47.73452
67.835922 17.462339 47.703197
69.00042 19.638683 47.73299
45.774849 34.521603 47.760799
64.566612 44.355236 47.717594
60.321415 22.081413 47.87072
41.548126 31.645645 47.833595
75.453613 33.791698 47.887913
61.635273 45.775101 47.845932
73.777565 17.144672 47.946529
69.032272 19.643955 47.980217
56.724854 21.074306 47.986839
55.875816 21.176258 47.980324
45.112152 30.811556 47.943016
68.493225 41.516323 47.989273
53.159283 31.447815 48.096291
73.456459 36.48912 48.091179
66.140747 17.065897 48.177803
68.550941 18.343889 48.104103
77.841209 23.822214 48.187183
61.069897 26.995195 48.145828
60.503067 27.814796 48.127243
78.39122 28.446173 48.135654
45.412071 31.025623 48.108292
46.636307 32.947426 48.178703
75.226067 33.825905 48.177155
57.407959 21.082516 48.203888
59.130913 21.36454 48.201542
52.73217 22.645433 48.280582
63.540459 44.532372 48.2775
54.343361 21.560667 48.347004
50.305393 26.428751 48.356701
58.164547 21.100851 48.414623
54.324196 21.574135 48.429417
51.77858 30.750481 48.426643
42.386726 32.907768 48.485294
45.036781 35.102238 48.428967
68.543419 21.800819 48.57568
77.937477 29.326984 48.504982
66.486565 42.525459 48.580032
60.775917 45.707039 48.510872
75.708008 20.084511 48.651337
59.229832 29.131517 48.618084
51.697407 30.656586 48.647057
66.402756 42.561646 48.608139
66.565903 11.888172 48.766697
74.922371 18.979214 48.793228
76.969467 22.38933 48.777695
44.882656 30.505817 48.79155
41.620468 31.39831 48.762558
63.473495 44.207245 48.797363
60.500389 22.294178 48.808357
77.330154 23.250082 48.8517
44.297131 34.911724 48.866913
64.349472 10.6951 48.964302
68.620346 18.613068 48.940399
64.836449 20.187729 48.997856
46.821854 35.100906 48.913025
65.903221 11.605751 49.090782
67.575668 17.696318 49.076939
65.545448 21.318157 49.026497
72.770142 36.44194 49.071182
51.083286 24.567211 49.130245
58.666412 29.504099 49.105057
61.624573 44.882366 49.166744
65.355164 18.316277 49.255051
68.502357 18.514566 49.291359
65.181877 19.080704 49.282082
60.814449 27.670078 49.215813
73.935989 34.629238 49.214275
44.965687 35.414948 49.228325
46.918987 35.769253 49.23008
69.25145 20.920361 49.338573
77.558655 29.057482 49.324181
54.09996 31.434198 49.315365
65.564674 18.062891 49.435955
59.565453 29.135838 49.448528
47.68129 33.803501 49.537689
61.764019 25.747112 49.690228
77.239189 29.411907 49.607391
76.703819 30.469276 49.648327
66.811348 22.682154 49.704376
76.605797 22.600351 49.872009
50.536736 25.973349 49.851761
77.141754 29.294598 49.851719
58.73045 21.405123 49.948326
60.237854 28.560947 49.955631
57.269737 30.81811 49.921215
50.612953 28.909031 50.087929
67.86338 22.728172 50.180325
43.654877 30.637459 50.157196
47.145226 32.305233 50.122795
74.370064 33.098442 50.140934
46.488087 36.723282 50.122688
63.169041 10.824759 50.229885
73.211578 17.686827 50.286407
64.920776 20.169718 50.207485
43.320236 34.096558 50.246208
45.729721 36.1936 50.281559
68.411118 39.831612 50.27877
65.089302 11.695723 50.349052
66.56118 12.569338 50.376995
76.127747 22.056473 50.339443
75.456123 31.467791 50.360741
74.350601 32.928856 50.346001
70.12471 38.234272 50.35743
51.212242 24.366089 50.446209
77.34565 26.616367 50.472485
68.753296 39.448769 50.415558
72.663177 17.314392 50.532719
65.405716 21.889051 50.541492
75.518951 31.148415 50.597687
56.224213 31.336117 50.578224
43.027206 33.012318 50.51878
45.815235 36.228401 50.573605
69.875481 38.31266 50.543556
65.857574 12.278542 50.661797
66.456421 22.823917 50.622589
75.522453 31.019444 50.72237
76.946686 28.105211 50.846176
50.714027 29.461977 50.816875
44.121208 31.200089 50.833328
52.79895 31.43055 50.813766
61.20636 43.888157 50.898685
76.548416 23.735817 50.966103
58.618053 29.806187 50.920513
46.087002 36.208988 50.984432
47.782528 36.660748 50.948067
67.657845 39.933212 50.914848
63.800625 11.554536 51.186325
68.089508 18.894617 51.187393
52.500973 22.771749 51.121708
43.451221 31.98284 51.150482
67.9916 39.408878 51.159584
62.024731 43.284069 51.141094
68.122437 14.123369 51.276875
50.753189 25.282627 51.226112
60.456436 43.891079 51.280552
71.81411 17.069792 51.381321
60.354416 22.205788 51.327831
51.180042 24.384914 51.301785
43.487534 32.520508 51.318497
45.080936 35.837196 51.332169
69.031479 20.452358 51.493408
61.56551 27.291424 51.414597
44.593555 34.233711 51.402946
69.153946 38.112556 51.450676
65.015106 12.263847 51.508003
74.707413 20.757359 51.543674
61.224789 43.327988 51.532078
50.70924 29.476912 51.60899
75.482216 30.048164 51.670429
47.356167 32.741779 51.628479
46.21246 36.591999 51.769459
65.648056 19.246342 51.834129
45.216103 32.912376 51.856564
49.061676 34.722954 51.809433
62.26041 11.832692 51.976929
66.743584 13.516709 51.903061
67.824539 19.278671 51.935181
61.63221 11.879214 52.042091
65.122292 21.840967 52.025581
76.102142 24.340538 52.076073
76.451164 25.960192 52.002533
47.41832 32.448727 52.05529
45.680599 33.768066 52.060356
44.508148 34.702667 52.006947
68.044876 38.515823 52.01754
63.549553 12.066946 52.109024
58.155628 21.109894 52.197403
65.770157 22.59164 52.120338
68.20462 23.13752 52.101406
57.64407 21.006142 52.245575
68.795212 22.804199 52.299419
51.111622 24.263309 52.259872
73.98024 31.537579 52.25877
59.170113 43.604771 52.201084
60.925186 22.655861 52.369152
52.265823 31.871637 52.340698
69.700127 36.673824 52.386417
73.289009 19.273417 52.43956
62.050018 23.920704 52.446827
45.92263 32.469109 52.415359
46.001045 32.588924 52.440529
67.026871 38.8965 52.474613
72.41407 33.101307 52.563282
68.454407 23.263775 52.712097
65.508598 13.360498 52.826767
61.441738 23.096752 52.869705
62.639809 26.283995 52.833202
53.620434 32.527378 52.846992
48.9599 33.339088 52.833954
66.881721 38.651352 52.839943
75.839088 26.385014 52.963669
51.098991 30.627539 52.927284
60.088238 21.990419 53.038822
72.038727 33.040283 53.01778
49.022644 36.244186 53.009064
65.968239 23.138258 53.194256
51.913128 32.134323 53.186981
58.567146 43.011753 53.145012
69.026405 16.020145 53.271309
62.135559 27.758938 53.220306
56.463631 32.181152 53.215839
52.059723 32.428448 53.291286
68.67099 20.181597 53.363499
62.405464 27.244249 53.300888
74.221634 29.890972 53.385124
71.713943 18.261511 53.49889
62.620857 27.04372 53.460144
45.116676 34.715866 53.489685
61.978432 13.16254 53.588737
73.157242 20.05525 53.511192
74.978699 23.961206 53.59914
62.82132 26.773758 53.500641
61.993195 28.286224 53.52298
62.301544 41.041073 53.511414
67.684105 15.267461 53.627399
66.433159 19.078808 53.698807
63.335289 40.321892 53.651829
62.569309 40.758099 53.656464
66.096436 19.124126 53.702351
73.438553 30.531347 53.727028
58.798676 21.389982 53.89061
74.893448 24.181528 53.830521
74.976532 24.531197 53.879089
74.718925 28.169125 53.915848
52.27462 32.936737 53.969673
47.277523 36.894348 53.907272
66.481461 37.770145 53.990257
71.900681 18.828449 54.064301
62.395996 28.022232 54.031067
62.3321 28.104746 54.014938
74.845772 27.367918 54.145119
64.427475 21.037781 54.214447
74.895126 25.302517 54.201622
56.585953 32.522301 54.268707
67.26973 15.482324 54.350723
52.114094 33.133606 54.352367
54.378277 21.526882 54.440689
63.335083 26.958233 54.403782
50.690666 29.697491 54.469875
67.882126 24.000971 54.50034
54.91972 33.265511 54.501709
56.36232 32.814323 54.673462
54.992699 33.327023 54.63726
73.701111 28.77346 54.764931
57.291195 32.425381 54.722443
59.841862 14.768278 54.831924
51.471066 23.868946 54.809372
64.073868 38.36232 54.857449
58.112259 41.320087 54.88726
69.323288 17.29546 54.926025
64.237785 21.001652 54.914898
74.189056 27.127827 54.989574
73.974281 27.756657 54.999397
50.968285 32.048737 54.913555
49.892929 36.16927 54.912533
64.039948 38.293976 54.926991
59.447605 40.681007 54.99678
70.188263 32.633514 55.063614
71.937508 30.6453 55.169006
50.161869 33.876465 55.127838
45.817608 33.905693 55.109451
65.113556 23.829384 55.371716
45.792595 33.415512 55.342579
52.572197 33.822739 55.323078
68.027344 34.56797 55.317757
47.86462 36.934883 55.381207
63.335659 23.689903 55.477531
61.769615 29.640659 55.44775
50.711594 30.010376 55.449211
45.872032 33.950661 55.400002
53.045464 34.095619 55.48925
64.207932 20.928455 55.554928
64.02758 21.279844 55.512527
60.507912 30.583448 55.544296
46.25359 33.089481 55.553719
64.351883 26.419693 55.627289
71.807312 30.097797 55.68787
46.584225 36.187096 55.629021
64.444572 20.456982 55.729813
72.089378 20.517624 55.713909
64.130486 27.040857 55.727879
50.550888 34.005478 55.776009
52.821014 34.197315 55.791042
64.237686 20.849148 55.805698
59.417572 21.820215 55.890892
68.660416 23.041397 55.834736
46.197834 34.744392 55.85688
59.721916 15.950279 55.964561
68.134361 17.102169 55.977978
55.107643 21.569117 55.926506
68.619003 22.04792 55.958965
59.513741 31.190681 55.936386
46.016689 33.599159 55.909061
55.932873 33.604763 55.904358
50.845352 34.919945 55.928711
59.825169 39.288746 55.968578
50.690041 30.51722 56.02515
69.931824 31.602627 56.020519
55.671013 33.789879 56.045479
57.813942 39.924992 56.084991
54.870243 21.684187 56.106762
64.307358 23.36515 56.103416
57.125397 40.131554 56.102497
64.45549 15.789238 56.254883
55.594784 21.521212 56.296112
54.216438 21.988144 56.222576
61.816093 15.869009 56.336922
68.230682 17.378719 56.313751
63.945538 27.937586 56.385189
56.191101 21.215134 56.454742
67.793297 24.376949 56.441158
55.250721 34.151527 56.405041
57.222374 39.616264 56.425026
72.627159 23.051331 56.566292
55.162392 21.45245 56.679569
72.883751 25.972958 56.687305
48.106049 31.889431 56.650757
51.581345 34.129993 56.748158
57.930702 38.904396 56.729694
62.308163 23.075069 56.829247
50.232555 27.417051 56.863892
64.293839 27.888409 56.861374
61.756332 30.24102 56.886215
60.547207 30.955187 56.815895
46.505203 33.178482 56.809406
57.019512 33.406898 56.855091
56.3993 33.767574 56.873558
49.950241 36.580078 56.898777
60.14566 37.739635 56.853798
67.251915 17.246769 56.99958
69.685959 18.780823 56.920464
64.446678 24.551563 56.984165
71.801102 28.332495 56.911793
59.453445 37.968864 56.916542
69.819214 18.949066 57.016388
55.117561 21.370876 57.019554
51.959183 34.404598 57.059486
57.891857 38.505169 57.002365
57.585449 20.794907 57.115284
53.878922 22.125725 57.106777
57.840256 38.095173 57.284367
66.955681 17.302162 57.300365
57.425621 20.767143 57.373589
52.494545 22.999968 57.314926
56.509438 20.904137 57.408234
50.228317 32.314095 57.414055
61.814785 35.895569 57.424561
68.146896 18.148312 57.576126
67.639793 21.131516 57.53508
65.014923 27.353775 57.511234
59.94846 21.454678 57.606476
48.225769 31.571516 57.662186
51.411636 35.047001 57.667149
59.176235 17.840721 57.788849
49.677986 27.212307 57.734196
60.935921 31.046534 57.763847
58.803326 36.894825 57.764267
55.908779 38.088509 57.722847
49.63567 27.555515 57.844193
50.442307 29.862335 57.823685
68.641624 30.106833 57.894382
52.835976 22.82103 57.924744
64.621552 25.168324 57.964767
69.098862 29.687338 57.933475
68.878433 18.909277 58.027252
71.259506 21.727398 58.043694
67.304039 30.763851 58.17617
60.324638 31.480686 58.147202
56.51107 19.277355 58.206619
71.08622 21.590084 58.257248
69.327614 19.43647 58.340004
56.837811 19.299437 58.411583
56.922295 19.266468 58.422607
69.836624 19.971537 58.453163
49.670872 26.85951 58.498096
69.620636 28.520132 58.402962
60.819622 34.620571 58.467461
47.181705 32.610493 58.512646
51.688591 34.984642 58.543022
70.070465 27.56296 58.649746
49.81358 29.076946 58.630257
64.35659 32.056358 58.621269
57.215668 33.880062 58.625946
55.683762 34.715984 58.637398
50.333977 30.491844 58.796051
48.514858 36.294765 58.7071
57.576698 19.335278 58.866909
53.170341 22.774931 58.83157
52.21476 35.515701 58.824257
55.813503 36.339378 58.81044
55.431683 21.473026 58.972965
50.345078 25.668104 58.908806
49.248688 36.480824 58.95575
61.697338 18.25334 59.026749
54.515358 21.966105 59.047409
62.512611 30.388325 59.009563
70.790154 22.359421 59.10746
58.695778 32.841133 59.117195
52.28994 35.620796 59.180969
63.915031 31.184528 59.283852
68.12027 22.928173 59.352291
70.71138 22.945524 59.334267
51.181328 36.444214 59.351448
61.958023 22.679289 59.454056
50.531166 25.625124 59.487297
61.175278 33.085838 59.42907
47.351574 35.679485 59.493797
55.573044 21.605679 59.569736
70.336205 21.84832 59.533211
53.546654 22.151928 59.597042
62.913754 22.517542 59.555534
68.518715 27.858929 59.61216
63.642067 29.64764 59.694035
58.439697 20.808235 59.799538
50.0299 26.439676 59.71896
65.038628 29.88608 59.713436
69.688324 26.017473 59.800415
66.44014 29.076162 59.879066
62.538151 30.572096 59.827579
46.79813 32.818829 59.884415
56.207706 34.757805 59.870815
65.895844 29.269722 59.958824
65.922386 29.282608 59.927517
57.833538 34.926144 59.908798
65.078163 18.686573 60.069923
56.753731 21.310692 60.099236
49.842499 26.854879 60.079071
70.038109 24.135033 60.140312
69.290947 25.908602 60.233818
49.166126 29.843155 60.270767
61.215519 22.143681 60.350281
47.417892 31.944443 60.345158
57.84565 21.109138 60.451759
69.60186 21.575142 60.403564
64.665207 28.89505 60.478729
48.030251 36.304935 60.422569
54.346893 22.192776 60.501549
57.492123 34.129822 60.597054
46.756653 34.411533 60.507233
54.985958 22.446676 60.67466
69.633881 24.29196 60.62513
59.913052 19.797092 60.708061
62.672508 21.606911 60.768524
54.040798 22.54455 60.7285
54.512352 22.737978 60.712875
69.734268 22.836857 60.721504
55.904663 35.055241 60.796104
66.636604 19.640976 60.965172
52.485455 23.845749 60.964417
52.776741 24.134542 60.973907
63.292358 20.841681 61.19809
55.728943 21.747873 61.143612
65.855164 27.53141 61.116199
62.947472 31.277096 61.186592
59.40947 32.44902 61.163326
67.342545 20.18845 61.263237
62.392849 20.945637 61.266624
67.991989 26.611782 61.286629
67.177002 27.558506 61.218979
59.319008 33.784901 61.297104
67.493103 20.344177 61.345879
66.01873 20.432013 61.347778
67.308411 21.415812 61.390343
57.42561 21.53582 61.344009
55.239693 22.687794 61.359818
50.606102 26.306942 61.365009
56.302582 35.282883 61.333839
59.055679 20.469831 61.457672
69.320946 23.289068 61.41835
67.952362 24.577362 61.41246
49.074268 28.472523 61.428143
48.737534 30.446743 61.482952
55.946209 22.404917 61.526875
65.088593 19.476269 61.639053
54.841805 35.390442 61.64674
56.081139 22.479275 61.76524
64.417465 20.3083 61.860016
64.343475 29.060238 61.928345
60.280266 33.080166 61.975277
68.028252 23.333275 62.07283
68.016647 23.914791 62.034805
51.214256 36.392174 62.08672
63.106426 19.668335 62.2327
65.90519 19.953821 62.265854
61.196831 20.206516 62.258743
49.327011 36.662476 62.252991
51.936752 25.957613 62.362114
51.199875 36.657585 62.34581
60.062275 33.110832 62.517048
48.186867 36.037827 62.540108
56.04068 23.020206 62.608047
55.262634 23.394337 62.689144
68.304665 24.819885 62.615498
65.62043 20.034821 62.71833
54.025982 24.205717 62.743259
58.889122 32.858906 62.738377
67.272385 25.086187 62.854931
67.167389 25.752865 62.810913
55.540985 23.414688 62.920685
47.39259 32.392868 62.99091
50.92403 36.134945 62.906322
68.216141 24.647675 63.093246
48.211433 35.965492 63.01009
64.901093 28.156549 63.129929
68.265839 24.141962 63.278587
61.661873 21.23967 63.355022
56.744499 23.232628 63.346245
54.561989 24.424883 63.336632
52.943741 25.746725 63.306171
59.232254 22.209835 63.491364
58.338097 22.691479 63.517021
61.304268 31.974384 63.55706
47.672997 34.819267 63.53656
57.805435 23.023186 63.675549
66.248886 26.295002 63.659985
50.221333 29.236303 63.683498
58.58123 32.973862 63.663872
49.623543 36.036533 63.637398
47.516506 33.618973 63.716961
62.593693 30.125446 63.825436
62.762421 20.595726 63.990776
55.016064 24.728542 63.99054
53.428837 25.937418 63.956184
52.488773 26.799923 63.922043
64.558914 28.088404 63.942165
50.499695 35.375763 63.912678
65.887772 20.619946 64.093842
61.671906 21.009342 64.022934
66.673553 22.240604 64.091103
67.992828 23.901249 64.079781
53.670147 24.732801 64.039177
65.023689 27.432199 64.191452
64.384811 28.189541 64.112289
58.978348 32.421799 64.261261
66.64492 24.833508 64.338287
65.460907 26.727684 64.362694
52.118874 27.618267 64.322266
62.500362 29.908529 64.31649
57.820026 23.659679 64.52005
55.422863 23.777096 64.526184
65.970444 25.839237 64.509727
49.324837 30.942051 64.52887
64.762062 21.585299 64.697845
65.311058 21.680063 64.699921
62.185398 22.042473 64.631866
58.009434 23.717039 64.689331
49.97224 30.22481 64.666451
51.037636 29.315536 64.746223
49.552299 35.137695 64.706169
60.994652 22.817936 64.882767
63.123665 22.189661 64.945419
66.986702 22.119652 64.903549
67.104713 22.310118 64.905418
49.758717 31.150272 64.96833
50.773571 35.102295 64.910141
65.178635 22.468655 65.094261
51.353298 28.18985 65.024925
50.047379 30.874813 65.052025
56.1045 23.83688 65.151634
52.565823 34.907036 65.123062
66.407379 22.34654 65.418114
50.24184 33.991829 65.43644
52.141716 29.469843 65.515846
51.710358 30.138634 65.569557
54.372391 34.492043 65.581276
60.390308 24.020756 65.633667
51.958527 33.950302 65.793777
63.368996 23.722435 65.851677
63.816513 23.866732 65.867645
62.643219 29.588976 65.86541
61.679176 24.0294 65.90448
63.831619 26.199478 65.921005
52.470287 29.883217 65.963715
54.897373 33.427986 66.054817
57.677307 25.801908 66.177498
52.486145 30.177681 66.130722
61.924534 23.663147 66.273979
63.105167 28.475662 66.26606
52.282692 31.979738 66.231743
58.459187 32.724903 66.23381
51.270859 32.370934 66.33696
52.361309 32.645878 66.328674
53.581989 33.863739 66.382011
61.416851 23.938353 66.427971
61.629341 23.919477 66.421906
57.281925 27.659637 66.455528
61.077911 30.808037 66.459007
62.59148 25.564253 66.541733
58.316723 26.202473 66.581642
57.34565 26.438177 66.571121
57.694 28.564322 66.517883
54.247093 33.717594 66.508148
57.999683 25.735569 66.608109
57.532738 28.728706 66.611618
59.617203 27.557413 66.739693
55.600258 27.667585 66.846458
62.470947 28.636192 66.82856
53.845451 25.275892 66.967392
54.934952 27.010223 66.97908
60.472012 27.223291 66.942368
62.166954 25.706234 67.05526
62.591583 27.138418 67.036018
61.600765 29.747526 67.025116
54.39587 33.120247 67.035095
60.69175 23.463003 67.197845
63.903336 23.888678 67.183456
61.330406 29.916615 67.229187
60.027664 23.585066 67.332275
55.743202 27.21582 67.331451
57.861099 22.964893 67.479683
56.433636 23.598457 67.434624
57.668636 23.670147 67.475525
51.19751 25.127466 67.400772
56.118149 26.503572 67.481934
53.270557 30.789394 67.414955
58.614815 30.860491 67.493446
63.122555 22.645971 67.543671
51.821514 26.392319 67.562469
58.711113 26.30657 67.570259
61.800186 27.321793 67.571342
61.894035 27.726942 67.517792
58.378799 23.260086 67.682983
61.089199 26.274666 67.616013
54.686699 32.090347 67.607315
58.406586 23.505058 67.796432
63.974777 25.665194 67.719551
55.700432 30.894453 67.783173
54.069565 31.425114 67.739594
57.87442 24.716148 67.813622
57.212631 25.289066 67.845924
62.790112 27.872763 67.865189
54.081474 30.640787 67.814339
58.359325 23.12953 67.905884
59.633179 30.881271 67.991943
60.570137 28.94368 68.092155
58.105881 30.984913 68.026184
58.17178 26.37356 68.151108
62.813065 30.58448 68.20195
56.753258 23.016077 68.452873
60.198387 27.022133 68.418839
62.477844 22.316238 68.55999
59.123123 23.452391 68.5037
58.833321 23.77142 68.686035
61.16893 27.837662 68.634453
55.309845 29.16988 68.646347
58.167995 33.948963 68.654968
55.740856 24.810593 68.715347
62.621124 31.322023 68.759834
59.690487 27.12352 68.863579
63.461601 30.336525 68.893616
57.593506 22.46419 68.995193
58.80191 23.247829 68.953781
62.578278 23.714369 68.941406
61.04187 27.202145 68.92466
59.613503 24.782806 69.076286
55.709717 24.697174 69.137573
51.144154 26.819141 69.11274
57.656441 21.773781 69.319618
62.091312 22.967731 69.318573
59.632744 26.975559 69.325859
57.544266 22.449451 69.464264
56.970161 21.901476 69.550293
59.984066 25.225349 69.530472
55.133698 26.584648 69.562019
62.560547 26.563297 69.533447
53.33408 27.564869 69.542328
56.503082 22.752651 69.60939
59.591518 23.080835 69.655235
57.275112 22.133682 69.884804
57.96616 23.096342 69.997513
55.016762 25.742874 69.950745
53.560421 27.643837 70.030815
56.918243 29.747911 70.179802
58.041473 22.308264 70.294243
56.821106 27.80872 70.228729
58.127922 22.204865 70.441635
60.089188 24.701622 70.435814
63.564728 29.852659 70.47065
56.346188 27.882801 70.572235
62.825203 30.71961 70.510468
60.330471 27.539797 70.648117
58.06102 22.216873 70.766983
55.067997 25.791195 70.866791
57.601471 27.713787 70.868416
55.042732 24.349476 70.904556
61.322289 28.616606 70.907463
59.23703 29.014446 70.945557
52.156528 25.915459 71.050171
60.362129 26.894548 71.044296
63.891132 28.477375 71.051964
59.165413 29.10598 71.152931
62.640591 24.164762 71.315559
55.926014 29.112751 71.448868
55.639599 22.940876 71.542747
61.730549 23.781776 71.597443
53.562836 23.902966 71.536331
56.462418 27.712612 71.548416
54.753464 25.462675 71.68634
63.631138 28.495525 71.60276
59.446579 23.972332 71.755402
57.367363 33.266239 71.794296
59.395782 22.870869 71.889885
62.561867 24.408325 71.961441
57.070724 21.599598 72.085037
60.757751 26.96574 72.005112
59.832077 28.393764 72.030418
63.4366 27.497934 72.158348
54.301846 26.707666 72.295731
59.690399 27.025764 72.29335
59.157238 23.723391 72.383423
56.771248 27.37035 72.340141
54.338207 26.69636 72.49987
63.255157 27.132648 72.471039
54.691963 21.508358 72.500862
55.481705 22.600346 72.542122
55.295952 22.92473 72.51059
57.944958 29.795713 72.794479
53.113152 30.030037 72.716835
59.114437 29.165222 72.88401
57.062325 29.782837 72.871994
59.892273 24.412733 72.974464
60.736324 26.29278 72.954224
62.429371 24.686747 73.018051
60.520958 25.23385 73.149216
62.932991 26.671135 73.17688
55.385128 31.979536 73.167473
56.297436 21.948332 73.277672
55.846752 21.574203 73.361755
60.454903 24.621119 73.348053
59.678532 26.422871 73.380005
57.325222 29.958805 73.330719
54.969463 21.726513 73.495911
55.665684 21.723648 73.523293
53.837021 22.993847 73.539169
61.422981 27.629652 73.506027
57.655861 30.104465 73.608414
58.125397 20.99148 73.78508
54.12587 22.460485 73.767075
60.672066 25.632282 73.889565
54.561367 29.56987 73.874344
55.076759 31.515499 73.811638
58.631119 20.945292 74.177284
52.974174 27.125214 74.161804
55.096756 29.988333 74.181259
54.379501 26.473087 74.404076
61.207317 26.602896 74.482452
53.989586 27.301529 74.403091
62.326324 28.97509 74.406174
60.214085 23.589638 74.576385
60.140388 24.679314 74.862976
57.199226 29.899494 74.816353
55.810127 21.087032 74.989922
61.932697 29.358139 74.942558
58.620148 20.495899 75.02475
59.707531 28.768135 75.054749
58.999126 21.1085 75.170937
55.238899 21.862274 75.172546
58.254044 20.9744 75.264687
59.93589 21.647718 75.201836
58.293262 21.808538 75.26384
59.702389 24.399998 75.282211
54.353165 26.229568 75.361282
55.913635 22.4235 75.528954
55.54776 22.901712 75.568619
58.110275 20.144857 75.650223
57.233749 30.041958 75.636971
56.042149 31.404106 75.694305
56.198502 21.341162 75.781342
56.233887 24.00543 75.748734
58.265617 29.570366 75.728828
57.868374 19.89687 75.869385
60.477184 24.871204 75.880104
53.690514 28.464655 75.899017
54.510704 30.044224 75.822693
56.394501 21.227474 76.001106
55.771809 23.000597 76.12487
61.97319 27.991554 76.139557
58.995613 29.015858 76.190948
57.417435 21.171318 76.242569
60.881092 24.113876 76.254333
54.824928 25.430155 76.284943
54.540459 25.955542 76.274445
60.683834 28.67201 76.228142
59.867943 31.074747 76.35804
59.499596 22.199522 76.493584
59.842636 22.663868 76.436836
60.338875 25.478004 76.445572
57.905815 21.176434 76.586105
57.714165 24.011816 76.525734
56.879265 21.238962 76.642647
59.341923 22.145952 76.642632
55.670532 23.694309 76.624275
56.575134 20.830593 76.758316
58.106853 21.586262 76.776131
56.434803 21.442055 76.990822
60.885868 25.272507 76.95446
56.981606 20.656479 77.083603
55.953758 24.018646 77.012146
56.36644 23.837629 77.192947
57.538029 23.227409 77.27491
57.397686 24.523743 77.229523
57.346905 23.473804 77.359436
58.214676 28.981356 77.397385
57.34446 23.994997 77.582848
56.216091 24.867596 77.566902
60.032921 26.038662 77.58773
56.789288 28.886063 77.578125
58.567131 24.807129 77.73381
58.111454 28.22131 77.707428
55.911377 25.780552 77.803329
57.185783 24.840973 77.919922
57.684296 27.995279 77.918823
60.05127 25.65847 78.043457
56.52224 26.45816 78.098419
56.351048 26.578087 78.012604
57.231091 25.329679 78.126251
56.274193 25.977314 78.155212
