# .PCD v0.7 - Point Cloud Data file format
VERSION 0.7
FIELDS x y z
SIZE 4 4 4
TYPE F F F
COUNT 1 1 1
WIDTH 1612
HEIGHT 1
VIEWPOINT 0 0 0 1 0 0 0
POINTS 1612
DATA ascii
25.77887 24.514723 21.945539
7.6740894 28.005875 21.916903
8.3799982 29.536385 21.942883
19.274153 30.855148 21.916458
15.05024 30.758358 22.067232
16.083267 24.679829 22.147707
7.3524199 27.219095 22.195721
9.7392645 23.353567 22.242863
9.9455662 30.901627 22.282572
26.363426 28.336834 22.301605
20.292305 22.093838 22.477966
10.299744 30.878738 22.647682
25.958965 24.630783 22.732212
26.775749 25.650255 22.869553
14.5769 22.600475 22.929541
23.848248 30.593723 23.030621
11.686695 21.387781 23.195681
8.2103262 28.464405 23.174101
11.242215 31.086407 23.377441
21.76646 31.24992 23.39938
9.5432949 23.257248 23.556076
16.321861 25.093838 23.539509
23.392418 30.508116 23.698895
10.371199 22.565815 23.87723
20.54361 30.230951 23.829264
11.459335 21.632593 23.920786
14.819087 22.816879 23.945843
23.812387 22.430782 24.094755
13.747444 21.54163 24.297108
8.078372 24.870316 24.268724
15.157073 29.929258 24.266293
27.156242 26.892803 24.380701
17.222136 26.913713 24.30855
8.0155392 28.576298 24.399324
9.5797367 29.734962 24.426901
9.7594986 29.842239 24.482487
19.50831 22.757088 24.616266
18.468309 24.114372 24.80253
24.971395 23.32172 25.146952
8.5845995 24.299982 25.10841
7.8437452 25.410313 25.172642
16.389029 29.405848 25.161369
21.717037 20.463053 25.287809
10.485558 30.731606 25.218929
26.903402 26.0742 25.306019
9.2163734 30.052366 25.312088
7.2131753 27.663729 25.413057
10.466125 22.364777 25.522451
17.25581 27.990772 25.628395
26.56826 28.790415 25.610394
20.796032 31.2344 25.659729
23.710108 22.319199 25.850557
8.20329 29.802361 25.932516
14.6987 22.706738 26.0578
17.110302 27.214865 26.064455
19.224686 23.212067 26.112045
26.719528 28.807457 26.101686
20.091763 22.168375 26.377943
25.149643 23.798189 26.329679
23.287251 32.099895 26.397251
25.976175 24.948967 26.455639
14.366858 31.519726 26.51144
17.245737 26.995052 26.633358
7.7799573 25.826452 26.773699
11.88028 21.402885 26.872782
25.071867 23.880651 26.921232
24.858997 23.747698 27.151632
24.154413 32.134201 27.162968
22.420807 21.488295 27.218971
14.053329 21.842129 27.439711
16.864195 26.685127 27.433065
20.809061 32.635185 27.428299
10.536343 22.926474 27.79538
19.378532 23.031002 27.715223
26.154255 25.447746 27.750618
17.62472 30.41058 27.729704
10.594409 22.890682 27.85778
9.261198 24.126905 27.887993
8.1903601 25.430439 27.881794
17.546059 26.58712 27.95072
22.588835 21.891731 28.077509
9.6379328 23.8344 28.04184
18.40052 31.649115 28.083675
12.206312 21.506102 28.293716
18.605604 24.150185 28.296463
8.4186325 25.164682 28.232742
17.456928 26.928572 28.253309
18.145607 31.391111 28.263926
22.160038 33.384537 28.264439
25.659636 24.852543 28.40752
17.770164 25.817854 28.44586
6.6973319 28.574394 28.469599
9.1607838 31.973003 28.475378
10.469255 32.97039 28.434265
27.598372 28.678036 28.568214
17.117447 28.856569 28.565119
7.2289085 29.836803 28.631479
23.618641 23.128353 28.965969
25.472288 24.768131 28.977934
21.736572 33.709511 28.966587
18.160097 24.930124 29.064884
17.391579 27.109995 29.089314
27.696299 28.817282 29.040808
17.025801 28.392952 29.127789
17.134125 27.888033 29.29571
17.127218 28.104328 29.278496
6.800344 29.297527 29.23818
26.953371 30.469948 29.357561
18.243032 24.815331 29.40439
24.843569 32.600616 29.428104
19.192705 33.133278 29.431025
22.664726 22.418909 29.588383
19.739677 33.434868 29.586426
11.618525 34.048561 29.543449
8.1574841 25.82955 29.761198
7.8993411 26.206062 29.770687
20.557833 22.153419 29.826744
18.680326 24.123131 29.894526
25.339993 32.389053 29.855244
20.773935 34.073891 29.919092
11.234588 34.227394 29.959213
26.397726 26.232197 30.055912
6.7909927 29.669121 30.064739
19.027084 23.634525 30.115177
12.943041 21.837677 30.284544
15.553162 24.017567 30.253101
12.997425 21.915783 30.397427
21.053862 22.097473 30.455257
14.8197 23.230185 30.404461
15.676146 33.344002 30.419037
16.152872 25.07095 30.533331
7.0642757 27.543957 30.511623
7.2814212 30.888748 30.585812
16.126951 32.577972 30.500883
15.938329 24.693882 30.604944
10.078911 24.129417 30.757095
9.066637 25.011051 30.745419
10.339976 33.914326 30.733089
20.542233 34.467793 30.795572
17.669258 31.983181 30.846441
13.109049 22.175077 30.914827
16.20878 25.258305 30.990673
17.185055 29.978262 30.983408
7.2909164 27.311371 31.064688
6.8230548 30.28487 31.234253
10.676097 34.432831 31.218025
24.309515 24.353693 31.460777
12.401101 22.283934 31.55158
7.6973419 32.083099 31.544788
17.688042 26.172306 31.640165
15.37448 24.17804 31.766769
6.3096666 29.55554 31.816172
17.146725 28.164021 31.936537
17.234982 28.711073 31.965858
10.490747 34.671806 31.998884
12.184423 35.153648 31.938644
9.6305599 33.887909 32.02092
17.373438 32.018723 32.172047
21.404028 22.539907 32.342999
17.293831 31.585642 32.391521
9.7700567 34.201103 32.382759
16.273842 25.69392 32.485909
19.826384 23.620125 32.566177
17.092735 30.321686 32.622856
10.51709 35.055378 32.601559
10.041183 24.653732 32.912498
21.052269 35.807423 33.007805
20.426491 23.346085 33.147076
27.960136 29.131601 33.164799
27.549547 31.111526 33.196465
6.5041761 28.916805 33.250683
18.115652 34.086494 33.391762
22.981146 23.635332 33.486931
27.349415 28.231079 33.432201
27.948277 29.16663 33.431431
11.924654 23.116982 33.543907
9.5670166 25.214201 33.556297
17.278072 31.735991 33.543343
11.413959 35.86882 33.52763
25.841228 26.199528 33.695683
7.3833795 27.625807 33.662548
27.390766 28.347818 33.691689
6.4706345 29.046589 33.635849
8.7649641 33.95845 33.614693
17.120628 28.351709 33.707153
7.4116368 32.699322 33.86866
10.285694 24.692171 34.055107
19.743265 24.21385 34.142998
27.007051 27.848988 34.193062
6.6968451 31.422092 34.131268
16.946573 32.408997 34.168636
15.156036 35.855934 34.150826
17.287184 27.781956 34.266514
20.360725 23.74962 34.300392
14.299313 24.043627 34.361855
12.194575 23.052807 34.425591
18.901339 24.929197 34.496426
9.4090395 25.547432 34.414291
16.60058 26.752304 34.555954
26.878134 33.08498 34.512665
22.212231 36.533085 34.578003
13.13133 23.523508 34.75069
6.96734 28.499561 34.776131
13.88689 36.569763 34.727448
18.576674 25.273758 34.892612
17.02758 28.168049 34.936783
17.43799 27.385796 35.028542
16.966681 32.447838 35.040871
16.874069 33.231525 35.068779
13.053041 36.962738 35.083565
13.248124 23.71496 35.136429
27.152502 28.266197 35.138603
16.540676 26.832975 35.267464
7.1857634 28.261984 35.292362
12.832087 23.606045 35.308319
10.183464 25.048841 35.365398
17.278294 28.445398 35.378075
6.6907911 32.059948 35.569481
17.31386 32.370411 35.573338
17.080702 30.734373 35.611366
5.9060564 30.361771 35.781425
27.013206 33.458118 35.764397
9.2581091 35.500267 35.775986
26.679607 27.669315 35.845505
7.1028862 33.035957 35.851692
17.23559 29.168976 36.080166
22.116579 23.743099 36.195786
6.5824947 32.098389 36.134712
7.7762661 34.175621 36.179882
21.502352 24.089798 36.368172
24.296761 25.488277 36.390381
9.3494711 26.067127 36.350487
13.597264 37.278507 36.614731
15.280447 36.349579 36.781883
14.092499 24.618139 36.894524
27.038765 28.280972 36.800415
17.087788 29.673126 36.855301
13.895493 24.57238 36.979385
6.1948586 14.977324 37.050591
29.434017 17.806002 37.084427
7.6493769 27.89781 37.073219
6.2143612 30.224115 37.081665
14.264379 36.90139 37.029137
28.669735 15.322491 37.109879
5.689642 15.797456 37.186249
14.557758 24.990959 37.143055
23.605059 25.158646 37.19733
18.70635 25.771542 37.260834
7.9858589 27.330973 37.278492
6.3332334 29.997704 37.296005
28.039206 32.00613 37.269535
17.431225 32.911037 37.227661
25.296021 26.707607 37.389534
6.4169731 32.313248 37.357388
26.20528 35.021904 37.327034
10.287215 25.615341 37.430561
27.488869 16.768572 37.552673
6.5929441 17.469376 37.530209
27.586187 29.209806 37.591782
5.9219646 14.411547 37.621506
4.507071 16.90489 37.693619
22.823656 24.61655 37.624714
13.037496 24.773125 37.661217
26.534826 27.782219 37.643341
5.9266973 30.735851 37.677643
27.27137 33.895599 37.657505
15.451003 35.580231 37.65469
18.380634 37.293221 37.688267
19.189333 37.572533 37.69025
17.971725 34.804852 37.748459
26.155916 35.371819 37.737804
18.432417 36.94545 37.744446
16.2234 37.094463 37.726349
6.5073414 14.56411 37.806923
27.886238 15.761461 37.824226
17.050228 36.844795 37.859535
4.9943929 13.289248 37.922783
17.814899 34.357403 37.918243
26.146338 36.533772 37.91555
10.572623 25.564686 38.007076
16.301216 34.678574 38.094536
15.80642 35.94957 38.082542
14.809202 38.392776 38.032402
13.560099 38.58194 38.020061
28.052546 17.629564 38.172829
12.513969 24.831532 38.117126
24.903301 26.048754 38.112465
30.136295 14.239098 38.299618
26.895821 14.725615 38.268921
7.2511687 28.44524 38.214516
27.695314 29.521906 38.243919
16.332916 34.472076 38.237938
27.221149 16.558809 38.312351
28.362066 31.860401 38.356361
17.096418 34.480549 38.390034
17.092558 34.864296 38.337173
30.20565 14.280563 38.465759
29.752396 16.230135 38.498848
25.650507 27.233906 38.468403
17.878334 27.520535 38.483696
13.155593 39.049004 38.423836
23.304396 0.59806079 38.581001
12.562578 0.6097067 38.581001
27.066347 0.65552533 38.581001
10.556475 0.82538962 38.581001
19.113914 0.85897028 38.581001
22.265276 0.8587839 38.581001
20.952169 1.0318238 38.581001
6.1648941 1.5886298 38.581001
23.949837 1.5715274 38.581001
22.6199 2.7484586 38.581001
22.325945 3.2317128 38.581001
6.0220013 3.8078947 38.581001
14.889288 3.87026 38.581001
15.285765 3.8945971 38.581001
8.1666565 4.0884194 38.581001
12.490153 4.2490406 38.581001
17.106222 5.0961862 38.581001
18.139515 5.4001565 38.581001
9.5121574 5.6389694 38.581001
11.166849 5.9567494 38.581001
18.796013 5.9239049 38.581001
7.8292303 6.1876035 38.581001
7.0878429 6.7236528 38.581001
21.48226 6.7108526 38.581001
7.535634 7.0816965 38.581001
26.530319 7.18331 38.581001
27.91696 7.3932109 38.581001
11.52326 7.6073914 38.581001
19.313343 7.8798437 38.581001
23.748135 7.8144417 38.581001
11.120908 7.9890895 38.581001
23.549688 7.942256 38.581001
22.028536 8.1669722 38.581001
21.519613 9.4932775 38.581001
25.688082 9.8323174 38.581001
6.8497658 11.037024 38.581001
11.345323 11.151547 38.581001
25.215862 11.218071 38.581001
13.441375 11.60333 38.581001
16.8666 11.604969 38.581001
24.926153 12.2157 38.581001
17.583771 12.744075 38.581001
24.14385 13.00165 38.581001
20.863773 13.228772 38.581001
23.686825 13.369921 38.581001
11.650276 13.683875 38.581001
9.2575588 13.757616 38.581001
9.591362 13.700871 38.581001
14.577559 13.797163 38.581001
19.902519 14.007111 38.581001
28.883224 14.192682 38.542465
15.155938 14.39716 38.581001
24.699724 14.323248 38.581001
15.653666 14.592979 38.581001
12.475517 14.666964 38.581001
16.296707 14.988745 38.581001
16.382418 15.052858 38.581001
23.454872 15.015435 38.581001
24.99394 15.390633 38.581001
10.581045 15.551991 38.581001
12.661205 15.923691 38.581001
20.273283 16.139122 38.581001
11.534568 16.421862 38.581001
28.047846 16.543489 38.581001
24.030661 16.891375 38.581001
26.160519 17.268652 38.581001
18.785933 17.382721 38.581001
9.7301483 17.412792 38.581001
24.720493 17.459566 38.581001
11.315826 18.065163 38.581001
11.263143 18.173243 38.581001
9.246542 18.535604 38.581001
6.3267589 18.633764 38.581001
12.000894 18.973156 38.581001
22.382971 19.065016 38.581001
9.2863255 19.140373 38.581001
16.108458 19.182621 38.581001
24.641827 19.189499 38.581001
10.017438 19.361933 38.581001
9.2305107 19.574686 38.581001
12.399446 19.797138 38.581001
23.056519 19.726471 38.581001
20.005753 20.216951 38.581001
26.040607 20.225128 38.581001
23.60137 20.505274 38.581001
18.591072 21.171448 38.581001
26.764278 21.36253 38.581001
27.962128 21.345776 38.581001
26.163441 21.48312 38.581001
25.034422 21.679464 38.581001
15.123987 22.07634 38.581001
28.186888 22.009418 38.580997
7.7013679 22.310091 38.581005
11.950206 22.379204 38.581001
17.697758 22.329315 38.581001
14.779991 22.442154 38.581001
22.17466 22.612705 38.581001
9.4687119 22.74719 38.581001
7.305728 22.835695 38.581001
14.314616 22.80006 38.581001
15.893387 22.99383 38.581001
22.385201 22.950699 38.581001
17.461136 23.04826 38.581001
7.5637908 23.213387 38.581001
10.411461 23.251694 38.581001
9.1090279 23.414457 38.581001
18.717175 23.403652 38.581001
12.532405 23.757708 38.581001
13.862959 23.713287 38.581001
22.323584 24.269762 38.581001
17.487165 24.387646 38.581001
11.755846 25.044804 38.581001
21.424475 25.03463 38.581001
14.678255 25.397522 38.581001
23.271189 25.41321 38.581001
8.5656004 26.803707 38.557968
7.7807999 36.369644 38.500038
14.538553 39.022011 38.549274
29.198982 14.192108 38.6315
30.285795 17.154415 38.609589
24.238367 25.523106 38.699249
8.9739161 27.038555 38.620739
26.225298 27.223423 38.668346
28.341202 14.302998 38.765343
28.341198 24.971823 38.739388
21.388626 25.067749 38.756363
20.097546 25.252224 38.796196
15.588774 26.123453 38.737919
15.856611 34.283115 38.723011
29.306744 14.064888 38.831329
5.9745998 25.318268 38.834785
4.1047301 13.275592 38.980709
3.6167512 16.170189 38.956451
23.642857 25.124735 38.944473
23.95752 26.089153 38.999645
18.233337 33.884037 38.902969
5.9745998 6.3347116 39.088142
5.9745998 18.790985 39.041859
5.9745998 25.189972 39.094463
7.8725963 27.481731 39.007469
18.279156 39.685921 39.062927
28.341198 3.2434936 39.12207
5.9745998 4.8702359 39.151451
2.716043 14.955706 39.165474
14.955067 25.650501 39.151356
19.659845 39.804699 39.186844
16.650793 0 39.253796
2.5151017 16.633842 39.227737
2.73224 18.958321 39.27314
13.528129 25.196114 39.287418
21.322393 25.650499 39.207726
26.26355 25.650497 39.284691
8.7450161 26.637501 39.236855
16.98103 30.977171 39.231712
15.147165 39.971352 39.279018
3.8664837 13.343649 39.326698
5.9745998 15.942554 39.323624
9.0702534 38.495171 39.300575
12.261118 0 39.459213
31.71114 18.936079 39.497574
11.773289 25.650499 39.425812
28.314795 32.444687 39.478775
4.753778 14.226207 39.525501
5.9745998 19.12632 39.584667
13.833737 25.650499 39.584221
5.9745998 3.3273256 39.640949
28.3412 10.791475 39.639999
28.3412 12.884195 39.661572
10.556247 25.311987 39.671227
13.518932 25.650497 39.680344
26.743376 28.490664 39.707249
17.477234 30.432159 39.758751
5.9745998 13.988638 39.840721
4.075593 14.989502 39.819313
28.341198 15.857651 39.867531
3.9708705 15.972465 39.893875
3.8021269 18.434559 39.886646
11.632544 25.650497 39.892841
14.699953 25.650499 39.867165
7.1200352 36.108948 39.800461
24.017992 0 39.910126
5.9745998 5.5096455 39.999531
28.3412 6.2980881 39.934998
2.3027668 15.840966 39.97076
30.557184 18.197418 39.917824
11.949268 25.401642 39.927757
8.0793076 25.650499 39.986782
8.8945827 26.497829 39.948448
16.227726 40.834518 39.987175
5.9745998 0.54034245 40.061951
3.5661407 19.291107 40.00618
5.9745998 23.539949 40.022602
23.498581 25.191996 40.095997
16.673687 0.16294748 40.193001
21.037819 0.79480255 40.193001
11.234897 0.87465733 40.193001
18.936832 1.0880661 40.193001
8.2874022 1.127492 40.193001
24.308287 1.1505519 40.193001
17.64295 1.449654 40.193001
12.636614 1.590965 40.193001
7.4525661 1.6144111 40.193001
12.945097 2.0298679 40.193001
25.860163 2.2383666 40.193001
26.438433 2.260963 40.193001
20.377037 2.6072474 40.193001
15.585263 3.5819371 40.193001
18.235813 3.5206988 40.193001
28.083235 3.5702806 40.193001
16.868505 3.609705 40.193001
9.6000538 3.7165439 40.193001
8.7871237 3.8798647 40.193001
19.739981 3.9673493 40.193001
6.7164268 4.0623865 40.193001
6.022368 4.1619248 40.193001
22.399464 4.4761953 40.193001
18.357759 4.5383348 40.193001
14.924256 4.6967254 40.193001
18.316235 4.660428 40.193001
11.093596 5.04111 40.193001
20.63797 5.0492334 40.193001
15.563311 5.2787399 40.193001
27.295662 5.2990355 40.193001
15.259163 5.336144 40.193001
6.9611397 5.6931171 40.193001
14.796295 5.6917973 40.193001
19.693068 5.6946611 40.193001
25.242325 5.9484353 40.193001
26.735416 6.1582603 40.193001
7.5427222 6.2088385 40.193001
5.9745998 6.5686841 40.113308
9.0703592 6.5787544 40.193001
19.116245 6.5585566 40.193001
24.273926 6.5858188 40.193001
26.286282 6.5289121 40.193001
19.722569 6.9457889 40.193001
19.675941 7.5435581 40.193001
9.0522757 7.7945557 40.193001
26.496899 7.7759895 40.193001
15.236629 7.831605 40.193001
7.3201556 8.0637293 40.193001
17.586811 8.0277071 40.193001
19.017262 8.1747313 40.193001
9.7215214 8.2664547 40.193001
26.611439 8.7026472 40.193001
20.309002 8.8370857 40.193001
21.488283 8.8175354 40.193001
21.160473 9.1003799 40.193001
8.1187191 9.3760138 40.193001
17.993603 9.6463327 40.193001
9.4239101 9.8036556 40.193001
12.406596 10.027364 40.193001
25.378347 10.292511 40.193001
8.0692406 10.579042 40.193001
20.582205 10.868612 40.193001
11.544086 11.085185 40.193001
21.472515 11.139511 40.193001
13.474453 11.709406 40.193001
14.255745 11.855201 40.193001
21.815847 12.045442 40.193001
24.938614 12.001123 40.193001
10.388509 12.327007 40.193001
20.832829 12.874658 40.193001
24.108883 12.848171 40.193001
14.536966 13.19742 40.193001
5.9745998 13.644456 40.17844
15.387246 13.738452 40.193001
26.252743 13.712732 40.193001
8.7181234 14.573224 40.193001
10.181869 14.618923 40.193001
6.5826139 14.700272 40.193001
23.534746 14.746462 40.193001
26.549061 14.803389 40.193001
10.036099 15.217868 40.193001
14.00246 15.209684 40.193001
22.274424 15.204295 40.193001
8.645977 15.821189 40.193001
24.731743 16.190117 40.193001
19.52961 16.276037 40.193001
6.0247049 16.592876 40.193001
18.364128 16.588667 40.193001
16.901417 16.714523 40.193001
8.3144474 16.900652 40.193001
6.5535374 17.176113 40.193001
9.8364372 17.248821 40.193001
25.157007 17.289522 40.193001
17.109415 17.552391 40.193001
20.338768 17.656776 40.193001
8.5028534 18.270315 40.193001
9.2957573 18.373055 40.193001
27.519125 18.483404 40.193001
18.471949 18.650511 40.193001
22.225668 18.970245 40.193001
26.529686 18.917019 40.193001
16.041353 19.158064 40.193001
19.992807 19.139488 40.193001
25.057837 19.274626 40.193001
26.894218 19.257963 40.193001
24.64765 19.346882 40.193001
21.004797 19.641783 40.193001
12.02482 19.827967 40.193001
10.150551 20.194248 40.193001
13.695424 20.24147 40.193001
23.613207 20.884279 40.193001
12.120438 21.007845 40.193001
6.9450583 21.561337 40.193001
8.8432884 21.625095 40.193001
26.229662 21.683628 40.193001
9.9122753 21.719442 40.193001
23.864771 21.965572 40.193001
15.568099 22.071577 40.193001
13.412933 22.649025 40.193001
27.408333 22.760464 40.193005
8.2448463 22.954065 40.193001
24.612696 22.990135 40.192997
23.608004 23.276529 40.193001
9.6767473 23.553495 40.193001
15.017826 23.611534 40.193001
9.1357689 24.735168 40.193001
17.976311 24.765671 40.193001
15.573877 25.090244 40.193001
23.579451 25.413601 40.193001
23.929312 25.437679 40.162636
23.655567 25.516663 40.193001
30.443344 17.016665 40.238392
7.7075305 27.750942 40.286434
16.32975 27.896088 40.293198
27.914457 30.268894 40.241241
28.142708 30.80699 40.210716
19.781229 40.917667 40.258217
19.123711 26.152157 40.300095
25.595825 26.649979 40.394299
27.719603 35.44915 40.347038
16.791302 41.176254 40.387077
30.533115 17.62775 40.481842
27.394112 29.129868 40.466705
30.186043 13.448755 40.694687
25.053802 26.175467 40.629059
18.845961 26.410751 40.613804
16.465679 28.307255 40.621666
28.492756 31.67227 40.674091
4.153882 15.850864 40.757809
12.422653 25.465466 40.753067
18.075996 27.533619 40.795479
5.8648143 31.482542 40.737686
32.298428 17.050381 40.853943
27.522646 29.973003 40.838448
6.0604587 33.979881 40.842655
26.926588 14.638021 40.916809
28.658661 32.425182 40.909657
7.1909714 13.573545 41.035107
17.885637 26.841051 41.004673
20.334408 41.345997 41.043541
3.0602551 13.82272 41.145561
29.936062 15.318622 41.18475
25.311146 26.473831 41.159267
29.806219 14.813984 41.336121
18.247379 26.227154 41.331341
26.276281 38.209988 41.303814
4.7728868 13.990831 41.49757
1.9406011 16.950556 41.400948
26.328789 38.218399 41.494434
13.465221 41.364262 41.449051
7.5736012 13.533062 41.507744
12.274384 25.531755 41.519836
26.046806 27.170362 41.533001
32.041191 15.311697 41.686371
9.0093422 27.770681 41.660599
25.896542 38.61235 41.669983
11.235891 40.539337 41.621567
4.8386202 15.731157 41.759628
27.845398 30.325132 41.713902
6.3835917 30.529383 41.700489
22.335751 40.765778 41.70351
6.2655349 13.78358 41.877472
29.490847 14.659519 41.893394
32.499382 18.521793 41.840332
15.030864 25.771585 41.804188
25.923428 38.642757 41.963509
28.073666 13.71693 42.013752
28.397343 31.780769 42.09449
4.5404444 16.971607 42.123634
27.134649 28.998705 42.183704
11.828897 41.027054 42.282604
3.3146439 19.278767 42.384438
25.13443 27.824127 42.306694
9.1033916 39.299202 42.369591
4.2610168 13.761495 42.493965
25.179636 26.631659 42.451714
28.188339 35.585724 42.452576
6.2711873 35.786205 42.446888
9.3776608 39.549812 42.478085
18.907593 42.492088 42.444565
7.8478661 27.856606 42.553127
7.3876438 29.455826 42.50132
5.260273 16.418854 42.609756
8.3234205 27.325266 42.638954
7.0925984 29.258877 42.679394
28.06732 13.7613 42.733337
5.5946603 15.977301 42.794472
28.676388 33.538605 42.742828
26.404266 28.904972 42.803551
23.329071 40.946831 42.82304
13.431153 42.13475 42.868942
5.8837729 15.423336 42.908894
30.389599 17.830549 42.963898
6.1802874 31.518948 42.907452
10.654673 40.714855 42.949417
20.009106 42.536793 42.97747
6.4666071 14.973771 43.02121
32.178619 15.768011 43.089535
2.5399489 20.499485 43.125771
26.28474 27.647984 43.119427
26.495668 28.012362 43.187885
31.614164 15.134281 43.240467
28.57235 34.297516 43.213196
13.802942 42.429211 43.212746
30.489687 18.104736 43.462173
1.8484416 20.320396 43.585686
14.177765 25.187878 43.575779
12.237813 25.996973 43.599102
5.6383247 32.537117 43.596294
28.03521 35.509468 43.510071
3.493196 20.502596 43.651207
7.9244256 29.152943 43.722942
5.4421697 32.900509 43.784798
13.297043 42.366035 43.731884
5.6517406 15.700962 43.849384
32.48159 16.894953 43.820145
32.573029 17.121935 43.869175
25.205324 28.225178 43.830246
10.655264 41.005684 43.813007
28.410645 14.473129 43.908855
1.4171791 20.219521 43.901279
1.9525795 20.540762 43.960629
27.223043 30.381962 43.995396
27.400976 30.630188 43.91959
32.798798 17.746189 44.004974
26.175364 27.734825 44.09201
20.873625 42.527519 44.00528
20.332911 42.789452 44.019798
31.317013 21.133131 44.167412
24.435411 40.398041 44.194668
32.344784 16.590387 44.210426
0.48607656 19.052078 44.211388
3.6895728 19.743622 44.219643
1.9859278 20.697838 44.278427
28.392689 32.363441 44.246346
23.697817 26.325527 44.365875
10.597057 27.136103 44.308079
27.29693 29.692699 44.378159
10.94618 41.446888 44.365562
8.7129736 27.330219 44.414268
5.451026 33.979172 44.498646
7.8612022 29.498201 44.584141
7.5703459 29.908909 44.522705
28.523422 34.602768 44.574055
10.763722 41.394932 44.56665
24.659538 26.68812 44.610626
5.2019353 19.376152 44.732964
6.6265192 36.24424 44.700089
6.6935358 36.425434 44.78746
10.9011 26.34778 44.894958
28.029966 35.633778 44.878017
6.6066427 36.288471 44.870377
0.56451321 19.380579 44.995609
1.0749848 20.322773 44.948788
2.5321498 20.662003 44.947422
23.443378 27.061884 44.958397
7.0149393 30.973644 44.910198
27.861851 31.084408 44.93116
23.948586 41.143822 44.920876
28.181839 35.427246 45.088726
27.050472 37.721275 45.032059
14.7744 43.317234 45.095066
30.160919 17.825108 45.103062
1.7727811 19.97929 45.147377
23.023952 26.771488 45.167557
27.976566 31.446121 45.184334
3.7443457 20.634081 45.240753
3.397418 20.96167 45.254883
6.675334 31.68399 45.253876
12.757488 42.616734 45.233028
3.2373023 16.440639 45.308666
1.990752 17.164198 45.356075
2.886476 21.153589 45.307652
25.972094 27.800365 45.362125
26.579491 30.090622 45.306599
7.3042507 30.800465 45.395313
19.931377 43.328854 45.368988
28.120115 31.883053 45.41827
20.054855 25.496841 45.573387
6.4745703 31.143629 45.541466
27.579853 36.875557 45.514542
10.667204 41.668468 45.540672
33.649101 17.762327 45.658363
32.531277 20.346291 45.624847
16.456261 25.554771 45.604221
28.017519 31.651346 45.676392
11.53943 26.689173 45.719688
20.541477 43.27121 45.717518
5.5416775 21.097574 45.824654
1.7801336 21.843761 45.857899
4.4202423 20.008114 45.910683
11.197842 42.07127 45.952892
5.4808297 18.645138 46.018024
14.060106 25.636297 46.016407
11.587634 26.715866 46.037792
5.731678 33.889984 46.085526
20.639807 43.332512 46.0867
15.462753 43.728523 46.001564
3.1956453 16.254824 46.101662
28.53162 33.532055 46.122887
7.1420374 37.947453 46.108952
0.48570856 19.015965 46.212051
16.805954 25.709257 46.203934
7.2427964 29.532356 46.259525
27.317139 37.681942 46.202625
4.0221977 16.858944 46.306015
4.0468373 18.002094 46.377121
7.509347 29.010721 46.398521
27.642742 30.690111 46.370342
19.410604 43.668716 46.318855
30.550049 17.832655 46.40448
7.0446501 29.87882 46.434914
6.070138 33.046322 46.436081
28.218245 19.008215 46.553024
28.651989 21.78791 46.505539
29.135498 22.335985 46.54921
27.939198 31.509111 46.59798
16.146563 43.999931 46.596169
25.711521 40.089409 46.613152
23.777855 41.942116 46.687687
15.343197 43.774429 46.610416
5.9081979 18.68545 46.794502
1.8554547 21.25407 46.764095
27.190649 29.690878 46.992237
27.509167 37.628098 46.944679
2.4955914 22.189503 47.091255
28.312771 35.546497 47.090042
27.380117 31.802963 47.100098
4.025929 18.456612 47.217026
6.5876179 20.134806 47.296227
28.001747 20.952375 47.268887
10.191542 28.105389 47.297813
28.013493 33.918228 47.326248
11.869976 42.732616 47.312485
20.356731 26.02841 47.407219
10.996293 42.375626 47.454788
12.599179 43.04937 47.493168
14.735809 26.106152 47.500069
6.911828 30.397491 47.586288
28.214573 36.40237 47.570438
20.10479 43.558987 47.554253
1.8025367 19.50016 47.693459
32.335102 21.970295 47.616165
9.8086634 41.685066 47.689701
32.560329 19.705692 47.794464
29.357471 20.328178 47.725784
29.572952 23.639423 47.73148
9.528779 28.737892 47.708889
7.0181532 32.007263 47.70211
29.371466 21.700106 47.829136
33.021442 22.507078 47.805298
15.303358 43.687019 47.863785
32.948631 17.884869 48.099186
20.097111 43.595932 48.087193
9.1586981 27.904478 48.121792
24.001831 28.243629 48.195343
11.354574 42.618412 48.182335
12.411768 43.050682 48.199089
31.470379 23.245825 48.290852
9.6552143 27.682264 48.208836
27.883759 35.708282 48.208008
2.6796665 19.105274 48.392498
32.574463 21.714428 48.303074
22.401524 27.083851 48.360413
1.289338 18.186729 48.494354
7.7535896 29.037651 48.407433
5.6817555 18.451014 48.517681
0.67424458 19.774858 48.508282
6.6246634 21.980911 48.538101
14.679107 27.009018 48.514439
23.726294 28.12492 48.522766
32.414185 17.942924 48.655525
33.097755 18.47506 48.60318
26.238983 30.916161 48.712128
7.9870892 31.136875 48.747406
5.5454311 18.390778 48.83329
23.595459 28.13599 48.871288
9.1036263 29.67421 48.885376
6.6573429 35.833061 48.808186
16.205978 43.878315 48.867523
27.81123 20.008804 48.944607
17.404671 27.298725 49.040459
6.4834232 37.963242 49.074585
27.767307 23.252979 49.175068
1.7446659 23.835876 49.137913
4.5267544 24.134754 49.139946
30.049408 25.218122 49.170044
4.041254 25.373192 49.251896
19.107964 27.287539 49.28973
25.818653 40.749352 49.285172
15.645924 27.218128 49.32415
10.639363 28.36515 49.331306
1.5375326 18.671352 49.431953
6.7140055 20.444561 49.427078
12.961766 27.30209 49.477089
23.438839 28.195141 49.419899
31.733675 18.150845 49.544998
13.460694 27.202267 49.562859
11.597116 27.79693 49.586227
9.3839378 29.671101 49.548561
13.871371 43.663864 49.531178
1.6438236 18.783066 49.689053
5.8893433 18.95126 49.640938
30.856066 24.61619 49.627094
1.2619815 19.433151 49.702278
0.66716886 21.025894 49.772968
31.476009 24.277348 49.774857
26.741314 33.157459 49.70322
5.2517304 25.218189 49.823029
25.079372 28.482521 49.872242
28.568073 22.17602 49.942856
2.8065846 24.999733 49.900795
24.108585 42.239384 49.957756
14.501786 27.346636 50.071957
7.9687071 32.45409 50.009483
32.32032 18.922813 50.196793
31.288193 25.300892 50.152702
13.357283 27.546721 50.2654
31.694788 18.636196 50.301613
33.569836 22.241705 50.391136
30.438532 25.388914 50.309769
31.2805 18.493864 50.441315
6.2785659 25.216749 50.494568
1.0663126 20.805557 50.596195
19.240414 27.072668 50.545082
9.473732 30.433466 50.507801
27.088003 36.228531 50.568478
24.045221 42.296425 50.595531
31.062309 20.587681 50.619789
27.836973 20.157711 50.762402
32.012764 21.568846 50.710575
5.6884718 24.902424 50.761494
20.779613 27.418156 50.706367
2.6753111 21.089905 50.802734
30.321753 25.843952 50.843819
20.452663 43.47353 50.868202
6.882915 25.080727 50.979782
30.44574 18.437103 51.012447
9.2409515 41.694138 51.070118
2.3111107 19.351725 51.104847
28.210148 24.049706 51.142586
2.0922861 19.579691 51.258739
31.576347 25.109879 51.281624
23.035179 28.604244 51.232052
20.96743 43.320358 51.259239
0.76969326 22.37631 51.393654
1.0267948 21.720181 51.408382
2.104969 22.940878 51.432213
19.465939 43.526001 51.498821
4.4308805 26.748257 51.695923
25.473442 41.12188 51.691956
10.823448 42.46896 51.629906
31.900558 22.505684 51.753849
32.937984 21.402908 51.992794
1.4572518 24.417171 51.943031
31.671326 22.318785 52.096661
2.3920453 23.008593 52.097183
2.0526946 25.77529 52.014641
3.4185333 26.857197 52.094055
3.3098102 21.863277 52.143452
2.3551488 23.180086 52.152481
26.757725 24.814035 52.102314
7.7730322 35.106602 52.103378
32.107731 23.76222 52.293591
21.061329 27.269369 52.25425
26.900358 36.249489 52.269539
28.793846 22.338428 52.330559
5.1017942 27.75662 52.412136
25.16534 31.89677 52.44162
11.014647 42.364338 52.472015
17.393225 43.36528 52.475319
8.2343359 33.478123 52.569092
24.908081 41.557144 52.56963
23.18903 42.380508 52.570824
9.6900215 41.846512 52.671398
31.630304 23.037371 52.743614
32.742699 25.052738 52.866463
30.579203 19.812202 52.911263
10.664516 29.397266 52.989967
26.930676 37.975311 52.9981
28.610043 22.877892 53.062286
26.334602 25.121777 53.014977
14.793184 26.425564 53.046917
27.111311 37.07048 53.024429
26.707897 38.847977 53.081345
9.3186741 41.35564 53.053139
13.154724 42.982056 53.000248
26.401728 23.319363 53.253128
6.2997394 27.201468 53.281544
5.9898396 28.029873 53.287849
8.3625479 33.473007 53.242558
26.262217 34.477364 53.248623
31.743952 24.16869 53.386772
6.623136 24.405149 53.372288
26.078871 33.991444 53.392872
12.545033 42.684502 53.385971
32.034119 26.920542 53.464844
2.8841133 27.409977 53.42326
10.745591 29.071173 53.435307
17.389748 43.01685 53.405167
4.660913 20.051157 53.502071
27.235182 21.682796 53.596554
27.960632 23.909449 53.551899
6.9504681 25.068741 53.53096
24.07926 29.939222 53.564785
23.969923 41.891418 53.52494
7.4744148 38.049683 53.69381
3.3146429 27.297554 53.795269
8.3840837 33.393967 53.786919
16.577534 42.826714 53.794697
5.1479712 20.59264 54.045967
7.7771502 34.877689 54.077225
25.707167 40.442352 54.03492
31.46772 24.48801 54.191437
24.561687 30.251343 54.192795
3.2659662 23.711962 54.269642
8.2755318 25.977013 54.284828
29.017601 29.000576 54.280773
26.783218 35.410381 54.248405
31.244289 24.18078 54.385376
4.0330286 28.570425 54.303455
10.518 41.751633 54.394119
22.232323 42.151154 54.356064
17.712252 42.576279 54.342503
33.072227 24.462322 54.45068
18.42177 25.622169 54.49662
8.6466074 40.419041 54.411625
6.8996739 21.982849 54.557175
32.378029 22.654125 54.500916
14.681051 25.857428 54.567059
2.4974411 27.710112 54.566166
7.8931131 34.138367 54.577759
7.7139292 34.747757 54.556107
29.760654 23.367315 54.602077
31.077221 24.049042 54.606869
23.471554 28.049858 54.610531
31.027748 24.147894 54.780052
1.2739958 25.095436 54.781544
26.015396 26.391438 54.734917
2.7502332 21.798763 54.828468
2.7812169 25.556194 54.895409
31.527895 26.359745 54.864761
26.153976 26.962513 54.969036
23.49819 41.59985 54.920879
23.295603 41.609859 55.008018
21.087788 42.097351 55.042839
13.684568 42.111012 55.058807
2.5002341 22.257504 55.187229
7.5355635 23.066992 55.106892
3.6867094 24.208605 55.100899
25.765141 26.239626 55.174004
22.882507 41.612411 55.226215
26.523376 23.734755 55.461601
13.637601 25.675838 55.496109
8.6476336 26.286358 55.443851
26.38419 39.119774 55.572159
21.362637 25.826044 55.613323
20.518461 41.847038 55.651482
6.4474049 22.523279 55.783642
26.067072 32.432396 55.744904
7.1237469 23.00037 55.807583
18.280121 24.962902 55.867592
19.254765 25.09516 55.850346
25.61414 26.6194 55.917557
25.849388 27.221817 56.005478
16.59263 41.692421 56.007454
8.3839998 24.717007 56.266884
8.5685673 25.072657 56.214279
11.48275 26.615486 56.205376
25.643435 31.140251 56.235138
14.090439 41.181171 56.226387
27.092365 23.145647 56.342583
9.6664906 40.17503 56.389584
16.231567 24.654341 56.411194
17.973246 24.63447 56.42292
13.504408 25.116207 56.478451
17.234215 41.198956 56.414631
7.1298323 29.101337 56.564407
28.679924 29.873842 56.529896
9.4698563 40.009441 56.646755
16.134632 41.039635 56.627522
3.1948442 23.19841 56.702171
25.469404 27.004692 56.772869
8.5895824 39.256165 56.751999
25.663311 25.006159 56.896355
15.999151 24.399841 56.926136
32.169449 27.015806 57.080711
8.7966499 27.357555 57.063232
18.605764 24.308672 57.136673
8.8414316 27.367712 57.196747
5.4982471 29.99761 57.167175
5.1332011 22.42281 57.210472
20.760763 24.696123 57.200848
11.131495 24.944977 57.254723
32.186996 26.960314 57.239861
7.0940313 35.457512 57.250122
17.711073 24.155851 57.303356
11.017532 26.071054 57.354057
25.062662 26.541723 57.325966
26.235558 38.199127 57.356075
24.244345 39.702942 57.334305
13.33394 24.578646 57.483833
1.9956429 25.829754 57.45871
31.573421 28.096375 57.416256
21.588833 40.48608 57.497025
2.8718889 23.863897 57.52734
23.848946 25.402912 57.539448
26.346869 29.049229 57.592445
4.385345 29.508125 57.589676
27.253998 29.503494 57.551476
24.690399 39.430763 57.53384
11.94278 40.195473 57.59272
8.1360531 23.824583 57.674099
17.189709 24.01548 57.614182
24.497295 25.966042 57.662666
3.7570453 29.19672 57.651382
25.586235 38.878456 57.615383
20.006548 24.186687 57.796093
29.339775 29.82633 57.745373
27.145458 34.172878 57.794476
7.0445032 35.679554 57.741512
17.977987 40.798916 57.703503
31.496433 28.156601 58.026123
26.533333 38.478668 58.095032
7.7160597 38.396301 58.172092
23.080868 40.0583 58.148979
26.032145 23.859737 58.211529
7.7271786 38.419029 58.267769
17.502325 40.879677 58.288139
7.9095855 23.61034 58.341305
9.3478575 27.167011 58.341263
17.320444 23.333504 58.443176
17.705688 23.503048 58.480068
30.513071 23.558664 58.46109
13.867471 40.755394 58.414879
24.930859 25.69359 58.51897
7.6797695 31.21332 58.558826
8.3903999 39.327049 58.534115
27.401886 23.160437 58.670753
11.370662 24.114965 58.62204
10.443193 24.857801 58.686653
9.5408649 25.965965 58.601891
12.489683 40.866768 58.651878
7.4177976 23.378059 58.782455
19.235569 23.481178 58.780659
13.437881 23.750452 58.762287
24.968058 26.020657 58.795914
9.0761967 28.14385 58.774727
3.4441569 29.202444 58.715675
10.441021 24.787373 58.834404
15.581617 23.374231 58.912228
25.664047 24.178974 58.969116
31.884449 27.248056 58.965126
12.803408 41.123444 58.979607
21.670912 23.54834 59.071968
9.3466816 25.872702 59.099659
7.6252279 30.712635 59.0401
6.8738241 33.462048 59.069294
21.645679 23.509052 59.136909
24.684561 26.305485 59.139931
11.715557 40.863575 59.167259
20.024305 41.268822 59.126442
12.830919 23.705185 59.247913
9.9340172 25.768194 59.213474
2.3554204 26.202007 59.214729
8.7520237 29.25997 59.253311
12.483991 41.099556 59.280483
25.381247 28.954853 59.365166
5.1646419 23.083008 59.488552
29.797306 29.855425 59.446537
6.0389819 30.604172 59.429203
19.830389 23.180023 59.577065
27.574043 34.067852 59.647228
26.949301 38.148834 59.616196
26.711943 38.497917 59.652557
25.026371 25.004787 59.786461
4.2376423 29.76894 59.79517
25.921741 39.65456 59.767883
28.117832 22.73674 59.839329
10.237692 24.95153 59.800144
13.523653 23.010859 59.961605
9.4781723 25.304577 59.962643
24.382048 27.12797 59.903584
7.0204926 31.644794 59.925961
12.107927 23.783207 60.049438
24.391035 26.161539 60.007683
23.59963 40.570621 60.061672
20.16951 41.275135 60.043053
31.334852 25.375547 60.110714
9.9939547 26.222593 60.195518
7.6638575 30.269144 60.140282
7.2505956 30.689713 60.104416
2.7134559 26.059631 60.200008
27.69536 33.061062 60.368656
26.575104 38.712681 60.35387
14.684538 22.920349 60.437519
23.122898 23.287792 60.425842
27.706579 34.473858 60.485138
7.2348375 37.869152 60.467354
11.166968 23.214222 60.599651
9.5825071 24.846886 60.523941
27.703447 34.839569 60.531586
12.185814 41.084499 60.514641
20.26602 41.251331 60.552498
17.715027 22.678961 60.629391
3.5061049 24.545395 60.657829
3.2336946 25.148954 60.626221
30.157251 29.889946 60.675495
18.865828 22.731367 60.772358
23.866461 40.469971 60.7435
2.7496538 26.44173 60.866043
26.435591 38.907356 60.883301
27.749516 22.817669 60.945839
10.058392 24.51016 60.991455
26.622078 28.330317 60.983665
28.752186 30.633442 60.907204
24.27706 24.499847 61.041054
25.242132 25.247707 61.019825
25.225883 29.907598 61.093533
6.0294013 30.897449 61.068779
6.568614 35.542446 61.016335
27.061361 23.130901 61.16766
9.4839478 24.562382 61.27523
7.6409354 38.485233 61.273026
6.5983853 33.132141 61.344688
7.8818111 38.882996 61.326859
26.735207 30.966118 61.440407
8.9343185 25.145386 61.539722
19.368538 22.59483 61.61306
10.9935 22.805285 61.613655
9.9014711 25.442783 61.690502
25.575579 25.902319 61.794586
24.48 29.116829 61.743362
27.791656 32.150986 61.762348
21.650093 22.928505 61.863365
23.706427 26.763004 61.849998
26.337479 27.09289 61.899376
27.740021 36.294559 61.858303
9.4524603 39.932312 61.899963
10.389997 23.960772 61.917732
6.5874739 33.259735 61.93029
7.6688452 38.468353 61.909561
7.8538013 27.2075 62.086761
28.134039 31.156189 62.067917
7.6621242 38.441273 62.041245
6.5798798 33.243763 62.135777
12.187142 40.864326 62.128239
10.964037 23.532986 62.254105
7.0574751 29.909245 62.200336
23.312531 22.376648 62.358154
14.854187 22.439915 62.340191
26.245832 26.638626 62.393044
24.048676 28.60046 62.338806
15.125029 22.363163 62.478481
22.842012 40.563927 62.422775
25.154224 24.261757 62.586002
14.651158 22.40535 62.640156
24.416178 23.1465 62.796478
25.032375 24.118511 62.710121
8.1425514 31.261133 62.713692
19.949436 22.404415 62.87532
25.178524 24.173502 62.80159
7.7064881 27.056808 62.851021
6.5520773 33.175102 62.868427
27.761805 33.203907 62.864281
24.990786 23.823608 62.973
21.572697 22.666313 63.085373
20.879126 40.765949 63.027004
17.321798 22.084808 63.154305
3.2733772 26.687916 63.131615
8.5725403 31.220423 63.188202
20.762201 40.709415 63.185719
17.821722 40.91597 63.131031
27.67474 32.080677 63.244774
17.548498 22.043869 63.426338
25.390991 24.456699 63.432423
10.521376 25.944288 63.435349
7.2402525 29.378654 63.405407
28.808117 31.146152 63.495174
27.08437 36.935249 63.422947
10.749138 28.709522 63.583145
28.873543 31.129425 63.55896
27.252129 31.971638 63.654816
16.074881 40.670292 63.673252
9.1103125 31.238951 63.748062
25.75798 24.812016 63.898834
24.374851 24.555073 63.992073
27.524067 32.502106 63.942478
24.164354 24.94507 64.058548
26.653408 32.311142 64.024109
18.978523 40.486183 64.018593
10.568155 23.154964 64.101845
8.6373997 38.876839 64.148376
12.336777 22.578651 64.2631
10.023834 23.392918 64.219391
27.471226 32.677856 64.269859
6.4174013 23.472118 64.367073
27.414675 31.381287 64.310921
23.523676 39.574409 64.380295
3.1283894 27.861862 64.461014
3.959806 29.665794 64.465614
27.45668 32.941353 64.45546
24.206512 29.750805 64.61245
13.601224 22.386614 64.704803
25.535524 31.428387 64.756767
26.979538 31.968857 64.718102
27.435591 33.341457 64.73011
19.231173 22.150164 64.844215
9.2580013 26.978983 64.872925
25.700409 32.40221 64.885162
18.467285 21.97702 64.984917
4.470469 24.956684 64.922943
9.2511692 26.872772 64.902069
8.0033226 37.570408 64.916222
22.825134 22.637342 65.004837
10.099649 25.218287 65.036285
28.897789 31.760033 65.090782
27.217117 35.826958 65.006935
8.1977015 37.865692 65.047096
24.570049 23.164322 65.112778
25.232914 26.11017 65.137848
24.96265 25.301998 65.200676
3.4620323 27.446301 65.205788
24.271618 22.969254 65.397148
5.5110159 24.321743 65.353195
6.915 34.704987 65.399406
7.7516203 25.213949 65.423615
7.7816339 26.111977 65.454971
30.809187 27.375858 65.4767
30.157898 30.767929 65.401665
7.8889427 32.993721 65.522568
27.285437 32.858379 65.759499
24.158714 38.761635 65.796471
26.311098 24.621723 65.88768
6.8193059 23.646334 65.934166
3.932127 30.622393 65.982162
27.471222 33.568474 66.094841
11.373867 39.104443 66.045204
19.590054 22.145584 66.183556
27.220675 33.472427 66.12088
27.276226 33.87664 66.234032
18.603905 39.507481 66.204544
23.69145 38.678154 66.382011
22.650303 39.068928 66.326187
7.6901646 24.575138 66.483047
20.339207 39.234222 66.561874
7.7061596 24.55625 66.672005
7.5773277 35.881535 66.618759
11.889629 22.708895 66.773972
5.8314857 33.283138 66.721062
30.877045 29.804317 66.856422
7.1491175 34.171394 66.877937
25.958725 23.756805 66.942772
7.3961735 24.430727 66.924042
28.053885 33.966103 66.983475
11.157 38.582523 66.93531
30.175007 26.183044 67.232941
7.658071 33.937641 67.220612
20.262028 22.293806 67.323433
22.841803 22.839375 67.331146
4.2945342 32.21624 67.364082
10.347994 38.05323 67.464783
16.316998 21.684265 67.616676
27.346977 25.010962 67.64476
31.300076 29.104563 67.617958
5.68116 33.636047 67.616394
26.975254 24.745972 67.792183
29.074547 25.001364 67.820511
13.843746 38.52108 67.854965
30.342403 26.665894 67.992355
11.729942 38.166496 67.982155
4.2709398 32.319508 68.010696
23.001146 38.026463 68.017319
7.3927159 35.503654 68.111908
13.517149 22.467537 68.219116
28.085382 34.256489 68.464409
26.922211 35.539722 68.516174
26.968801 34.435001 68.600693
22.214308 37.87962 68.691895
16.213097 21.613789 68.87011
9.6073303 23.75749 68.862427
23.610296 37.354225 68.878433
16.750702 38.139595 68.850204
28.21064 34.195744 68.941078
27.585461 34.789612 68.974106
3.4155283 29.748745 69.272919
9.8280983 23.970211 69.446915
3.567071 30.038719 69.418915
30.545679 28.552519 69.515877
29.840771 26.640491 69.603813
25.591564 24.710524 69.716309
21.661909 37.312145 69.79554
27.278484 25.278265 69.856964
29.261368 26.965361 69.835144
18.084906 21.436977 70.089172
12.732782 21.976482 70.024025
12.600415 22.085716 70.032234
27.643274 34.791981 70.094925
14.794851 21.030905 70.251297
16.168858 23.478289 70.298576
19.181635 20.959028 70.364799
12.559198 23.354355 70.339798
27.316833 35.117916 70.30497
23.516079 36.520622 70.302094
13.11883 36.989372 70.349243
19.113739 22.579891 70.432457
29.17322 33.083496 70.478699
19.314449 36.991413 70.472511
7.3371868 25.727495 70.584694
30.408274 29.993011 70.564255
30.315147 30.161217 70.66568
6.1982474 25.824636 70.720711
26.567322 25.886959 70.895538
19.477558 21.36972 71.022003
16.126919 23.365871 71.03228
12.589355 23.663828 71.066856
17.04492 22.631432 71.151627
20.684385 24.21652 71.181297
15.685965 36.482685 71.131332
6.1296749 26.679338 71.268883
11.127265 36.17392 71.216454
27.514011 26.345409 71.353027
26.501972 35.243366 71.362656
16.13723 36.297443 71.36795
20.736681 22.080462 71.489716
27.669209 34.531464 71.474838
14.982094 22.037109 71.567986
5.8170881 27.562004 71.685577
17.814899 36.042038 71.698387
17.018402 19.114103 71.795464
18.185249 22.906124 71.795891
15.618975 23.657375 71.710983
4.5402188 28.79451 71.748085
16.532064 22.347944 71.840263
28.168772 33.724262 71.901779
17.585033 35.86076 71.933372
13.804268 24.439341 72.086548
29.482513 29.69035 72.095589
4.9489937 31.564714 72.06105
27.469891 34.383537 72.066872
23.763519 35.646492 72.081306
12.70611 35.76379 72.098923
15.9934 19.310028 72.175621
13.270238 22.51475 72.122826
13.857494 23.789923 72.134415
28.589882 33.067421 72.100266
7.9994726 35.188461 72.117447
11.090548 24.694042 72.27243
10.741435 35.565601 72.23172
25.424589 26.310465 72.308136
28.181187 33.291233 72.382446
27.457661 34.120468 72.384956
15.148484 23.795181 72.454185
7.6080475 27.429722 72.456772
6.5649261 27.953686 72.41835
28.212929 28.403168 72.443375
18.123405 20.72703 72.569336
26.854235 27.461353 72.512794
5.7703586 29.737392 72.550354
11.883572 35.365341 72.54599
11.533479 24.692814 72.658615
24.650621 35.168301 72.63826
15.477174 18.701956 72.798248
28.173283 29.357784 72.741409
24.980356 34.961018 72.865631
17.469896 17.221645 72.975044
15.136213 23.449364 72.924133
27.35976 33.735565 72.91391
12.261791 35.06356 72.902023
19.968691 35.001762 72.980652
25.824316 27.358261 73.023087
25.738329 34.773392 73.038612
14.007061 34.961876 73.025513
12.202929 34.860107 73.135353
16.121433 17.479959 73.399887
14.905533 18.702978 73.337646
18.993252 22.296247 73.304962
10.507967 25.945812 73.549171
14.275173 34.509987 73.545319
15.688936 18.005417 73.79924
14.954046 22.562851 73.788368
21.507318 23.43536 73.701645
15.27102 17.966774 73.893234
20.034832 19.373848 73.859108
21.113523 23.291817 73.854141
26.397106 30.027592 73.812759
9.8908129 26.770313 73.959808
8.5798082 28.328228 73.961044
25.709267 32.860191 73.924873
20.790253 34.137253 73.970291
8.9356289 29.096123 74.028397
13.991469 24.510843 74.274551
13.981383 25.055567 74.279236
11.381657 33.537781 74.243729
18.504272 33.898342 74.253418
19.315313 17.981112 74.354736
19.777498 21.575893 74.390823
23.323915 33.074043 74.388161
14.10231 24.329187 74.479149
24.254955 27.015604 74.427315
9.762867 28.681389 74.492386
12.585316 33.252148 74.476471
23.923353 30.134708 74.578323
10.388809 30.216022 74.56601
21.454737 33.19173 74.515549
13.981316 33.218609 74.552094
14.070277 24.165749 74.649063
19.84129 18.274956 74.729355
21.631504 23.979641 74.860054
16.730007 33.015888 74.805847
20.56377 20.076855 74.933205
21.159571 23.633251 74.925659
17.023548 32.789181 74.947487
17.881033 15.96199 75.096313
14.162954 22.928144 75.079758
21.774441 24.608131 75.050888
20.151348 31.956877 75.176979
20.293989 23.223818 75.256607
23.152267 28.52067 75.201591
22.632256 29.945278 75.210419
20.379345 23.583115 75.334152
18.987812 31.513195 75.398621
22.554592 26.530487 75.449341
16.173237 16.718231 75.567108
19.685968 17.343382 75.559067
12.132664 26.320179 75.519997
12.158697 29.273138 75.545792
13.750031 30.529608 75.538803
17.704483 31.43618 75.501884
16.053249 30.7593 75.630219
21.869841 25.883617 75.74202
15.088902 30.200579 75.707047
16.253206 30.142345 75.832993
21.149445 24.198246 75.969032
13.862168 25.960526 75.958809
19.681484 29.607513 75.940483
20.335815 26.069996 76.057396
13.559347 29.205372 76.035706
14.056421 15.076749 76.256088
19.247849 15.068172 76.263237
20.30798 17.45768 76.215126
13.789721 24.79715 76.3377
20.337183 25.487253 76.303078
14.018946 28.640694 76.397797
13.905989 24.98884 76.557404
14.83882 28.5987 76.57663
21.061596 19.488485 76.62558
19.659273 27.167847 76.663162
17.477434 28.954168 76.633224
18.398163 12.58193 76.788673
13.754974 25.035248 76.770538
20.982138 26.468056 76.758034
20.709347 23.550434 76.800705
13.902094 26.987391 76.848129
14.120695 27.918159 76.80555
18.011517 28.465845 76.933395
20.745966 23.557169 77.000343
14.478807 26.258278 77.070038
16.126516 27.396679 77.079239
14.051839 27.149069 77.146591
18.023981 28.165024 77.123566
13.379316 14.986367 77.447083
13.311892 20.297211 77.481415
15.139522 27.28861 77.472557
15.32996 15.451149 77.574402
13.085945 19.255333 77.554039
14.315274 24.984917 77.579483
15.230777 26.229357 77.586281
13.19671 20.462164 77.627777
17.995373 26.655466 77.661179
20.985519 17.777853 77.789452
14.951574 27.379932 77.777641
19.505117 13.766548 77.896225
20.37394 16.540979 77.803452
14.21897 16.06353 77.904572
20.14077 14.404989 78.019081
13.889315 16.450581 78.032211
14.594425 24.954884 78.085556
15.738815 27.464094 78.034363
20.595276 23.556484 78.126709
19.392473 15.130421 78.283012
21.010752 21.508287 78.217873
15.13291 25.582956 78.246109
13.64884 15.067801 78.353699
14.412933 15.537233 78.425323
18.185881 27.069275 78.487488
21.026745 19.704035 78.514816
14.994964 25.142038 78.533875
15.908401 25.771278 78.58889
16.438112 26.087948 78.502892
21.703154 16.637363 78.801895
14.515072 24.115997 78.859138
17.308626 14.117625 79.002754
19.350418 14.023478 79.139038
15.89456 14.242361 79.112495
17.033131 25.965599 79.195168
14.872705 14.122029 79.475121
20.180519 23.171318 79.44458
