# .PCD v0.7 - Point Cloud Data file format
VERSION 0.7
FIELDS x y z
SIZE 4 4 4
TYPE F F F
COUNT 1 1 1
WIDTH 1612
HEIGHT 1
VIEWPOINT 0 0 0 1 0 0 0
POINTS 1612
DATA ascii
168.78528 127.65955 61.631901
239.41145 113.36555 61.814053
238.0321 110.35455 61.960827
198.72226 122.37254 62.01738
227.99231 101.07459 62.20607
199.86668 124.82566 62.287708
230.0984 101.69029 62.533714
231.83574 104.9101 62.664562
175.51199 117.78052 62.669159
136.10681 78.560112 62.725109
239.82217 113.602 62.948227
202.51218 109.36481 63.023491
163.60698 114.15259 63.057289
202.74481 121.02843 63.188828
207.53801 108.70886 63.242767
228.3427 101.05267 63.579521
231.48059 102.87018 63.542332
199.95944 111.7291 63.78775
211.008 111.98759 63.752579
233.3246 106.29299 63.869156
235.76697 108.90576 64.15123
208.42389 120.26381 64.484421
233.50003 106.34698 64.546921
239.53972 111.51601 64.598541
199.38657 119.00003 64.573395
199.401 119.03698 64.588814
241.19852 115.21296 64.655289
226.05035 97.15358 64.764618
210.92459 115.83035 64.820107
168.5795 110.13427 65.13253
242.9812 117.42239 65.188675
163.40036 117.76823 65.159332
233.18396 105.85635 65.2603
227.43105 98.281601 65.324524
225.08685 96.031105 65.43013
169.72745 124.56058 65.645424
230.09515 100.89832 65.790306
170.72543 109.97967 65.961929
222.95581 93.790649 66.139046
246.39767 120.05054 66.175369
224.01276 96.124359 66.204109
198.25562 115.09718 66.252213
198.97816 112.60522 66.342415
198.30757 114.59539 66.373489
238.17043 111.25524 66.53389
244.60077 117.73814 66.799683
224.11551 94.666336 66.835312
242.71359 115.35335 66.859749
210.61948 116.50807 66.818207
244.12012 118.72973 66.949051
236.03702 108.61246 67.042702
199.39442 121.20261 67.045265
208.91812 111.02831 67.314217
204.56482 123.45906 67.346062
216.41878 87.610992 67.475189
209.62724 119.41772 67.505997
235.44934 106.33183 67.853577
240.9044 114.60451 67.89019
241.17166 113.32533 67.990387
235.4915 107.78066 68.199562
199.32347 122.23782 68.190483
248.38762 122.95468 68.120354
241.43253 115.22131 68.563515
203.65645 124.3338 68.524338
214.07397 85.711945 68.709991
236.24399 107.05489 68.73526
244.49394 119.08965 68.775726
226.87375 96.752571 68.857658
242.67325 116.76506 68.852364
198.252 112.62349 69.067383
240.52725 112.42447 69.188118
237.42627 108.49411 69.444351
238.76762 110.16529 69.72728
241.16949 113.19366 69.745369
248.35295 124.81373 69.85321
237.39761 110.02831 69.968231
246.34814 120.1328 70.067406
234.7742 106.69935 70.235359
218.19345 89.306046 70.344292
227.5014 97.105247 70.496109
241.83453 115.57403 70.665939
211.5658 81.94371 70.763893
241.42635 113.44298 70.761787
219.01689 89.925072 70.84745
221.51132 90.934624 70.831268
209.9342 119.65762 70.868805
237.87099 108.94434 70.951653
245.35379 118.76143 71.072411
138.22934 77.828209 71.223732
229.18439 98.788239 71.266716
137.34238 78.218559 71.366638
206.01062 110.04926 71.534569
247.42064 121.82309 71.59716
163.52301 116.77688 71.646477
201.92191 125.04781 71.611198
245.48471 119.00847 71.762894
214.70529 84.141174 71.953979
233.13734 102.97211 71.942383
208.60681 121.81778 71.923126
214.16791 83.609741 72.027008
209.65453 119.72906 72.060852
200.32564 110.26828 72.194611
248.39517 123.2878 72.104889
242.7973 116.89655 72.305267
216.10817 85.281372 72.541634
240.38762 113.6011 72.680214
195.86548 120.35806 72.689484
216.79103 87.190407 72.829994
241.72865 115.38129 72.87117
242.88391 117.08725 73.099564
195.60349 119.7982 73.005676
229.38916 98.583771 73.371254
247.23978 121.72813 73.687622
217.70657 87.754768 73.77961
248.75787 123.94999 73.73983
226.77457 97.100922 73.852463
209.37534 80.020126 73.946388
235.474 105.68385 74.17672
211.17938 80.125046 74.215103
209.31984 114.56553 74.266869
241.27783 114.83546 74.26709
176.51462 125.13892 74.348694
196.94928 112.54742 74.415344
203.92059 126.04442 74.576599
229.41444 98.353188 74.639954
176.07144 111.98953 74.611206
194.95441 116.12599 74.725334
226.95895 97.102966 74.832748
178.52962 122.46705 74.949738
212.43219 82.347839 75.097824
230.77071 101.29369 75.078491
198.50125 111.14702 75.120926
209.32426 115.25442 75.353737
226.10219 94.519737 75.683853
236.10843 106.37262 75.694107
194.41618 120.46324 75.608124
210.50832 78.860306 76.084259
240.49918 112.08008 76.146881
139.19235 77.277534 76.24369
198.59499 110.83372 76.545197
167.9915 126.81677 76.572784
138.255 77.170166 76.669304
213.47156 81.478287 76.665558
196.16505 125.3728 76.767281
175.21112 127.01254 76.781708
226.42947 96.105141 76.891289
241.23819 113.21523 76.834671
209.21483 115.98474 76.802231
208.48386 78.028893 76.957619
226.31479 94.500023 76.922569
200.16377 127.30227 77.029282
238.72589 111.35237 77.297455
215.57254 84.505905 77.653961
201.26045 108.09946 77.612572
138.3894 76.547096 77.760048
139.66479 77.724724 77.755478
241.03894 113.00035 77.777893
204.186 72.914276 77.852501
233.99854 105.15878 77.894485
223.35945 91.029037 78.101814
208.28809 114.4015 78.481735
238.95029 110.00911 78.519089
226.22086 95.513451 78.678009
226.39188 95.704041 78.660194
202.15555 110.22504 78.603836
179.09496 115.14562 78.656845
243.67764 118.69848 78.697235
228.07187 96.038826 78.799614
241.53177 115.56866 78.755623
139.80075 77.091537 78.866966
166.20642 112.5737 78.868637
247.14612 123.54483 78.860741
205.40271 126.39189 78.949669
234.21448 105.34332 79.09182
241.01173 114.82962 79.010742
165.12038 124.11853 79.034348
172.3804 108.08392 79.282303
217.98866 86.378151 79.34507
227.69681 97.105759 79.30674
244.34979 119.7349 79.373985
173.57846 106.47021 79.422928
199.26822 107.30167 79.442535
204.55186 127.18004 79.454437
208.89861 120.29121 79.568283
205.09209 72.875229 79.693832
211.92017 80.427521 79.619247
210.76761 79.264618 79.848633
218.31609 86.633163 79.850212
243.48035 118.50692 79.894676
205.21228 72.85154 79.981964
168.86066 108.81438 80.095901
180.09294 116.63568 80.00351
192.3826 119.61553 80.032959
176.7493 112.05822 80.150917
214.22496 82.391586 80.298645
235.56839 106.98146 80.287918
163.83522 120.0838 80.253616
209.11234 77.526283 80.392792
232.81711 103.4904 80.32058
163.93777 120.73244 80.39386
221.98987 89.056137 80.438339
230.88611 99.428253 80.554596
238.68228 111.55447 80.591125
227.14044 94.696968 80.642624
176.58331 105.28997 80.729568
199.19489 128.63173 80.765686
203.49995 71.061234 80.931633
195.64954 105.86485 80.931351
166.41655 112.39201 80.919533
242.34213 116.92703 80.919693
193.45874 115.17035 81.294281
165.42712 124.85172 81.261208
220.02426 86.72123 81.351944
242.05893 116.55764 81.468521
224.28302 91.331894 81.574654
231.43802 101.6608 81.545456
193.599 114.86983 81.519989
207.47971 116.36865 81.519432
172.45131 128.79118 81.515503
208.65485 119.8241 81.679718
220.07394 88.161789 81.780655
232.67583 101.60087 81.711777
242.40689 117.09618 81.843483
233.11499 102.14098 81.900726
201.0416 108.67555 81.937531
231.90244 102.21181 82.020111
162.22221 116.53049 82.138405
212.51796 80.149208 82.275955
221.49347 89.620888 82.236717
232.89751 103.44928 82.262222
234.30507 105.29117 82.209579
166.19223 111.81179 82.218117
204.66144 72.694054 82.355186
230.69873 99.056625 82.397026
169.49763 109.05009 82.471542
200.29774 110.70801 82.417969
165.46144 112.46745 82.469254
206.12894 113.06599 82.480133
245.01035 121.64441 82.410309
233.12491 102.10327 82.584763
207.96713 116.1172 82.59346
208.18152 115.98167 82.602669
222.18898 88.785324 82.838348
201.72984 109.3758 82.865753
169.80423 111.0176 82.871895
195.15155 112.93066 82.844444
198.25446 108.67963 82.990204
237.94144 108.89217 82.935577
242.76282 115.97639 82.918365
236.38562 108.40179 83.095215
198.07367 108.60438 83.053436
209.35727 125.99261 83.093376
208.49213 76.057022 83.172218
209.22678 118.53733 83.126717
236.34776 106.59297 83.292984
206.97427 116.79205 83.293472
160.87119 125.5965 83.25045
196.51355 129.07967 83.260101
174.04716 107.1004 83.329353
207.00922 114.89182 83.397568
193.29401 105.71609 83.426003
215.64651 82.966492 83.526627
233.0192 103.52053 83.543678
177.95654 106.73999 83.578461
179.76337 115.14502 83.599655
193.08107 115.11263 83.524429
222.72073 90.674118 83.654739
228.06073 95.640015 83.609634
232.28671 100.968 83.646248
239.22388 112.58971 83.616142
205.46336 113.01718 83.67968
242.58386 117.83878 83.654999
209.72382 77.008392 83.844673
218.60059 84.651329 83.874527
225.64294 92.5755 83.809418
240.67094 112.95743 83.899452
208.45233 125.58826 83.979439
163.5672 129.30878 83.948929
203.13507 70.725899 84.007156
208.9823 118.75044 84.030205
208.3876 124.54172 84.005615
175.49123 106.81557 84.157494
185.26935 108.30031 84.23996
206.41647 126.01837 84.281334
234.25616 103.61893 84.300125
178.54771 106.90119 84.393425
192.04001 116.74059 84.30146
173.52753 110.84557 84.463776
166.72404 112.0923 84.455147
204.86154 112.61747 84.461861
206.44315 131.069 84.495064
204.01689 70.045258 84.508972
211.92633 77.504555 84.575699
196.23462 108.32572 84.5895
241.09805 115.54221 84.541397
198.43637 129.87946 84.501755
205.46341 113.32139 84.611885
164.00093 119.77282 84.635117
207.28551 74.414948 84.749481
163.92329 115.48814 84.730499
162.59299 118.08496 84.799736
197.78671 111.69328 84.942963
180.55193 123.02615 84.939552
236.8217 109.19719 85.057945
197.55296 138.01498 85.047089
196.45828 138.44412 85.082069
175.35962 107.11951 85.187668
198.84749 111.43304 85.139664
193.44046 127.8927 85.146378
179.01625 106.05067 85.206535
185.91559 108.60102 85.251251
186.4543 140.30205 85.222839
187.75909 140.30386 85.222946
232.50842 102.91705 85.310875
166.04277 112.97617 85.386261
198.29507 136.84454 85.341484
234.61174 106.00361 85.486359
207.96063 121.90776 85.479973
175.50456 139.25084 85.465538
212.01945 78.632431 85.567947
207.8158 117.61425 85.581535
200.19371 130.20499 85.541283
221.05379 88.44487 85.653915
204.52043 114.1267 85.606606
193.99432 139.73344 85.67691
205.312 113.58559 85.729996
205.61766 116.07855 85.802841
164.65912 131.41696 85.88839
198.87961 136.35872 85.810715
200.8455 109.64888 85.926689
168.7885 110.80332 85.9991
206.91869 118.68538 85.927017
179.90994 124.68835 85.906349
204.90152 71.732544 86.09626
141.483 77.533867 86.076057
222.83194 88.864502 86.059059
234.40768 103.98026 86.032837
175.84445 137.91528 86.055161
164.15443 127.00813 86.23642
172.20824 108.68796 86.306412
140.29286 75.844406 86.475357
225.56024 93.886597 86.44516
219.29675 84.875603 86.515198
207.85364 121.53746 86.587128
194.51485 129.21095 86.540436
181.22462 139.9583 86.514771
238.79324 112.21258 86.737244
168.56201 128.03493 86.739136
222.09331 87.872086 86.886147
198.67473 108.78018 86.853355
199.15247 135.71262 86.938156
217.7308 84.529778 87.041138
240.7724 115.65675 87.009132
140.60866 77.165642 87.156693
231.25954 99.475357 87.196266
194.69131 113.58592 87.139328
207.17276 124.5051 87.171814
191.73671 107.30988 87.294693
206.67351 125.37985 87.266174
210.4903 75.265686 87.349594
235.13026 105.14404 87.372612
237.30997 110.09451 87.339149
170.15649 128.93715 87.301727
199.82935 136.35184 87.381416
180.46992 106.28194 87.480911
178.84946 106.47887 87.419479
199.7702 109.37998 87.493202
200.38815 109.73637 87.454926
203.72844 113.98651 87.448242
195.50845 138.23698 87.42308
179.25636 139.33717 87.432266
210.23431 76.325409 87.51619
164.09085 125.79922 87.560707
200.77811 130.54352 87.500771
194.02988 137.7244 87.580093
135.58841 64.889343 87.699463
195.28714 108.55 87.663338
208.23334 123.23112 87.608803
202.50241 134.12627 87.645058
196.75592 112.59116 87.758179
207.52673 118.42113 87.728134
138.20639 69.217926 87.856247
233.46547 104.52065 87.858414
237.26535 110.07747 87.935669
133.37813 65.475876 88
141.98096 76.799187 88.040535
141.77841 76.85997 88.056961
206.18237 116.02886 88.030853
206.67313 116.99541 88.090561
207.14363 117.93919 88.039856
200.85233 130.67488 88.084831
139.66803 71.560684 88.122452
170.97824 109.59723 88.106384
173.40469 111.1197 88.190575
172.8808 129.70255 88.121788
183.83154 139.6877 88.171814
187.51271 108.68848 88.237808
190.36201 122.33357 88.294716
208.00691 122.61974 88.230553
166.63019 114.11548 88.326996
204.50682 130.1909 88.365112
170.33337 134.05505 88.370171
233.37648 102.66789 88.43457
206.43869 125.97549 88.449547
194.64532 130.13461 88.475601
194.22549 108.28471 88.558777
171.00247 111.06065 88.599739
180.82892 117.33467 88.508621
220.33501 85.585464 88.604401
198.97076 112.24046 88.616791
207.93069 124.95851 88.617737
212.63284 78.60437 88.771111
166.5937 114.27113 88.745049
163.17502 120.8049 88.793106
176.13913 107.59835 88.888634
178.28967 107.68608 88.80674
194.10457 138.29156 88.863396
143.78409 79.182022 88.959007
206.78201 125.11921 88.979591
163.68356 126.57709 88.933975
214.26654 80.323738 89.099335
200.58495 130.98376 89.094971
137.95334 73.365189 89.100586
219.11577 85.615555 89.145302
140.86548 74.655251 89.273979
216.93752 83.21373 89.246002
195.19676 113.52998 89.234383
166.30867 116.24239 89.246483
176.70546 138.09697 89.203583
223.16693 90.649429 89.416351
236.34543 107.088 89.461449
192.35822 116.09833 89.448242
206.19904 116.95556 89.47197
207.09 119.71852 89.528381
166.67853 129.77081 89.51564
217.18813 83.403587 89.659378
227.33319 94.268326 89.792641
196.69066 113.13061 89.771935
164.98892 118.91273 89.772858
243.3911 118.93389 89.852318
190.4854 137.7197 89.8358
224.40054 92.164536 89.975624
169.17116 113.03731 89.943016
243.98111 120.52031 89.940147
206.23772 122.84558 89.957176
206.55608 125.48717 89.908722
212.7337 78.388161 90.375427
237.35382 110.72647 90.350021
206.08936 122.24562 90.375549
200.07448 131.38933 90.320999
170.67966 133.35861 90.485077
187.87646 137.86343 90.442307
235.39653 105.78815 90.529694
178.28893 108.91945 90.612793
196.79681 113.31932 90.686844
238.10803 110.15657 90.754105
171.9615 110.87862 90.788544
169.59163 112.91351 90.753448
239.8466 115.15009 90.962395
216.78607 81.214363 91.01889
220.74303 87.475105 91.004257
207.21263 72.305939 91.174248
229.69989 97.514984 91.131706
169.57973 113.05528 91.199173
242.94398 120.5484 91.183754
206.23262 126.87138 91.186264
220.39766 87.019699 91.272903
226.44295 94.646347 91.264259
170.12112 112.61485 91.29007
236.63159 109.75739 91.322571
172.53778 111.60521 91.385269
179.83911 138.0211 91.388153
170.87943 133.07191 91.4646
221.86783 87.243446 91.574524
234.64655 104.78739 91.703819
199.70343 113.3703 91.753395
210.08267 73.706886 91.898651
237.78523 111.8624 91.818802
199.27678 113.37239 91.976013
165.96547 118.5657 92.001907
174.13692 134.85469 92.003204
181.58728 109.28222 92.26078
178.18715 137.49373 92.259064
195.1712 135.33591 92.63147
195.46045 109.63641 92.709648
164.46483 123.62861 92.779922
208.33157 73.078926 92.817978
168.30573 113.3737 92.877167
189.0657 137.76514 92.888458
174.40227 134.62486 92.928596
169.49661 113.65295 93.033455
166.70453 115.42378 93.069412
143.83716 76.474831 93.109756
211.74203 76.741562 93.139023
220.75447 87.334412 93.118073
196.01062 109.01235 93.123169
203.57608 115.66705 93.186234
167.94791 130.95322 93.138611
173.04102 133.92551 93.204796
198.14267 109.95799 93.365196
166.70227 115.61816 93.380501
166.12436 125.45469 93.39801
175.20482 134.83008 93.319565
211.79254 75.258209 93.461731
201.83696 131.85832 93.467392
208.38208 71.514648 93.536819
201.27303 112.39323 93.542786
213.89307 78.986816 93.661263
191.68198 109.21857 93.691322
173.47469 109.74081 93.673355
203.4572 130.28821 93.676338
173.39319 134.89645 93.65152
193.2498 136.78297 93.685226
186.89819 137.7831 93.658455
179.79904 136.30754 93.733162
229.74585 99.574196 93.891312
218.99608 83.450119 93.902145
228.20361 97.323318 93.915024
189.20761 109.24242 93.941788
240.80226 115.62009 93.927071
230.34491 100.46343 94.06675
165.48248 126.14477 94.014389
177.73735 135.68663 94.037613
185.94641 137.76372 94.019852
229.92542 99.854736 94.117355
201.60919 114.09758 94.12809
241.58987 117.11263 94.139648
204.41737 117.41653 94.103798
166.07111 124.74802 94.15892
178.56641 108.63445 94.232552
169.44696 130.4809 94.240952
196.56151 135.13199 94.250366
196.39076 109.42868 94.357513
238.34793 113.56982 94.565224
205.72427 125.1035 94.602264
166.86977 128.56497 94.696014
195.10492 108.9679 94.737617
195.92085 110.22472 94.754082
165.2018 119.608 94.750519
143.45316 75.087982 94.88575
216.14059 79.779305 94.840698
202.59085 130.53677 94.84803
204.79358 126.78995 94.983093
233.53473 103.57645 95.280426
239.78951 114.25263 95.259514
226.30508 94.662567 95.309128
200.44165 130.93576 95.394661
187.91049 136.10558 95.346573
179.13478 136.41647 95.395355
187.40619 136.96541 95.496613
213.35754 78.011093 95.578659
234.58879 105.45036 95.551872
197.08051 109.95908 95.525711
230.37071 100.62967 95.659424
192.41524 108.18052 95.636787
221.4308 86.386833 95.73317
166.56438 121.63422 95.756203
170.98555 131.19473 95.799164
218.39328 84.155472 95.847122
232.03046 101.2977 95.813995
172.01529 133.38177 95.896912
174.1758 133.47447 95.956322
187.03322 109.4442 96.018311
216.98306 80.745674 96.152649
200.12378 113.38603 96.163757
170.95129 132.30795 96.127434
221.75021 88.362251 96.22905
229.6265 99.588112 96.22393
199.13416 112.56754 96.293549
239.67773 116.55828 96.249741
237.86356 113.22529 96.341156
174.23729 133.3564 96.380234
185.58861 136.8542 96.366371
198.43922 110.80835 96.40416
213.65967 76.666908 96.570114
238.88757 115.09118 96.514732
204.08954 121.60365 96.69915
176.34204 134.86668 96.643585
192.17917 134.97443 96.661469
189.73383 135.3325 96.687759
186.31294 136.6123 96.721169
205.83032 69.500931 96.960411
192.75774 109.31933 96.951561
201.2778 113.43137 96.983185
205.05049 120.65112 96.946289
173.34662 133.63303 96.917213
215.79361 79.17598 97.096558
176.19926 110.18922 97.136658
209.974 73.975235 97.233894
143.62483 76.887413 97.292694
224.00134 89.690163 97.316917
194.48721 109.24223 97.31739
235.79291 109.97144 97.380249
171.64809 132.36534 97.379395
195.27299 133.39182 97.331207
173.96301 110.32351 97.48587
173.5864 111.35816 97.443001
237.52715 112.94229 97.413734
215.00986 78.154022 97.550415
223.38995 88.818977 97.588646
239.69659 117.28745 97.571205
219.77272 85.7658 97.616936
175.97321 133.67705 97.617935
193.905 134.84006 97.782913
216.69516 80.259613 97.82637
204.19247 118.24295 97.845558
179.55592 134.64377 97.872574
201.09186 113.57043 97.97979
197.40068 132.48415 98.011673
234.96112 108.79887 98.292526
184.33295 109.86431 98.253754
172.15224 131.18784 98.229652
234.21967 105.57494 98.329849
194.61151 109.51334 98.390854
178.71729 135.14392 98.374771
183.98764 135.84737 98.384003
166.65016 125.0285 98.425636
202.77034 128.2565 98.487167
220.3302 86.397209 98.595818
228.13701 97.60321 98.588242
195.60651 132.8951 98.549652
175.06613 110.95988 98.679802
198.57257 112.7356 98.6194
221.62587 88.113655 98.854637
168.61012 115.33711 98.997116
198.09422 132.7131 99.00441
147.33331 71.148575 99.15554
144.96509 75.311142 99.127487
175.32875 110.93478 99.136482
172.22838 111.86108 99.107887
202.53552 125.88275 99.136841
229.75833 98.25782 99.271881
222.86964 88.20356 99.378769
192.45445 109.64896 99.397034
200.64529 113.59969 99.36869
192.69012 134.5816 99.322433
170.8149 113.17071 99.420181
173.44232 131.80489 99.493073
143.70993 72.039314 99.639679
143.69409 80.016647 99.603096
224.90096 91.194138 99.666901
190.46552 134.04874 99.697029
214.93266 77.898483 99.70462
182.88393 109.81089 99.79335
143.85294 76.822662 99.91272
194.82581 110.74844 99.951843
191.7363 133.75247 99.974289
208.41196 71.672813 100.156
145.24373 80.598602 100.16171
143.91399 80.602051 100.13608
222.74162 88.085258 100.23009
231.59683 101.60961 100.221
232.06805 104.40555 100.3068
172.34488 112.11835 100.3611
143.47513 80.758087 100.48863
169.30557 116.90536 100.46727
230.6124 101.97701 100.51822
145.45692 69.744652 100.69093
224.54648 92.521103 100.60394
143.23357 70.321007 100.79185
209.82239 73.086708 100.78501
143.04646 80.510925 100.75909
194.80321 110.89665 100.8218
202.79207 121.00136 100.89685
175.98532 132.349 100.92459
193.96118 132.61983 100.95979
186.5816 134.86426 100.9156
217.19006 80.64476 101.08341
146.37718 81.697952 101.06858
225.12518 91.631287 101.02402
143.99484 75.18885 101.16669
168.98965 127.84509 101.15131
200.64296 128.22948 101.17754
200.43121 129.62921 101.11334
146.78775 81.45092 101.29309
169.54823 114.83926 101.25988
182.99448 133.75922 101.28107
171.2412 128.98732 101.39863
212.44012 74.618355 101.55772
145.4541 82.447617 101.51416
198.77582 112.59953 101.52098
203.37863 118.8649 101.54744
197.69427 112.78517 101.62576
221.48651 88.142036 101.72807
228.9668 97.540108 101.77357
184.77104 110.00534 101.79491
172.14046 130.8051 101.77182
143.20888 71.098549 101.95352
144.32764 82.485657 102.05421
223.51784 89.366547 102.05479
180.28476 108.86137 102.09598
179.63269 108.93661 102.06694
179.1853 109.03172 102.04623
142.71735 76.587425 102.12186
146.70854 83.555855 102.17701
219.62161 101.70244 102.11571
238.54059 115.08958 102.12529
142.51031 79.780586 102.2737
189.08183 110.05042 102.25743
194.59552 110.26186 102.23474
141.71318 75.655128 102.39311
142.10072 79.827995 102.36766
209.70404 71.150055 102.4304
181.91277 109.42012 102.47823
167.6559 120.94447 102.45643
212.3112 74.384888 102.52209
225.77847 92.707916 102.53924
144.78967 83.516975 102.63661
176.92413 110.09349 102.60796
236.54236 113.52867 102.64422
167.743 119.54123 102.63593
170.28395 127.21289 102.67299
202.42529 125.59392 102.7311
209.51152 72.438713 102.82618
229.03198 99.915932 102.86552
168.7352 120.54015 102.82121
141.7453 75.247498 102.9761
229.4671 98.729095 103.00507
185.12012 108.72711 103.08313
236.91733 112.29288 103.08676
143.06177 75.033951 103.10915
142.67625 80.597855 103.16149
210.55197 80.226921 103.23793
143.49481 82.405701 103.21628
167.9462 119.26855 103.26447
219.12973 96.847313 103.35921
217.36591 96.897026 103.45895
216.97134 97.221077 103.55934
198.0076 112.51025 103.53244
144.97028 85.331764 103.60425
226.24568 95.378845 103.67976
181.87825 108.90808 103.63115
184.53876 110.18313 103.62555
194.2135 131.41661 103.64345
172.90611 112.58817 103.70433
172.0757 113.30837 103.71467
174.29745 112.4818 103.87113
201.97549 123.30737 103.80872
175.90875 131.39342 103.88399
216.3934 81.038315 103.94614
185.18402 108.52834 103.91141
233.17267 105.33244 104.01718
211.47281 83.335762 104.14452
219.2438 95.187401 104.15739
147.12318 86.147591 104.20583
221.09714 96.788177 104.28839
236.48343 112.01859 104.24902
171.48572 115.00487 104.21626
169.67725 126.83311 104.29964
142.54863 80.574257 104.37146
218.74866 94.650475 104.30087
215.71205 100.19798 104.37465
213.81757 82.610046 104.47205
227.54187 97.806824 104.46855
169.41016 124.05054 104.40213
213.6243 84.568008 104.55875
216.43015 93.465073 104.52551
182.28207 132.33624 104.62335
212.65555 76.263954 104.74724
235.26549 109.78716 104.71493
214.11574 86.497025 104.89909
171.3632 114.23528 104.80607
202.34975 118.80867 104.88414
213.99548 81.388123 104.92073
197.44492 112.43094 104.95687
142.52788 71.339478 105.0656
144.76413 87.192688 105.08187
192.08195 110.51162 105.01997
141.80296 73.165672 105.13298
199.76697 114.48712 105.13414
201.54526 122.03827 105.16924
211.31345 72.92231 105.29089
144.48994 86.991104 105.25106
221.70265 88.742508 105.25555
145.86343 90.031982 105.29408
223.03011 98.104286 105.24903
186.39481 109.49079 105.23091
209.46353 78.866058 105.35109
214.37405 84.440826 105.3187
215.47958 87.474701 105.30386
191.62141 110.37738 105.34985
236.56442 114.98206 105.33887
182.32181 132.76514 105.36064
142.00534 76.768555 105.48257
148.16953 87.74472 105.50089
222.60927 97.268784 105.50121
146.73337 93.477798 105.60374
142.12209 77.797401 105.71265
225.45123 94.578392 105.7262
181.93428 131.8551 105.71734
215.33344 85.926064 105.81062
223.18277 89.182251 105.83521
146.25468 94.00238 105.86284
143.13814 72.845833 105.98507
214.8564 83.424286 105.91574
215.63397 85.756462 105.94947
146.59785 95.510941 105.96842
170.32446 116.09364 105.99734
142.33932 72.668175 106.02396
210.71205 76.58213 106.00376
220.26036 93.298096 106.09262
147.29645 96.718117 106.09622
190.96115 132.15918 106.07399
212.31973 78.188087 106.10004
221.62827 95.175873 106.16891
176.40814 111.01022 106.18454
148.67181 84.322906 106.26586
183.28482 109.13773 106.20596
201.59741 124.59258 106.2483
171.55145 128.28853 106.23098
181.07579 132.23112 106.25455
217.03671 87.779747 106.39301
213.46155 77.146538 106.57924
219.35033 83.641426 106.54601
187.50139 109.20824 106.51343
193.51871 111.34694 106.54332
216.21822 85.923866 106.61649
229.84448 102.33163 106.64839
145.05669 76.399429 106.76264
210.2218 76.767189 106.79317
212.67615 78.806526 106.77502
215.70755 80.105705 106.74739
211.92792 77.252243 106.81956
222.90047 90.624557 106.89555
214.09325 94.380486 106.83496
227.2626 96.004349 106.83217
146.94112 99.106171 106.80322
223.58939 104.3891 106.80525
236.30559 113.00712 106.83104
210.60017 77.806778 106.95042
219.36981 91.645546 106.93513
179.53363 109.81463 106.96792
194.30161 130.45912 106.91316
195.55373 130.94609 106.957
214.33331 98.484329 107.05376
177.0687 131.14264 107.0892
182.33421 131.39659 107.0065
172.10037 114.21751 107.11863
199.28978 114.5951 107.18286
149.27223 77.73613 107.29343
211.2336 79.573311 107.2684
143.39293 84.629097 107.2869
169.16939 120.73395 107.29567
200.91826 121.44588 107.25731
171.38725 127.68301 107.27039
198.93204 127.15431 107.38211
185.44534 131.6757 107.3529
211.95096 80.340416 107.48286
215.26324 81.567917 107.4938
219.51566 83.95871 107.48521
215.93642 84.607391 107.44878
227.72198 96.949768 107.42426
191.41994 110.48618 107.47429
173.43045 129.43848 107.44551
196.08354 129.64816 107.5117
215.48117 78.080093 107.66837
146.49297 100.52445 107.61208
218.11008 104.45526 107.6319
192.40955 110.34897 107.67884
152.11002 93.570564 107.76508
223.45328 96.889618 107.7422
182.095 109.48157 107.76638
221.52696 88.694214 107.83694
196.54437 113.23097 107.88389
217.95802 88.480942 107.99297
217.18675 80.602081 108.04654
221.73056 89.005753 108.01208
198.39952 113.98502 108.00885
213.10992 77.91227 108.19463
213.86847 94.210724 108.10922
214.32655 100.01197 108.13136
144.46687 78.675606 108.2014
143.95718 87.897842 108.21199
224.16525 91.096375 108.23615
223.5878 96.993149 108.27977
171.7498 126.18976 108.20625
235.16302 111.46373 108.32088
182.29272 131.40392 108.45044
144.45097 79.827682 108.59659
230.29703 103.93613 108.5734
231.90952 107.19853 108.54701
180.30028 110.27357 108.56818
181.2121 131.19022 108.5766
218.45169 89.312645 108.62733
150.27014 93.520515 108.69307
150.86092 94.264168 108.69687
150.82776 96.912376 108.63805
181.41385 131.1898 108.62828
147.16776 76.142395 108.73792
212.65001 77.260628 108.78033
219.10197 90.763779 108.71064
143.86809 93.93924 108.7142
185.05183 109.44624 108.7005
194.19142 111.70808 108.7119
178.5204 130.24373 108.76785
147.95872 81.247269 108.88708
224.51428 91.856979 108.84126
220.95483 92.764778 108.88082
223.55821 96.670029 108.85357
192.12057 110.41562 108.86871
146.61975 79.179291 108.9315
217.23019 82.508652 108.96266
148.69852 84.847458 108.99384
224.52197 93.873535 108.97141
231.08261 103.52168 108.99055
181.32809 110.27395 108.99808
196.60538 113.40897 108.94395
146.49524 79.457916 109.02381
148.31732 83.819923 109.02125
226.22662 94.845894 109.07977
217.61035 87.360443 109.14533
219.55881 91.102753 109.11605
215.65973 83.544373 109.21071
152.07584 91.129089 109.25726
223.52347 92.240334 109.23663
196.26216 112.37884 109.27791
174.23026 112.86156 109.28441
199.38245 127.1562 109.25736
151.95773 100.41505 109.32256
183.43233 109.50723 109.39413
201.2224 122.47894 109.30443
209.6172 75.793304 109.44235
145.31923 101.69872 109.4667
229.59589 102.99079 109.49097
209.49139 75.661514 109.56218
143.57956 92.297897 109.54563
191.50952 110.26583 109.55083
193.71112 111.53107 109.51334
144.009 87.195229 109.69964
169.87044 120.41733 109.6868
220.81836 87.811279 109.72192
143.66858 89.046783 109.75015
191.49185 110.63628 109.70375
171.85928 115.09811 109.71832
171.17789 117.7092 109.73677
146.82526 76.535416 109.86499
171.96178 126.389 109.87192
215.08984 79.46508 109.98956
143.65302 89.139893 110.08324
199.05176 115.26132 110.05092
169.97646 121.75674 110.14526
218.44077 89.762024 110.28046
193.75923 111.57829 110.29016
215.18837 79.639015 110.36126
225.01364 99.106186 110.32678
153.38797 93.335602 110.40636
211.58908 75.094826 110.50359
214.20557 92.30719 110.52802
224.10057 93.574829 110.52117
182.64761 130.5517 110.50222
217.85889 83.570343 110.73846
213.78781 90.386925 110.7702
225.8297 103.62912 110.779
173.73662 128.08417 110.74237
188.93549 130.7644 110.7957
212.26622 75.620354 110.83755
215.59573 84.048859 110.81457
147.92209 85.599396 110.89175
216.95844 106.70493 110.92238
171.04642 119.09895 110.93005
145.94696 96.060715 111.03658
213.57764 77.717873 111.18696
145.43768 85.942001 111.2515
215.14345 92.568062 111.23417
143.67642 96.473969 111.23979
216.37872 81.455276 111.32148
229.08473 102.91526 111.33302
171.21439 118.44633 111.3133
200.11798 123.48314 111.38699
230.94135 104.51837 111.44804
221.25693 88.991196 111.52428
232.86436 108.47382 111.5386
145.54645 95.933434 111.78796
216.3217 87.717751 111.8539
214.84486 89.645164 111.89503
213.37827 77.123795 111.95775
215.3494 90.29068 111.99948
191.45148 110.74736 111.99553
199.45137 124.63551 111.96689
198.96242 126.61583 111.94824
177.78331 129.21695 111.90758
170.61523 123.03363 112.01892
151.14879 88.844887 112.11259
154.2276 95.137833 112.18316
149.83353 87.467209 112.26591
143.92793 99.832855 112.23028
171.40518 125.80602 112.24635
146.18126 86.545197 112.39223
219.694 86.554924 112.38161
215.76303 92.866333 112.3444
217.07742 103.82083 112.37047
144.5224 74.190079 112.4709
211.5954 78.473068 112.40352
217.03497 108.91709 112.41939
213.99487 85.1464 112.62239
143.69972 98.666885 112.606
181.59459 110.35709 112.6749
191.34537 110.67061 112.62328
145.82523 75.849312 112.83405
213.49904 84.608292 112.80084
224.77596 99.772789 112.82959
219.16472 118.94301 112.88158
226.60985 96.546944 112.93093
217.05826 104.66756 112.98596
193.2291 111.38469 112.95999
193.40173 111.4593 113.0749
225.45535 101.07201 113.11052
178.23149 129.22028 113.19717
187.3913 130.09622 113.1709
183.36755 130.57353 113.29822
221.85718 90.501816 113.30972
221.09338 95.350784 113.30824
226.07108 95.732086 113.31822
194.60947 111.9197 113.31441
217.98914 118.87535 113.45766
172.41441 126.50514 113.45319
179.58511 129.44644 113.44682
217.34875 94.403099 113.56232
226.2738 106.28006 113.60172
209.75003 83.227386 113.771
145.69623 88.487915 113.83357
223.16428 98.362793 113.84321
227.14217 100.26424 113.81371
152.48399 112.02413 113.87508
181.14056 129.5896 113.81051
148.02142 87.714783 113.93881
179.96906 110.78235 113.96331
175.55853 128.14726 113.90999
183.91693 130.71078 113.92206
221.35854 99.933029 114.08801
229.32674 104.80408 114.00816
195.38107 112.5795 114.07367
199.29416 117.47009 114.09303
199.54031 122.51102 114.00994
192.96841 128.60973 114.06403
225.92667 95.759911 114.18819
143.72537 96.445435 114.187
226.14694 105.98255 114.16139
197.46866 114.77561 114.15033
179.16418 129.06332 114.17691
146.56287 88.269417 114.27177
148.96692 108.06725 114.24785
145.63846 89.282578 114.48003
215.80898 112.62916 114.51631
187.25089 130.39941 114.54218
178.52228 132.13155 114.58617
217.86659 104.45946 114.78859
217.63672 119.74438 114.72116
185.81613 109.37838 114.88972
184.28763 130.72769 114.88911
149.22517 88.709671 114.91573
149.37677 88.757111 114.93525
221.34615 98.30468 114.99855
198.51312 125.60599 114.95818
220.80109 97.896019 115.01574
230.03104 106.76949 115.02958
143.87999 97.727318 115.15266
216.99831 82.730827 115.25033
190.74142 109.49203 115.25997
176.38808 131.86279 115.25769
154.87827 109.03914 115.34782
173.88715 114.55721 115.32534
182.37012 109.43288 115.4997
198.29718 125.99881 115.44471
192.52905 130.13394 115.60066
218.97566 100.53381 115.77904
200.06822 123.51894 115.81335
199.07195 127.63958 115.8426
177.91727 109.98656 116.02268
174.49805 111.87791 116.00583
170.85895 120.13516 116.05429
172.4158 114.54883 116.18118
221.03751 117.87869 116.1284
144.97502 93.596367 116.23837
217.6059 106.50103 116.32162
148.48164 109.18036 116.41907
148.84238 90.144684 116.57832
222.37428 90.292709 116.53418
224.33798 95.991219 116.54268
227.57057 100.35925 116.59741
146.03981 91.975006 116.68631
144.86197 94.592079 116.65094
223.99324 95.336258 116.63026
228.86813 103.02032 116.64362
186.35255 130.86024 116.66084
173.01407 113.25143 116.77562
222.74371 104.50981 116.8167
193.53792 110.10365 116.85981
195.74826 111.05103 116.80775
146.37042 95.636086 116.91373
151.29413 91.911423 117.07652
221.42914 103.21303 117.06048
224.34619 94.10434 117.16363
220.5808 103.64313 117.19847
219.51263 106.24343 117.19398
223.81926 114.52169 117.16817
219.5399 85.651108 117.26456
186.86255 109.15951 117.28461
200.26982 127.27354 117.22247
154.89079 100.48494 117.4346
222.78343 105.79986 117.41652
177.43631 110.08574 117.40192
216.46017 80.481384 117.59666
154.46873 99.401413 117.50727
213.99628 114.70848 117.50246
222.01901 117.17461 117.55206
182.00043 132.34299 117.52435
156.12032 103.7394 117.69116
219.31439 108.32697 117.6964
226.45781 98.697792 117.74509
174.84337 111.17425 117.75057
171.0907 127.89751 117.73082
180.58804 109.15389 117.85822
173.11911 112.67438 117.89221
218.12219 120.58068 117.82798
197.07449 129.97174 117.82594
173.49294 131.96785 117.89506
216.35349 80.391701 117.93739
194.5882 110.24782 117.92012
152.85696 96.866768 118.08449
153.9438 99.048111 118.04372
151.02026 94.846031 118.16135
229.98312 106.4594 118.13104
154.09891 100.24412 118.27933
228.46965 103.08264 118.312
221.88802 104.33783 118.33211
156.5071 109.13039 118.31316
152.76953 96.82235 118.4846
228.04645 102.28654 118.43459
188.26852 109.0629 118.41806
217.81711 83.04567 118.50414
213.68546 115.67991 118.56944
174.19267 132.49661 118.53422
221.6987 91.728088 118.64822
191.18068 131.13405 118.79375
219.58131 105.77675 118.81915
147.04773 105.83745 118.80965
222.60107 115.99442 118.82039
152.98193 99.525146 118.90952
219.84669 119.16727 118.95449
221.76407 92.078743 119.06541
196.31407 110.83447 119.06881
176.04213 133.16449 119.0945
216.00879 81.779663 119.15392
150.16617 95.775436 119.16655
180.39877 133.3645 119.22096
190.02777 108.93919 119.40643
213.67165 112.13614 119.44342
220.33829 118.83037 119.49426
221.29379 106.14723 119.54549
153.33078 99.321442 119.83407
154.1734 101.01672 119.83372
227.84773 102.77425 119.99281
215.52551 109.78072 119.99417
200.37537 128.33595 119.95394
218.85742 107.206 120.07867
147.49142 102.44051 120.10089
223.23138 113.50143 120.16846
223.22076 110.03546 120.26564
216.91934 108.67263 120.38047
201.89685 122.3257 120.37166
221.88823 107.1779 120.44982
148.06564 109.51542 120.45767
196.61771 131.00975 120.4549
187.72977 131.72458 120.48486
223.26086 110.33083 120.53566
190.19812 131.84276 120.57986
186.40723 131.90166 120.50366
218.86798 85.430687 120.675
222.18045 108.53734 120.69662
177.33163 109.45682 120.60242
201.02853 128.03603 120.68611
170.19319 128.3819 120.64944
193.39485 132.01236 120.64902
227.14232 101.66644 120.73309
227.3186 104.76299 120.80043
214.35992 110.5685 120.80531
170.19305 116.39727 120.86972
213.26247 119.69705 120.80901
188.89435 131.63132 120.8208
219.11725 85.925262 120.92827
227.50998 105.37963 120.96101
222.60782 109.86064 120.90282
169.47523 120.50431 120.90031
182.83089 133.20691 120.95114
185.15057 108.7289 121.08861
173.78218 111.07395 121.01588
197.51663 131.0042 121.27946
150.40556 100.35188 121.31879
201.43242 117.48494 121.37405
183.38435 108.67514 121.42567
226.09277 99.964432 121.58833
190.03548 108.67183 121.59789
197.53735 111.0764 121.50002
171.64117 113.16029 121.51167
155.86734 104.02173 121.68089
172.36523 112.1593 121.69357
155.43295 116.08908 121.60182
169.2225 126.42003 121.68149
183.25491 133.33018 121.74277
148.99376 102.50676 121.81451
222.49854 95.102676 121.99533
149.12372 102.46823 121.92159
181.24722 108.62515 121.98854
169.15228 120.49715 121.91568
152.59286 101.59218 122.06325
216.19916 109.27567 122.07446
201.26971 116.19604 122.04177
185.22203 108.58662 122.15857
217.69846 108.9547 122.10374
211.4198 118.9196 122.10596
191.0415 132.17432 122.10654
214.05739 110.4894 122.38635
169.03491 126.5855 122.31897
222.47307 95.313904 122.49907
148.0527 106.07134 122.43344
158.99625 108.68777 122.48907
202.53909 123.88058 122.58791
174.34004 133.92712 122.56059
148.62762 104.52207 122.6092
217.4895 108.86159 122.66701
177.53035 109.02257 122.83346
169.92145 115.18032 123.0403
202.76395 122.55998 123.00676
220.10648 89.044472 123.17197
215.38966 111.46994 123.11434
224.67946 100.30531 123.21213
183.53281 108.48062 123.28311
216.84625 111.44753 123.21005
160.38705 112.70708 123.22359
169.1077 127.54517 123.26272
213.19112 112.25079 123.33698
176.46539 134.73004 123.31621
153.92378 103.20203 123.46341
148.88409 105.2664 123.55415
197.39435 110.48759 123.55334
220.42245 90.590149 123.6292
224.07196 99.189041 123.66492
201.13712 129.44803 123.69432
183.58304 133.85001 123.60502
221.66544 94.3228 123.7431
195.9337 109.66929 123.78656
202.78827 120.6167 124.09227
153.80342 103.6227 124.13644
177.76674 108.78625 124.14203
154.99158 104.36678 124.2016
181.14287 108.41782 124.29913
171.85153 111.92985 124.29207
148.549 106.09338 124.36109
219.50218 110.06287 124.39883
155.96243 105.68507 124.42075
197.38422 110.32012 124.55453
203.18454 124.03308 124.58338
152.94766 103.42238 124.77359
191.19127 108.54923 124.7121
168.20129 118.9349 124.94601
217.33765 121.48676 125.03504
213.60005 110.50983 125.15773
224.06726 100.60742 125.29682
188.78903 133.21716 125.21284
190.86122 108.47729 125.32823
199.29161 111.68253 125.3669
219.90143 116.44662 125.53085
191.07161 133.58113 125.56358
219.75206 111.19733 125.64001
187.10924 108.43362 125.76099
192.44731 108.59634 125.81643
203.20709 117.9172 126.07674
157.67245 120.01172 126.05318
191.09427 133.67894 126.19186
181.59586 135.24551 126.13631
150.83403 112.36003 126.2487
211.09645 122.5732 126.23242
203.4993 125.68408 126.23497
167.40813 121.25397 126.39636
208.82224 115.21603 126.43948
172.33438 134.43135 126.69266
162.58748 116.38844 126.79562
179.88045 135.99466 126.73137
162.43428 113.82896 126.85181
195.34009 109.23031 126.9241
214.23349 109.86523 126.97455
155.14514 107.0239 127.00871
167.76268 127.25697 127.01289
153.05672 104.75372 127.12869
177.32635 108.76132 127.15015
169.52293 113.73846 127.26575
223.70326 99.571846 127.32887
202.43365 115.0607 127.31668
176.03336 109.13976 127.42878
170.41748 133.61115 127.52461
151.58041 110.60757 127.67165
207.9325 121.49247 127.65472
216.50468 109.98833 127.71152
175.68697 109.20011 127.85614
203.01645 129.26749 127.85493
199.02313 132.47824 127.89213
204.37732 123.64913 127.90129
223.26604 98.458305 128.08223
223.23473 98.713409 128.13916
168.07944 115.69466 128.16702
188.95721 134.31432 128.1095
190.76324 108.45569 128.22214
190.65802 134.44989 128.24438
167.47969 128.34085 128.3248
151.57504 105.5332 128.4313
176.14307 109.04213 128.45645
194.54573 134.48659 128.52306
191.47278 108.52303 128.65417
203.48801 128.74921 128.69513
184.74133 108.44588 128.7392
153.06598 105.5334 128.88129
191.55722 108.51882 128.81113
201.09341 112.52225 128.83052
153.03409 105.35477 128.92743
168.64636 114.32721 128.97127
174.58049 136.05426 128.92149
161.45955 121.35201 129.06602
193.65736 134.60712 129.06015
190.32837 108.46517 129.17664
196.86052 109.51545 129.17757
180.75977 136.7364 129.21045
212.70044 112.62551 129.30167
168.32774 114.81035 129.39888
203.61607 128.99077 129.3582
179.88985 108.47353 129.42859
201.51183 112.88699 129.43214
167.55736 116.29295 129.4791
152.39255 111.66417 129.51216
195.67136 109.13818 129.61964
152.43925 111.80625 129.6601
166.67598 119.39954 129.642
194.95448 134.57883 129.68413
186.26031 135.08469 129.64165
216.12802 122.08257 129.828
193.81581 134.96028 129.8629
178.06882 108.49203 129.94012
194.41122 108.739 130.09061
197.29001 109.63966 130.03958
170.06578 112.35728 130.19321
163.97626 114.67473 130.13986
180.85324 136.94482 130.17485
176.89496 108.67439 130.29315
202.79138 114.54215 130.34702
212.90839 112.92584 130.48988
167.6861 115.68947 130.46935
187.78177 108.44903 130.55722
177.73177 108.48231 130.60318
184.14896 108.48796 130.62726
186.94141 134.8924 130.68857
188.5769 108.55908 130.74146
204.81461 119.32179 130.73068
185.86548 108.58653 131.02756
172.87111 110.21284 131.12672
190.99045 108.68266 131.28305
195.80247 109.23562 131.28046
196.22937 134.73055 131.22264
153.29169 118.31815 131.30737
167.19223 116.26621 131.58942
204.71773 117.94041 131.59708
184.23531 108.75563 131.68175
204.51048 128.49922 131.79047
185.02826 136.02948 131.79224
160.46632 123.81259 131.83989
200.02725 111.41454 131.93506
171.41342 135.54698 131.97829
174.1768 136.67886 132.09178
188.5313 108.85603 132.14644
166.57797 128.50226 132.22433
193.1409 135.52225 132.23633
201.67046 112.87207 132.39513
204.63074 118.30814 132.32465
204.80865 128.12541 132.47701
171.64397 135.97359 132.49597
208.75157 113.60475 132.62939
201.05624 112.29813 132.84465
163.67328 121.25317 132.87146
183.95258 109.07172 132.98059
167.96432 114.69076 132.94324
186.07529 109.09161 133.05917
181.98618 137.24252 133.35721
207.50836 114.14605 133.43456
192.27269 135.87656 133.59135
214.15555 115.02211 133.78075
185.09818 136.29324 133.79558
179.53513 137.64154 133.70154
203.91904 115.9166 133.98767
164.22478 120.0806 133.94693
153.91055 118.47226 134.05623
203.91257 130.46634 134.03185
206.56911 114.79449 134.13358
195.96649 135.45375 134.13203
171.89227 111.01785 134.21231
214.57137 115.62206 134.20396
180.24237 137.7404 134.2514
169.1442 113.26815 134.30379
198.34882 134.69098 134.32964
183.99344 109.37347 134.44492
191.26231 135.98218 134.50377
187.91118 109.43692 134.62527
167.0222 116.42668 134.65051
191.95074 109.46593 134.78246
199.68893 111.38538 134.79559
204.78516 122.97404 135.0811
210.60211 133.94435 135.01205
207.91249 114.22724 135.21494
214.9994 119.22955 135.47279
202.35782 114.00406 135.58247
215.02985 118.24144 135.55505
214.30466 125.98236 135.54301
195.94241 135.58444 135.60168
193.44669 109.83938 135.73466
191.76974 109.92654 135.76973
178.59328 109.94904 135.819
186.64102 109.90498 135.83153
213.71825 116.17094 135.88074
173.35075 137.18652 135.9398
180.82434 110.08867 136.18719
203.05032 115.00455 136.16194
185.78333 136.13237 136.1048
199.76093 133.97066 136.23431
177.34776 138.07971 136.25961
204.13483 116.67404 136.36075
210.32217 135.14613 136.40956
191.04147 136.18578 136.53148
194.55753 110.26359 136.67288
171.33772 112.17513 136.62476
159.06366 116.62794 136.72519
214.38927 128.41403 136.71835
201.58722 132.95886 136.76056
190.83064 110.49655 136.8392
198.58177 111.63826 136.89584
160.91319 114.5532 136.85445
209.7717 114.59169 136.8504
156.37054 120.45966 136.88925
193.19043 136.10706 136.95724
212.53616 132.37631 137.00511
172.11023 111.92963 137.19974
171.22729 112.39105 137.14647
204.51602 116.14678 137.14742
213.18098 117.4787 137.11902
156.99278 114.17613 137.39833
155.82184 121.75318 137.44339
182.43164 110.79813 137.51308
198.40469 111.81966 137.68506
201.90724 132.71751 137.6257
214.08075 118.96462 137.79483
155.75241 121.95226 137.80338
204.17641 116.93088 137.93808
175.52782 137.61647 137.95734
193.98666 135.88011 138.04086
187.13686 111.20453 138.1647
155.76605 129.94153 138.11417
176.44485 137.77005 138.18167
212.81448 115.62352 138.2724
188.11067 111.271 138.39755
211.06853 126.92918 138.35869
172.55759 112.21627 138.43159
196.42162 111.43256 138.5119
201.26004 113.89415 138.57999
184.2262 137.16699 138.57614
177.53726 111.3465 138.67087
155.68443 117.82992 138.7724
172.37393 112.56541 138.87804
155.12604 126.51112 138.83459
183.45157 111.76935 139.0269
214.47206 130.37927 139.06142
176.76851 137.98778 139.02927
203.77052 116.52331 139.26488
208.63467 136.53394 139.27692
174.08954 137.46892 139.2278
190.71545 111.9615 139.37329
192.77255 112.1156 139.50227
194.6893 112.00914 139.61739
190.99332 112.30826 139.83051
157.13373 118.57027 139.85219
212.8726 132.67969 139.80919
179.8577 137.72244 139.87436
215.82253 122.12842 140.0014
174.29767 112.72526 140.39587
182.87766 137.4183 140.46719
202.21959 115.24522 140.56752
165.45888 137.21098 140.51199
207.13887 115.42201 140.65732
165.07439 137.14391 140.61571
197.23286 113.08472 140.74908
195.81999 135.29597 140.8219
209.22461 136.38272 140.85806
174.01164 137.10806 140.8638
200.38266 114.30813 140.92166
177.13519 113.26749 141.04457
195.7054 113.20908 141.04013
202.10242 115.39544 141.06175
186.04332 136.18599 141.06584
198.31705 113.7057 141.22751
210.47229 114.59019 141.23633
198.99962 133.90147 141.26816
212.19836 124.90474 141.32558
191.78549 135.88895 141.30051
160.80933 114.58586 141.40085
187.21387 113.63691 141.58246
202.32422 113.21873 141.68854
187.07016 113.75632 141.77345
184.66258 136.35292 141.79185
165.90302 112.25082 141.82875
192.78845 114.00455 142.05623
200.71716 138.55904 142.06857
181.28854 114.26556 142.41653
196.41264 114.37871 142.5045
171.00937 115.29708 142.74078
171.89896 115.12893 142.8959
175.82375 136.42014 142.86435
172.27219 115.23294 143.04613
178.15025 136.74008 143.06572
200.15646 113.40523 143.10893
213.59213 131.23193 143.15558
172.05853 137.15479 143.19922
211.54836 115.22625 143.27893
214.884 127.83471 143.26221
156.61298 119.68686 143.35927
183.90218 113.34525 143.4866
182.11058 136.49167 143.44955
169.75009 116.38966 143.5378
188.40169 115.09822 143.60472
158.63795 116.34632 143.79237
196.07593 133.81903 143.73383
195.59766 134.19446 143.77654
198.43153 137.68069 143.86304
177.54622 115.39831 144.07301
182.8562 136.23239 144.05269
167.93111 113.26381 144.12393
190.75876 115.49747 144.16965
172.71785 116.018 144.14496
187.73688 134.61079 144.14702
187.70262 114.28919 144.33951
169.50137 117.64921 144.37737
155.74931 129.97398 144.38492
171.05753 137.0665 144.36565
172.31737 116.57133 144.44147
175.93027 136.60461 144.44901
194.19379 114.88603 144.55489
196.54587 115.73318 144.5367
174.47043 135.30505 144.55185
177.25008 115.79305 144.62912
171.93073 117.32466 144.78207
188.95749 134.41611 144.73953
157.70285 118.86995 144.88739
189.13391 115.95946 144.91269
164.73698 114.14613 145.12361
161.48122 115.30667 145.17928
173.03377 115.67418 145.29025
207.79247 116.67564 145.24518
155.6084 126.59988 145.2776
171.8145 118.65344 145.47711
183.61969 135.662 145.57909
184.99074 116.15578 145.67549
192.27701 116.89507 145.6989
173.40942 118.34063 145.60585
188.1651 133.95139 145.81686
173.61832 118.423 145.98376
155.78249 128.27118 145.96072
175.02458 134.68427 145.90495
199.72914 131.28081 146.15826
179.83125 135.50844 146.29622
190.03874 116.91077 146.32568
183.83092 116.70255 146.45599
189.18391 116.74704 146.43233
193.10513 117.54578 146.43008
156.62585 122.82507 146.44875
176.39914 116.12963 146.59319
175.71811 135.41217 146.76047
187.10097 116.09519 146.87331
174.72253 119.42621 146.88301
187.0737 133.42853 146.88718
192.54935 133.69534 146.8418
176.04446 116.36681 146.91609
194.66866 133.04437 147.01883
190.8448 133.89758 147.06793
165.13052 115.51035 147.10539
176.0061 134.48708 147.11189
196.38609 115.08137 147.35355
164.37421 116.08528 147.56418
212.72693 121.30878 147.64299
177.86861 118.97123 147.74672
199.19397 130.01347 147.75455
210.28584 116.93092 147.88184
199.24405 119.60003 148.2215
159.5374 120.01167 148.39619
184.66589 132.59206 148.34265
198.02359 130.24371 148.43156
205.2011 115.05991 148.5573
198.17371 129.42978 148.52985
184.55716 133.31926 148.53024
196.86893 116.00644 148.67856
170.51688 117.10495 148.69717
159.77713 120.42873 148.77873
174.68341 131.81285 148.77516
203.86154 133.7896 148.72443
188.70262 117.28923 149.17926
195.16818 131.23134 149.13223
210.28766 119.22751 149.40544
172.70361 126.41389 149.43306
210.86325 126.6825 149.47055
159.18022 124.75079 149.68335
192.94884 117.89265 149.86589
159.87515 129.95448 149.87305
172.02863 134.18976 149.88095
209.65245 119.4921 149.9568
160.76697 121.19534 149.91039
162.34276 133.28085 150.03674
159.68378 125.34016 150.14513
202.88431 131.6076 150.1514
