# .PCD v0.7 - Point Cloud Data file format
VERSION 0.7
FIELDS x y z
SIZE 4 4 4
TYPE F F F
COUNT 1 1 1
WIDTH 1552
HEIGHT 1
VIEWPOINT 0 0 0 1 0 0 0
POINTS 1552
DATA ascii
21.338181 12.686221 46.651356
12.928677 0.83266544 46.836094
27.034168 5.6593957 47.073154
23.749643 -4.6886907 47.149326
20.700333 -5.687995 47.341011
17.719097 12.103879 47.314602
-25.663889 4.1207762 47.403397
-18.886677 -8.0472794 47.514759
-22.718212 8.9995012 47.525063
12.355587 5.5570669 47.945427
-23.778902 -6.3462586 48.083191
-18.594921 10.108456 48.164249
23.243301 11.362021 48.263996
13.948507 9.5360146 48.392429
-23.668949 -6.6365414 48.461205
16.576832 -5.3615913 48.57024
26.867962 3.3367732 48.740841
11.85995 0.42559522 48.917362
-14.433792 8.756218 48.995422
-25.932579 -0.75659317 49.024502
11.712244 3.343905 49.678322
-14.021845 -6.8130622 49.759602
-25.177767 -4.6974473 49.79501
25.487377 7.6551185 49.769882
-10.904364 2.4105749 49.929768
24.526287 9.9658384 49.968716
-25.68203 2.6805713 50.245934
17.872313 -6.4970374 50.627285
-13.607938 -6.516048 50.701305
19.348734 11.811962 50.708969
-12.510231 -4.9682608 50.85997
11.416237 0.26724124 50.996452
-15.832592 8.8674345 51.393787
-23.640047 -6.6512222 51.673092
17.281427 -6.5041962 51.604576
-12.071053 6.2264977 51.950279
-12.409222 6.6257811 52.123203
-24.961819 3.2618976 52.231628
-10.549402 4.3375726 52.451237
-22.270681 8.0565481 52.527824
-24.07856 -6.0043535 52.746033
13.758449 -4.9161248 52.726719
16.810497 10.864012 52.8601
-19.56773 -8.5546932 53.220757
24.740049 -3.815567 53.365383
-10.794599 -2.999058 53.308113
-25.606081 -1.5515226 53.308838
14.659996 10.170488 53.353722
26.138569 0.75193131 53.507816
-16.274532 8.7236919 53.518211
-17.518124 -9.1055336 53.603687
-19.922798 8.4673109 53.981167
-25.480743 -1.1319087 54.043854
-21.534075 7.9347858 54.05854
-22.992142 -6.8963327 54.167652
23.250629 -5.0295987 54.133339
-16.528017 -8.8811474 54.374695
19.922386 10.884627 54.35817
16.874279 -7.2671247 54.652401
21.756727 -6.4544287 54.678619
25.65452 -2.6182058 54.681545
-10.33322 1.0296866 54.638382
23.508488 -4.7436352 54.780807
-13.759851 7.7740059 55.364082
-15.498133 -8.6116123 55.43552
-23.95916 3.8635387 55.41592
11.298738 6.680913 55.438065
23.713392 8.3799152 55.622505
10.830083 -1.1238756 55.751255
-11.914312 -5.7463984 55.829323
-22.245827 7.0146847 55.811008
-25.118931 0.81144816 55.946724
-25.153465 -0.28320602 56.037064
24.558582 5.8013182 56.26638
16.656532 10.242399 56.256943
25.604721 1.350677 56.999561
21.021328 9.6006908 56.981972
-18.91947 -9.1689034 57.015388
22.542854 -5.7396107 57.106354
-11.531263 5.9237103 57.178761
-14.696873 -8.6147327 57.272568
-24.766954 1.3481064 57.38512
19.803234 -7.3396254 57.464569
20.457235 9.6497145 57.617687
22.228294 -6.0868607 57.762337
-10.04475 -3.693423 57.833256
-14.608356 7.7489557 57.830444
14.394489 -6.7248526 57.932068
20.810806 9.3537169 58.146664
-21.262997 -8.5746155 58.219597
-19.378456 -9.1679583 58.36557
-21.578377 7.0013638 58.399094
-9.5453625 1.8360727 58.79895
-9.6535969 -1.2092441 58.831581
-9.5920935 -0.42309642 58.966419
25.113737 -0.3084558 59.392433
-9.4220285 1.3327268 59.407154
-11.969406 6.6592932 59.554451
25.210346 1.3408482 59.659401
11.320264 -4.7193871 59.840546
-20.339844 -9.0440636 60.075035
16.999681 -8.3115015 60.064629
-12.772819 6.9791617 60.158127
24.145548 4.1924338 60.248405
14.559124 -7.7151427 60.650906
-13.231373 7.0724492 60.796696
-20.065857 6.9897089 60.803505
-15.795689 -9.9723148 60.983341
23.118977 6.4349623 60.98101
18.663103 9.4583349 60.963512
-23.874931 -5.0675116 61.18364
-9.1803188 -3.2063746 61.176155
15.459379 9.2186689 61.25515
16.529732 -8.6482496 61.489235
9.4038944 1.0185272 61.460915
20.39307 -7.9392242 61.85099
-24.036947 -4.7871761 61.852062
-9.3530512 -4.512569 61.856819
24.544632 1.964516 61.997028
-24.246464 -1.9466393 62.035564
13.326803 8.6978092 62.321373
9.4296551 -2.8375401 62.436234
-10.604393 5.3363256 62.765347
-24.15424 -1.4132366 62.83519
20.589844 -7.9741344 62.971706
9.0231628 1.5176098 63.177624
24.353188 -1.2776626 63.307701
9.0701962 -2.9396734 63.615829
-23.89658 -4.1712313 63.988003
10.875281 6.7160997 64.084045
-16.632933 -10.594845 64.362305
-9.474143 -5.9379725 64.478218
-23.820118 -3.4988687 64.758652
-13.405474 -9.7127476 64.937332
-11.385053 -8.7411194 64.900047
-14.418244 -10.247162 65.141724
23.618526 2.3427365 65.298256
-21.704569 -7.8331308 65.374893
-8.1884146 -2.8335209 65.396111
8.9891281 4.9022746 65.687065
-23.725328 -2.4218071 65.807724
12.289174 -8.2341251 66.110657
-23.477633 -5.2129359 66.11924
22.825354 -5.1706634 66.175156
10.789479 6.7196188 66.179222
21.19002 -7.2104268 66.362305
-20.723167 -9.2963181 66.445702
20.091848 -8.6028385 66.863625
-14.371866 7.0495315 66.962753
-15.885995 7.3799753 67.211678
-12.138122 -9.8193312 67.890472
7.6042705 -1.98882 67.80397
-14.026985 6.9166012 67.895325
-15.735283 7.3401041 67.833717
-23.414978 -1.2668233 68.329819
21.237343 -7.0836859 68.653854
-14.998096 7.1851916 68.697426
-23.145084 -4.9350224 68.724846
10.864299 7.1525536 68.860008
22.248709 -5.7688923 69.524162
20.226221 -8.2741966 69.76841
-19.715996 5.6806612 69.719994
22.936588 -3.7546334 69.95079
16.425491 -9.9626904 70.310577
-20.233192 -9.6818056 70.350433
22.903912 -3.4387689 70.476997
-22.591675 -6.0588217 70.761475
18.069901 -9.7279644 70.914948
9.2701693 5.9399834 71.026726
-22.62615 0.067573071 71.209015
-7.5901728 3.1478138 71.498337
10.511564 -8.9613237 71.529129
22.527203 -4.6456947 71.638962
-9.4126453 5.2786946 71.625145
-8.2818022 -7.5982475 71.788918
-8.399147 4.1446781 71.781822
-20.364815 3.9930551 71.892456
-20.979609 2.7010584 72.276581
14.187044 -10.657081 72.624359
-21.648926 -7.2642608 72.679779
18.363348 7.1162729 72.685188
-8.8736877 -8.9543085 72.72657
12.448604 -10.626747 73.356514
-19.817337 4.4053564 73.493927
16.460627 7.8718061 73.536858
6.0499887 -1.6714326 73.763176
-19.281645 5.2882576 73.798607
10.605195 7.3095474 74.169289
7.3193898 -6.9826517 74.576195
22.602432 -1.078812 74.768837
21.460672 2.2459714 74.750534
-5.8789668 -1.6121535 74.834
9.6196022 6.7359452 74.820679
21.251318 -6.6709442 74.982933
5.8875546 2.9562182 75.013634
12.896164 -15.082791 75.124329
7.0926552 -6.7940588 75.110466
-10.697964 6.13451 75.15641
-11.102692 -11.049116 75.279968
7.2365699 -7.2516665 75.339569
15.656885 7.9286346 75.351242
8.8171463 -9.3215084 75.521889
-1.695339 9.7863255 75.790413
-6.4596291 -16.906824 76.091034
-7.1541238 -16.869427 76.109718
6.3184099 3.8912444 76.175232
-8.2596407 -9.6075802 76.346375
18.949265 -12.183507 76.496452
21.899658 -3.496495 76.766762
-20.860386 -7.9221182 76.804367
8.0230532 5.6109219 77.121323
-21.836815 -5.4461102 77.301598
-6.0164967 2.5229864 77.495659
-13.242132 6.814054 77.459404
-19.873995 -12.567654 77.705688
19.753967 -8.1836109 77.796661
-21.804274 -4.7441316 77.777916
17.522589 8.5783062 77.717377
21.386206 -5.4516692 77.853462
-20.730686 -11.641264 77.923645
-4.788023 -0.098889232 77.948387
5.2031565 10.154028 77.998856
4.1207991 10.100999 78.095901
12.943725 -11.458789 78.298424
-11.24275 -16.734854 78.371758
6.8991613 -16.745787 78.418495
17.858606 -10.241425 78.492737
21.624079 -3.2649524 78.422318
-3.1979611 9.6009541 78.43943
23.089252 -7.4375429 78.547935
-21.664272 -4.8755083 78.542206
15.470305 -10.997456 78.607231
5.1463103 10.091143 78.765327
20.19363 6.1717215 78.892212
-12.3585 6.5295954 78.80249
-12.97591 -12.523191 78.966209
-8.4920835 -10.534006 78.902306
23.671434 -5.0533748 78.949966
20.130447 2.9144597 78.988205
2.8217616 -17.590569 79.050575
-23.960228 -1.0910577 79.08847
21.027304 -5.9628882 79.119308
-21.641064 -3.0803285 79.141098
-10.688392 6.0626841 79.103119
-14.501053 -12.069514 79.273293
19.025284 6.9243307 79.254631
6.8236847 9.9919376 79.270325
23.703033 -0.50733936 79.394897
-5.7274151 2.5851765 79.373161
-10.480318 8.9369278 79.315941
16.45261 -10.891691 79.492767
-2.3228376 9.6677189 79.415161
17.324863 8.1193333 79.543457
3.8132887 -0.31020331 79.658066
12.661066 -11.659522 79.79277
19.040024 4.8673654 79.770729
-16.082077 5.6559534 79.724007
-4.6427603 1.4331565 79.863441
-1.5962816 9.7278442 79.938232
-5.3042107 -6.7391882 80.075897
-20.721708 0.27567232 80.06118
-1.5965385 9.7244358 80.145081
-3.9591765 -3.1002045 80.216522
3.296968 -3.1086926 80.345123
20.205643 1.7331934 80.426987
-0.43540657 9.8063698 80.516121
18.816219 -11.789073 80.70137
23.33033 -0.5864172 80.756996
-5.1453247 2.2123952 80.769745
11.64391 6.8052349 80.721977
-11.083778 -16.825619 80.834175
-22.191975 -8.7665291 80.965248
-15.029943 -11.95237 81.063843
-23.497644 -1.1111337 81.071815
-7.1002407 9.0643749 81.07515
-6.4034481 9.1080532 81.068245
1.3106786 9.8972044 81.094345
3.2680373 -0.65111649 81.115143
22.207413 1.8485734 81.276665
6.12533 4.6329746 81.620216
14.365751 9.0608683 81.625015
21.894094 -14.035578 81.785278
-20.528755 4.193233 81.76413
-6.0203137 -17.203384 81.934601
19.655073 -10.593017 81.99118
6.8643661 -16.914701 82.104416
14.461542 -11.470413 82.148323
15.301014 6.0085864 82.121185
10.018827 -16.329281 82.379608
3.0574274 1.5712099 82.703438
21.476171 2.5619402 82.7631
3.647419 -6.1451755 82.840355
-3.661346 -0.38237771 82.871536
14.69775 8.8106766 82.949638
13.265726 -14.786884 83.018051
13.754219 -14.54604 83.013321
-20.731888 -4.5554824 83.048218
21.68494 -8.1503334 83.108704
2.5328529 -0.96325505 83.144035
4.2763839 3.1868513 83.218864
1.249738 9.8050804 83.376472
13.876948 -11.718542 83.418594
21.856419 1.0810153 83.488472
15.617174 5.4562302 83.493065
-12.804827 8.3937664 83.548996
21.82518 -7.8518467 83.88356
-19.492268 -11.651391 83.924767
-22.008884 0.29285812 83.963043
-20.539734 -1.0515498 84.047005
-6.5640316 4.405777 84.240555
23.823215 -14.519459 84.373978
-19.446306 -8.4065905 84.46608
-3.6759832 1.3114791 84.486923
13.589611 8.6923771 84.496559
6.4179225 -17.117352 84.665451
25.042385 -9.4209604 84.610573
22.590969 -1.66395 84.693512
-6.8616729 -17.241877 84.76178
-20.35107 -4.7622786 84.898636
1.4659724 -2.9581983 84.82756
19.342154 0.81893134 84.833435
20.90472 2.4295487 84.832253
25.257896 -16.421892 85.099899
25.928856 -11.474306 85.145737
2.6623955 1.9986718 85.195076
3.2630162 -17.743092 85.282745
-18.863514 4.8401718 85.358047
-6.9465151 -17.284861 85.474197
14.118414 5.5296097 85.452011
-0.93758881 9.6839962 85.461884
-0.97105712 -17.722626 85.586044
-5.3493571 3.3432212 85.553955
18.852354 -8.094842 85.612076
-14.627333 -12.19223 85.758598
-7.3148737 5.0012355 85.719711
-13.629739 5.328979 85.756195
-2.3824077 -2.3240378 85.852585
16.117001 -10.948215 85.931015
-14.024555 5.122046 85.991714
13.031697 5.8600783 85.952393
6.9298744 9.2920647 85.918884
19.995518 -1.2703446 86.073997
-8.8034325 8.6180887 86.096031
-19.87183 -10.513512 86.167084
20.782059 -8.5571775 86.131485
-20.268425 2.3858407 86.36132
4.6579576 4.3063583 86.306671
26.594425 -13.188687 86.405495
25.975336 -10.472141 86.494499
7.0172696 9.2315931 86.409271
6.2305927 -17.251305 86.577049
-2.6396601 9.3951035 86.533768
5.9861107 -11.219738 86.665459
1.3619666 -6.6424694 86.665588
20.169508 2.8630362 86.685364
17.770121 3.0277798 86.64608
-5.8293204 4.3629341 86.693634
-13.907284 5.0518508 86.650414
0.51039922 9.6388321 86.631561
-6.9113102 -17.348269 86.802994
17.167194 -12.356253 86.832733
-5.5645556 -10.734237 86.992645
-5.3545637 -10.607172 86.955292
-0.52408248 -4.053916 86.990067
17.090136 3.8648612 86.946022
-18.468037 1.1133471 87.148483
-10.063474 5.5967412 87.154709
21.620266 -4.9316926 87.25882
-0.011438847 -2.0024405 87.269043
-13.256323 5.2631063 87.223389
-3.99371 9.2062263 87.239868
-18.637085 -8.8077345 87.320786
8.6922503 -13.284023 87.486259
-2.0041344 -8.224823 87.411942
-0.72825974 -1.3949089 87.459274
-0.46229845 -8.6245098 87.559105
-1.4342507 -8.9533558 87.616028
-8.0517616 -12.433459 87.798431
12.917953 -12.147566 87.731758
27.328346 -9.1607037 87.872116
-0.51240158 9.6272001 87.816528
18.80209 4.4052567 88.017487
7.5347652 8.9379711 88.264336
6.1788769 -11.991417 88.308945
20.636013 -8.3350983 88.409554
17.352079 -9.1130714 88.603065
4.9906502 5.7511826 88.705505
15.748612 -10.784045 88.810677
6.7794952 -17.291193 88.926048
25.241573 -13.272798 89.174164
6.2267032 -12.88276 89.350273
26.192389 -10.282272 89.387535
-14.140789 -14.960333 89.440689
6.6527915 8.8799524 89.42498
8.1318312 -17.077557 89.518517
-1.9296157 -12.498945 89.554962
21.419056 -17.257975 89.694168
-19.25493 -5.6005526 89.711388
-6.4187403 5.9435458 89.863235
-19.292067 -3.136579 89.991898
-3.3258388 -13.004076 90.008972
-21.405472 -5.5431585 90.010818
19.208462 2.6162794 90.046486
17.246792 4.8137121 90.023987
-14.418991 -14.730511 90.155624
-1.3277433 4.6628408 90.1259
8.7376442 -13.58261 90.233284
13.529355 -12.150145 90.291306
-14.270422 -12.243331 90.392853
17.750568 -8.3480816 90.340378
-15.673504 5.6711445 90.315277
-8.5535536 8.357192 90.359283
5.4266825 -13.861223 90.468582
-14.426929 4.435441 90.400223
15.168245 5.9920993 90.565308
-17.226254 -9.7098007 90.695526
-6.9250345 -17.525162 91.006729
12.585705 -14.854193 91.030106
22.186197 -16.995415 91.18959
-1.2436514 -14.079883 91.274544
18.873571 -9.7942219 91.220497
18.366596 -5.0859461 91.290131
16.261353 -9.7342606 91.326851
16.986526 2.5978005 91.380234
15.331711 3.8800302 91.334015
-3.4536955 6.2335939 91.374771
-5.6390576 -14.149797 91.485092
21.426136 -15.906615 91.553452
-0.80759466 6.0709305 91.670044
-8.7786369 6.6139889 91.715469
7.1142573 -17.284657 91.888382
-8.5841684 -14.250013 91.916489
-3.6786709 -17.792416 92.044937
-12.822459 -15.434874 92.074875
23.147507 -13.538518 92.082947
7.5911045 8.4289207 92.047295
19.929026 -0.81155235 92.243309
-0.90882087 9.3375635 92.384422
-6.7137785 -14.345593 92.498222
16.942575 2.0853813 92.470978
-18.705534 -2.7112341 92.513077
14.03936 6.0817676 92.523659
12.823206 7.0165081 92.538834
-18.47176 -10.614731 92.717712
28.131542 -7.6812391 92.779999
13.830976 6.1580429 92.774658
-2.2445116 -17.90686 92.91214
18.080177 -4.2127023 92.942223
9.8823643 7.0281487 93.053734
27.894648 -13.162415 93.210304
-4.073174 -14.499331 93.425034
14.451223 -13.549581 93.429214
18.181519 -2.1176531 93.462494
14.275751 5.5742979 93.488899
11.256232 6.2814708 93.440361
-14.240087 4.292398 93.593048
1.5991578 -17.843649 93.691353
27.555054 -13.579467 93.688782
23.77137 -11.439214 93.687523
-18.059343 2.6475661 93.837463
15.053356 3.7331891 93.883232
19.937637 -3.8267269 93.98233
13.712415 -14.094125 94.049736
16.228342 -9.0899191 94.162949
-4.637754 7.4302149 94.140335
-6.0268307 -14.660185 94.229042
-1.5095646 -14.627712 94.212524
9.6232853 -13.829412 94.265182
-2.924473 -17.810719 94.479767
8.9900103 -16.564714 94.411179
6.5180817 -14.715182 94.408379
28.692665 -7.3671865 94.445923
-12.517119 5.3883133 94.455116
-4.6830206 -17.685167 94.562653
27.077244 -13.874643 94.68618
14.998104 -10.325319 94.714539
10.627009 -13.611856 94.818985
-5.7984757 8.6981192 94.807251
-12.968772 -12.846909 95.01902
28.635509 -7.5215139 95.482246
-19.962749 -3.0747252 95.497772
27.267788 -13.239948 95.693314
30.988239 -9.6066017 95.657349
-13.501483 -12.678957 95.753204
27.994152 -12.395942 95.748245
26.620153 -5.4550047 95.725693
-9.6454773 7.8097014 95.756477
17.056429 -1.2406846 95.816078
5.3500805 8.8020363 95.876907
10.532942 6.41745 95.965691
-0.44688928 -18.094641 96.213333
-17.590763 -1.4274992 96.24855
-16.653736 -8.7778902 96.456711
-2.9024024 8.9619493 96.496826
22.988789 -13.348616 96.60405
-16.003527 1.2122303 96.690041
-10.60433 7.5447731 96.650917
8.4375505 8.0013962 96.613998
15.324183 0.81700432 96.772362
10.591784 6.2693443 96.736923
16.499878 -5.5782175 96.875275
26.278061 -12.900263 96.938843
30.405437 -10.862342 96.969498
24.712719 -8.2275991 96.947998
-6.3464074 8.6220818 96.9188
9.9654741 -15.905178 97.006874
10.965634 7.3137093 97.058685
-14.084749 -11.778172 97.187874
23.698219 -11.57818 97.198242
-14.296032 3.0322807 97.12915
0.10816383 -18.099073 97.530609
10.46462 -15.646989 97.597603
-12.558672 -15.076734 97.59668
22.679834 -8.1049013 97.581291
-11.853932 7.1779971 97.617935
-10.170211 7.627852 97.640472
30.822704 -9.794075 97.736877
26.103584 -14.026957 97.811958
15.29878 -12.116831 97.864624
-5.2281451 -15.074315 98.071869
-16.634916 -7.2911 98.112915
2.6327465 -17.830458 98.275246
22.250305 -9.5017529 98.292526
0.22697727 -15.091007 98.375702
-19.397892 -7.8886499 98.683533
-10.631658 -15.771342 98.723488
1.9194058 -15.125971 98.793884
21.443777 -11.02364 98.797379
-18.793209 -6.618391 98.75148
-12.449555 4.6064596 98.815163
-11.0972 6.0171232 98.82103
2.5355175 -17.852043 98.931305
9.6201982 6.4548655 98.998024
-16.110189 -8.6463041 99.178818
13.559379 2.7318568 99.172401
-5.9143252 8.6694155 99.233223
-9.048852 -16.28529 99.384453
-13.131609 -12.318142 99.326233
-15.71736 -0.059289694 99.488365
-15.034207 4.3271294 99.476524
-8.9192657 7.8769226 99.480148
-15.356781 -13.661833 99.58577
-15.90081 -0.5927884 99.695709
9.6680145 6.3348045 99.643936
-9.1078176 6.7058816 99.60614
-19.219162 -11.073435 99.789818
17.404253 -0.94170463 99.877571
7.9316368 6.7321424 99.879646
10.00245 7.4380674 99.830948
30.690813 -5.0677338 99.953781
28.4527 -10.487687 100.07911
-20.247355 -10.141506 100.07195
29.55817 -4.2444839 100.00861
-1.0603653 8.9619236 100.08736
-15.132698 -13.732348 100.13584
12.561014 3.5858715 100.21281
6.4679008 8.344183 100.28078
-19.467049 -10.950057 100.3009
-21.968489 -5.502121 100.32893
6.9591484 -14.77668 100.46155
14.696456 -10.179544 100.42933
-0.87512159 7.3538618 100.40284
-15.63478 -8.6066055 100.69088
-22.072304 -4.9567928 100.69192
-6.0987082 -17.490681 100.78642
-16.024969 -11.520258 100.75404
-18.724911 -10.624008 100.7438
-17.189348 -10.338872 100.70847
16.015049 -3.4009314 100.75638
8.0241022 -14.541945 100.85202
13.247868 -11.532387 100.89818
6.1486068 -17.442274 101.03709
-20.6987 -9.5626812 101.09932
-21.077707 -7.1385975 101.09132
-15.99603 -6.590765 101.04033
29.416939 -6.1316519 101.02528
28.763094 -3.4010289 101.0197
-11.318288 5.1296678 101.07243
22.553698 -6.5840101 101.15606
26.642382 -5.5298676 101.17879
-19.566036 -3.0661669 101.18188
-15.510862 -0.66990983 101.12086
-21.110153 -8.6655235 101.28065
6.8664598 8.1883039 101.24226
2.9519999 -17.837803 101.45963
11.903582 -14.992796 101.45405
-12.449389 -14.825088 101.4913
30.506731 -4.4111042 101.48549
29.480473 -8.8360462 101.54779
6.5692101 8.2513113 101.52879
25.437185 -10.866289 101.67563
-20.197319 -10.475147 101.68817
-13.776026 2.4620514 101.64672
1.4443347 8.8030396 101.88835
8.7597532 -14.427797 101.91056
17.803997 -3.6824641 101.96366
8.1313066 7.8408384 101.97108
28.777245 -9.9152079 102.07418
17.473061 -7.5289068 102.03133
15.162346 -1.079854 102.05916
-22.278702 1.2583132 102.0667
-12.721991 3.350749 102.36828
11.460677 -15.189349 102.44057
-10.703805 -13.917303 102.47906
-19.96224 -11.653681 102.42788
30.895725 -9.256793 102.55086
-21.732164 -0.11613676 102.54185
5.2390046 6.8328094 102.55908
15.610386 -6.1995087 102.68398
25.169241 -13.96323 102.77482
-8.9478979 6.1678839 102.78667
8.3347607 -16.548464 102.82716
-17.533792 -11.405569 102.82903
22.362059 -6.5449429 102.82255
13.258448 2.4330893 102.86836
1.8070344 6.8940549 102.82209
11.025133 -15.388069 102.9332
-18.284094 -11.455152 102.94881
-8.1439247 6.2975011 102.94302
6.5187564 -17.327818 103.00168
28.832785 -9.8229561 103.01912
-17.729887 -2.4228172 103.02631
-19.120214 -8.4193516 103.19196
-22.022573 1.5806373 103.18343
7.7120161 -14.620221 103.36394
-14.239519 -10.606857 103.38507
15.572706 -2.9945879 103.36629
-18.062719 -4.6933088 103.44896
5.2131882 6.5310946 103.47794
-13.422943 2.4025426 103.55069
-13.371202 5.7589846 103.5878
9.5202446 -14.183611 103.66428
10.467005 -13.963328 103.65844
-12.306287 -12.366553 103.62556
15.499079 -2.8981285 103.73541
-18.213997 0.32430547 103.8441
23.394619 -4.3779755 104.17296
-19.902374 5.611825 104.12742
-8.5772667 7.6141052 104.18121
-18.248793 1.2584066 104.47157
10.976772 -13.455464 104.56181
15.459148 -5.8569012 104.59349
27.673725 -2.0651257 104.5495
-17.905933 0.70405066 104.54825
-8.6575603 -14.312418 104.68616
-21.204983 6.6333904 104.63924
-4.8499045 6.3293657 104.7095
9.6981792 -14.082851 104.82672
-18.073008 -9.5184832 104.88292
0.68887359 8.6539555 104.82947
16.96118 -9.7017441 104.99799
12.910257 2.3067234 104.90986
4.9748831 8.261879 104.91105
0.76547629 -18.081882 105.06741
6.5863695 -17.258202 105.02373
11.981798 -12.539747 105.09934
-13.343475 -11.2222 105.02803
-1.8167385 -17.819614 105.1312
5.8441038 -17.510553 105.13937
-20.234259 -9.989193 105.17139
-23.508842 -0.62320721 105.16176
14.196831 4.5103569 105.21171
4.1446986 6.1050758 105.20255
-23.508375 5.7138329 105.3246
13.457716 -11.164988 105.424
21.669853 -9.0175209 105.4393
25.811069 -12.995213 105.51831
-16.321487 1.4297251 105.55149
-20.949539 5.2326536 105.56472
-5.7626972 -17.337093 105.74106
-10.955487 6.9376316 105.79086
28.866974 -11.51262 105.8
-23.508368 0.13032526 105.89955
28.649952 -11.674343 105.96405
29.10121 -11.232798 105.98253
-14.28245 -10.036928 105.90926
23.884897 -3.2013669 105.98878
15.156441 -2.9170752 105.91124
4.2925081 -15.449331 106.00673
-18.493349 -10.141562 106.03203
-21.974112 -4.7317834 106.04391
-14.340065 -9.6129017 106.11221
-23.126076 2.5142305 106.26889
-13.065548 -13.738255 106.31302
-16.678984 -9.667676 106.35486
-17.703926 -9.2506504 106.35396
-17.64995 -6.0410376 106.37471
-19.646935 -0.74981672 106.35643
-16.382149 1.2708383 106.34055
-18.678339 3.3223572 106.35564
-21.177832 8.8193598 106.30662
22.447809 -4.5749068 106.48775
-22.265121 -1.3762429 106.47144
0.6034708 5.7791595 106.43175
22.031136 -6.0498166 106.57594
-18.914572 4.2568827 106.59241
5.6839328 7.9517307 106.52785
-16.877951 -8.6399088 106.69117
25.114943 -1.6799939 106.65039
15.19463 2.9933348 106.65313
-16.752428 -1.7681265 106.79306
-22.329449 5.9734688 106.80872
9.8246136 6.9145117 106.84834
-8.46488 7.3173141 106.9243
-17.717171 7.4939575 106.90009
15.008075 -3.1891081 107.09528
-16.961458 -7.9580126 107.1189
-21.755613 -1.4685007 107.16064
5.97609 7.812757 107.15245
13.089315 1.7622263 107.21426
25.075438 -1.4002873 107.30694
-6.8284578 5.2054038 107.32549
6.4608245 5.072237 107.45844
2.8438399 -15.478111 107.55208
-16.554192 -9.567152 107.56525
30.636663 -9.0762758 107.52059
14.35359 -0.70863867 107.56505
31.203218 -4.2386937 107.67923
-0.18904448 -15.478714 107.71599
-21.607603 -1.1062663 107.75577
-23.513416 8.7948322 107.75861
-20.453108 -6.5033188 107.85847
-24.461933 -0.33229661 107.81425
-8.5707941 5.1828613 107.85329
-24.117872 7.3221593 107.87009
17.024157 -1.172802 107.96434
22.298401 -10.456481 108.02066
-15.881807 1.3986864 108.16241
-24.332256 7.0352383 108.15235
23.678745 -11.418477 108.37864
-15.88623 2.7671351 108.30074
8.2055798 4.9874344 108.34369
-6.8473496 5.0651598 108.37505
-16.14402 5.3204412 108.38869
28.244476 -11.33437 108.44472
-7.6293049 -16.367155 108.53254
-13.930605 -0.52731985 108.53222
-15.990984 -10.419664 108.75731
22.546547 -3.2745595 108.74693
7.7096882 7.2107973 108.71718
-15.956968 1.1643248 108.80348
-22.972845 2.9832535 108.90987
-7.0884933 4.99998 108.91083
7.2058711 7.3064065 108.91901
-2.3193116 -17.761131 109.05371
-20.485489 -3.2914033 109.03052
16.933464 -1.0596919 109.07951
-17.093081 -6.0012479 109.11119
-21.77042 11.718701 109.2155
-15.944978 0.1868545 109.37206
-16.729382 0.24135268 109.46399
15.002665 2.8407607 109.48116
-12.816895 5.3212481 109.43235
25.213991 -11.764644 109.55721
-17.270489 -5.8635616 109.57054
14.831146 -6.0781631 109.62642
9.469408 4.6387444 109.62379
8.6590853 -16.342989 109.72128
30.612032 -8.5851564 109.78056
2.4321628 -15.514587 109.88359
8.3659201 4.7861986 109.82063
-9.8025064 7.1166849 109.8042
3.9033227 -15.512377 109.9303
23.086105 -10.580685 109.97617
21.232208 -6.8807392 110.04477
17.576464 -6.7221704 110.0472
-19.404732 1.9117992 110.0172
-1.8513393 -17.87603 110.20282
-9.6584415 -13.669809 110.3912
-22.927401 4.028636 110.47948
-21.030569 13.687005 110.4824
-3.4650085 4.6712255 110.52
15.556641 -11.915024 110.60365
21.185049 -6.4190364 110.60419
-4.9454994 4.6977301 110.61486
-6.1200371 -16.943468 110.88153
-15.591335 -10.368452 110.92021
-15.254449 1.8552432 110.93315
-2.9019141 4.5997319 110.96007
-19.814091 14.532344 110.93175
-15.78822 8.4433994 111.05432
-15.951775 -0.33151913 111.19771
10.489004 6.316596 111.14738
11.683815 2.282593 111.21369
-17.629482 13.440855 111.21996
-11.37176 -14.242662 111.38084
10.747442 3.0653076 111.35858
-18.553394 3.7212539 111.30818
-9.9057045 -14.954093 111.41598
-5.3508744 7.7111788 111.46938
-6.9582353 -14.56529 111.53284
12.684871 -14.406586 111.57207
23.518347 -0.96072501 111.54473
-16.921711 -4.0780301 111.67118
-15.870749 -0.23530114 111.6722
-11.017152 7.0019593 111.67941
-16.609585 11.974497 111.66266
-14.267718 -5.0512524 111.81208
22.490894 -1.865149 111.86487
-13.381656 -1.4784797 111.86327
13.868778 -0.69412732 111.86081
-13.099205 4.5576935 111.9072
10.296154 3.3251441 112.14787
26.459951 0.83444166 112.21854
-8.2662268 7.3335361 112.28781
-11.15056 -14.151403 112.33038
-13.36743 -12.399164 112.38544
-16.336435 -7.0245485 112.35098
12.667932 5.4194984 112.3844
11.885378 5.6587 112.32881
21.631824 -3.5579753 112.44614
-8.7589397 7.2915425 112.42725
-10.279062 -12.840045 112.54021
-24.734911 10.53182 112.50743
-15.469166 9.0631199 112.66261
-0.52317828 -18.106499 112.72662
-16.666496 -4.8524332 112.90544
-12.887474 -0.16103873 112.93007
14.275644 -13.145428 113.08858
-15.577038 0.30823565 113.07022
-17.967573 0.089158714 113.10134
26.13377 1.164848 113.20752
-11.479815 1.5407414 113.20448
-24.156204 5.1142969 113.27869
0.066789657 -15.410013 113.32152
27.467588 -10.322073 113.3582
-16.961094 1.4776542 113.45125
-15.312903 9.7586374 113.47741
4.5455008 -15.556952 113.59176
16.864346 -1.3970213 113.57806
3.9318995 7.5746622 113.5784
20.907991 -5.4455857 113.60198
-19.005619 0.18246222 113.60995
14.156895 3.6107688 113.60902
-5.7579503 7.6961045 113.64362
16.616253 -9.2228842 113.7399
-23.242182 3.4400716 113.72823
3.4870691 -17.734018 113.948
-16.479301 -5.3232794 113.90658
-0.30223656 -15.415195 114.17058
-11.631805 -13.597017 114.17306
27.912296 -9.9425697 114.19682
-9.4684229 -14.787111 114.25184
-13.889539 -11.446366 114.29567
23.695456 -9.7912045 114.2211
3.18156 -15.650855 114.45798
-12.50101 -13.062214 114.44901
-20.701517 18.74725 114.47489
22.970173 -0.20831633 114.77312
8.6858854 -16.426352 114.8656
-14.767279 -10.28759 114.85863
-17.808489 18.58996 114.81595
11.677494 5.5186596 114.9969
7.6594696 -15.572847 115.02899
-11.982622 -13.241535 115.04266
11.584139 5.5471029 115.0729
13.622402 -13.666667 115.12921
-16.146324 -6.2385635 115.14914
16.390699 -9.5947618 115.26913
16.562399 -9.0704021 115.25423
-17.64048 3.080843 115.37549
-5.2264338 -16.701118 115.53207
17.158804 -6.2471519 115.50523
23.462883 0.64385819 115.59864
-17.752905 19.718948 115.68082
22.527945 -8.5645361 115.72192
26.722136 2.2237666 115.77126
-21.018267 3.3249385 115.77226
-3.0470924 -14.968243 115.85646
-11.574903 -13.32196 115.83868
30.786982 0.47574639 116.14502
21.714521 -7.5763764 116.2817
25.467337 -9.5818729 116.32935
15.2707 1.3879519 116.3
31.015366 -0.11556678 116.47845
5.7397738 7.2939711 116.48955
-14.908997 9.669796 116.40903
6.5225143 -15.810641 116.5715
25.417126 2.3273978 116.52895
28.37067 -8.6478367 116.61909
31.217489 -4.2949886 116.68544
16.990116 -3.5961633 116.66455
-2.3198309 -17.557625 116.70133
-3.3319459 -17.214159 116.71752
-22.980093 19.581705 116.86565
10.033489 -16.023764 116.94761
22.537889 0.12171599 116.91586
14.476888 -13.035 117.00356
14.040989 3.5246749 117.1974
-17.362453 21.288731 117.28467
-14.2371 -10.464138 117.56279
30.971523 -4.750967 117.56664
16.417105 -0.82519454 117.54201
15.653896 0.57532746 117.61859
-4.2948408 -16.887749 117.70318
-12.150811 -12.640888 117.9136
9.4987783 6.0751042 117.93288
24.882668 2.8363075 118.07774
-8.9282322 -13.603361 118.27489
21.751554 -0.42269039 118.23788
13.536498 4.4262614 118.28653
22.849846 -7.9855165 118.32992
6.3899918 -17.073343 118.47653
7.1951113 -16.000973 118.66285
-13.121373 -11.844307 118.72355
11.870308 5.1366277 118.71903
13.148694 -14.101964 118.85787
16.840012 -5.3907681 118.80007
26.097099 -8.6264 118.95235
-15.274231 0.12813729 119.14423
-8.9648352 -13.46252 119.2142
15.677843 -11.026343 119.41173
23.65731 2.1449547 119.42406
-5.598227 -16.322145 119.58353
-10.061863 7.3344545 119.69705
-15.400955 21.386944 119.68373
29.988968 2.375778 119.71027
12.7485 4.7402916 119.89675
-3.7680328 8.4198647 119.97997
-16.030302 -7.5937843 120.00938
-16.02022 -6.5002675 120.07088
-15.917652 -1.6097927 120.04173
12.320723 -14.774899 120.20464
-15.661265 -8.0884943 120.41632
20.712566 -3.9554017 120.5871
-14.780403 21.007801 120.57706
23.313354 2.2166734 120.68925
-23.999304 21.051517 120.67694
-22.307621 23.134533 120.69185
21.050333 -1.2985145 120.74219
11.679031 5.1548066 120.73409
-0.17724037 -17.742464 120.96307
-5.7778263 -16.121111 120.97261
-4.8981037 -14.564371 120.91208
22.265902 -6.941782 120.92009
11.943881 -15.098953 121.2977
20.507336 -3.2489557 121.21648
-7.5120535 -13.900101 121.40547
-9.6487703 -12.843167 121.68953
7.5004811 6.7171407 121.7021
16.385309 -9.2026863 121.89242
-0.4806236 8.3489008 121.81198
-14.477714 14.175734 121.80582
-13.735351 20.705692 122.3981
10.254832 5.6490846 122.45345
9.9920721 5.7484846 122.46687
4.0435238 7.8887186 122.42928
-14.09067 3.4656982 122.58919
-5.5769892 8.4025545 122.59593
-15.728995 23.688957 122.53268
3.3650737 -16.137644 122.60123
15.16252 1.1841583 122.6627
-2.1330147 -15.334263 122.88908
13.102678 -14.401598 122.81273
-14.412281 15.353237 122.80021
15.069899 -12.66865 122.94491
-14.324303 -9.8957996 122.98712
16.586628 -8.7127504 122.94878
10.091129 -16.341993 123.05396
-5.4648037 -14.222069 123.15394
-12.083485 5.7938128 123.52478
11.577747 4.958436 123.6198
11.904978 4.7717133 123.76554
-23.752752 21.745718 123.7457
-21.756512 23.945169 123.70616
-11.237295 6.6067467 123.90917
-16.256992 -4.6344032 124.06405
-13.59308 18.095076 124.17302
-13.159872 5.1201773 124.25578
-16.161505 -3.6901228 124.34637
-21.764202 14.094165 124.31217
23.807211 3.1942315 124.4474
-21.096912 14.031304 124.56288
23.934505 -8.2393894 124.60932
30.900715 -0.9506278 124.76103
20.091236 -4.0897384 124.88227
-9.2586784 -12.835738 124.98143
16.547991 -8.9897251 124.95673
9.7589417 -16.583235 125.06668
-9.1807575 -12.872288 125.02125
27.094894 -7.6943889 125.15639
30.824472 -0.75229526 125.13868
15.317782 -12.089463 125.27477
-0.86313188 -17.348423 125.33568
-19.693741 14.414513 125.33139
2.2678335 -17.650238 125.46178
8.973691 6.0540476 125.46819
-7.4071646 8.9107847 125.44431
-13.088715 18.31443 125.49548
-21.718811 16.197678 125.5405
14.645028 -13.668136 125.68919
-16.069302 -0.76940763 125.69963
-20.425869 13.521226 125.64442
14.901978 -13.065445 125.79332
19.979198 -1.3198278 125.74226
-12.992008 16.569189 125.78224
8.4856358 -17.00367 125.82203
28.23308 -7.4761133 125.84668
-16.448793 -6.219121 125.87381
7.5801306 -17.124287 125.94234
16.099171 -10.257013 125.93487
30.478573 -2.1711779 125.94325
-23.374321 20.59338 125.92401
-0.34051222 8.5883627 126.05519
-23.242153 18.582438 126.1166
0.21028817 -15.731026 126.28558
-23.301403 20.672173 126.25502
-9.0913229 -12.836015 126.49323
-23.258255 21.054977 126.46644
-0.53131032 -17.29608 126.51614
-9.8623562 -12.448835 126.56435
-2.8635647 -15.080533 126.67747
13.869184 -14.271629 126.60023
28.637537 2.6369815 126.67799
-2.406826 -17.061689 126.78009
15.168204 -12.442091 126.99263
11.302962 -15.796682 127.05093
-16.562801 11.762953 127.08545
16.839256 -6.039712 127.1044
19.346113 -4.5125971 127.10488
21.194225 1.5632341 127.16257
-0.79471725 -15.523581 127.28127
14.814735 1.8875456 127.46527
5.1051378 -16.442253 127.57042
-9.6910868 -13.685371 127.68795
-1.6500281 8.8620138 127.69456
20.42333 -7.5707211 127.7681
19.061323 -5.5007801 127.74487
3.9814782 -17.509169 127.81207
16.734425 -2.2053452 127.93796
23.944183 -9.2257586 128.04715
-13.041399 13.326412 128.06496
6.201633 -16.541407 128.13747
28.100229 -6.9734716 128.23706
-13.408314 5.5000553 128.3918
-18.628584 23.748823 128.37653
-5.6207042 -15.688667 128.45248
20.913216 -8.6581926 128.43367
-4.7572589 9.2457247 128.45624
5.6017437 -16.46401 128.74913
-5.2375164 -14.148644 128.81668
-6.6850805 -13.604678 129.1582
28.008984 1.945287 129.15509
-22.303051 16.026484 129.25055
17.023769 -2.0791941 129.31189
-17.102173 23.232155 129.3084
9.1902428 -16.853912 129.43379
-20.806175 22.481874 129.54941
-17.147802 23.177622 129.53795
9.2930632 -16.83518 129.68347
17.147402 -6.8220592 129.68311
16.308502 -10.118924 129.75143
29.153255 -3.0851798 129.83173
20.384954 1.4962381 129.86688
3.1277962 -16.203728 129.92889
-11.710043 -11.719752 129.9877
-3.0357435 9.5275946 130.09863
-21.882217 20.415739 130.09653
-15.556898 1.7623036 130.18446
-15.090447 2.6533821 130.10934
-11.907389 13.272341 130.1331
9.4478092 6.2188015 130.26859
-22.215479 17.831385 130.38025
-14.20022 4.5263286 130.42198
-14.860072 3.2565298 130.58749
11.972935 4.9740381 130.65312
11.612129 -15.648039 130.76259
22.452944 -9.4794769 130.73247
17.144739 -7.8374071 130.86673
28.898621 -1.1870078 130.92366
-14.990227 21.505356 131.05605
16.421576 -10.107231 131.11879
-15.074823 -7.9606915 131.27397
18.108248 -1.9763367 131.28812
24.856888 2.9319634 131.37343
18.454947 -1.2695458 131.46359
19.111607 -0.099846244 131.42458
-13.938082 5.3934288 131.5614
8.3871021 -16.890209 131.6171
16.507858 -9.9989929 131.6261
16.567451 0.04002133 131.79279
-5.9655852 -13.663456 131.83136
15.54282 -12.167267 131.81862
22.305117 2.7564583 131.8045
-13.733668 5.9034977 131.89763
14.71994 3.2719834 132.09515
-8.6931152 9.4995403 132.06792
18.961849 -0.028843462 132.13177
20.533968 1.9315 132.29314
-5.0982151 -15.362105 132.31567
-14.767109 -8.6086655 132.38824
-21.779781 17.74609 132.34567
-2.4120421 10.052464 132.45865
-7.2786574 10.294179 132.46638
-11.258344 12.874487 132.51608
-10.827079 -12.131358 132.67896
-21.412308 18.729559 132.75526
-1.2904725 10.084968 132.89766
24.095592 -9.4755955 133.07874
-21.479626 13.810608 133.15843
9.9636087 -16.559971 133.2113
-6.9496994 -14.412534 133.25299
17.321747 -2.8932781 133.24634
-15.773943 7.8264513 133.23549
8.5847988 -16.573469 133.48651
12.523357 -15.095436 133.43433
-11.21228 -11.711015 133.56459
14.637624 -13.882856 133.60103
-11.072548 -11.828191 133.60664
-12.049763 17.076599 133.63385
23.319719 -9.8701162 133.77402
14.649323 -13.871088 133.87682
19.742292 1.6412657 133.86801
-1.566849 -16.271954 133.98007
26.253782 -8.3461266 133.90013
17.262005 -0.38333923 134.02994
17.501637 -0.80775476 134.12152
18.409967 -2.3990445 134.22269
7.4382277 -16.845112 134.46536
9.3231554 7.1485248 134.43974
1.3922695 -15.71016 134.54015
-0.8681649 10.482729 134.65733
-4.7223716 -15.092913 134.91862
20.635386 -9.8642998 134.97932
21.009197 2.2958548 134.90787
-0.13173316 10.407956 134.94261
-15.044682 20.110304 135.05461
-15.918061 20.573364 135.08754
-19.285713 8.6250429 135.19371
-4.012989 -14.104785 135.3083
-9.8919392 -12.563159 135.35005
17.985836 -5.8698902 135.36749
15.082089 3.3768575 135.36279
18.343767 -8.9010601 135.59491
-21.223225 14.067562 135.56845
-11.439274 -11.140108 135.81317
24.556328 -9.2513008 135.83968
-10.806658 14.569811 135.86195
-20.200939 18.367163 135.82146
-16.913723 -2.1652582 135.93875
17.205299 -1.1735961 136.09418
-13.454843 -9.359664 136.17676
16.441826 -2.6219931 136.14195
-1.865335 -15.670732 136.24631
0.59598827 -15.374933 136.24741
22.046265 -10.414327 136.54124
-21.026545 12.606367 136.57487
16.004705 -6.0998774 136.74954
10.838978 6.824801 136.9209
-11.03921 -11.22843 137.01407
5.3082809 9.0434437 137.08002
-9.9321766 10.297359 137.09567
-13.348227 8.0680141 137.10233
-8.6358662 -11.868186 137.21332
-16.766285 6.3086014 137.28847
-21.029432 14.004913 137.25954
-6.0185204 -13.956146 137.36143
7.6880274 -16.634857 137.40105
-15.886719 -5.2368879 137.4819
18.891563 -1.2922558 137.47136
-16.799553 -0.77273571 137.50986
15.359781 3.8892698 137.59988
11.634153 6.4214277 137.58328
17.651793 0.66862154 137.68282
2.1482358 -16.502588 137.72575
-0.90601432 -15.596782 137.78204
-3.7871032 -14.852543 137.7276
-8.4965439 -11.801321 137.78662
18.680029 -3.9720764 137.72266
21.29985 2.5921054 137.76285
9.1873121 7.8234234 137.76688
-11.181258 -10.934542 137.94707
22.057793 -10.320732 137.95871
4.6928048 9.4920759 137.90028
-7.6359892 11.617201 137.97824
0.039840356 11.199657 138.05518
-13.087134 -9.3323841 138.18341
16.890963 -9.9722338 138.27669
20.982441 2.4774132 138.43977
6.0096288 -16.637682 138.55421
6.1287889 -16.198185 138.52904
-13.45938 -8.9618063 138.58131
-9.9699774 13.271889 138.5706
-1.1067535 -15.45914 138.69867
-12.994355 8.5881767 138.86081
-16.667088 0.3671174 138.99709
17.474571 -9.1551733 139.04266
-16.243355 1.7575805 139.06578
6.8098464 -16.588968 139.24741
18.064846 -9.7660036 139.39873
-14.82409 5.8407569 139.49596
-1.6702306 11.711931 139.43637
-5.8726611 12.214869 139.46748
-19.013983 17.517902 139.5439
1.4593955 11.105085 139.62651
19.377972 -2.3331409 139.70016
22.947395 -9.7871618 139.90009
1.1446158 11.278596 139.95424
-10.39332 14.273884 139.9187
11.867544 7.0045872 140.05818
-13.873271 17.687382 140.06613
10.297856 7.9612193 140.16621
-0.42283452 -14.460297 140.20483
-8.960125 7.2216063 140.29393
-14.008153 -8.1170444 140.44315
19.698402 -10.146857 140.68021
16.512848 -8.870553 140.7222
-18.606024 6.0352569 140.71835
3.1215281 10.687092 140.77196
16.455772 0.40621191 140.8512
-10.713783 -9.7103224 140.94064
21.091742 2.238023 141.06522
-11.076562 15.577295 141.00024
3.6121891 -16.067686 141.17339
15.455509 -8.0062752 141.1171
-19.770617 8.0123425 141.15852
5.0209236 -15.546616 141.21614
-11.912602 10.196199 141.22098
14.026023 -13.844311 141.42206
-5.3503056 -12.219789 141.40147
20.222502 -10.333097 141.41698
0.015847325 -14.899027 141.66512
-20.405251 10.84314 141.64467
-4.7442966 12.482467 141.68669
1.6739354 -15.364273 141.7872
-5.7984967 -11.833132 141.87946
15.928899 -12.098271 141.90909
14.032921 -4.0035748 141.96065
-13.957861 3.0047493 142.12401
15.181086 -8.3409843 142.20694
-13.951827 -7.20996 142.24658
14.16173 -5.9892511 142.30116
-16.022253 -3.8468189 142.39275
16.35844 4.801671 142.36716
-11.712741 -8.9125814 142.43816
4.9368601 -15.715479 142.54659
-13.582464 5.2103362 142.56569
6.2990904 9.8077936 142.64223
-10.447134 -9.7952642 142.78157
21.658989 1.8235917 142.71808
-10.049522 -10.06671 142.93964
16.389273 4.9959292 143.00719
14.863946 5.8587084 143.0094
12.352232 -14.58227 143.37268
15.612244 -6.5606132 143.31088
-7.5277352 -11.329163 143.56232
-10.563533 13.035291 143.54056
-19.423103 13.809694 143.50516
-7.3221235 -11.375788 143.67126
21.232655 1.7479206 143.64528
15.699718 5.6542521 143.61581
19.910839 0.14031914 143.71756
-5.0817547 13.000072 143.75723
-18.090229 15.288604 143.73
20.694935 1.8202974 143.8887
-6.6140003 -10.677166 143.93333
25.676071 -1.3992401 144.03412
18.130743 3.3190141 144.00851
0.077237397 12.183684 144.23529
9.3311052 8.9172506 144.30728
-19.077837 4.8036523 144.40842
-9.3627119 12.066565 144.49243
6.1611843 -15.142995 144.50604
-8.0646315 -9.7785864 144.55382
3.3673577 -13.877661 144.75951
-9.6329298 12.226868 144.72385
2.6164987 -13.638911 144.81937
-0.36372095 -12.795935 145.05692
-13.514967 15.461479 145.07872
3.9784818 -14.669502 145.18893
-1.3820615 -13.165432 145.23134
-15.700993 -0.39461645 145.25485
-3.5767686 13.044459 145.29482
23.834501 -9.5121346 145.36339
-19.015308 4.5705628 145.34177
15.736152 -13.033587 145.55324
-4.9524636 -11.677853 145.57491
10.787786 8.4781151 145.5247
-3.855644 -11.412334 145.67224
-7.6563568 -9.5408564 145.71213
-17.736559 2.7970548 145.84721
20.438732 1.8743142 146.10098
16.531147 -12.104544 146.36322
-11.13976 -7.0591359 146.39832
10.507215 -14.70132 146.4781
-15.760393 -1.5822747 146.54485
-17.68117 2.5046544 146.54688
-19.219116 5.4320517 146.53235
22.098484 -10.272593 146.61362
6.4484782 9.965519 146.6871
-13.988437 14.480976 146.68571
15.378911 -13.180282 147.1692
-1.5988904 -11.575103 147.23892
20.324696 2.1931646 147.32022
14.151236 6.7482166 147.37891
19.270638 -11.431416 147.4944
-3.3349686 -11.323935 147.41551
19.258911 3.7400351 147.45103
18.434786 4.4487014 147.47482
-8.9164028 -8.4432697 147.50555
0.56529868 -12.40415 147.7213
24.870569 -7.8667293 147.76959
21.393383 1.2014823 147.79741
7.8279209 9.3061714 148.0184
5.0914612 -13.190249 148.14922
24.424145 -1.0810441 148.17592
5.3757887 -13.124037 148.31747
11.973748 7.6087999 148.36412
3.1372929 10.910025 148.57068
16.804388 -12.441521 148.61124
-5.1600981 -9.7094383 148.63817
1.2952851 11.532351 148.63371
13.929124 6.6712437 148.77704
-14.70182 14.066193 148.71115
9.1637192 -13.11372 149.27727
3.7199817 -12.328262 149.32916
10.42449 -13.15543 149.46976
-7.9459229 13.387823 149.58455
1.2386974 -11.251202 149.92921
-18.291508 11.246537 149.95781
-17.895189 1.8886904 150.27652
19.107367 3.5814335 150.6685
19.651184 3.1822109 150.79497
-2.5670836 12.2166 150.83508
3.1689854 -11.124055 151.05754
22.488537 -9.614666 151.01477
-1.7219243 -9.563283 151.15347
-4.9814653 -8.1483574 151.21471
1.6294123 -10.455156 151.44122
21.291237 -9.758872 151.56274
-1.0473977 -9.5348816 151.56969
-12.62745 -3.1045692 151.87418
-5.7455339 12.64995 151.92374
1.9460077 10.955146 152.07095
-6.7178049 -6.5794539 152.28091
21.927639 -8.0183659 152.34375
-15.796345 0.81381786 152.33034
-18.518272 7.3220234 152.30637
8.9718189 8.3891249 152.48778
13.267301 6.3465214 152.65132
17.733768 -10.000336 152.71555
-5.4443231 -6.9666781 152.70961
-10.864444 -3.5768533 152.70474
20.298183 1.017318 152.92508
-15.5314 1.7974458 153.18976
14.547132 5.2898011 153.14154
-9.024209 -4.0658374 153.40277
11.858733 -9.9643669 153.7366
-15.444784 9.9368534 154.03206
-1.4046884 11.131424 154.11954
19.704731 -0.33132246 154.38431
-7.3017483 -3.8676844 154.56949
-9.5278072 -1.9825475 154.89751
-11.299145 -0.41943437 154.94096
18.302572 0.23603453 155.04913
1.5831468 10.139025 155.11374
17.612066 -3.4140754 155.38806
17.243393 0.61724997 155.4292
13.438871 3.7798052 155.41031
0.56296992 -7.3224473 155.59927
14.964126 -6.3120856 155.54005
6.1033297 8.4870844 155.7686
-10.846061 3.1679106 156.0742
-9.7311153 7.8496499 156.21924
2.9899037 -7.2050319 156.44913
-9.3632927 0.4770349 156.46284
14.555188 -0.52585661 156.50523
-1.8017871 -5.5493279 156.89267
-8.9729309 2.3995957 156.8
-5.7720885 -1.9402339 157.08932
-7.0777588 6.6579151 157.07364
-4.3679132 8.9808464 157.04494
-8.4675941 3.1285999 157.1767
6.5344849 -6.1698976 157.26443
1.1002029 9.4572115 157.29437
-4.8761892 8.1568031 157.37637
5.2876272 8.1180677 157.48701
-6.1849866 -0.46001679 157.69102
-6.5723848 1.788969 158.64581
1.9091861 8.5241299 158.72382
10.539683 2.4332902 159.16908
-6.06949 3.0106623 159.21391
10.223043 5.6646113 159.30022
10.271538 -0.72259796 159.50822
-5.7853775 -7.546319 160.0687
3.4193447 -5.3898025 160.09367
8.0186701 -1.426847 160.0303
-3.1344502 7.367177 160.19678
6.1069751 5.0789804 160.68504
10.067065 3.5634897 160.78345
-4.1684389 -0.26497295 161.07132
2.8554173 6.1784039 161.08583
-6.3087997 -6.4969568 161.31381
7.1227846 -2.893003 161.43842
2.6044629 -7.0599504 161.8912
7.1785049 -1.9162095 161.83534
-0.52650005 7.5459647 161.89821
-0.57691169 5.328373 161.995
9.2616806 -1.9708221 162.07625
1.4605361 -8.8174095 162.28969
6.7765675 -0.62159228 162.7646
8.5116434 6.1522923 163.17224
8.3249683 -2.7370985 163.312
6.2459326 5.4679933 163.55093
-2.0815768 11.562485 163.58147
7.0242019 -0.99053395 164.31903
13.493038 -0.16406041 164.46298
7.8505492 -4.8642626 164.51923
-7.188694 -3.5785596 164.51974
2.6304276 6.8517637 164.7547
6.9559798 7.1358891 164.77855
-4.4113855 7.989152 164.85428
-0.86908442 6.3924704 164.93739
5.8691463 -7.2616529 165.57835
6.2948966 6.5616894 165.54233
0.45077375 8.2779884 165.58072
-2.6967173 9.5012836 165.59616
-4.7787127 1.5446982 165.82355
-6.4669476 -9.7110929 165.99216
1.4340606 -10.586854 166.37018
-2.5576954 8.7485542 166.32886
-5.974504 1.1271324 166.48811
0.38396019 9.5659351 166.45683
-5.2864027 -11.575628 166.56798
-6.7963481 -9.2775154 166.62366
-7.3847675 -7.031631 166.75949
7.0391483 -3.9132521 166.78796
-3.1363208 5.6040311 166.70532
5.2123518 -7.9343653 166.80678
-5.3975797 3.062747 166.80836
9.2747326 6.3765817 167.04352
-6.8646278 -8.0643797 167.36995
6.8594484 -4.7852345 167.38873
6.9161625 2.4915307 167.45108
9.9129143 5.5441923 167.60588
-0.40496823 6.8912559 167.69995
-4.6364012 -10.798286 167.84409
9.3991575 3.3559165 167.87958
-2.5920775 6.0507588 167.91916
6.4423342 9.6982822 168.06778
12.409865 3.6400263 168.12259
5.17556 7.0581312 168.18256
10.128429 0.19498622 168.42345
12.235877 2.9661517 168.49562
-2.2399261 4.6378317 168.67921
1.9663911 8.8366642 168.67523
10.550558 2.6592844 168.73128
-0.59657538 7.2610912 168.73404
8.4458055 -0.47186631 169.17783
10.065257 -3.5436766 169.45111
-6.5917664 -6.9969368 169.8479
-7.3449578 -0.17750539 170.0675
10.152101 0.34122786 170.1123
6.158236 6.8138828 170.12292
0.78320831 7.1931586 170.18457
-5.2109513 3.6463885 170.21307
7.3637772 -5.7050099 170.36333
-2.661159 5.6589079 170.31334
12.146896 0.2150024 170.46591
-6.7093601 0.062242486 170.51152
-0.39825481 7.4425759 170.61586
4.3363943 7.7916336 170.68021
10.123768 -1.397946 170.72368
8.7965155 1.8942736 170.8425
-2.4837663 6.9069653 170.9384
6.5192575 6.7467556 171.11224
-7.1936736 -7.3384361 171.26495
8.5518942 -5.7308187 171.21588
-0.33947062 7.3586512 171.27377
4.0320821 -9.4425068 171.38756
-8.8822231 -4.5414987 171.3989
-6.3401237 -9.8509712 171.43983
6.9598484 4.694665 171.43463
-8.4726057 -2.5661254 171.59201
1.7972645 8.986392 171.51332
-8.2285156 -6.023509 171.65332
5.7942972 6.8582063 171.6283
-8.3499432 -5.2941289 171.70007
-4.9112029 2.8212459 171.74176
11.266886 3.8325114 171.70523
8.4097643 5.5891595 171.81937
-2.9317136 6.2608624 171.80081
-3.9294872 3.968679 171.97772
8.113759 5.7402906 171.96844
7.8536415 4.8552604 172.00159
-2.7243638 5.5076427 172.07576
4.1981292 6.1100974 172.05659
1.6339768 7.7778459 172.05417
-4.3203254 -11.001154 172.21999
-1.8372691 6.4547825 172.29642
0.040459573 6.8297329 172.36945
5.2000122 7.7315512 172.37854
-4.8153782 2.8024955 172.48608
-8.1936846 -3.7458766 172.6665
10.572203 1.0870924 172.65466
9.2376366 1.5092721 172.84225
6.2629147 6.8471165 172.89072
-2.9486551 5.5753956 172.93172
9.6168327 0.95313358 173.08105
6.796483 -6.2507343 173.16591
9.5550175 1.125646 173.15375
-8.9297123 -4.9484897 173.28055
8.1899958 -4.6966262 173.21225
8.0003939 4.6412635 173.21439
2.554462 8.17593 173.20648
9.2258558 5.1534772 173.43147
7.2430682 5.3451562 173.4483
5.9053583 5.9591069 173.41106
-1.4349557 -11.272231 173.69394
-2.5260968 -12.270151 173.74535
9.1630459 -3.1455357 173.79376
9.2671099 1.600657 173.93352
2.0977092 6.9964085 173.98351
-8.5691137 -2.629539 174.04349
-4.900476 2.0504706 174.12601
8.5478592 3.2753017 174.23688
-2.1518307 5.849822 174.22351
-1.5146122 6.433322 174.26001
5.5817318 6.6874504 174.24429
3.2825437 7.5653739 174.26778
-7.5450993 -5.9704838 174.49094
-7.7161007 -5.0084276 174.4585
8.8823013 2.5327556 174.5667
-3.4112673 6.5068378 174.6667
-1.0095375 7.4043646 174.64336
-2.8821318 -10.550205 174.724
10.590277 -0.02359879 174.71704
-7.2718272 -6.1292295 174.89455
9.6942472 0.55865335 174.90993
5.3967271 -8.9296894 175.12271
9.636344 -0.43061125 175.28868
9.4266586 -2.2768703 175.34903
0.70859969 -12.149914 175.45927
-6.3902512 1.8776505 175.44266
8.9017677 -2.9928813 175.54102
-8.0234289 -7.9176035 175.80051
2.6584466 7.7296891 175.91998
-1.1537522 -10.447927 176.14896
10.568823 -0.16131788 176.15567
2.8963444 6.540329 176.48505
4.2865791 5.7835236 176.59633
4.2351456 7.5188494 176.57205
8.6079807 -2.8976722 176.69926
10.322006 -0.75310999 176.67551
0.77753341 -9.7200279 177.28127
8.178895 -5.5044413 177.69624
1.3956409 6.8908234 177.67239
0.12671331 5.4571347 177.72462
9.6541128 -1.8118231 177.89107
-5.3967023 -7.1278667 178.00864
-5.0143251 2.4289734 178.01326
-1.6188685 5.8279209 178.0092
