# .PCD v0.7 - Point Cloud Data file format
VERSION 0.7
FIELDS x y z
SIZE 4 4 4
TYPE F F F
COUNT 1 1 1
WIDTH 1506
HEIGHT 1
VIEWPOINT 0 0 0 1 0 0 0
POINTS 1506
DATA ascii
-2.7254732 -0.97333896 6.8107109
6.1968117 -2.0932066 6.9824152
4.6000652 -1.8927934 6.9603968
2.2418928 -1.5968139 6.9512334
7.1718993 -2.2155933 7.0607996
4.7927918 -1.9169834 7.151619
4.4738207 -1.8769481 7.133862
-1.5283648 -1.1235932 7.1804562
6.5647306 -2.1393855 7.2833562
6.088141 -2.079567 7.2047558
5.3999825 -1.9931937 7.2476602
1.9105234 -1.5552192 7.2650537
1.4790012 -1.5010575 7.4958754
0.89177978 -1.4273533 7.4587011
-1.9378691 -1.072194 7.4648676
6.796937 -2.1685307 7.5879655
6.0267887 -2.0718668 7.5105877
-1.4127334 -1.1381056 7.5224428
7.7076511 -2.2828379 7.680356
6.5420179 -2.1365349 7.6235747
6.2234311 -2.0965478 7.6008768
7.1865544 -2.2174332 7.7679038
6.9498782 -2.187727 7.7145729
1.0395025 -1.4458946 7.745038
4.0000868 -1.8174882 7.8853054
4.3653307 -1.8633311 7.8139029
2.2758493 -1.601073 7.9306312
2.684258 -1.6523339 8.0465546
2.1219888 -1.5817614 8.0972757
5.099071 -1.9554257 8.1785107
3.2958245 -1.7290938 8.1026182
2.0845227 -1.577059 8.2717924
6.6962957 -2.155899 8.335062
2.9204607 -1.6819807 8.3559799
0.17989421 -1.3380022 8.3666039
-2.1966155 -1.0397176 8.3855457
6.8486199 -2.1750178 8.4474773
4.1309977 -1.8339195 8.4036026
2.4699597 -1.6254365 8.4474373
-0.23804533 -1.2855451 8.4464111
-2.8222604 -0.96119034 8.4468899
1.8444505 -1.5469267 8.5757904
0.74404824 -1.4088113 8.5934134
-0.70347822 -1.2271271 8.5148659
5.6070876 -2.0191889 8.6232033
-2.323348 -1.0238107 8.6047449
6.6931105 -2.1554997 8.7059469
-0.48828149 -1.2541373 8.7198
-1.6359091 -1.1100938 8.7425938
3.9452615 -1.8106072 8.891613
1.8568864 -1.5484877 8.8653746
6.1514578 -2.0875146 8.9588852
1.6007124 -1.5163345 9.034668
3.1511776 -1.710939 9.2859669
-3.0430162 -0.93348211 9.2127419
-2.4430931 -1.0087807 9.3243122
7.0730505 -2.2031875 9.4620562
1.606869 -1.5171072 9.6413555
3.3402166 -1.7346661 9.729991
0.1633347 -1.3359236 9.7856798
-2.6949654 -0.97716725 9.7434368
1.647408 -1.5221952 9.8562107
-2.2017865 -1.039068 9.8445921
2.4383187 -1.6214657 9.9018469
-0.93464744 -1.1981115 9.9352779
-1.7887585 -1.0909088 9.9323139
6.3032069 -2.1065619 10.019634
6.5562444 -2.1383216 10.064758
0.027181149 -1.3188341 10.024361
-0.69979978 -1.2275881 10.008424
0.67676067 -1.4003655 10.131908
-0.92793393 -1.1989541 10.111059
-1.9275903 -1.0734835 10.134369
6.5307121 -2.1351168 10.28217
3.4659052 -1.7504419 10.224581
1.890906 -1.5527576 10.219803
3.5255942 -1.7579337 10.380795
1.844941 -1.5469884 10.324713
4.8402791 -1.9229448 10.433588
0.69647276 -1.4028395 10.493678
-2.0512452 -1.057963 10.460777
-1.7839729 -1.0915093 10.541109
3.5744653 -1.7640675 10.659245
-2.6847379 -0.97845089 10.675354
5.7575207 -2.0380709 10.79767
5.8736296 -2.0526443 10.798916
4.6668458 -1.9011765 10.790867
4.8935132 -1.9296263 10.706507
-0.39253533 -1.2661541 10.761814
-0.1358037 -1.2983775 10.782828
-1.623085 -1.111703 10.861298
6.6563306 -2.1508842 10.956025
0.60516381 -1.3913791 10.980108
-3.8814421 -0.82824796 10.967365
-3.4458091 -0.88292599 10.987619
4.5793734 -1.8901972 11.006752
0.50285435 -1.3785378 11.040983
-0.78037769 -1.2174745 11.034987
-0.96498781 -1.1943033 11.126605
-2.3260515 -1.023471 11.194044
5.8748736 -2.0528007 11.223272
1.0423375 -1.4462504 11.247694
6.5316105 -2.1352298 11.346661
-0.48317331 -1.2547777 11.346063
0.72972095 -1.4070127 11.458019
6.803699 -2.1693809 11.582467
5.5582099 -2.0130548 11.593966
5.8593659 -2.0508542 11.553758
1.6116863 -1.5177115 11.587435
4.7037182 -1.9058043 11.635075
5.1069741 -1.9564185 11.689602
-3.1784105 -0.91648817 11.8673
6.4335327 -2.1229198 11.958576
5.5972772 -2.0179582 11.993255
5.2002234 -1.9681224 11.99791
2.1966648 -1.5911343 11.993071
-3.2849231 -0.90311939 11.940226
6.0713382 -2.0774596 12.06382
3.9247179 -1.8080289 12.044116
3.0897231 -1.7032254 12.087781
4.920536 -1.9330178 12.128633
3.5746286 -1.7640879 12.103443
2.8030868 -1.6672486 12.151848
0.52321982 -1.3810939 12.175734
-2.7410522 -0.97138268 12.190386
4.4662352 -1.8759967 12.208125
2.242938 -1.5969423 12.23699
-1.7298192 -1.0983063 12.21192
-2.8725193 -0.95488161 12.272538
-2.5710499 -0.99272025 12.27995
5.6463346 -2.0241153 12.373738
-2.2118614 -1.0378034 12.410776
-0.27003777 -1.2815289 12.635016
-2.0259678 -1.0611356 12.676737
6.5706663 -2.1401315 12.788377
4.8522253 -1.9244434 12.778282
3.9535103 -1.8116425 12.716524
2.3048222 -1.6047094 12.765492
1.7906057 -1.5401682 12.875103
6.2576737 -2.1008465 12.950978
2.2818775 -1.6018293 12.907196
2.3803568 -1.6141899 12.984861
2.4609947 -1.624311 12.922157
0.33285856 -1.3572009 12.948079
-3.4514179 -0.88222188 12.969687
-2.6779406 -0.97930402 13.01205
0.72634363 -1.4065884 13.194076
-1.2230741 -1.1619098 13.173119
-3.3417475 -0.89598703 13.127077
2.4823349 -1.6269894 13.227551
-0.92111707 -1.1998093 13.288106
2.2260845 -1.5948262 13.340323
4.7575741 -1.9125628 13.433666
1.8297818 -1.5450846 13.53805
-1.0619547 -1.1821321 13.661739
-0.98669958 -1.1915776 13.642445
-1.8121578 -1.0879713 13.69581
-2.7260842 -0.97326112 13.606018
4.2386465 -1.8474302 13.720712
3.1185594 -1.706844 13.751472
3.5557065 -1.7617118 13.742506
2.3720555 -1.6131475 13.763935
1.4850607 -1.5018173 13.764397
0.4354229 -1.3700734 13.767794
-0.2692554 -1.2816267 13.780792
1.939077 -1.5588026 13.805651
2.0265956 -1.5697874 13.897678
-0.85131216 -1.2085705 13.867554
1.6323304 -1.5203017 13.914015
-3.9727445 -0.81678808 13.902299
-1.2390056 -1.1599095 14.023458
6.5220008 -2.1340222 14.150053
6.4981589 -2.1310296 14.261067
3.0779231 -1.7017431 14.351246
3.5532532 -1.7614036 14.311297
1.5887285 -1.5148287 14.3658
2.0085011 -1.5675159 14.340416
1.4315572 -1.4951016 14.381447
-2.7268569 -0.97316366 14.375652
-3.5767188 -0.86649466 14.354179
-4.148839 -0.79468596 14.306686
4.0191288 -1.8198773 14.471909
2.1792812 -1.588951 14.513427
6.1948857 -2.0929644 14.653116
5.0821104 -1.9532957 14.671958
3.2731235 -1.726243 14.761421
1.9756718 -1.5633951 14.774357
5.4264417 -1.9965141 14.852691
-0.93684006 -1.1978347 14.999783
6.6639624 -2.1518397 15.002671
-3.2313352 -0.90984499 15.08881
4.2744045 -1.8519173 15.180721
3.767925 -1.7883471 15.121811
3.2540243 -1.7238455 15.242498
1.6804466 -1.5263399 15.21085
4.9939065 -1.9422246 15.319411
-3.6412244 -0.85839856 15.389643
-1.7436523 -1.0965691 15.48117
-3.4656405 -0.8804366 15.413645
4.716239 -1.9073734 15.537987
1.6726952 -1.5253668 15.535408
3.4967778 -1.7543142 15.602203
5.2034411 -1.9685237 15.795393
3.4390178 -1.7470645 15.776924
3.0002031 -1.6919872 15.766263
1.6118522 -1.51773 15.789471
2.1748843 -1.5883982 15.780819
-3.6934414 -0.85184449 15.76975
4.9926486 -1.9420663 15.889011
1.8358735 -1.5458478 15.817802
-3.3674593 -0.89275962 15.870158
1.406305 -1.491931 15.924767
6.4600286 -2.1262426 16.083738
5.185195 -1.9662334 16.057661
2.4304917 -1.6204802 16.238331
-2.3434455 -1.021287 16.231895
4.8441401 -1.9234262 16.385262
0.11669692 -1.3300678 16.354116
-0.55898494 -1.2452607 16.31279
-2.1822467 -1.0415196 16.373421
6.1206794 -2.0836494 16.435759
4.2779608 -1.8523626 16.439793
3.6841528 -1.7778317 16.459389
-1.2059208 -1.1640615 16.418955
0.40219146 -1.3659012 16.567944
-1.1807268 -1.1672237 16.552437
-0.25845289 -1.2829815 16.644291
-3.8824611 -0.82811975 16.690508
-4.2064905 -0.7874496 16.648802
1.7038147 -1.5292723 16.780125
1.9230638 -1.5567909 16.775249
-1.5679841 -1.1186178 16.700253
-1.214202 -1.1630222 16.703369
0.64198756 -1.3959988 16.829815
1.0076749 -1.4418975 16.979679
0.40343022 -1.3660566 16.954964
-3.1009512 -0.92620963 16.963764
-3.4570279 -0.88151729 16.979378
-3.6507225 -0.85720599 17.047525
5.4758592 -2.0027149 17.14831
3.3988304 -1.7420195 17.197033
2.572731 -1.638333 17.196634
0.24275672 -1.3458899 17.135313
0.57457626 -1.3875377 17.199499
-3.6023235 -0.86328065 17.142702
5.032228 -1.947033 17.238779
-2.4278772 -1.0106895 17.230343
-2.6848266 -0.97843885 17.246891
-3.5668464 -0.86773348 17.241796
1.7747692 -1.538178 17.384417
-1.6538647 -1.1078384 17.352907
2.1466899 -1.5848591 17.401154
3.5555534 -1.7616903 17.537247
5.5429239 -2.0111322 17.638212
0.41757011 -1.3678312 17.786068
-2.8851829 -0.9532913 17.75046
-2.6691332 -0.98040843 17.759735
5.508883 -2.0068595 17.863008
4.3583708 -1.8624545 17.862911
1.8875499 -1.5523334 17.943941
-3.7723298 -0.84194243 17.93074
5.1078544 -1.9565247 18.091188
2.0428309 -1.5718232 18.083477
-3.5395226 -0.87116277 18.180218
-1.7516317 -1.0955671 18.206469
-4.1748896 -0.79141569 18.214277
2.1597486 -1.5864978 18.300346
6.1638865 -2.0890708 18.482708
5.3688602 -1.9892844 18.405272
6.0721216 -2.0775533 18.561428
4.8733435 -1.9270904 18.500435
5.5396819 -2.010725 18.62501
0.98808837 -1.4394387 18.618496
1.1526138 -1.4600887 18.650997
2.8333056 -1.6710384 18.754742
1.5462631 -1.5094972 18.775629
3.1465719 -1.7103577 18.862329
1.7874632 -1.5397712 18.869371
2.133369 -1.583187 18.819809
-0.51728731 -1.2504936 18.826603
-0.34986401 -1.2715077 18.896477
-4.3878198 -0.76468992 18.928774
4.433537 -1.8718895 19.030365
-1.9393865 -1.0720013 19.081966
-3.976089 -0.81636763 19.0196
-4.247241 -0.78233439 19.044724
0.83942056 -1.4207795 19.164146
-2.9208279 -0.94881737 19.197914
-3.5410242 -0.87097436 19.192537
3.8766201 -1.8019894 19.281113
4.2818141 -1.8528469 19.265533
-0.72754502 -1.2241042 19.209152
-3.9984658 -0.81355917 19.277462
3.8658972 -1.8006434 19.352045
-0.40200901 -1.2649635 19.331734
-0.34489059 -1.2721328 19.421909
-3.615787 -0.86159062 19.436825
-4.5397439 -0.74562132 19.401699
4.1138821 -1.8317693 19.516291
-5.1611333 -0.66762841 19.556545
2.5910473 -1.6406331 19.626627
1.2453355 -1.4717282 19.689434
-5.3039451 -0.64970356 19.600868
-4.1218944 -0.79806721 19.714905
-0.90792251 -1.2014649 19.838066
-1.856378 -1.0824206 19.830221
-5.0663958 -0.6795193 19.889658
0.6800406 -1.4007759 19.91489
0.58308864 -1.3886073 19.926653
2.2696729 -1.6002967 20.099098
2.085319 -1.5771579 20.083038
2.1641579 -1.5870531 20.089294
-4.0728865 -0.80421829 20.089424
-0.65360081 -1.2333857 20.111671
-3.9943783 -0.81407219 20.16843
-5.5503631 -0.61877465 20.134869
4.1420007 -1.8352995 20.215397
0.44558501 -1.3713486 20.214487
-0.93564844 -1.1979847 20.214039
1.8921674 -1.5529147 20.326691
-5.6758928 -0.603019 20.319927
3.999927 -1.8174676 20.434086
0.22581184 -1.3437641 20.468676
-0.65602148 -1.2330817 20.40143
-5.2739906 -0.65346313 20.45285
4.5287437 -1.8838418 20.589563
-5.0949607 -0.6759339 20.52702
3.241667 -1.7222956 20.721132
2.0578914 -1.5737152 20.770716
-1.8706121 -1.080634 20.783016
2.5958722 -1.6412395 20.85037
-0.29414529 -1.2785022 20.858734
-1.9887786 -1.0658025 20.853195
-0.14135128 -1.29768 20.937809
4.5324473 -1.8843076 21.071131
-4.8769054 -0.70330286 21.025173
-4.2396154 -0.78329146 21.014032
3.5621498 -1.7625221 21.37479
1.1449366 -1.4591277 21.33959
-1.7702882 -1.093226 21.343052
-4.5376363 -0.74588573 21.43882
-5.3824215 -0.63985348 21.497889
4.399344 -1.8676025 21.646095
0.71791172 -1.4055307 21.649799
-4.3612857 -0.76802009 21.686783
1.9702015 -1.562711 21.754072
-2.035996 -1.0598764 21.799366
-2.9347637 -0.94706827 21.775494
4.2811713 -1.8527706 21.816679
0.80130196 -1.4159976 21.829666
-3.1301062 -0.92255008 21.845961
3.2031813 -1.7174679 21.942249
0.48205042 -1.3759274 21.983021
-5.2722006 -0.65368778 21.915243
4.4881492 -1.8787497 22.062862
0.80008459 -1.4158454 22.06675
-0.72538352 -1.2243775 22.093729
-5.528542 -0.62151331 22.276913
3.4354382 -1.7466203 22.371748
1.5568446 -1.5108302 22.398081
0.58793831 -1.3892184 22.310787
-3.1202452 -0.92378891 22.359631
-4.1390996 -0.79590827 22.379377
-5.1276517 -0.67183107 22.42029
4.0165057 -1.8195529 22.577394
-0.78057551 -1.2174511 22.554356
-1.2017708 -1.1645851 22.55584
-3.3595243 -0.89375651 22.595974
3.1614037 -1.7122257 22.66481
-2.3966389 -1.0146123 22.62183
3.4940212 -1.753974 22.740044
2.4570293 -1.6238167 22.72258
-6.571157 -0.49065089 22.70644
0.13398004 -1.3322415 22.898319
-4.4294243 -0.75946915 22.88109
0.87338686 -1.4250478 22.922413
-4.9624071 -0.69257212 22.943407
-6.5315123 -0.49562687 22.991167
0.85312557 -1.4225048 23.039072
3.2915444 -1.7285612 23.116102
3.4421911 -1.7474695 23.186092
-3.9951339 -0.81397885 23.103729
0.45725203 -1.3728174 23.258453
-5.2264643 -0.65942931 23.30785
-3.1846347 -0.9157083 23.404964
-4.0657401 -0.80511689 23.425072
0.5757072 -1.3876854 23.555099
-0.2786715 -1.2804487 23.576687
-2.5173302 -0.99946463 23.538521
0.87739277 -1.4255512 23.657904
-3.2986429 -0.90139866 23.673027
-5.428102 -0.63412094 23.608612
3.5337327 -1.7589601 23.748348
1.4871862 -1.5020891 23.712568
-3.0002549 -0.93885076 23.792114
-2.8525143 -0.9573943 23.77453
-3.8909268 -0.82705855 23.794956
-5.5312824 -0.62117028 23.73983
0.029906988 -1.3191795 23.853886
-2.2720468 -1.0302514 23.842228
-2.1543167 -1.0450281 23.86458
4.1197524 -1.832514 23.976439
-6.8150568 -0.46003821 23.97555
-6.7727499 -0.4653483 23.940853
-6.5118179 -0.49809903 23.96455
3.1027153 -1.7048613 24.081097
0.73575246 -1.4077735 24.019108
-1.309968 -1.151006 24.022896
-1.1165028 -1.1752888 24.056581
-4.660748 -0.73043501 24.01479
-6.4810686 -0.50195855 24.065722
-6.647831 -0.48102754 24.164099
1.4862733 -1.5019746 24.225769
3.6564145 -1.7743584 24.317011
-1.733478 -1.0978496 24.301918
-2.0862389 -1.053573 24.495468
2.3788629 -1.6140075 24.587322
-4.0812054 -0.80317605 24.580019
-2.0601888 -1.0568427 24.627483
-3.3441389 -0.89568847 24.642065
-0.69652987 -1.2280016 24.74272
-1.9818747 -1.0666723 24.767723
-3.2312162 -0.90986204 24.720919
1.1263624 -1.4568007 24.899412
-3.4095507 -0.88747847 24.849051
-5.5781822 -0.61528397 24.817968
-1.0543315 -1.1830924 25.013447
-3.647542 -0.85760713 25.065529
3.6938045 -1.7790514 25.150013
0.2853756 -1.3512449 25.182266
-4.8027315 -0.71261436 25.182333
3.5579276 -1.761997 25.206533
2.7342248 -1.6586105 25.235374
-5.0793839 -0.67789042 25.280073
-6.364512 -0.51658833 25.276691
-5.4524703 -0.63106281 25.39122
-6.9177275 -0.4471519 25.321043
-1.1824963 -1.1670058 25.467915
-3.8619666 -0.8306939 25.471476
-5.8309579 -0.58355707 25.463028
-7.2451587 -0.40605462 25.565022
1.5967712 -1.5158437 25.71323
-0.58436871 -1.2420795 25.793144
-1.1147332 -1.1755111 25.758179
2.3338079 -1.6083524 25.878393
-3.2175837 -0.91157329 25.814821
1.9962803 -1.5659877 25.9972
-3.8805308 -0.82836378 25.992987
3.5795817 -1.7647148 26.018639
1.7637961 -1.5368079 26.084332
4.068274 -1.8260529 26.106544
2.0772283 -1.5761479 26.185797
0.92337513 -1.4313229 26.19338
-3.5878699 -0.86509705 26.129761
-5.1032219 -0.67489862 26.15169
3.9485912 -1.8110309 26.241802
2.8094969 -1.6680583 26.247049
-2.0271287 -1.0609924 26.200661
-4.2504954 -0.78192794 26.28688
2.1201663 -1.5815374 26.313696
-4.7376728 -0.72078025 26.328037
-6.2132816 -0.5355702 26.302879
-5.935605 -0.57042259 26.345446
-0.16938519 -1.2941658 26.426136
-7.3835521 -0.38868445 26.434456
4.020009 -1.8199949 26.720957
4.1087666 -1.8311352 26.770132
3.2631423 -1.7249972 26.788857
0.077088833 -1.3251019 26.779514
-4.2834492 -0.77779186 26.768044
1.7044164 -1.5293548 26.856785
2.1517148 -1.585497 26.886831
-3.1025765 -0.92600822 26.827585
-7.4241199 -0.38359267 26.893446
-0.46354413 -1.2572447 26.990623
-2.3678524 -1.0182266 26.94952
-5.3303032 -0.64639658 26.993399
-6.8746672 -0.45255685 26.946507
-7.5037599 -0.37359673 27.009565
4.0580268 -1.8247665 27.200975
2.3955784 -1.6161056 27.266077
-4.2120905 -0.78674841 27.296852
3.0285211 -1.6955489 27.357595
-2.0932541 -1.0526927 27.393675
-4.9121833 -0.69887668 27.399582
-7.2465248 -0.40588337 27.341478
3.0743387 -1.7012997 27.454748
2.9736621 -1.6886635 27.425451
1.6498257 -1.5225027 27.425934
1.8216544 -1.5440698 27.479567
-6.8542247 -0.45512277 27.490604
-7.7429643 -0.34357318 27.452614
-0.60963345 -1.2389083 27.579617
-1.7164493 -1.099987 27.588303
-6.9709435 -0.44047284 27.506973
2.1391399 -1.5839189 27.683098
-7.1220932 -0.42150137 27.654287
1.1544229 -1.4603226 27.787016
-0.24938583 -1.2841245 27.753262
-1.5212557 -1.1244867 27.799488
-7.4835215 -0.37613699 27.881121
-3.0702627 -0.93006414 27.956148
3.7705739 -1.788687 28.018728
-2.1494005 -1.0456456 28.094625
-2.8790517 -0.95406383 28.044338
2.6482992 -1.6478256 28.145988
0.61014795 -1.3920083 28.280243
-0.5942235 -1.2408426 28.369003
-5.0426979 -0.68249524 28.307306
4.0345836 -1.8218243 28.499035
-0.47517323 -1.255785 28.412752
-0.35842037 -1.2704391 28.45541
4.1263862 -1.8333466 28.594198
3.1383746 -1.7093371 28.510647
0.87164569 -1.4248301 28.551971
-1.6158128 -1.1126184 28.524757
-5.6507769 -0.60617268 28.529051
0.13141608 -1.3319207 28.606171
2.1963949 -1.5911051 28.750959
0.17224479 -1.3370452 28.721397
-0.2394824 -1.2853676 28.796799
-3.7668409 -0.84263361 28.775719
-6.2324095 -0.53316951 28.711788
2.5472317 -1.6351402 28.834768
2.0992436 -1.5789111 28.895107
1.2610486 -1.4737058 28.890087
-7.4983158 -0.37428015 28.816189
2.3296933 -1.6078359 28.957634
-0.17258 -1.2937648 28.991852
-2.7006519 -0.97645569 28.949032
-3.4550352 -0.88176966 28.934002
3.116724 -1.7066196 29.039803
3.4287066 -1.7457778 29.09877
-2.3210251 -1.0241042 29.080576
2.9260769 -1.6826906 29.165977
-3.0848145 -0.92823774 29.147951
-7.4696779 -0.37787467 29.163624
3.012816 -1.6935778 29.209776
2.2476099 -1.5975333 29.277531
-3.0201435 -0.93635494 29.233454
-4.5458145 -0.7448613 29.259977
3.9026735 -1.8052675 29.324665
1.1713598 -1.4624485 29.3668
3.708251 -1.7808647 29.447132
-0.71784031 -1.2253269 29.416073
-1.8413239 -1.0843136 29.483299
-4.892889 -0.70129848 29.439171
-5.6448803 -0.60691285 29.450924
3.5663226 -1.7630507 29.508604
-1.1249908 -1.1742237 29.578144
-5.6697221 -0.60379487 29.555353
-6.8177748 -0.45969778 29.58968
-6.5803895 -0.48949298 29.590378
1.9360648 -1.55843 29.647079
0.43333924 -1.3698164 29.686882
-1.2404481 -1.1597321 29.690956
1.3204424 -1.4811605 29.745129
1.450385 -1.4974701 29.778507
0.3086853 -1.3541706 29.709307
-0.85933745 -1.207567 29.7022
-2.7896726 -0.96528232 29.755802
-4.4029694 -0.7627905 29.79541
-5.4303827 -0.63383526 29.872639
-5.8840823 -0.57688946 29.834183
-6.8582907 -0.45461243 29.844797
-7.5301051 -0.37029013 29.80196
4.138021 -1.8348069 29.912621
0.979092 -1.4383162 29.963671
-0.74179304 -1.2223204 29.936129
-3.7250826 -0.84787494 29.959734
-3.5964406 -0.86402136 29.99696
-5.0080972 -0.68683821 29.971779
-4.8741279 -0.70365322 30.097557
-6.1760063 -0.54024887 30.096973
-1.4026463 -1.1393739 30.129002
-7.1116371 -0.42281377 30.136759
1.7391764 -1.5337178 30.290327
1.8825047 -1.5517074 30.397764
0.42813087 -1.3691627 30.335972
-2.9528911 -0.94479609 30.487667
3.1684058 -1.7131064 30.691816
1.6565292 -1.5233442 30.600243
-0.12291873 -1.299998 30.678362
-4.2472415 -0.78233641 30.658203
-0.098629236 -1.3030467 30.700012
-6.2856021 -0.52649295 30.765045
0.88157034 -1.4260757 30.893293
-1.0453645 -1.1842178 30.840736
-7.654047 -0.35473344 30.835442
-2.2692523 -1.0306023 30.93679
0.09618938 -1.327499 31.030613
-0.37439704 -1.2684338 31.090124
-1.39176 -1.1407403 31.071051
-4.4421167 -0.75787669 31.154535
-5.8956432 -0.57543832 31.141243
-7.6370435 -0.35686764 31.114895
4.15521 -1.8369646 31.202866
-0.0084804147 -1.3143616 31.296658
-3.7304354 -0.8472029 31.234564
-7.4333 -0.38244036 31.209967
4.0501971 -1.8237838 31.333597
3.5875292 -1.7657124 31.374733
-2.4476194 -1.0082146 31.35544
-2.174278 -1.0425229 31.34124
-4.6719379 -0.72903085 31.362656
2.9640446 -1.687456 31.424145
1.4214811 -1.4938422 31.491499
0.60792041 -1.3917288 31.409714
-1.7386258 -1.0972034 31.412273
-2.6333258 -0.98490584 31.478966
0.48309088 -1.3760608 31.536049
4.1278853 -1.8335348 31.657768
-5.625144 -0.60938978 31.672514
-5.9884553 -0.56378901 31.633127
3.1499364 -1.7107881 31.721815
-7.3772993 -0.38946915 31.789984
3.5971842 -1.7669243 31.845757
1.9056644 -1.5546141 31.896255
-6.1369219 -0.54515433 31.857347
-7.1875024 -0.41329139 31.848715
-3.6532946 -0.85688508 31.924669
-5.8289666 -0.58380711 31.9431
-5.7555933 -0.59301645 32.078915
0.67750072 -1.400462 32.175331
0.31706071 -1.3552216 32.167976
-0.21156478 -1.2888715 32.161324
3.2319551 -1.7210827 32.281204
2.2568474 -1.5986927 32.205296
-3.6825652 -0.85321116 32.269402
-0.021305323 -1.312752 32.385201
0.4394784 -1.3705869 32.31665
-4.2599807 -0.78073728 32.316536
4.1972904 -1.8422462 32.435337
-4.0896063 -0.8021217 32.44342
-4.6195545 -0.7356056 32.416512
-6.9845634 -0.43876311 32.491398
-0.20133948 -1.2901551 32.59029
-7.170949 -0.41536897 32.578949
-5.2038794 -0.66226441 32.686386
-5.7419786 -0.59472525 32.688839
-6.8719826 -0.4528935 32.686798
4.1238089 -1.8330231 32.738277
-0.21843719 -1.288009 32.784039
-1.2708149 -1.1559205 32.745224
-3.4399261 -0.8836658 32.74966
-6.0337591 -0.55810261 32.785507
3.6245353 -1.770357 32.830875
1.2922709 -1.4776245 32.865635
-2.8768852 -0.95433569 32.897861
-4.4642839 -0.75509435 32.891796
-5.2244754 -0.65967929 32.886711
3.9822631 -1.8152571 33.009743
3.6383078 -1.7720859 33.090328
-2.7608695 -0.96889722 33.163128
0.21287322 -1.3421446 33.238754
-3.5618556 -0.86836195 33.264839
-5.4669256 -0.62924755 33.201809
-6.1614351 -0.54207641 33.227489
-6.6482229 -0.48097777 33.289829
3.4925759 -1.7537944 33.386147
-4.0899696 -0.80207479 33.330814
4.1681767 -1.8385921 33.447479
-0.81150413 -1.2135705 33.406578
-7.2995634 -0.39922553 33.481022
0.22597289 -1.3437887 33.506172
2.405916 -1.617403 33.661808
0.87122035 -1.424776 33.653969
-4.6502204 -0.73175496 33.613857
-9.7366695 -0.093334585 33.632504
0.73306179 -1.4074351 33.758377
1.1329837 -1.4576311 33.775513
-2.88801 -0.95293796 33.702492
-8.2867689 -0.27531755 33.745998
-0.31084609 -1.2764094 33.834644
-6.8892655 -0.45072374 33.868233
-8.3977385 -0.26138934 33.89534
-10.272499 -0.026079386 33.966599
-5.8575215 -0.58022189 34.050095
-2.217525 -1.0370924 34.135841
-5.8201528 -0.58491212 34.197334
0.73569846 -1.4077642 34.280205
0.83096957 -1.4197223 34.206947
-5.0879974 -0.67680776 34.255726
3.6358688 -1.7717776 34.329468
1.3598902 -1.486109 34.36174
-6.8602777 -0.45436206 34.34227
2.7213838 -1.6569959 34.444595
-0.70151007 -1.2273728 34.481293
-10.637776 0.019768484 34.470478
-0.6544497 -1.233279 34.59671
-2.9186029 -0.94909787 34.576359
-1.6980002 -1.1022997 34.645512
-2.4914927 -1.0027058 34.695507
-2.8597138 -0.95648926 34.6945
-7.8631506 -0.32848778 34.619255
-8.333478 -0.26945481 34.665989
-0.82165241 -1.2122929 34.786362
-3.6694221 -0.85485947 34.793404
-5.923718 -0.5719133 34.711422
-9.0507851 -0.17942229 34.711895
-4.0093727 -0.81219065 34.863029
-5.6628399 -0.60465705 34.805134
-4.9599495 -0.69287968 34.873951
-6.9554291 -0.44241929 34.839058
-6.6682501 -0.47846428 34.895878
1.3402786 -1.4836453 34.906883
-1.485074 -1.1290247 34.945061
-6.7224264 -0.47166437 34.973003
-8.0350275 -0.30691469 34.99519
-9.4941778 -0.12377 34.970112
2.3919935 -1.6156502 35.051182
-3.1231494 -0.9234246 35.059261
3.2111175 -1.7184633 35.1926
-2.0217674 -1.0616627 35.145496
-1.9886515 -1.065819 35.157898
-9.1360388 -0.16872166 35.139034
-1.3468249 -1.1463768 35.273743
-4.7873883 -0.71453846 35.296112
-0.82748765 -1.2115605 35.398823
-0.24481237 -1.284694 35.399822
-1.9263999 -1.0736325 35.390648
0.83247513 -1.4199078 35.472542
-0.65949667 -1.2326455 35.49015
-0.28525603 -1.2796178 35.409168
2.8961511 -1.6789293 35.572399
-1.5247009 -1.1240511 35.580135
-1.2901134 -1.1534948 35.543266
-8.4727917 -0.25196895 35.589005
0.18073893 -1.3381064 35.675224
0.36035872 -1.3606509 35.643986
-1.9012039 -1.0767949 35.603783
-1.8133154 -1.087826 35.623413
-2.9365654 -0.94684339 35.61187
-4.2340431 -0.78399122 35.630814
1.3491569 -1.4847581 35.719177
-0.12050951 -1.3002956 35.822266
2.2474973 -1.5975137 35.914745
-0.26453733 -1.2822183 35.975616
-2.9782863 -0.94160688 35.954842
-5.8542848 -0.58062834 35.965347
-7.5813007 -0.363864 35.994164
1.5822903 -1.5140215 36.127041
0.44416296 -1.3711703 36.162952
-1.1700209 -1.168568 36.104847
-3.9235041 -0.82296842 36.149895
-9.144227 -0.16769439 36.1632
3.2048817 -1.7176805 36.257877
-7.755487 -0.34200111 36.245285
-8.8289518 -0.20726591 36.252304
2.3094664 -1.6052933 36.3181
-7.3536696 -0.39243516 36.346004
-8.9754877 -0.18887353 36.371574
-1.8924303 -1.0778961 36.44138
-2.5500515 -0.99535596 36.42083
0.84203267 -1.4211102 36.517296
-2.7171311 -0.97438532 36.543015
-3.4971566 -0.87648124 36.583958
-3.3219678 -0.89847004 36.526257
-5.2547898 -0.65587336 36.518574
-0.28788638 -1.2792897 36.625217
-5.5034318 -0.62466526 36.686646
-6.3261008 -0.5214088 36.647423
-9.1249599 -0.1701127 36.621983
-10.200001 -0.035179619 36.614906
3.8400445 -1.7973996 36.777355
-0.09137094 -1.303957 36.759804
-3.5132389 -0.87446266 36.778885
-8.6685343 -0.22740054 36.76342
-9.7855425 -0.087200098 36.741482
-3.0183923 -0.93657297 36.841869
-5.4385839 -0.63280433 36.834255
-5.4281993 -0.63410813 36.96302
4.1029711 -1.8303996 37.083408
-6.5693684 -0.49087536 37.049347
-9.4417944 -0.13034545 37.064163
-8.9932957 -0.18663837 37.097034
-9.8114491 -0.083948463 37.032154
-2.7662158 -0.96822494 37.116405
-5.7239723 -0.59698552 37.196232
-6.5471163 -0.49366909 37.166367
-9.9942169 -0.061008379 37.108231
0.53657025 -1.3827727 37.237083
0.60725182 -1.3916442 37.275894
3.8602879 -1.7999399 37.325424
2.7147453 -1.6561619 37.361374
-2.1988635 -1.039436 37.351219
-7.8404107 -0.33134183 37.302505
0.79894161 -1.4157041 37.422264
-0.65848863 -1.2327754 37.496071
-4.5257792 -0.74737406 37.453262
-6.3097353 -0.52346283 37.435287
-8.0035563 -0.31086481 37.478985
-8.6915407 -0.22451289 37.467598
-0.87332511 -1.2058103 37.56498
-8.8161411 -0.20887385 37.563362
2.2045412 -1.5921274 37.605762
0.57113743 -1.3871114 37.680294
-1.2025504 -1.1644878 37.693993
-9.0083103 -0.18475385 37.63002
2.87867 -1.6767356 37.798084
-3.758373 -0.84369481 37.74654
-7.066 -0.42854106 37.732273
0.72773081 -1.4067662 37.839901
-0.053282976 -1.3087375 37.876244
-2.4674492 -1.0057247 37.872822
-3.681169 -0.85338503 37.865231
-5.9708204 -0.56600124 37.832699
-3.01688 -0.93676293 37.947006
-7.0463505 -0.43100744 37.948452
-8.4328289 -0.25698492 37.975895
2.2826567 -1.6019315 38.005997
0.65342665 -1.39744 38.075439
-1.3058369 -1.1515237 38.046795
3.6714048 -1.7762337 38.118977
0.57061559 -1.3870459 38.188995
3.9079638 -1.8059251 38.237114
0.85839325 -1.4231663 38.253307
1.0529978 -1.4475919 38.206146
0.51545572 -1.3801225 38.247982
-5.3119149 -0.6487031 38.235229
-9.0468225 -0.17991994 38.23912
-4.1599321 -0.7932933 38.330109
-6.0797353 -0.55233103 38.345734
-9.510006 -0.12178381 38.30125
-2.2203171 -1.0367432 38.446823
3.1637564 -1.7125187 38.507423
1.8436788 -1.5468339 38.588848
0.97039998 -1.4372246 38.582829
-3.5135155 -0.87442797 38.502651
-8.8286324 -0.20730588 38.553432
-9.4089193 -0.13447171 38.586452
1.9581363 -1.5612 38.659443
-4.4031987 -0.7627598 38.638103
-6.1318102 -0.54579484 38.605526
-0.41895759 -1.26284 38.789726
-4.7320323 -0.72148633 38.775871
-5.0289922 -0.68421382 38.735054
-6.6720877 -0.47798252 38.743309
-8.2158136 -0.28422347 38.768017
4.5135517 -1.8819361 38.878891
-4.7776031 -0.71576661 38.847023
-6.2562799 -0.53017223 38.902515
-8.3621225 -0.26585957 38.998421
0.68622565 -1.4015566 39.084526
0.92915827 -1.4320482 39.034904
-2.6436901 -0.98360384 39.01828
4.2479115 -1.848596 39.160179
2.0133326 -1.5681278 39.149712
-2.3447194 -1.0211289 39.144238
1.5305907 -1.5075368 39.272091
-7.2298508 -0.40797555 39.244152
-7.3659544 -0.39089262 39.224049
-10.305837 -0.021896649 39.242626
-9.8787107 -0.075506292 39.282745
2.5739405 -1.638492 39.38747
-4.4832659 -0.7527101 39.302113
4.8922462 -1.9294689 39.424393
3.1400328 -1.7095442 39.444607
3.3214035 -1.7323087 39.498444
-0.38478127 -1.2671298 39.49263
-2.5303924 -0.99782425 39.443256
-7.4560385 -0.3795858 39.471222
-10.028611 -0.056691848 39.45948
1.4331071 -1.4953007 39.561531
-3.6424398 -0.85824609 39.592831
-9.5874138 -0.11206831 39.525787
-8.9517851 -0.19184855 39.582172
1.4633321 -1.499094 39.690704
-0.83808577 -1.2102334 39.602386
-6.1392937 -0.54485554 39.670361
-7.889761 -0.32514766 39.689377
-10.02392 -0.057280641 39.614418
0.87710279 -1.4255141 39.762657
0.49138761 -1.3771015 39.782825
-2.8559852 -0.95695764 39.785637
3.7293315 -1.7835094 39.846397
1.3330437 -1.4827404 39.881565
-2.4466274 -1.008338 39.813454
-2.6860311 -0.97828931 39.815338
1.5980573 -1.5160029 39.985905
-1.3406655 -1.1471523 39.997353
-4.6258669 -0.73481166 40.011223
-5.1747956 -0.66591346 40.035633
-6.4937248 -0.50036955 40.067841
-7.7637024 -0.3409698 40.065639
-8.8911877 -0.19945443 40.095848
1.3362242 -1.4831388 40.191116
-0.37273657 -1.2686412 40.101715
-6.1217117 -0.5470624 40.133297
-6.810513 -0.46060824 40.105499
-9.428607 -0.1320007 40.104725
-10.256828 -0.028048277 40.134182
-4.502203 -0.75033319 40.24065
-8.1108017 -0.29740396 40.223289
-10.160948 -0.040082105 40.233482
2.092109 -1.5780122 40.325165
-3.4973695 -0.87645447 40.363365
-5.4391909 -0.63272828 40.349602
-8.0432062 -0.30588818 40.419983
-5.8673697 -0.57898587 40.588634
-8.0020075 -0.31105918 40.528835
-4.720336 -0.72295451 40.67572
-6.2401462 -0.53219724 40.619194
-9.2965813 -0.14857201 40.656906
-1.3862858 -1.1414251 40.71701
-3.9583592 -0.81859362 40.760933
-3.8897409 -0.82720613 40.799522
-10.457448 -0.0028692614 40.76384
-9.7457151 -0.092199549 40.751549
1.4931457 -1.5028324 40.828144
-2.389884 -1.0154598 40.812428
-6.9833775 -0.43891138 40.825783
-10.392328 -0.011042418 40.876499
5.8218718 -2.0461512 40.906712
5.1978993 -1.9678335 40.927856
-0.76100922 -1.2199049 40.994961
-2.2650747 -1.0311246 40.974392
-10.446153 -0.0042871069 40.99115
4.1435452 -1.8354959 41.005146
3.3898547 -1.7408965 41.076859
1.9371409 -1.5585593 41.03471
2.212225 -1.5930865 41.046162
-7.2510371 -0.40531638 41.002197
-7.6315088 -0.35756189 41.031895
-8.9522667 -0.19178848 41.055798
-10.385944 -0.011843719 41.036819
-0.16675103 -1.2944924 41.142342
-4.8812737 -0.70275456 41.12281
-5.2769442 -0.65309238 41.141617
3.2059755 -1.7178166 41.225727
2.0433929 -1.5718958 41.250549
-8.089735 -0.30004823 41.208076
6.9299021 -2.1852248 41.367855
-3.4635894 -0.88069439 41.378414
-6.1898146 -0.53851455 41.392731
-8.8652401 -0.20271161 41.335384
-9.2237186 -0.15771756 41.332664
3.3912051 -1.7410655 41.438095
1.927264 -1.5573204 41.413345
-2.030659 -1.0605469 41.458885
-6.2036471 -0.53677845 41.497852
-8.0287342 -0.30770454 41.466278
-8.387291 -0.26270083 41.458153
-10.498709 0.0023089023 41.462204
3.3152986 -1.7315381 41.52845
-2.3963528 -1.0146472 41.570499
-3.9893417 -0.81470478 41.537392
-3.7173185 -0.84884763 41.555351
-6.4962597 -0.50005156 41.577721
-7.6985321 -0.34914958 41.528625
5.8493347 -2.049597 41.66494
1.5769786 -1.5133547 41.639538
-3.669539 -0.85484469 41.628319
-4.2558064 -0.78125948 41.622799
-6.6988449 -0.47462419 41.695789
-0.04806459 -1.309389 41.736969
-8.925971 -0.19508907 41.736843
4.1144905 -1.8318486 41.868134
4.2340493 -1.8468547 41.835239
2.670589 -1.6506201 41.883717
-3.8972275 -0.82626641 41.871078
-8.4416161 -0.2558822 41.827213
-8.1823254 -0.28842682 41.886658
-2.0376618 -1.0596678 41.990196
-3.599957 -0.8635782 41.932346
7.9455857 -2.3127074 42.052849
-1.3933679 -1.1405354 42.024265
6.5711722 -2.1401978 42.155663
2.5749006 -1.6386112 42.160496
-0.135919 -1.2983621 42.164719
-2.4088964 -1.013073 42.102577
-2.7767334 -0.96690446 42.182632
-3.7460074 -0.84524679 42.154438
-9.2541056 -0.15390362 42.178993
-9.9387398 -0.067972876 42.181919
4.5614982 -1.8879558 42.262215
-0.35422909 -1.2709612 42.243073
3.2358475 -1.7215695 42.346275
-2.2028346 -1.0389365 42.389984
-8.5715418 -0.23957475 42.383945
8.2972984 -2.3568521 42.41927
-6.4291234 -0.50847793 42.441406
-5.8903017 -0.57610762 42.464378
7.6988769 -2.2817409 42.540157
6.4841795 -2.1292791 42.571274
4.9368591 -1.9350697 42.538624
3.4457335 -1.7479122 42.525848
1.3466927 -1.4844524 42.521702
-4.840621 -0.70785713 42.551212
-6.2395554 -0.53227144 42.514053
-9.3991547 -0.13569801 42.567993
-10.091908 -0.048749298 42.529381
7.9886789 -2.318115 42.673977
-0.81870997 -1.2126626 42.653515
-1.4855056 -1.1289709 42.631744
-1.2755666 -1.155321 42.648838
-7.8469086 -0.33052614 42.650505
7.3401265 -2.2367122 42.730495
4.7126665 -1.9069295 42.710842
-0.83580649 -1.2105169 42.775875
-1.5156593 -1.1251861 42.727333
-5.3401613 -0.64515781 42.70034
-5.7766953 -0.59036684 42.785694
-8.9378862 -0.1935935 42.717178
-10.234813 -0.030814085 42.797432
7.1198211 -2.2090614 42.812302
6.9898949 -2.1927538 42.814377
-7.2470822 -0.40581286 42.867165
4.3694477 -1.8638482 42.920685
-2.4825211 -1.003832 42.923855
-5.5579281 -0.61782521 42.921455
-7.3156037 -0.39721245 42.953979
-8.3697624 -0.2649008 42.91124
5.9701953 -2.0647643 43.094574
0.80260581 -1.4161624 43.028084
1.2872736 -1.4769958 43.055702
-2.8731809 -0.95479894 43.038601
-3.0115275 -0.93743455 43.199257
-9.4777746 -0.12583016 43.133667
6.4065275 -2.1195343 43.261734
1.7855241 -1.5395308 43.26366
1.823487 -1.5442959 43.205589
-3.1755495 -0.91684747 43.272587
-3.9067392 -0.82507253 43.287701
-8.8019104 -0.21066025 43.282726
1.5793289 -1.5136502 43.384697
-3.7909589 -0.83960462 43.355381
7.3472018 -2.2376015 43.446404
-9.3171158 -0.14599499 43.488022
6.3410196 -2.1113119 43.500801
5.787281 -2.0418103 43.502834
1.6095071 -1.5174369 43.546761
6.3526187 -2.1127672 43.617889
-1.521661 -1.1244328 43.67495
-6.7089014 -0.47336197 43.637199
-8.6018 -0.23577684 43.664253
7.2262211 -2.2224162 43.705605
4.7904406 -1.9166934 43.781822
4.3268352 -1.8585052 43.748665
2.1641355 -1.5870489 43.778622
0.98200536 -1.4386768 43.791153
-0.16423857 -1.2948099 43.72065
-3.8599157 -0.83094954 43.752991
-8.6846237 -0.22538118 43.781662
7.2761259 -2.2286799 43.819946
6.2694578 -2.1023293 43.833542
6.3327866 -2.1102779 43.824257
5.9207606 -2.0585632 43.820564
1.4158261 -1.4931262 43.805088
-6.4454517 -0.5064286 43.891872
9.0411968 -2.4502194 43.901962
1.7331727 -1.5329573 43.92099
0.58432746 -1.3887626 43.985508
-4.1396313 -0.7958411 43.970558
-6.5202417 -0.49704146 43.924484
-8.3047676 -0.27305833 43.993233
-10.097297 -0.048073951 43.904877
4.9227304 -1.9332982 44.076225
-7.8540936 -0.32962415 44.062046
-7.7001295 -0.34894878 44.006512
8.9767199 -2.4421268 44.142742
-0.44978082 -1.2589691 44.182648
-5.9084144 -0.5738343 44.10041
-7.9777651 -0.3141017 44.129181
7.9667597 -2.3153629 44.25658
-0.20410752 -1.2898033 44.268173
-3.2936013 -0.90203023 44.278259
-6.282886 -0.52683294 44.219498
6.8182139 -2.1712055 44.398453
5.668169 -2.0268607 44.36932
2.6420219 -1.64703 44.332588
-4.3942037 -0.76388878 44.35078
-6.5474329 -0.49362862 44.366661
8.7771339 -2.4170754 44.464394
8.4839621 -2.3802783 44.466476
2.616797 -1.6438638 44.464249
-5.4694376 -0.62893194 44.44334
-8.3613634 -0.26595476 44.415821
2.373271 -1.6132982 44.527859
1.4352793 -1.4955678 44.541969
1.3744537 -1.4879334 44.618656
-2.5495505 -0.99541885 44.674191
-6.2666864 -0.52886617 44.660023
-7.0775146 -0.42709586 44.648766
-8.1480131 -0.29273319 44.645554
-0.57917869 -1.2427266 44.726429
-2.23663 -1.0346949 44.74118
-7.6089869 -0.36038834 44.726089
-9.5735846 -0.11380584 44.793633
3.4054766 -1.7428544 44.815739
-4.6053262 -0.73738986 44.854782
-4.2729855 -0.77910334 44.850853
-6.4874578 -0.50115633 44.815998
-5.8233399 -0.58451235 44.89423
-7.1455498 -0.41855645 44.831863
7.0207062 -2.1966209 44.916607
1.6437984 -1.5217403 44.986916
-0.86151826 -1.2072892 44.915581
-7.4707956 -0.37773335 44.965218
-7.3502283 -0.39286625 44.971741
8.3028355 -2.3575444 45.045799
-3.0248191 -0.93576622 45.098091
-8.2239256 -0.28320539 45.082703
-9.0229311 -0.18291979 45.03511
8.0931435 -2.3312252 45.146408
7.7953949 -2.2938538 45.12812
5.8566656 -2.0505185 45.144775
4.9584856 -1.9377829 45.130688
4.3691702 -1.8638119 45.198372
-2.9671319 -0.94300669 45.14782
-7.184351 -0.41368622 45.158073
-7.3480282 -0.3931424 45.19202
-10.193951 -0.03594242 45.143665
5.0873361 -1.9539557 45.237072
1.3303473 -1.4823983 45.20068
-0.773072 -1.2183907 45.284058
-4.6429138 -0.73267215 45.282986
-7.3956494 -0.38716525 45.271648
-2.5839906 -0.99109614 45.378639
-5.4561639 -0.63059807 45.302868
-5.2633147 -0.65480328 45.388771
-7.2128239 -0.41011238 45.391804
-9.624711 -0.10738898 45.357689
9.1661596 -2.465904 45.439255
6.6227489 -2.1466711 45.46838
3.6332111 -1.7714386 45.412964
1.0116489 -1.4423972 45.481262
-4.2437401 -0.78277409 45.431309
-8.6452198 -0.23032746 45.4021
-8.9687109 -0.18972521 45.487526
7.5826964 -2.2671564 45.556511
2.8249431 -1.6699899 45.553947
9.6637697 -2.5283632 45.621983
6.3942413 -2.1179898 45.686966
4.6315794 -1.8967484 45.648445
-0.64545643 -1.2344081 45.643204
-1.0021758 -1.189635 45.648975
-1.75369 -1.09531 45.631241
-6.798708 -0.46208996 45.694252
8.0026026 -2.3198614 45.718224
5.9589386 -2.0633535 45.718784
-0.50187433 -1.2524297 45.763332
-9.8513432 -0.078943811 45.738373
-1.9183543 -1.0746425 45.898441
-2.7168806 -0.97441673 45.935043
6.7508578 -2.1627498 46.007572
0.015235424 -1.3173339 46.012154
-3.0785544 -0.92902166 46.037888
-6.4895382 -0.50089514 46.048763
-6.0185757 -0.56000757 46.015686
-7.6934175 -0.34979117 46.072525
10.093775 -2.5823395 46.133221
4.8662214 -1.9261997 46.158646
4.606431 -1.8935919 46.151955
3.7998557 -1.7923547 46.132538
-1.265434 -1.1565928 46.173153
-3.9120049 -0.82441145 46.144974
-6.4327478 -0.50802308 46.103081
-1.8062128 -1.0887178 46.212799
-7.4945545 -0.37475106 46.230492
8.9923267 -2.4440918 46.327789
8.344533 -2.3627834 46.332077
-7.1627383 -0.41639864 46.351936
3.0319963 -1.6959782 46.41436
1.6121608 -1.5177696 46.434174
-9.6661911 -0.10218285 46.405113
3.5509334 -1.7611119 46.545822
-4.8048043 -0.71235275 46.519135
-6.5732832 -0.49038386 46.557102
-7.4381495 -0.38183078 46.545006
5.9842877 -2.066534 46.68362
-5.3749647 -0.64078969 46.692009
-6.6373425 -0.48234344 46.667374
10.031541 -2.5745301 46.771511
7.7486277 -2.2879875 46.759872
-8.0781736 -0.30149934 46.779648
-9.5611134 -0.11537158 46.78791
8.1850386 -2.3427639 46.898689
6.2611828 -2.1012886 46.808548
3.7179999 -1.7820807 46.800186
0.77843332 -1.4131258 46.858707
-0.83123821 -1.2110903 46.851303
-1.8870012 -1.078578 46.833656
-4.3074818 -0.77477366 46.866901
9.882865 -2.5558681 46.9986
4.0059347 -1.8182205 46.933041
-0.61719131 -1.237956 46.954857
-8.0703526 -0.30248091 46.963787
10.024307 -2.573621 47.039993
5.1500449 -1.9618235 47.030499
2.9421635 -1.6847029 47.020004
-2.7638953 -0.96851587 47.06963
2.6235809 -1.6447165 47.196037
-1.6327288 -1.1104926 47.151146
-9.0816212 -0.17555374 47.128841
10.061727 -2.5783172 47.24781
7.4757233 -2.2537322 47.281647
3.8674724 -1.8008416 47.26688
2.9966073 -1.6915362 47.290504
0.95857126 -1.4357355 47.2332
-0.98467422 -1.1918321 47.276726
9.795598 -2.5449135 47.324276
4.625916 -1.8960373 47.372177
-5.1423979 -0.66998011 47.30661
8.4194822 -2.3721886 47.457775
2.1967735 -1.5911465 47.430321
0.013675749 -1.3171384 47.48983
-0.86801732 -1.2064743 47.434029
-1.6514103 -1.1081479 47.409637
-2.6676471 -0.98059666 47.425156
-7.2261643 -0.40843785 47.449974
7.5869923 -2.2676973 47.557087
4.6728868 -1.9019325 47.513378
2.6243758 -1.6448164 47.569191
2.8976197 -1.6791121 47.586311
-0.76688689 -1.2191675 47.527588
-0.66988999 -1.2313418 47.529305
-2.4712162 -1.0052513 47.519886
-8.0062923 -0.3105213 47.569588
-9.5082989 -0.12200019 47.579067
6.5600147 -2.1387959 47.634758
3.8129511 -1.7939984 47.623093
2.351769 -1.6106005 47.651276
-9.9499483 -0.066566862 47.699924
8.8061981 -2.4207265 47.793358
7.3329315 -2.2358088 47.754379
5.8707781 -2.0522866 47.714691
2.7576897 -1.661549 47.728855
-7.3779659 -0.38938457 47.783581
-8.7006636 -0.22336888 47.740814
9.352767 -2.4893298 47.815636
5.415329 -1.9951208 47.852348
3.8458636 -1.7981294 47.828716
2.3171535 -1.6062559 47.84761
-0.5848856 -1.2420112 47.822636
-4.0874615 -0.8023892 47.865929
-3.4025848 -0.88835108 47.880787
-7.270956 -0.40281576 47.874435
-8.8854914 -0.20017058 47.884186
2.2332134 -1.5957202 47.925743
-2.4628325 -1.0063037 47.969154
-6.8508878 -0.4555403 47.966087
9.6926994 -2.5319965 48.001938
6.1264334 -2.0843754 48.090324
3.9335058 -1.8091297 48.080238
1.4627209 -1.4990132 48.034866
-0.11990643 -1.3003721 48.036751
-0.95526707 -1.1955234 48.077415
-4.7450395 -0.71985412 48.057339
9.706151 -2.533684 48.14753
9.0191574 -2.4474564 48.135036
3.8779712 -1.8021593 48.167259
-2.7276187 -0.97306919 48.185566
-6.5959091 -0.48754373 48.100056
-9.9517841 -0.066336095 48.176991
9.0120039 -2.446558 48.227985
6.3189602 -2.1085405 48.269875
7.0200195 -2.1965339 48.274261
5.2793207 -1.9780499 48.276093
3.3317583 -1.7336024 48.26067
2.4320395 -1.6206757 48.262074
0.85483295 -1.4227152 48.217266
-1.2354007 -1.160363 48.256111
-7.0161161 -0.43480182 48.268932
-9.0057678 -0.18507446 48.251083
7.665576 -2.2775607 48.371231
7.7540445 -2.2886648 48.36063
6.7398629 -2.16137 48.306023
4.6378999 -1.8975419 48.302498
1.6746267 -1.5256102 48.314819
-4.5042849 -0.75007212 48.332573
7.2288518 -2.2227449 48.407516
0.4613964 -1.3733337 48.474125
-1.6715299 -1.1056229 48.45887
9.4442053 -2.5008047 48.520874
1.8144684 -1.5431622 48.500542
-4.7846704 -0.71487993 48.518967
-9.359457 -0.14068143 48.540249
7.0627952 -2.2019017 48.605492
4.3153548 -1.857057 48.627468
-4.5502787 -0.74429929 48.654755
-7.1060429 -0.42351472 48.679379
-3.8296783 -0.83474463 48.774475
5.8267326 -2.0467565 48.83857
3.2111981 -1.7184706 48.864334
-0.53928888 -1.2477344 48.892487
-1.458801 -1.1323233 48.848042
-2.4124684 -1.0126255 48.862488
-7.1401691 -0.41923141 48.894817
9.1509018 -2.4639893 48.930439
1.7741739 -1.5381073 48.952171
0.4974426 -1.3778589 48.924698
0.62546825 -1.3939288 48.999729
-8.776165 -0.21389267 48.94183
8.3679314 -2.3657141 49.060867
0.66237336 -1.3985615 49.048813
-2.3887706 -1.0155997 49.069118
-2.2124951 -1.0377246 49.024918
-4.1766076 -0.79120022 49.066017
-5.7902946 -0.58865976 49.033089
-7.3451295 -0.39350605 49.058846
9.5780544 -2.5176024 49.14325
5.1885142 -1.9666508 49.158722
4.2897758 -1.8538465 49.119865
0.1213243 -1.3306533 49.181763
-6.4384713 -0.50730443 49.139107
-7.0840244 -0.42627838 49.147675
9.138525 -2.4624343 49.272644
8.6103554 -2.3961413 49.230919
4.7488003 -1.9114604 49.208054
2.4991832 -1.6291043 49.277779
-4.4057679 -0.76243746 49.208691
-4.1686606 -0.79219776 49.227055
-4.9163184 -0.69835627 49.248085
-6.9246521 -0.44628185 49.228268
-9.0442982 -0.18023746 49.224892
9.3473492 -2.4886446 49.330311
5.3890381 -1.9918191 49.383087
1.5837536 -1.514207 49.336407
-7.2167377 -0.40962097 49.341499
-6.8334475 -0.45772928 49.304867
-6.7914815 -0.46299663 49.358997
7.3407021 -2.2367804 49.416065
5.7549291 -2.0377436 49.482101
0.22132719 -1.3432037 49.488815
-6.1582146 -0.54248059 49.475647
-5.9968939 -0.5627287 49.402382
-7.2905893 -0.40035161 49.491703
-8.1029472 -0.29838961 49.437248
9.2736845 -2.479398 49.550682
3.9523535 -1.8114953 49.549843
1.3597826 -1.486096 49.506138
6.5843163 -2.1418433 49.609459
5.5136366 -2.0074582 49.65332
5.8415308 -2.0486135 49.636509
5.04917 -1.9491611 49.620399
2.3649776 -1.6122599 49.617828
1.0842785 -1.4515151 49.651077
0.37379968 -1.362339 49.668175
-7.1256847 -0.42104945 49.60564
-7.580698 -0.36393887 49.646381
-9.2902679 -0.14936455 49.619583
6.416039 -2.1207223 49.711502
5.9630165 -2.0638616 49.736168
2.9445126 -1.6849983 49.728439
1.9760352 -1.5634429 49.718605
-8.2487202 -0.28009301 49.746208
6.9532948 -2.1881554 49.879532
1.5677487 -1.5121953 49.886444
1.0123847 -1.4424899 49.833588
7.7624831 -2.2897198 49.976654
1.5793159 -1.5136474 49.979397
0.67051077 -1.3995802 49.924408
7.539196 -2.2616944 50.045918
5.7890964 -2.0420322 50.048618
-1.0088557 -1.1887975 50.07135
-3.7255027 -0.84782016 50.065163
5.3394165 -1.9855912 50.152641
3.2227824 -1.719924 50.104496
-2.9357891 -0.94694066 50.144394
-4.0631123 -0.80544555 50.168148
-5.0617743 -0.68009955 50.178352
-6.8021297 -0.46166015 50.155361
-8.1456881 -0.29302508 50.113281
4.6323137 -1.8968399 50.224388
-4.4474864 -0.75720119 50.271519
-7.4141498 -0.38484299 50.258694
2.4765451 -1.6262614 50.327915
-5.0205927 -0.6852684 50.36512
1.8542467 -1.548155 50.436771
0.38758278 -1.3640692 50.403034
-8.7308216 -0.21958289 50.45834
8.7657108 -2.4156394 50.548592
7.7936406 -2.2936306 50.517303
-1.6305132 -1.1107717 50.579193
-2.9701838 -0.94262362 50.516068
-3.437995 -0.88390642 50.52404
-6.8904505 -0.45057467 50.548275
-8.3145742 -0.27182755 50.514305
8.7940865 -2.4192007 50.654396
7.4011359 -2.2443659 50.616405
6.6410699 -2.148967 50.660408
5.5038214 -2.0062263 50.613998
-2.1281042 -1.0483174 50.667717
-2.5191824 -0.99923128 50.677208
-3.3783109 -0.89139766 50.641445
-5.682435 -0.60219759 50.616928
8.7119255 -2.4088883 50.726059
6.5632677 -2.1392016 50.722473
4.7043977 -1.9058874 50.770775
5.3639064 -1.9886651 50.777412
1.7332573 -1.5329692 50.718021
-1.0369997 -1.1852655 50.733761
-8.8461657 -0.20510569 50.702164
3.2552922 -1.724004 50.866791
0.98734188 -1.4393471 50.892784
-0.40782556 -1.2642351 50.847313
-1.3780179 -1.1424632 50.822365
-4.5243268 -0.74755669 50.882477
5.9640112 -2.0639865 50.944286
-5.5999832 -0.6125465 50.932148
-4.9260263 -0.69713771 50.937778
-8.0494404 -0.30510542 50.916428
4.8211937 -1.920547 51.011265
1.0421474 -1.4462259 51.078857
-5.0781202 -0.67804772 51.069408
-7.8430977 -0.33100426 51.040642
-8.8707552 -0.20201927 51.071236
4.3484473 -1.8612108 51.195011
-7.3227081 -0.39632028 51.114395
7.6267238 -2.2726805 51.278053
6.9719353 -2.1904953 51.246662
4.2892036 -1.8537748 51.296391
0.47662365 -1.3752453 51.272903
-1.485018 -1.1290333 51.206642
-2.6366799 -0.98448342 51.292217
3.3072543 -1.730526 51.327221
-0.12957034 -1.2991601 51.326775
-1.3753899 -1.1427933 51.368942
-3.0939534 -0.92708862 51.338051
7.3019619 -2.2319183 51.456703
1.319741 -1.4810669 51.456566
-4.7568197 -0.71837556 51.426102
-6.7616186 -0.46674484 51.471573
6.8153396 -2.1708405 51.581139
-0.41141921 -1.2637844 51.62249
-1.5607188 -1.1195322 51.660648
-1.7370905 -1.0973952 51.634712
-3.3150265 -0.89934075 51.601551
-5.3186836 -0.64785355 51.680687
-7.0131149 -0.43517849 51.607986
-8.1712751 -0.28981352 51.68811
0.45146358 -1.372087 51.793797
-2.8556004 -0.95700526 51.759727
-4.6584759 -0.73071903 51.702507
2.1328671 -1.5831242 51.846188
-1.4053258 -1.1390361 51.828598
-1.9619806 -1.0691686 51.850311
-3.7194901 -0.84857488 51.856091
-4.5872998 -0.73965263 51.859406
-4.1687765 -0.79218322 51.815704
6.3480396 -2.1121879 51.97953
5.5021176 -2.0060127 51.984138
-4.5568933 -0.74346912 51.953705
-5.1227837 -0.67244172 51.953438
-6.9957962 -0.4373523 51.943779
-8.4232311 -0.2581898 51.990669
5.4190388 -1.9955851 52.037949
4.4976563 -1.8799386 52.002453
0.52139509 -1.3808638 52.063999
-2.1772053 -1.0421551 52.056652
-2.9401197 -0.94639695 52.077728
3.1420107 -1.7097855 52.104813
1.2342979 -1.4703426 52.197853
-1.7897835 -1.0907817 52.190445
-6.1433754 -0.54434311 52.164764
2.2967796 -1.6036985 52.364979
-2.038748 -1.0595336 52.364925
-3.1542003 -0.91952676 52.391876
-5.9282122 -0.57134914 52.392372
4.5403981 -1.8853033 52.43029
3.2091947 -1.7182183 52.489506
-0.34144539 -1.272567 52.458481
-1.4578779 -1.1324402 52.415661
-5.3267632 -0.64683944 52.467789
-6.842669 -0.45657191 52.49176
-7.9479322 -0.31784618 52.466499
5.543601 -2.0112195 52.507137
6.2358036 -2.0981007 52.519524
1.1988636 -1.4658961 52.554405
-0.66231006 -1.2322943 52.582039
-7.7810287 -0.33879471 52.551376
7.283268 -2.2295723 52.680656
3.5589404 -1.7621162 52.639809
1.8338773 -1.5455989 52.652111
2.0496469 -1.5726807 52.633793
-2.0731878 -1.0552111 52.685013
-3.8825941 -0.82810313 52.683491
-5.7710834 -0.59107101 52.676865
-8.9387674 -0.19348314 52.695221
1.7684643 -1.5373889 52.75362
3.4078035 -1.7431471 52.855026
7.3642912 -2.2397418 52.912724
7.0246859 -2.1971164 52.972008
4.0815887 -1.8277161 52.997177
-0.013191819 -1.313768 52.92086
0.46253294 -1.3734777 52.933872
-3.6286693 -0.85997421 52.905975
5.4524307 -1.9997764 53.009186
2.4299552 -1.620415 53.024315
-4.6531239 -0.73139071 53.065125
-6.9102683 -0.44808725 53.007725
-6.6913962 -0.47555876 53.047382
7.7132092 -2.283536 53.147221
6.5272446 -2.1346807 53.144775
1.2621222 -1.4738371 53.103199
-3.0442343 -0.93332911 53.129944
-6.6390696 -0.4821265 53.182655
-7.836751 -0.33180094 53.171059
7.6402397 -2.2743773 53.264248
4.5193744 -1.8826643 53.271523
0.72542423 -1.4064742 53.227562
0.26232028 -1.3483479 53.227665
0.49759585 -1.3778784 53.249344
-3.5841203 -0.86556578 53.23864
0.038592875 -1.3202666 53.308758
