# .PCD v0.7 - Point Cloud Data file format
VERSION 0.7
FIELDS x y z
SIZE 4 4 4
TYPE F F F
COUNT 1 1 1
WIDTH 1556
HEIGHT 1
VIEWPOINT 0 0 0 1 0 0 0
POINTS 1556
DATA ascii
7.4946976 0.73757482 15.392084
-0.23911302 2.2996721 15.415741
8.4936695 -1.1293297 15.51301
3.0147777 -0.025280602 15.502611
4.962018 0.102966 15.525707
4.5273681 -2.334394 15.604271
5.5725489 -3.2760811 15.785899
7.8088298 -2.8022645 15.705188
0.89836925 -0.84688872 15.776093
1.0093433 -0.86490166 15.769282
5.9583702 1.0828223 15.789425
6.7287545 -3.5111458 15.863237
4.4432297 -1.3362716 15.895324
7.3462081 0.85419679 15.869532
-0.42710587 1.134535 15.878267
4.4083562 -1.767843 15.932652
3.5642583 0.92085463 15.946186
5.536108 1.0191306 15.985708
0.04878312 2.6763527 15.983811
2.7488713 3.2202966 15.982386
8.4654865 -1.0272542 16.039728
0.35565507 3.1822748 16.011356
0.81646556 3.5471044 16.024414
1.9768404 -0.93029463 16.193043
2.3004677 -0.84979212 16.1667
0.17316301 -0.6301133 16.112516
2.9746788 -0.26830396 16.135675
3.0112205 3.0490959 16.142994
1.2846014 3.5682936 16.114807
2.581707 -0.79296976 16.286308
8.5206585 -0.28690353 16.230183
-0.47562799 1.1936297 16.261002
-0.31885499 1.9123048 16.250124
6.8293662 -3.526958 16.392561
7.7229023 -2.9602861 16.389175
0.3536588 -0.80716997 16.381538
4.9147673 0.23698083 16.359516
6.7439218 1.0426638 16.30254
6.1409416 1.1330807 16.379812
3.612236 1.6001925 16.315889
5.0626659 -2.9819307 16.493614
4.5948777 -2.496491 16.42289
0.39141193 -0.85368061 16.461155
8.392478 0.066537037 16.457018
8.2292147 0.22912021 16.444317
5.241539 0.86571741 16.497669
7.405241 0.86782908 16.48624
-0.40175605 1.6423126 16.481304
0.040281974 2.5805812 16.407879
3.1124129 2.9438891 16.489889
8.4662704 -0.0016712481 16.50724
4.9262552 0.4063307 16.563034
7.5760608 0.7723937 16.57449
6.9049606 1.0280914 16.503658
1.6538534 3.5012102 16.502409
6.7181625 -3.5664935 16.68161
3.1895685 -0.053996488 16.661755
4.3486013 0.14942139 16.667622
5.0530782 0.68125725 16.650269
4.3265338 0.43769675 16.740068
4.5679173 0.82826316 16.77207
4.3825755 -2.3056962 16.847433
0.87859517 -1.2076446 16.862902
4.0187969 -1.1047403 16.835361
2.9082649 -0.59543914 16.896441
8.4093075 0.087717533 16.865082
7.3826933 -3.394284 16.919962
1.2788261 -2.1356099 16.944168
2.0041566 -2.0464058 16.977547
4.1139169 1.6388315 16.961937
4.0033913 -2.2123632 17.090202
4.2451792 0.15551516 17.013739
3.6922293 1.1865554 17.092339
-0.42917341 1.7595592 17.041256
3.6279707 2.4891953 17.078623
7.9973016 -2.6033747 17.199177
1.2478371 -1.5889856 17.196678
1.03702 -1.4611783 17.107344
4.6888361 1.8345253 17.11548
8.0369549 -2.5528007 17.253994
4.5992112 -0.050509691 17.259588
3.7438757 1.6207855 17.297234
0.0059786327 2.5006807 17.223215
4.193614 -3.56882 17.392609
4.8441486 -3.0584819 17.303257
1.2053111 -1.8489189 17.312969
3.2074838 -0.39142412 17.349232
4.0560584 0.86685508 17.364487
-0.13447322 2.2802882 17.338839
4.6327462 2.3205736 17.341448
1.0977075 3.3989453 17.354328
1.7290534 3.4134846 17.360418
3.4183121 -1.9624878 17.46447
3.7778244 -0.82735693 17.434832
3.5396228 -0.62177342 17.469135
3.6115825 -0.65947574 17.471062
4.4178896 0.24199772 17.401403
4.2139492 1.5741069 17.452534
6.228261 -3.8884377 17.547613
5.6646986 -3.7639337 17.526068
4.7015553 -3.3232412 17.542652
7.5094719 -3.3254466 17.580906
1.6694391 -2.4716122 17.578562
1.9892468 -2.4838071 17.559338
7.7514019 0.78928614 17.587639
5.2634459 1.4915028 17.519932
6.2069364 1.7407527 17.542772
3.9045753 2.2418942 17.552412
3.5635469 2.5288463 17.593555
5.8263946 -3.9087181 17.613005
6.9233761 -3.8593354 17.798233
1.1900002 -2.715276 17.725899
-0.2065427 -1.4248313 17.714832
2.7264404 3.0934219 17.729557
0.78723395 3.2960973 17.72414
7.4531536 -3.4817832 17.808756
8.6205568 -0.75217909 17.890532
-5.4576979 -0.50075328 17.86228
-4.7780924 -0.5385561 17.81867
6.1244221 1.8220571 17.820616
3.5713613 2.6034775 17.95645
1.7416064 3.3379617 17.969887
4.5758781 -4.019598 18.08428
-5.1712308 -1.2271266 18.087793
-0.62488842 0.095458552 18.052315
6.6016836 1.8205596 18.031244
4.5071063 2.8664165 18.042454
6.1283369 -4.2257433 18.189112
1.4006554 -2.8901269 18.293758
0.8222993 -2.6289687 18.289177
0.38244134 -2.5119383 18.287794
8.0103664 -2.4422259 18.212101
-0.22255883 -1.6390759 18.241991
8.6415482 -0.86996114 18.246521
-5.3642521 -0.19613729 18.228695
7.0646076 1.5079526 18.258226
4.4685059 2.5944943 18.217165
0.17286661 2.9278243 18.275156
0.78169048 -2.8032196 18.326756
-5.4484367 -1.3755474 18.386021
-5.2469258 -0.086865842 18.380903
8.4200459 -0.026437387 18.340118
-0.13091952 2.5102978 18.355145
4.7609181 2.5664752 18.335001
5.5796676 -4.2799621 18.423103
-0.43571195 -0.33419868 18.407299
-0.53012609 0.1323254 18.442051
2.4703078 3.1761961 18.413326
1.301468 3.2909739 18.445211
-0.41631138 1.1995062 18.50527
-0.072568551 2.6284418 18.573721
1.9352044 -3.2922158 18.656088
1.3024467 -3.0659809 18.643484
7.3216276 1.3858767 18.656822
2.5168633 3.3500118 18.661077
5.0662508 -4.306231 18.72868
0.29266608 -2.3240981 18.789471
8.0552502 -2.0748153 18.780252
8.1798773 -1.8126276 18.703758
-0.3985703 -0.30891013 18.787411
0.76217604 3.1229911 18.782658
5.2027445 -4.5241933 18.826906
3.7356334 -4.0129051 18.883354
-6.4431005 -1.0867789 18.831074
-5.8209896 -0.41536063 18.853931
6.6203756 -3.8003573 18.906389
2.6453776 -3.7706673 19.025043
5.5839038 2.4295468 19.088295
-0.10989956 -1.7713997 19.199604
7.5412884 1.1094102 19.112926
-0.30755365 1.5194484 19.193384
-0.29718727 1.5604718 19.194748
0.46280012 2.9212463 19.136772
5.2175846 3.0215693 19.153526
-0.098226413 -1.7919686 19.231056
-6.6095133 -0.95682335 19.204464
8.4226961 -0.43559575 19.244499
-0.3811833 -0.30499318 19.258772
4.8672566 2.7999451 19.203758
3.5138392 2.9804516 19.239992
0.15891041 -2.561486 19.384926
-0.28753766 -1.1067451 19.391376
-6.5872011 -1.0014261 19.313938
8.4255581 -0.26063034 19.331558
-5.9801831 0.34897774 19.365765
7.6650524 0.96798062 19.303757
7.0816894 -3.2078066 19.462406
7.2474461 -3.0149288 19.477806
0.83976609 -2.7802858 19.436626
7.5313644 -2.6967041 19.432648
0.18960981 -2.2103772 19.448856
8.4155903 -0.1894093 19.428411
-4.4145446 -0.30142304 19.576908
-5.6761165 0.58641481 19.552221
5.0591092 -4.5266886 19.60006
8.0509033 0.5014472 19.685596
0.17498252 2.291851 19.676182
5.3742743 2.7091887 19.685944
1.4550432 3.1182394 19.672567
1.757023 3.1836529 19.606478
2.7325654 -3.8229847 19.724604
0.55350858 -2.5445635 19.781715
-3.8924341 -0.25195625 19.705017
5.6975145 2.5119727 19.773571
0.41149029 2.8150368 19.756742
0.42465496 2.8159139 19.854425
4.6649632 3.0442076 19.861204
-0.13262394 -2.2668476 19.906477
-0.11457796 -1.7229407 19.91806
-5.4294653 0.78238261 19.97649
1.2266185 3.0141349 19.998014
1.588943 3.0980511 19.94009
4.7339087 3.0457721 19.940042
2.0068238 -3.3074386 20.010332
6.8085556 -3.3932405 20.072041
0.01920566 -1.9015301 20.032656
2.2257912 3.1853724 20.080462
4.6749301 -4.098465 20.172272
6.7435236 -3.4524772 20.127314
6.8215313 -3.3540049 20.173384
7.3646135 -2.7669818 20.191021
-0.14601314 1.4449495 20.180706
4.587501 3.1115265 20.15947
3.6675639 -3.8196297 20.283018
3.3820853 -3.744638 20.229645
-5.1436729 -0.72456414 20.237015
-6.103981 0.3501572 20.266415
1.45172 3.1833346 20.34985
5.0288324 -4.0851893 20.435392
3.7389784 -3.8248725 20.407064
7.8304672 -2.123703 20.410978
0.11274175 1.9714298 20.471933
1.2492428 2.9487402 20.430197
5.5720401 -3.9621401 20.57613
1.4747049 -3.0527704 20.510012
4.7562132 3.3209603 20.583715
5.3618593 -3.9921694 20.628925
2.3664949 3.1779382 20.644756
3.8215601 3.1927288 20.609194
4.8921309 3.1229661 20.663162
5.9349241 -3.8357882 20.754654
-0.23231447 -1.2214746 20.706274
8.0884819 -1.2333994 20.744312
0.89458561 2.8266313 20.749941
-5.018765 0.71705419 20.891436
5.5126448 2.8410223 20.852135
8.158145 -0.3170391 20.97613
0.3768563 2.2720733 20.923775
6.4036689 2.2655396 20.997066
6.7248511 -3.3446386 21.098213
7.4619393 -2.5283418 21.072365
8.1308241 0.26057708 21.049707
3.727849 3.2578666 21.065845
7.8255749 -1.8651527 21.158173
8.1362696 0.50051147 21.167267
1.0499815 -2.7888234 21.209503
8.1088371 -0.11070478 21.233782
7.0502057 1.7458024 21.20697
7.9325628 -1.4790901 21.342817
-5.1337929 -1.574445 21.463024
-5.9400601 -1.3394426 21.410088
-6.2010241 0.37640125 21.431952
6.943449 1.8910466 21.490904
2.2818792 3.1348231 21.412363
5.3116498 3.2450237 21.419827
4.7945404 -3.916198 21.514294
5.1817131 -3.8364363 21.507704
4.060926 -3.7652144 21.520323
3.3375614 -3.5503316 21.630096
8.0455685 -0.6394195 21.672867
-6.1786942 0.081597231 21.63702
8.0314693 0.21735379 21.662939
-4.8303747 1.0225823 21.63179
6.0229149 2.6552801 21.696175
-5.8303089 -1.361222 21.70985
-4.4298744 1.0076488 21.741512
4.1602974 -3.7360733 21.816082
4.2423224 -3.7497797 21.850809
-6.0569386 -0.42412126 21.813715
8.1856947 -0.16520005 21.811304
-0.1578218 0.48628545 21.819847
4.1775179 3.4093671 21.847616
4.465353 -3.7815599 21.96493
8.2169619 -0.58745784 21.91161
1.9107394 -3.7280231 22.071314
1.9773743 -3.5014815 22.087957
3.6015279 -3.55393 22.049295
-5.5738025 -1.1541225 22.021578
-5.1857038 1.0805665 22.065662
-4.9285727 1.1700335 22.03153
5.2513785 3.3346879 22.067936
2.5191526 -4.347517 22.107527
3.1367412 -3.9787991 22.18721
2.5671134 -3.2468574 22.121634
-6.1258407 -1.0085677 22.135956
7.9514647 -0.32288927 22.19932
-4.0825415 0.17589982 22.151239
1.2571998 2.7199891 22.118961
3.1769865 -3.8253837 22.272453
4.8176608 -3.7505927 22.284086
2.3955326 -3.1789193 22.225023
6.9527254 -2.989789 22.226467
1.856631 -2.8719988 22.249722
-0.18995243 -2.0766656 22.216326
-0.4961496 -1.0515974 22.256763
-0.8955586 -0.77322829 22.250374
-6.2741637 -0.69740587 22.20277
-5.9154186 -0.50190163 22.298672
-4.4415722 0.48477283 22.266275
-0.64972246 0.95166123 22.252075
6.0628839 2.7050622 22.25816
4.261827 3.5956869 22.213213
3.2122245 -4.3205256 22.320299
3.8451796 -4.2176094 22.341335
6.222703 -3.9684184 22.389948
6.5323238 -3.8087168 22.357355
4.5648651 -3.7195873 22.322548
-0.38209128 -2.2603116 22.373974
7.5322738 -1.7887913 22.358568
-0.87547457 -0.70420271 22.333447
-5.0146961 1.2613596 22.349606
7.146419 1.6851975 22.3195
3.2902431 3.4052234 22.323471
5.1575928 -4.0045218 22.43087
5.4159064 -3.8749876 22.427204
4.9942985 -2.902082 22.425514
7.8260226 -1.0343297 22.442598
8.0796623 -0.82273805 22.484358
-0.79609394 -0.71849889 22.427319
-0.27355447 0.90399587 22.459171
7.4088526 1.2920265 22.487444
5.5536032 3.3196363 22.492668
2.0468907 -3.0241833 22.522799
5.6337538 -2.5581536 22.506363
-0.67319369 -1.9919019 22.547352
-6.1986933 -0.62275195 22.540812
-4.0322962 0.61959589 22.589603
1.809649 -4.5512285 22.6595
1.9312328 -4.5315199 22.673538
-5.4246149 -1.5290585 22.695072
3.2607765 3.4660082 22.686718
2.8403931 -4.3839941 22.748886
1.4007661 -3.9387984 22.748409
1.4260052 -2.8941784 22.789238
-5.2061934 0.93026257 22.797947
-0.29993728 2.1827545 22.707901
3.7435145 3.5187795 22.777336
4.3402843 -2.4451044 22.824211
4.9422855 -2.3485849 22.877464
6.064168 -2.1757426 22.890587
7.2838683 -2.1336834 22.864212
7.6842484 -1.2237276 22.831003
-5.4379687 0.7774837 22.806139
7.3124809 1.5158242 22.865849
5.115881 -3.5797324 22.925169
0.36679786 -2.8760324 22.99913
6.9959989 -2.7326682 22.954939
-0.19825906 -2.5628822 22.993355
-0.36116078 -1.2337903 22.939005
-0.092798598 -0.54770607 22.926836
0.091399536 0.65683389 22.907681
1.1250314 -3.4481306 23.07675
1.1578448 -2.9149208 23.039795
-4.528511 -1.7475255 23.011898
5.2328548 3.3096325 23.005196
6.7656436 -3.0401537 23.115108
1.348958 -2.8796318 23.114017
-5.8417826 -0.98772335 23.145557
5.1789947 3.358856 23.170649
5.6303916 -3.9330196 23.233292
6.9777527 -3.130785 23.251049
1.1642926 -2.493484 23.226585
5.0796499 -2.2944913 23.285063
-5.0434027 -1.684891 23.264881
-3.5504899 0.12181842 23.274628
-5.464952 0.60451645 23.220909
3.5420985 3.577292 23.28727
0.28413987 -3.2744877 23.330719
5.5558214 -2.2181506 23.327408
7.3125935 -1.9465551 23.332787
0.46430099 -1.7545817 23.315159
0.62119186 2.7246652 23.389067
4.7402267 3.5346942 23.327934
3.692647 -3.9826832 23.448231
4.3284135 -3.8794863 23.494724
6.1630898 -3.8477745 23.44994
6.4607754 -3.0867479 23.458069
3.2738855 -2.5540175 23.494431
-5.4691172 -1.3794806 23.479353
-5.6900153 0.25249282 23.490822
-5.2235341 0.68373305 23.40836
0.7683028 2.3673968 23.49015
1.6761856 3.0831025 23.456142
5.7564464 -3.3136363 23.534603
6.7004061 -3.3697634 23.551979
6.8917618 -3.1583269 23.527313
7.2145405 -2.1234214 23.531961
-4.7970357 0.83282506 23.518425
7.2970905 1.6973045 23.548336
1.7592382 3.1621406 23.577299
4.3206301 3.6461084 23.562397
1.2076536 -2.4484322 23.651192
5.1926322 -2.2470481 23.656687
7.1428866 -1.9462519 23.683504
-5.4155712 -1.4177864 23.635593
-0.037382383 -0.46787924 23.627411
-5.9098954 -0.22329156 23.63262
0.41084129 2.9863753 23.641523
0.95197093 3.094698 23.643566
5.3762703 3.3301315 23.658625
6.6492243 -3.3819723 23.742992
0.88406885 -3.2656119 23.77178
6.0250101 -3.1582408 23.781145
7.3583326 -2.4156864 23.735432
4.489017 -2.3453717 23.772783
0.85412538 2.60818 23.789757
0.46528986 2.9432192 23.727247
1.9149784 -4.542387 23.878345
5.9119897 -3.1839461 23.846981
0.93814552 -2.8867683 23.801613
2.0727096 -2.7935224 23.847111
-5.7033482 0.01959322 23.839046
-3.8460095 0.52870548 23.89436
0.18023254 1.1250477 23.870773
0.33240384 1.4860629 23.800503
2.07622 3.4134371 23.8288
1.8780812 -4.549139 23.9874
7.1216969 -2.7464695 23.91737
-5.8232017 -0.72359478 23.94223
1.789466 -2.6863768 24.048548
6.4429784 -2.0226104 24.063414
-4.1685419 0.7334469 24.01083
0.8223244 2.9772682 24.098347
5.5642624 3.6044135 24.019632
1.9695117 -4.3729458 24.175844
2.2008572 -4.2531228 24.174171
1.4181538 -2.5564618 24.121141
3.0051696 -2.5445311 24.118597
3.896719 -2.4021769 24.190708
0.76519608 -2.0318205 24.168369
-3.2231274 -0.11397977 24.172569
0.99672425 2.8431969 24.153549
3.1444061 4.0197396 24.124035
7.3097754 -1.8863169 24.280176
-0.028990213 0.57516414 24.238642
7.685606 0.85556948 24.256767
-4.3147149 1.1185811 24.233181
5.393199 3.4219205 24.244196
1.0961282 -4.1380992 24.360516
7.0938005 -3.477006 24.331154
5.6400318 -3.1789951 24.391962
2.0429378 -2.7242053 24.346962
7.5966177 -1.2764847 24.391853
1.1704453 -2.8012314 24.417496
1.4425119 -2.5121417 24.491121
1.2402598 -2.3888354 24.445961
-0.086648405 0.49410158 24.432377
2.6362126 -4.2596025 24.542881
-3.6281321 -1.8960056 24.592495
-3.3064556 -1.6010904 24.589615
7.9253397 -1.6521977 24.586256
1.140344 3.5680046 24.555168
1.2166395 4.2612529 24.596706
7.1164527 -2.9973736 24.649334
0.74912852 -2.8431265 24.696388
-5.0263176 0.84228379 24.675095
-4.5659657 1.1135384 24.61429
7.0810571 2.4957545 24.682388
1.2687905 3.6217318 24.625637
4.3620157 -3.1057696 24.788979
3.3449378 -2.9787774 24.772221
2.706043 -2.8606267 24.733507
5.4574862 -2.1196094 24.727785
-5.347826 -1.5784429 24.797005
-4.096036 0.95718277 24.71735
1.2224797 -4.6618476 24.858932
2.814378 -4.4022393 24.800579
3.4248421 -4.1835012 24.821926
6.4994941 -3.8023036 24.812458
3.6277611 -2.9975438 24.844013
6.4561071 -2.7136855 24.806717
6.7301302 -2.67155 24.853085
7.889204 -1.7832588 24.846571
7.6949759 -0.24728447 24.843082
7.6530199 0.33450651 24.89027
-3.8560724 0.70765507 24.86047
5.8294115 3.4242818 24.816437
4.3350906 4.5195117 24.846069
0.86020184 5.1071467 24.899353
1.5858326 -2.6938801 24.95673
6.6503935 -2.317971 24.98333
5.3748751 -2.1105816 24.995031
-5.1717706 -1.757627 24.919624
-0.077509999 -0.9890514 24.991533
-4.0035329 0.64997178 24.96508
-4.2487164 0.80816078 24.906784
7.7649717 1.0880659 24.920462
1.7917058 5.2237611 24.988785
-4.7719331 -2.0515695 25.040279
7.286984 -1.7013507 25.073729
7.5860844 1.2007933 25.026276
0.762977 3.4661489 25.091347
0.24413699 4.4908648 25.01265
6.7650957 -2.510355 25.145958
-2.8966823 -1.2889955 25.107033
8.2047043 -0.10467733 25.128838
-5.1215272 0.36528194 25.132452
-4.9515781 0.78470409 25.142956
-4.6761589 0.72232437 25.137062
-4.089035 0.7786172 25.115509
5.0355458 5.3602271 25.19816
1.0021399 -4.4045382 25.287783
6.3605833 3.3582361 25.25066
5.247694 4.0794663 25.224659
0.60502946 5.2134356 25.230976
4.3802848 5.5661716 25.244242
6.834383 -3.0345161 25.333302
3.6322334 -2.8350501 25.37834
6.937428 -2.3068886 25.347345
-3.2198553 -2.0897851 25.346081
7.3437791 -1.3894836 25.315331
-3.8998759 0.70519787 25.369921
2.6077232 5.4864416 25.382782
3.9782858 -3.9497056 25.430511
4.7138872 -2.8563979 25.478601
2.4046431 -2.7128544 25.435951
-0.088972442 -1.2751534 25.450451
-2.5984588 0.14643714 25.456219
-0.46417591 0.42281622 25.477913
-4.4593887 0.78607124 25.406191
7.4583845 1.9906764 25.450064
-0.24092099 2.1359787 25.430552
1.9943526 5.517611 25.454313
6.5021343 -3.2258906 25.513409
1.3162045 -2.6866174 25.555264
7.5362592 1.1120285 25.597849
5.517705 3.867177 25.502956
4.7810292 5.8763175 25.519993
5.2532258 -4.0112357 25.690132
4.801878 -3.93431 25.699514
4.598196 -2.7641382 25.643509
2.0083368 -2.6414988 25.689266
-3.7938821 -2.1268797 25.676352
-5.1599512 -1.7112101 25.698244
7.3061814 -1.2752736 25.654764
-0.18891773 -1.1435672 25.624287
-0.47062394 -0.11333141 25.612036
7.6230712 0.39038798 25.646746
7.1826816 3.2426257 25.677866
1.0688803 3.83605 25.662411
0.22743112 5.1925917 25.686804
1.2571899 5.3447285 25.61853
2.2596292 5.3418226 25.640549
4.2941113 -3.9001627 25.704119
3.7289598 -2.7014542 25.72842
0.56153661 -2.0653381 25.74614
-0.07693772 -1.5899014 25.768444
7.2991014 -1.2580761 25.738136
-5.6187243 -0.1241125 25.780521
-2.2742584 -0.094145998 25.729301
-3.0696304 0.62736827 25.748756
2.6588714 4.3526673 25.740604
5.2194099 -2.6835084 25.84919
3.7371571 -2.2937357 25.828869
-3.7806969 -2.098403 25.865623
-3.2919924 -2.062104 25.859348
-3.7318604 0.80337548 25.842102
7.453433 1.4730372 25.821722
5.7526531 3.8686399 25.844437
4.7047925 4.2571793 25.843994
5.211978 -2.798039 25.959887
3.0633879 -2.385973 25.963551
-2.7816513 -1.7902128 25.912701
-2.5410419 -1.5238768 25.964153
-0.67211628 0.52833962 25.922129
0.40965515 5.2282915 25.90733
0.84475249 5.4292212 25.939678
3.4228735 5.800169 25.985834
1.8178742 -4.1265125 26.068981
2.1189511 -4.07758 26.082932
3.7839355 -3.9859009 26.093538
0.50375444 -2.768806 26.075838
1.6171854 -2.5776346 26.025839
1.1920148 -2.4388528 26.070938
-3.7212105 -2.0447342 26.027679
-0.52892029 -0.54917377 26.027809
7.5076427 0.96179461 26.018129
0.59921598 3.7796197 26.054008
3.3370297 5.3902845 26.058834
1.5099714 5.5623007 26.063759
3.4616313 5.8726044 26.08429
2.1220908 -4.2577314 26.102236
1.829012 -2.5665441 26.173546
2.0683689 -2.5246978 26.131638
3.373107 -2.5474989 26.140392
4.1376457 -2.5247955 26.120548
7.501071 -0.21781176 26.129341
-2.0253572 -0.10303049 26.124949
7.3263984 1.9016061 26.109079
7.1848888 3.1229372 26.188477
7.0003195 3.3637369 26.153303
2.7944741 4.52422 26.110048
3.1639068 5.6666679 26.128311
5.5428329 -2.4450002 26.243
-2.7011571 0.92190683 26.269598
7.1292696 3.9029589 26.274086
0.38685185 5.5379276 26.279823
1.3871729 -4.1986351 26.358318
0.6596424 -4.0564051 26.327524
1.3355783 -2.4803476 26.312342
-5.4728708 -1.2847261 26.301407
-1.8591081 0.075164214 26.329193
-0.75701767 1.5371734 26.360806
6.9137135 3.4392593 26.322069
6.2895193 3.7828903 26.302654
5.544014 4.1528673 26.340902
4.2547317 5.5836868 26.308102
1.5911434 5.6060772 26.368881
1.9957085 -4.271162 26.425489
0.46922982 -3.5939696 26.43244
5.7360506 -2.7338381 26.453939
-0.79466712 1.3387973 26.439857
-0.55474657 1.8421521 26.490948
4.8717613 4.4327717 26.44228
4.0723057 5.8505082 26.420109
4.1260638 5.8525038 26.462721
4.8231921 -4.0868201 26.502785
7.0616846 -3.449219 26.544994
0.8647517 -2.6729836 26.575672
-2.6997986 -1.5590868 26.523932
7.4590373 0.18010829 26.574736
-2.0678768 0.86520612 26.537651
-0.86423212 1.566849 26.512547
-0.5623675 1.8424497 26.528475
-0.35342327 3.2781703 26.537685
0.42556566 5.3285804 26.544731
2.4958227 5.3963461 26.524612
0.63150769 5.5830927 26.500759
1.8294741 5.5076127 26.546352
1.3559477 5.6646852 26.564156
4.341064 5.6090431 26.581345
3.1215925 5.763555 26.568163
3.6030853 5.7791214 26.545235
4.4412961 5.9049959 26.514809
2.2742748 -4.1869822 26.657173
2.8883288 -2.3578086 26.6413
6.215395 -1.8496935 26.624691
-5.1282668 -1.4450295 26.656538
7.2296109 -1.2766345 26.620674
-0.86679935 0.71638477 26.639118
7.1129827 2.3781714 26.621426
2.82708 5.487195 26.680744
6.9000258 -1.7332709 26.767639
-0.81768084 2.4274507 26.711746
0.19165355 3.74489 26.772854
0.65846831 3.8352096 26.741282
6.7357287 4.0483308 26.758678
3.5578406 5.4203005 26.751425
3.8539386 5.5261216 26.775658
1.3984568 5.6933279 26.757214
0.76335263 -4.6265774 26.815163
3.162946 -4.3592091 26.805628
4.1847153 -2.1390162 26.891415
-4.8275967 -1.563255 26.842197
-0.55229872 -1.2635309 26.892517
-2.545043 1.143126 26.832947
7.1321726 2.157218 26.814621
2.9905467 4.7458806 26.879307
1.9056675 -2.4852901 26.924681
3.5630469 -2.2760768 26.995768
-1.9193056 -1.2820003 26.956598
7.3368897 -0.55489767 26.922897
-0.95628083 0.75921708 26.992298
5.6489897 4.9146175 26.965641
0.63978297 5.4789662 26.939796
4.1995254 6.0433116 26.935448
4.841342 -2.0258245 27.047306
-1.3564363 -0.41921848 27.021154
-4.7777438 0.34184352 27.068468
3.3793616 5.9350204 27.009064
1.3649137 -4.6542926 27.144142
6.623148 -1.5801042 27.119295
7.1221199 -1.323434 27.102757
7.3147955 -0.6177516 27.140709
-0.8443014 -0.24519201 27.149773
5.8430839 4.2534013 27.148529
5.3892078 4.4372444 27.167721
0.96892887 5.4286366 27.197151
1.7871122 5.4482884 27.188572
2.972312 5.4624271 27.161114
3.7460766 5.5096402 27.146736
-4.8653383 -0.68997371 27.23056
-4.0052719 1.0152175 27.251871
-3.4954123 1.1589469 27.228596
-3.2724006 1.2056949 27.230892
-0.6565665 2.1247537 27.282482
3.8978643 5.4858475 27.223173
2.1546776 -4.5273485 27.387371
1.7550139 -4.2224846 27.39661
4.4645491 -3.8833709 27.304447
0.19431446 -3.3445008 27.354324
7.0730968 -2.3017826 27.323738
-0.88827479 -0.20609637 27.348104
7.338058 0.18223572 27.307642
-1.7940184 1.2456574 27.384863
5.0273819 4.697041 27.391563
1.2603705 5.7012196 27.377033
7.059495 -2.7459486 27.420057
2.4378767 -2.2949872 27.451105
0.50568897 -2.1700046 27.480145
7.0520372 2.0423779 27.480705
0.41812873 5.5125189 27.429882
0.67867064 5.5516381 27.45562
3.1075518 5.7764435 27.447577
3.9471025 5.7098169 27.402935
1.6866078 -4.2189112 27.555988
0.38968998 -4.0332646 27.599339
6.1285057 -3.8816524 27.583521
2.4831169 -2.3456976 27.555603
4.1591077 -2.0871241 27.579517
-1.6365603 -1.2945666 27.533009
-2.6753838 1.3562791 27.586487
-1.1294347 1.4198639 27.557465
6.145165 4.0553179 27.527418
2.2053976 -4.5206032 27.667692
0.51797462 -4.4111786 27.633621
1.2445657 -4.4630117 27.66712
1.0876601 -2.2417455 27.667362
4.5243387 -1.9696553 27.68091
-4.488287 -0.32454532 27.674538
-4.4791451 0.3377049 27.645063
-3.5725653 1.1057404 27.689013
7.2142906 1.31858 27.649044
-1.1301605 2.4190342 27.63559
-0.092266843 4.9689713 27.695217
5.7051291 5.0977907 27.608757
3.2120161 5.8124065 27.693968
2.2598472 -4.2538137 27.731573
0.20114987 -3.5661757 27.716133
7.0626411 -2.2165861 27.727774
5.3442302 -1.8942559 27.720058
-1.2759027 1.7759497 27.784012
-0.88011491 2.3797178 27.717789
3.3486001 4.3325706 27.794947
1.2558112 5.637661 27.733469
1.6036757 5.7214231 27.767387
0.91441536 -4.7325592 27.863672
5.5441451 -3.9789424 27.894636
7.0431013 -3.0094366 27.887503
1.605408 -2.255693 27.897045
0.30907002 4.0769653 27.84478
4.6983476 5.1584396 27.820801
4.7333651 5.2928009 27.886047
7.0406628 -3.040422 27.962233
5.6451969 -1.8281013 27.967506
6.916388 -1.6318702 27.987034
-4.2003641 -0.57859588 27.989286
-4.3366027 -0.27173316 27.934223
-1.2539268 2.1849937 27.992004
-0.32628608 3.6914902 27.990108
1.3695078 5.8102288 27.90782
5.5121841 -3.7572899 28.062641
0.67192268 -2.0936639 28.059587
7.1049285 -1.0470011 28.03196
-1.2294717 0.70664012 28.055683
0.63681394 5.4079809 28.046196
0.2479776 -3.9309301 28.117632
5.5034256 -3.5405145 28.129375
5.7812729 -3.4957454 28.199162
7.0576611 -1.9313077 28.125072
5.051693 5.5576115 28.145721
2.132808 -2.3449128 28.226624
2.9946289 -2.0883305 28.259401
-1.0804461 -1.2860246 28.289412
-0.34915778 0.57743269 28.294601
-1.2773569 0.92424589 28.202494
4.8196316 5.1253071 28.239731
0.65682364 5.5892835 28.267776
0.86993468 5.6180401 28.220066
4.3242173 6.0257788 28.224781
4.6211815 -4.0530071 28.313723
4.9252949 -4.0827103 28.335449
-0.16427217 -2.6873045 28.341545
5.0565662 -1.6941607 28.398113
6.9927454 2.1150422 28.397251
3.8156328 4.4462023 28.314157
5.0107217 4.6792974 28.35887
0.45808402 -4.7475257 28.485218
0.010957193 -3.4304614 28.42099
7.026732 -3.1383562 28.450176
-2.260778 -1.5314999 28.417782
6.9171982 -1.5933026 28.460991
-3.8849945 0.22611228 28.431196
-0.93682867 0.37861085 28.445904
-1.3671988 1.7113911 28.471313
2.9538808 4.8235221 28.403723
3.6125584 5.1825256 28.430679
5.9225812 -3.9236012 28.503662
2.1994348 -2.30723 28.565439
7.0393782 -2.28267 28.598587
-1.4063013 2.1798923 28.528915
6.2042847 3.9166577 28.535351
0.74501371 5.6276846 28.574665
1.6374671 5.6134 28.549435
0.90253484 -4.7396994 28.625811
2.9091611 -4.3874068 28.623163
6.0526299 -3.5292552 28.640915
1.6310836 -2.3858714 28.668831
2.3009906 -2.2881167 28.609369
7.1510625 -0.62280476 28.605471
6.6283073 3.4174623 28.699774
2.631134 4.293046 28.662136
2.7462144 4.7913513 28.648653
3.8370402 5.0740137 28.699688
5.0012236 5.5457001 28.658871
0.92149669 5.6233954 28.624575
5.4701109 -3.9595504 28.738045
6.9172554 2.3876545 28.750324
6.3773293 3.6017964 28.752512
4.692183 5.1594243 28.768826
3.7494144 -4.0103741 28.850752
7.0137081 -3.5023215 28.840912
0.80258131 -2.4980822 28.849321
6.2229457 -1.6712738 28.810326
5.7330208 -1.3550396 28.826307
-3.202112 1.2232661 28.873398
0.54558128 -4.7999358 28.936182
6.8956985 2.4462116 28.941774
5.5108776 4.3956437 28.984692
6.3972588 -1.6268322 29.029154
-2.1155536 -1.4842433 29.075077
-1.5740325 1.7868644 29.050922
2.2425647 4.2628407 29.023132
4.5632181 4.6594334 29.055008
4.9965382 4.9748182 29.075148
7.0105171 -3.2404189 29.156631
1.5148194 -2.3652978 29.141912
6.0435228 3.8774934 29.133257
4.1862597 6.0206718 29.111927
5.7969894 -3.9469395 29.237288
0.90123928 -2.4487796 29.270948
4.4700508 -1.6619043 29.257839
-3.7823226 0.37939298 29.232422
-0.2272291 3.9378085 29.250637
3.6972475 4.7272325 29.21245
7.0129132 -2.7421861 29.320097
1.3103492 -2.0114112 29.378119
-0.87215555 -1.4116697 29.350418
6.9187288 -0.62818551 29.380114
7.1146431 0.66573453 29.386894
-2.033241 1.7580827 29.354122
3.443604 4.692421 29.354656
4.619164 4.6040764 29.362791
3.7942631 5.9822521 29.378254
1.3200622 -2.005404 29.458988
2.8721864 -1.9479905 29.481188
3.9222047 -1.7744718 29.492395
6.9498091 -1.5090147 29.438435
-3.5944443 0.68150741 29.489592
-2.1341467 1.7293994 29.467396
5.1565042 -4.053206 29.527149
5.7985072 -1.1316934 29.582073
7.3200622 0.49201834 29.587946
-2.907285 1.3717283 29.55859
6.903162 3.4607198 29.591948
6.2114758 3.6106877 29.5453
1.0168161 4.2230244 29.589745
4.6354094 5.2927227 29.577316
0.33602867 -1.9142885 29.605511
-0.35990486 3.3895597 29.639412
-0.13195924 3.5604239 29.639584
6.731163 3.7288866 29.629402
5.5596461 4.2540531 29.643566
7.6353049 5.0123329 29.686691
1.7769494 5.7219844 29.634464
1.3461947 -4.6775136 29.788082
1.9828219 -4.4082818 29.705059
5.6138 -3.6313508 29.754177
7.0035958 -2.5003793 29.781115
-2.2821913 1.6934826 29.776331
7.5877333 1.9137826 29.74658
6.0950966 3.5999489 29.712383
6.5750151 4.5840759 29.776436
2.1345174 5.1423564 29.742254
7.3274903 5.4712267 29.749838
6.9836354 5.5055418 29.794537
7.3890486 5.7904692 29.789461
8.0165052 6.2998056 29.735798
2.5315964 -2.1533246 29.835833
3.3873849 -1.8461328 29.820225
5.037179 -1.7708966 29.820637
-3.4334683 0.82366377 29.845787
5.8646297 3.6863189 29.877504
0.34878916 4.643877 29.802486
8.5397739 6.2321253 29.803431
4.9753947 -4.0856028 29.952114
6.0223012 -3.5191028 29.959909
1.3889744 -1.9667579 29.950769
-1.6216444 -1.4367411 29.916069
6.6863933 -0.70056415 29.987204
7.7340069 2.625828 29.919321
2.5917912 4.393188 29.971001
3.3929338 5.7230992 29.952324
8.7054138 5.7663627 29.952271
5.7911177 -3.5625548 30.099169
2.730078 -2.1062229 30.041817
-0.19656225 -1.7314917 30.070276
-0.53603876 2.995832 30.082024
-0.14628418 3.4379909 30.015921
2.9562278 4.4647961 30.046968
0.81081825 4.6002994 30.060371
3.9893754 4.6672945 30.086079
2.1102417 -4.5456595 30.134043
1.5728786 -4.2498703 30.170706
5.5852923 -3.8274236 30.188599
5.7497511 -3.5138817 30.101662
5.9967413 -1.005893 30.177227
1.5640295 4.0715218 30.194187
1.9163744 4.6649103 30.122787
0.37549922 4.7074761 30.14188
1.105112 4.9715104 30.105062
9.2839165 7.4843969 30.163754
0.080676317 -4.66222 30.206886
-0.27757958 -3.636935 30.228745
-1.447757 -1.4545271 30.225466
-1.3498653 -1.4911361 30.218111
6.5874362 -0.68440568 30.287346
8.2139006 2.5041158 30.231821
4.933424 4.2494516 30.281404
4.5778522 4.5362744 30.231335
9.4942398 7.4068851 30.255402
4.4450564 -3.9394469 30.36179
6.3407812 -0.82861209 30.319811
7.5222392 0.019978236 30.378969
8.1360188 0.92483228 30.374159
6.2583003 5.113801 30.327469
9.5575628 7.1159716 30.328411
3.7564917 -1.9188688 30.413895
-0.28182325 -1.6160556 30.444469
4.8485966 -1.3953109 30.485981
5.9121981 3.9250326 30.432398
8.9921741 5.2070661 30.445539
6.9746861 -3.4018431 30.556913
6.9781504 -2.8107853 30.587122
4.6263247 -1.7760046 30.533192
-1.7266533 1.961527 30.560818
1.4059192 3.7602253 30.54126
9.3372307 5.854095 30.585804
3.4025102 -4.265305 30.676422
5.845077 -3.8976555 30.687494
5.5816064 -3.5453112 30.694128
2.3708992 -1.8700644 30.691204
-1.9820936 1.7792932 30.698896
5.9978952 4.0474586 30.611712
8.6675005 8.6111727 30.631855
0.76732486 -4.776504 30.789371
6.9674187 -3.5778861 30.770813
3.6187091 -1.913221 30.743568
8.3688316 2.5469775 30.711269
-0.64708662 3.0818067 30.748562
4.3944216 4.403892 30.73542
8.3073177 8.9939508 30.706976
-0.530725 -2.5376184 30.878998
3.5868492 -1.9100311 30.843023
3.726831 -1.6686413 30.825882
3.8516624 -1.6368611 30.81749
-2.7755361 1.2407844 30.895767
0.49126369 3.2766368 30.863005
0.69593281 3.3303654 30.832916
5.8043313 3.3424692 30.837553
7.0914211 7.7735939 30.888935
7.8065577 9.8824577 30.888645
6.2730498 -1.4929695 30.913971
4.9915104 -1.1717819 30.963924
6.0466723 -0.71476883 30.948425
-0.089025214 2.920841 30.989922
6.19522 5.4811158 30.954308
7.0125017 8.2642059 30.968441
7.4420156 9.7619419 30.919857
6.9728551 -1.9691007 31.030102
3.3491845 -1.7228746 31.093224
8.5899343 3.4749336 31.06798
3.9873304 4.0230665 31.064449
4.3958774 4.2288852 31.021881
7.1094403 10.775646 31.049795
6.839076 11.084903 31.088009
2.3779912 -4.5164504 31.111248
6.9561262 -3.6794086 31.161661
1.08653 -1.6518745 31.163998
5.6470747 -1.5697155 31.149532
0.11750083 -1.4141333 31.107523
-0.69808501 2.8038516 31.157703
3.7588816 3.830672 31.166222
3.9746625 3.9361246 31.169756
5.9053159 4.8552499 31.160137
6.3607731 5.9809122 31.173195
6.9512134 7.2822523 31.178185
9.0428257 9.0898705 31.170649
6.5992761 10.772907 31.190674
6.851016 10.783088 31.12874
0.63645124 -4.7108116 31.25831
2.450438 -4.5053115 31.207703
4.0153546 -4.2507062 31.236164
2.3635907 -1.8082471 31.275249
8.5868349 3.495369 31.21636
6.8267269 9.0622492 31.241177
6.6236691 10.967469 31.27492
6.8026638 11.016191 31.216991
3.8376555 -4.2800889 31.301996
5.6257129 -3.9892042 31.34082
-0.25456738 -2.4575601 31.344662
-2.5137784 0.51169515 31.389242
3.6440859 3.560559 31.339613
4.6298738 3.7926235 31.339958
5.00804 4.0300417 31.355867
2.8118982 -4.3122787 31.428101
3.3365724 -4.2072606 31.419458
4.34378 -4.1691766 31.448387
-2.4555845 0.67264163 31.458233
5.9265079 4.8809209 31.499186
9.1707706 5.438055 31.457546
6.4684172 10.922462 31.417778
1.1944093 -4.2023606 31.59804
2.8996232 3.5648065 31.525469
8.9855642 9.4558048 31.557335
6.4701123 10.320554 31.536133
7.6447315 10.51893 31.566483
6.2554059 11.404809 31.52269
0.47948536 -4.0511355 31.694572
0.34795943 -3.7799373 31.688448
0.75097936 -3.7862074 31.685905
-0.59502971 -3.4871621 31.601961
4.0917449 -1.7689152 31.629515
6.7680078 8.2580242 31.681002
6.3933449 10.265278 31.675142
8.6789217 10.896729 31.696568
1.8799143 -2.093986 31.797415
-2.1242697 -0.037862536 31.763529
0.81119645 2.8553684 31.795059
5.4174848 3.0718601 31.769764
5.354641 3.1046519 31.783197
8.6061258 3.8150325 31.752413
8.884676 4.9111738 31.701906
9.6033115 6.5449338 31.72574
6.8154335 8.0494118 31.772598
9.5357056 8.1182594 31.767908
6.750814 8.3233919 31.705006
6.5843916 9.3201628 31.788811
6.7463055 10.879782 31.718798
7.8459492 10.980565 31.763168
6.7509818 11.138506 31.742886
7.996357 11.12673 31.793127
7.8853283 11.227057 31.787182
2.7873614 -1.729391 31.869118
-0.98245788 -0.96816134 31.816309
-1.9787803 -0.069236666 31.835743
-2.0420487 0.29549548 31.882698
-2.0874465 0.58338708 31.80641
-0.22853114 1.4757994 31.896835
6.1530266 3.2468019 31.89809
7.6025276 11.476807 31.848524
1.6266732 -3.3370967 31.984123
3.7121305 -1.4928305 31.951899
0.15566042 1.9348984 31.918171
6.375926 5.8144264 31.902025
5.1070313 -3.527467 32.056351
5.5773735 -3.5665061 32.032543
-1.0737668 1.318099 32.091095
2.8865304 3.6238954 32.018028
5.3271217 3.6236444 32.015606
6.0554867 4.5565624 32.01144
6.479517 6.0753098 32.019127
9.6070213 7.695159 32.000603
8.725153 11.133039 32.060711
8.3104315 11.759363 32.099926
3.2325525 -2.9542947 32.195683
0.16091499 -1.5887393 32.107815
-0.34860536 -0.67721367 32.110241
-1.520144 0.26055408 32.141666
0.3636362 2.3834596 32.169151
4.4121323 2.797431 32.103962
1.3799195 3.2024164 32.143307
3.6773877 3.2691808 32.142155
1.4688616 3.3141875 32.105278
9.2961521 6.0908852 32.164085
9.5323381 6.676362 32.129097
4.1424074 -2.8737187 32.298172
0.88137215 -1.4284678 32.291157
6.9415369 -1.4942585 32.218864
5.0676308 -0.68694586 32.226753
0.19559941 2.0743747 32.200356
2.0712266 3.678076 32.281052
6.3262863 4.2334814 32.273937
6.6940689 8.6310425 32.217953
6.2451577 11.662645 32.266701
2.3308282 -2.7763188 32.355103
0.082806058 -0.52560961 32.359402
0.12082502 -0.54762411 32.394928
2.4488454 2.914789 32.390232
6.5371146 3.282371 32.327888
2.3448081 3.6419365 32.337608
6.5012989 4.5629911 32.399151
6.0732646 10.585313 32.368008
6.1394949 11.092505 32.353661
8.3457127 12.186654 32.39798
-0.32743078 1.6129862 32.460571
-0.27540672 1.8013057 32.405125
1.3496212 2.2085431 32.467216
6.105978 11.85877 32.427586
8.2804031 12.219574 32.417992
5.8275146 12.939932 32.488819
4.3039832 -2.5665579 32.500458
2.6800454 -2.4489393 32.5714
0.65195805 -2.224436 32.507446
5.943316 -0.62150443 32.565487
5.1342311 2.1966619 32.56871
2.0619981 2.3171954 32.536316
0.83519381 3.0438175 32.505848
3.5994697 3.5397296 32.575695
8.2974596 4.4439816 32.512081
8.1577168 5.1702595 32.590885
3.0386255 -2.7229798 32.673985
1.8874972 -2.2717516 32.684643
0.31560007 1.0957258 32.65929
1.339504 1.143985 32.695545
7.586112 1.7336524 32.61483
7.7931647 2.3243318 32.61063
3.054775 2.5077081 32.646805
3.2442515 2.6401055 32.637226
3.3773203 2.6442759 32.658531
3.5899498 2.7610528 32.656914
3.8289006 3.016789 32.620174
4.0408869 3.1332216 32.62915
7.7072759 4.3137188 32.639584
7.7953839 4.6180339 32.627121
7.6636648 4.8409395 32.649609
7.4267244 6.4437323 32.620403
6.9383731 8.1015091 32.676746
6.3584757 9.8893366 32.616173
6.2690206 10.119892 32.640495
6.8605852 12.675591 32.607029
2.107986 -2.1132545 32.75771
-0.10827603 0.26178911 32.778095
6.5501909 0.36260909 32.725288
-0.22316743 0.77978599 32.706345
6.96205 0.71974915 32.775513
5.235033 1.5080688 32.7659
1.7232205 1.6706132 32.702557
5.5578179 1.9624032 32.783199
2.1849856 2.0395479 32.72673
4.0363021 2.5888252 32.781826
0.60597628 2.8439641 32.787422
7.4516411 3.873471 32.797401
7.6240396 5.3430734 32.703415
9.203783 6.5947032 32.754494
5.3665066 -2.0442128 32.847553
3.8437178 -1.7046161 32.890591
3.2783558 -1.6251187 32.891376
6.0937214 0.43247688 32.810417
0.88215274 0.68324918 32.888283
5.1825838 1.1623824 32.8041
2.5440841 1.9269512 32.823246
7.4679003 2.2577453 32.860184
3.8606639 2.3985918 32.815735
0.37377283 2.5409777 32.868774
0.8007127 2.8629689 32.856697
7.4883575 2.8709466 32.819229
6.7852964 3.1172221 32.842361
2.364852 3.6325986 32.811085
6.6201296 9.3734312 32.854504
6.8180599 9.8919935 32.836788
6.9132433 -1.3629616 32.977188
0.050829761 0.15627918 32.916065
-0.37579218 0.52021033 32.911209
-0.26138982 0.91706854 32.960106
4.069211 1.9904271 32.981354
6.3687172 2.3846416 32.920845
3.5430305 2.4371591 32.968098
4.6158867 2.4094262 32.958771
6.9926867 2.692914 32.924076
7.9157124 7.2828994 32.925018
6.5569186 9.5944118 32.907875
8.739707 10.043171 32.996471
6.7269812 10.737626 32.96233
6.3149686 10.880512 32.945198
7.4709601 12.548573 32.99398
3.9564474 -1.3936225 33.033382
4.062789 -1.3449873 33.043053
0.43916729 -0.91145247 33.090355
0.96238691 0.23045024 33.049892
5.9739895 0.29600984 33.095619
-0.072387561 1.7872219 33.031158
0.16913347 2.5663724 33.043468
4.8506927 2.5496073 33.022358
8.8363066 8.6742792 33.01487
7.17873 8.7155714 33.051575
8.7319031 9.9275208 33.005928
5.6507459 -1.495847 33.14576
1.3392677 0.14764115 33.138435
5.1344357 0.30279869 33.173119
5.0980415 1.1932696 33.100563
5.9520464 1.1456665 33.127499
5.5163898 1.349776 33.196369
3.7463338 1.5152991 33.153584
-0.02663938 2.213882 33.109985
7.0699553 10.162957 33.101559
7.7307653 12.563946 33.141251
0.53040874 -0.72155946 33.287258
1.7327389 -0.088521726 33.280025
5.0619969 0.24244958 33.295235
1.5111529 4.0584035 33.274406
7.5568452 10.113493 33.271664
8.4342928 12.629201 33.2799
-0.032662958 -0.23343006 33.309052
1.0513299 0.56316626 33.366264
3.7683609 0.80524898 33.382732
3.5891299 3.0268903 33.309658
8.0927868 12.78936 33.390045
1.2130479 -0.97581244 33.485939
1.0883702 0.43033049 33.444695
-0.025723709 0.58191049 33.455254
5.0454044 0.62465131 33.486683
4.3550172 0.78631389 33.421913
4.6287127 0.79224211 33.463425
5.1701756 1.0763789 33.491623
3.6873703 1.1126273 33.42136
1.2473564 1.5652784 33.479126
7.7008643 9.4235468 33.459644
8.5340691 10.678496 33.462276
8.5020618 12.252621 33.419365
1.0222801 -1.119472 33.53796
4.0454755 0.29356855 33.533279
2.2588344 2.2451105 33.562523
4.341733 2.5745137 33.511757
1.7313824 4.447248 33.514439
7.7841907 9.9214048 33.55014
8.131978 10.356825 33.584778
8.2170296 10.862112 33.557785
6.2544823 11.792395 33.536366
7.0045729 14.566613 33.557335
1.8052273 -0.54126459 33.619003
-0.22260384 1.3023515 33.676918
3.002883 1.9614353 33.69186
4.0483704 2.3517079 33.618603
0.46393785 2.7880573 33.639915
7.1271939 10.492844 33.660744
7.3759122 10.878656 33.639969
7.7510338 11.020357 33.645847
7.9593515 11.231937 33.619926
6.1344995 13.150595 33.610455
1.1207134 -1.5138958 33.795399
1.1182529 -1.4569203 33.77906
1.6387957 -1.4438452 33.706329
3.9667401 -0.34833112 33.730835
4.9091778 0.0016327836 33.796532
5.2291527 0.57540244 33.738693
1.0090158 0.68623698 33.706348
3.1653023 1.8762624 33.784775
4.1069951 1.8800145 33.783417
4.2531009 1.9355574 33.767818
4.8513999 2.0796001 33.750237
2.5588043 2.277205 33.716892
2.0894625 2.4081831 33.728683
-0.22320813 3.3104591 33.729836
8.3124743 12.150002 33.773563
8.0730066 13.298597 33.732124
6.2844648 14.42147 33.736198
2.6575882 -1.7352688 33.833038
2.0484748 -1.2566773 33.870121
3.3194835 -1.104303 33.872887
0.59729892 -0.3007513 33.861874
5.0677662 1.4891999 33.813522
-0.39909586 1.5480115 33.889336
4.6933961 1.5973592 33.897762
-0.39058548 1.8216356 33.815968
1.5181684 2.4568887 33.840855
3.8427227 2.5326247 33.812767
2.7058764 3.1323333 33.805458
1.9154083 4.8203306 33.84391
7.266139 11.154341 33.869469
6.3386011 11.934555 33.834969
5.9856133 12.898537 33.801411
3.2686291 -1.3247185 33.934624
2.9464228 -1.2745011 33.955421
3.6561313 -1.1141157 33.967468
4.6533899 1.3803395 33.965622
1.1789639 1.8957464 33.948959
3.1505723 1.9671426 33.987324
-0.26873404 3.7176521 33.970253
1.0958844 4.028019 33.955139
1.586307 4.2035251 33.966667
0.77249014 4.7121267 33.986706
2.5467174 -1.589648 34.081444
3.7341833 -0.72384918 34.006733
3.5081584 0.58663815 34.03891
3.5589597 1.1790477 34.090321
0.16294134 2.8307376 34.0168
4.2490435 3.2413135 34.054794
1.24727 4.274611 34.095901
6.6798878 13.615937 34.063969
3.2863429 1.9080061 34.105789
1.1185654 2.0249338 34.154427
4.3402929 3.2412772 34.190941
0.89454573 4.6891994 34.171589
3.0739903 -1.4163933 34.206985
1.1864357 -1.2145278 34.2416
1.8443462 -0.82001948 34.25214
3.4028139 1.7730596 34.209084
3.5677814 3.5376072 34.26841
-0.13158935 3.9965045 34.295986
3.0583982 4.081183 34.274223
1.5807027 -0.57563734 34.367905
-0.34139049 0.64286721 34.303894
1.0226662 2.0037031 34.313656
3.5218163 2.4031093 34.395416
1.0509846 2.655895 34.369659
2.0811455 3.4994748 34.304852
2.0138912 3.5217519 34.376892
3.0025828 4.4758158 34.385406
6.289463 12.964407 34.315426
7.1350837 13.658625 34.395283
4.1859164 -0.75412357 34.474136
0.27820042 -0.33864525 34.493874
-0.20863321 1.4924674 34.426125
4.461122 1.6120993 34.483036
4.8133736 1.6815467 34.410542
1.1497388 2.8726053 34.458633
1.7092017 5.1001167 34.45364
7.4413476 13.594922 34.460663
4.0255752 -0.88682806 34.539051
3.255023 -0.30955929 34.59362
3.2939219 -0.29193735 34.593632
-0.37710124 1.2365874 34.550907
0.93348008 2.6000183 34.589897
2.6818776 -0.97823584 34.672607
-0.0075741485 -0.16150975 34.618988
1.7385479 -0.15393566 34.680767
4.5447421 0.77060318 34.626804
6.5499516 1.9155869 34.637974
3.9852085 2.9272139 34.637337
3.8460453 3.2717562 34.60759
2.6270072 3.3687561 34.691666
3.3987966 -0.59525949 34.793877
3.9460456 -0.29162249 34.711033
3.0581315 0.014958955 34.787483
-0.67251158 0.79260606 34.745708
-0.44052386 1.2684052 34.766571
4.2689571 3.0061977 34.783863
2.6313145 3.4633665 34.791279
2.194701 5.323061 34.785347
1.5363715 -0.23765287 34.84325
1.4453925 -0.19892278 34.815372
0.62323421 0.53019732 34.836399
-0.071177445 0.68014288 34.880096
4.7886043 1.2731612 34.862114
3.2492971 3.0873408 34.834969
-0.33975783 4.3413076 34.852615
0.23053975 -0.55636555 34.98653
2.7279329 -0.28513443 34.935162
3.0661364 3.359323 34.925301
4.3994775 3.5136352 34.984238
2.5280738 -0.51517099 35.049656
0.61638087 0.17356281 35.083454
0.38031149 1.7266281 35.00613
0.26025891 0.011340208 35.115871
0.45974052 0.36486253 35.149296
0.51686746 1.3491822 35.100235
0.64940315 -0.025728252 35.241562
4.3140187 1.9439228 35.209778
2.2498324 5.6409526 35.232216
2.0554733 -0.65376532 35.300423
1.1608385 -0.58245051 35.317032
7.7494869 0.62513846 35.338356
0.56733197 1.6481423 35.311523
1.7617536 3.4813843 35.367393
-0.53247607 4.6386156 35.39431
0.65148616 -0.44254693 35.42503
0.38992846 0.21045391 35.451763
3.7136109 1.9794943 35.449966
1.8029892 5.8815928 35.466808
1.5550382 -0.71457362 35.505478
-0.86078513 0.44574305 35.596596
-0.89503968 0.64793158 35.510574
-1.0221519 1.1602497 35.51791
3.1275547 5.4202285 35.516335
2.5007358 -1.1915288 35.670681
-0.36238939 1.2875077 35.677357
3.4657667 2.8945122 35.628643
2.4166474 3.9864116 35.608482
7.8266211 0.085571371 35.709751
3.8648915 0.61748552 35.756359
2.5255826 3.8536308 35.70649
2.2816606 5.9470921 35.729523
-0.4082219 -0.58579272 35.884571
7.6811471 -0.38616684 35.848598
-0.73692489 -0.10156742 35.881027
0.30499613 1.8766825 35.870384
4.4639344 1.1490728 35.987198
0.18037128 1.4207189 35.991192
-0.56738043 -0.3881093 36.035995
3.3600845 -0.35647547 36.027374
0.11430706 1.0820906 36.029537
4.5089097 1.3361497 36.038605
4.8079557 2.1553588 36.083015
3.0317791 -0.64670414 36.155106
3.770401 1.1700698 36.160931
4.4164734 1.8079085 36.155529
3.6454663 2.3992329 36.173489
0.32065085 5.9391165 36.163307
2.4719677 -0.83153439 36.240025
1.0112817 -0.71777993 36.234737
4.4394875 -0.30178469 36.274319
-0.68755031 -0.27105299 36.290104
0.10612015 1.0733135 36.233223
-0.92788458 1.3594298 36.291218
3.3700352 2.7465503 36.220673
1.7152615 3.1318614 36.237125
1.146665 3.2055106 36.295738
0.91033602 -1.3628774 36.349785
0.62515271 -1.2890511 36.336372
-0.16001177 -1.1590273 36.391453
1.4093161 -0.90066588 36.31715
0.29932386 -0.55581272 36.323799
-1.1540314 0.31645307 36.394226
4.4441009 0.84883201 36.37331
3.9234073 1.3598726 36.366299
-1.1956215 2.4545319 36.319527
1.2618062 3.3347046 36.324585
2.7055125 -1.3029773 36.464684
0.027827978 -1.0402359 36.495392
-0.61734301 -0.66449535 36.44339
-1.3104014 1.0470096 36.419029
-0.70887828 4.9872894 36.414173
6.1294136 -2.65663 36.52285
-0.18081026 -0.99368334 36.545792
-1.1381238 0.47397152 36.538761
7.3853006 -1.5638254 36.612671
0.58899885 -1.4504486 36.632866
5.0164804 0.98046619 36.671791
0.31655431 2.0008564 36.647079
2.8111529 -1.3739682 36.7589
3.7999215 -0.29457384 36.769817
-1.1966805 0.20415711 36.756794
-0.78431308 1.8261979 36.753777
4.7877054 2.2288902 36.725533
-0.71110642 3.378056 36.749207
-0.70815325 5.4951234 36.73037
0.60543567 6.6215158 36.738098
1.5249397 -1.5399017 36.826012
-1.2784845 0.27030712 36.858841
4.9191418 2.2089477 36.818306
4.6745129 -0.25974074 36.906609
3.6460807 0.084963255 36.980251
0.085181914 1.0213982 36.924259
5.163064 1.2150691 36.939915
4.7962608 2.6658278 36.903862
-0.65723163 4.068985 36.971733
-0.58675307 4.303793 36.940689
1.200554 -1.6534374 37.087612
2.0110102 -1.6608156 37.052872
-0.14109109 -1.245472 37.056023
3.576041 -1.2937728 37.093513
3.1765218 -0.52400357 37.080448
-1.3441015 0.76429796 37.055969
3.4453063 4.9587588 37.070923
0.89967811 6.7544479 37.098011
1.030513 -1.5596064 37.19772
1.3174109 -1.0072445 37.151497
-0.68779755 0.84942204 37.113655
-1.3796961 2.6017294 37.19677
1.1435299 2.8884804 37.175308
0.019948117 5.3066854 37.168911
0.30522472 6.3607259 37.157631
0.81786841 -1.543722 37.298126
0.49775437 -1.431046 37.288704
3.9103703 -0.8940295 37.293846
5.241539 1.3116305 37.25322
3.3486447 2.4693923 37.224976
4.2743902 3.4957907 37.214199
-0.87371033 4.7072802 37.237637
-0.61496806 5.1998439 37.297493
0.18758932 0.31229013 37.386307
0.12858489 0.60117447 37.324528
5.1507826 0.76097584 37.324257
4.2362075 2.3656964 37.367126
4.1603074 2.6734667 37.339035
2.5958517 3.0885592 37.351032
-0.60767877 5.1894407 37.308819
2.0768981 -0.72897619 37.460629
4.5700283 -0.44547981 37.471409
5.2029042 1.1884027 37.468807
4.0144892 3.5687532 37.489365
2.2922714 5.7397666 37.446041
3.0164022 -1.3239384 37.523026
1.6518868 -0.67929447 37.550091
5.0427709 0.16584334 37.583645
-0.55908793 0.28595623 37.598167
-1.2913526 0.88556933 37.541622
-1.2852961 1.6022081 37.522156
-1.2293558 2.2025955 37.583435
4.9281025 2.8428397 37.530418
3.4023621 4.7802243 37.515388
1.5895796 5.7094889 37.523621
0.5905962 6.0597706 37.513161
2.6290545 6.2248278 37.527306
2.4379311 -1.4701836 37.652222
0.47831252 -0.81405497 37.659096
-0.8617065 -0.63618016 37.604836
0.66869861 -0.36410311 37.63662
5.0808396 0.013828523 37.658325
3.6818488 0.5821206 37.67511
5.2227774 1.0737008 37.626518
0.75825942 2.2597072 37.60714
3.065326 2.4902558 37.600258
-0.48841399 3.0888989 37.646141
3.680923 4.2251749 37.605774
-0.070301257 5.3986354 37.632984
2.293813 5.4565344 37.66243
0.53194839 -1.4793916 37.730682
4.0442324 -0.93475568 37.766087
3.9046032 -0.27374712 37.751736
5.1005168 0.57377195 37.734886
-1.1906104 1.5993571 37.746048
2.6552243 2.7113638 37.751251
1.4818957 5.4340363 37.721905
3.370522 1.9058942 37.825596
-0.48645201 2.2728801 37.859722
3.9718204 3.4124506 37.801891
2.9757061 4.6888881 37.882874
0.98036689 5.7254152 37.880341
1.3953742 -1.6027536 37.926201
4.6920986 -0.36091816 37.915009
0.59563422 -0.14952204 37.949409
0.78306234 -0.16204284 37.983585
0.46945098 -0.05064166 37.912731
3.6130981 1.10944 37.910889
3.819591 4.6102653 37.927902
0.58091152 5.4792161 37.926937
1.0233979 5.6667228 37.936535
1.5752174 -0.38053191 38.038177
-0.967444 0.40772161 38.096634
3.4604361 1.1374462 38.07431
-0.23740102 2.7707949 38.092857
3.9200015 3.0037763 38.06234
3.9748588 -0.9377116 38.181526
2.6142406 -0.20113598 38.143982
4.8256202 -0.03601227 38.117321
-0.20392865 0.026473932 38.184368
-0.36517078 0.54843068 38.139095
-0.39096045 1.069559 38.12347
-0.00057952106 3.4128573 38.182571
-0.20228206 4.3359842 38.154591
3.1201413 5.0917921 38.126614
-0.46324277 -0.91356134 38.201927
3.6545866 -0.31407627 38.230591
1.0273188 1.6030812 38.287323
