# .PCD v0.7 - Point Cloud Data file format
VERSION 0.7
FIELDS x y z
SIZE 4 4 4
TYPE F F F
COUNT 1 1 1
WIDTH 1613
HEIGHT 1
VIEWPOINT 0 0 0 1 0 0 0
POINTS 1613
DATA ascii
61.321686 32.931725 13.658457
60.757492 34.336193 13.600604
66.905556 31.674 13.752131
60.926544 34.195908 13.770987
64.529739 34.906597 13.968022
56.733265 33.391514 14.062297
61.247131 33.445187 14.090594
56.766979 32.719921 14.105648
57.376022 31.91555 14.272034
57.309387 34.326618 14.283702
58.33955 35.088314 14.253091
56.69022 32.994202 14.321374
61.706596 33.088303 14.391266
64.255234 34.644993 14.368774
64.14621 32.172897 14.536636
67.994034 34.082333 14.573086
63.482262 32.785042 14.66207
59.666115 31.590204 14.795478
60.853474 32.086235 14.782926
65.191658 34.938465 14.71
66.09269 35.021706 14.724237
66.939484 31.617474 14.839883
63.563267 33.525036 14.878919
60.530647 34.969566 14.859202
60.012432 31.410667 14.945833
57.868092 31.81868 14.971169
63.692772 33.672897 14.927879
66.937439 34.845329 14.921059
67.51606 32.095764 15.044876
63.690098 32.941536 15.033544
64.305733 34.625595 15.044711
58.179443 35.093979 15.043692
60.25219 31.685558 15.19626
68.482056 32.794075 15.134577
61.098656 34.692627 15.184032
66.266937 31.656361 15.296468
61.147301 34.010384 15.258126
60.774261 31.977802 15.335218
63.521515 33.39719 15.347467
56.876324 32.407761 15.52284
61.74752 32.463669 15.503929
63.673244 33.513844 15.699262
63.977409 34.349739 15.690445
59.482224 31.518444 15.705629
68.417984 32.283142 15.722342
66.692703 34.948494 15.956578
58.759216 35.292545 16.070534
57.000366 31.998985 16.270424
65.048332 31.664995 16.471016
57.15292 34.372459 16.651094
65.544708 35.081055 16.627003
61.636833 32.159645 16.771927
57.01104 34.289055 16.761438
59.772018 31.284422 16.883602
64.245522 31.978783 16.894102
66.899399 35.357735 16.917704
68.001884 34.898228 17.033108
67.771179 35.060284 17.021534
56.594604 33.125572 17.180992
56.435013 33.348518 17.143536
67.131668 31.784115 17.245758
61.427132 33.069477 17.233814
61.320335 33.936211 17.247591
66.773788 31.673933 17.311583
61.436928 33.132576 17.404863
57.487831 34.63377 17.440678
59.767048 31.254723 17.500126
61.600845 32.735313 17.591688
60.858696 34.542736 17.598888
65.864304 35.181808 17.56826
63.436413 32.456978 17.6112
61.589481 32.901592 17.693165
57.951591 31.657864 17.720148
64.141937 34.583172 17.778643
65.364197 35.390804 17.747541
58.372665 31.337524 17.883358
56.616585 33.670914 17.847918
63.490402 33.697998 17.895697
60.354626 35.187241 17.847263
66.109955 31.239859 17.934893
60.017933 31.264875 18.065369
58.573616 31.487282 18.140438
61.61628 32.9198 18.131969
67.672142 31.673876 18.270159
64.103928 31.664282 18.343294
64.829544 34.993919 18.398598
61.470196 34.671249 18.461529
66.423386 35.133026 18.58626
65.717354 35.506004 18.532104
61.066391 32.024048 18.613544
68.252167 34.315697 18.650055
66.89505 35.457542 18.693396
64.201935 31.550215 18.896776
66.748306 35.499863 18.809225
58.825531 31.394604 18.961649
59.121571 35.537052 18.910177
61.121185 31.489088 19.005196
68.97673 33.377872 19.031969
68.705254 34.369209 19.02758
63.651752 32.640362 19.119081
68.390755 34.806801 19.198767
65.098427 31.545906 19.23123
68.657219 33.344864 19.32848
66.860458 35.074814 19.381672
64.47892 31.43873 19.417665
63.334816 32.500381 19.446365
61.92646 33.193508 19.482658
58.978771 31.099632 19.548595
58.807747 31.147121 19.504814
61.557716 33.297485 19.514072
56.40432 33.44183 19.555792
56.523594 34.16769 19.566673
56.716759 34.131104 19.514721
66.180069 35.230736 19.513987
59.623402 35.455463 19.536713
68.432785 31.951542 19.670929
61.903381 33.43671 19.637182
64.352043 34.991917 19.757723
67.468338 31.769611 19.881956
68.363548 31.906261 19.815521
63.820034 31.849152 19.988441
56.464489 32.474087 19.963707
68.50779 32.561771 19.921825
61.580658 32.827507 19.914686
56.47747 32.949852 19.959066
58.744942 35.127785 19.910877
59.582726 31.107485 20.059362
64.572227 31.391685 20.084511
63.477432 32.234756 20.13567
61.617687 34.687809 20.125179
64.167709 34.701729 20.183989
65.788269 35.257229 20.130875
63.419876 33.81469 20.336937
65.146927 31.274372 20.496752
64.979416 31.306293 20.425297
67.453888 31.728958 20.424072
60.698647 35.254097 20.417032
64.316628 34.993652 20.579887
63.547234 33.111122 20.676207
59.68589 31.089298 20.767666
66.658592 31.188251 20.715248
66.937004 31.535751 20.744802
63.632492 31.995417 20.781645
57.42453 35.178871 20.77042
66.26825 35.726707 20.778208
65.570251 31.390156 20.916576
63.79845 31.820004 20.977398
63.354313 32.374054 20.976366
57.171272 35.012104 20.940554
67.769234 35.369194 20.948624
64.881454 31.29254 21.078194
68.78392 34.635414 21.020565
56.748573 34.388969 21.107607
68.908905 32.220581 21.201693
58.309578 35.474724 21.243248
59.73595 35.52528 21.213209
60.034714 31.111347 21.384666
67.259789 31.310547 21.348631
56.289291 32.86018 21.361992
65.282227 31.20689 21.44799
56.258835 32.975285 21.424
64.430054 35.149258 21.445738
64.136444 31.869678 21.687914
66.699982 35.217091 21.626818
62.017372 32.40057 21.720963
66.635056 35.691227 21.752615
68.408173 31.780855 21.825348
63.517231 33.794342 21.861214
64.330872 34.922268 21.978626
60.878223 31.202824 22.06485
63.41729 34.074383 22.268917
61.516418 34.186691 22.285738
64.021706 34.648624 22.233843
56.63937 34.731094 22.264555
68.233894 35.173012 22.215616
56.460461 32.46611 22.380554
60.002953 35.529621 22.378992
69.303024 33.407845 22.494495
66.567413 35.748764 22.489998
63.813972 34.465965 22.57196
58.956467 35.303276 22.590656
59.173141 35.332935 22.503307
60.637543 31.459541 22.60763
56.252319 32.681091 22.640528
56.281391 33.612827 22.6777
61.398834 31.328762 22.765202
62.029266 32.579262 22.77453
65.806213 35.356094 22.796917
56.772911 31.76915 22.839581
61.746422 32.935585 22.809172
63.524467 34.233528 22.836277
57.042351 34.68351 22.864573
67.878334 35.445625 22.802813
57.317574 31.492233 22.923008
61.752956 33.475887 22.92329
56.67086 34.799873 22.91432
61.238224 31.21912 23.074972
69.005013 33.430153 23.036802
59.703217 31.258673 23.178324
64.752571 35.472008 23.132994
64.417702 35.22311 23.323275
65.11132 31.144352 23.412962
58.061447 31.398621 23.488064
57.074257 31.797855 23.406273
69.295654 32.96122 23.535864
68.94043 33.749149 23.519762
65.656128 31.039011 23.678005
57.360962 31.654102 23.734468
67.790749 31.32341 23.84539
69.150803 32.225349 23.812403
64.237076 31.266533 23.991671
63.98098 31.912262 23.983055
66.482956 30.938412 24.081081
60.520226 31.05604 24.073601
61.397366 35.108757 24.092096
67.132179 35.695404 24.013601
56.142143 32.743988 24.198999
68.979057 33.792572 24.172745
56.306633 33.87735 24.141167
65.836769 31.205629 24.298735
66.556458 31.263397 24.248051
59.939552 35.258121 24.265997
57.861588 31.173542 24.391195
68.924423 32.638592 24.438553
61.527 31.300619 24.576509
67.250809 35.694553 24.519958
64.773392 31.391201 24.664738
61.540054 34.427216 24.643257
64.331146 35.029102 24.67989
57.232155 35.321869 24.665001
63.483448 32.607342 24.746067
56.212135 32.893559 24.746506
56.132973 34.08313 24.872948
56.751209 34.619335 24.833937
65.86882 35.443363 24.874741
66.284592 30.878035 24.915884
57.510864 31.532738 24.936821
61.684353 32.304344 24.933273
66.250725 35.475376 24.973938
58.665596 30.92779 25.084936
58.662174 31.194765 25.012278
56.495087 31.795074 25.001492
69.3274 34.213989 25.012775
64.951019 31.338182 25.157902
67.733223 31.559668 25.108023
61.474926 31.961205 25.114576
68.843262 32.09296 25.113295
68.997818 32.678551 25.156691
61.88652 32.916481 25.255516
69.053589 33.839573 25.247166
57.714397 35.555969 25.251238
66.521233 30.874674 25.307568
62.050297 33.274651 25.338268
59.799057 31.185959 25.43021
68.886925 32.130981 25.498871
59.622219 30.857403 25.50407
56.593338 34.562244 25.538563
66.88665 30.950729 25.664007
59.477905 35.421669 25.614399
56.535259 31.935528 25.746786
62.062111 34.737125 25.77182
68.082687 34.992409 25.771095
66.981857 35.353855 25.797688
67.971611 35.587574 25.765606
56.716324 31.638546 25.877354
65.273567 35.352108 25.824493
62.06134 33.57283 25.999437
66.094193 31.088268 26.033522
68.225929 31.378456 26.059052
56.151958 32.808815 26.149271
63.191841 33.495182 26.122009
56.375389 31.78846 26.272844
66.863884 35.403469 26.294476
68.710007 31.599163 26.351917
55.989727 32.839329 26.323339
56.026443 33.261108 26.304733
61.149178 31.035398 26.4715
63.677757 32.145012 26.481789
61.151443 31.568222 26.621059
62.067863 34.004116 26.675314
61.692741 31.801029 26.712555
65.240753 35.737965 26.781395
65.782478 35.863239 26.749189
66.061897 35.556057 26.896484
67.856018 31.496853 26.98283
61.984825 32.815022 26.972092
57.124424 35.408928 26.943464
56.116653 33.866966 27.036858
65.196838 35.73909 27.054987
57.85672 31.303783 27.129887
66.961594 35.912991 27.176325
63.289631 32.08046 27.268829
60.046028 35.383324 27.268827
61.716194 31.316307 27.344582
56.244614 32.186325 27.305504
65.918663 35.920345 27.356388
61.672016 31.995403 27.489279
62.140587 33.737877 27.480946
65.314972 31.176058 27.514694
62.181629 33.408558 27.562639
63.157257 33.553345 27.558006
61.381134 34.810173 27.52623
64.546295 35.548695 27.544308
58.028313 35.758869 27.500856
63.908123 31.368259 27.662281
66.499763 35.54615 27.608389
60.50885 35.3078 27.715755
60.994198 35.181984 27.816454
58.023197 35.775711 27.821989
61.000748 35.182701 27.905605
59.795696 35.472076 28.00145
64.616241 31.005867 28.190626
68.00853 31.112072 28.203007
58.075405 30.933624 28.363964
68.803307 31.496582 28.382582
66.862137 30.775166 28.467094
64.4272 35.468216 28.435202
62.106842 32.122002 28.55962
65.654587 35.529938 28.56461
69.18293 32.191914 28.689222
62.079201 32.621037 28.620117
55.849651 32.840698 28.601292
69.504448 34.616302 28.64702
60.448669 35.787239 28.688915
55.94548 33.013729 28.779272
67.623016 35.840279 28.777086
64.634644 30.97031 28.885227
56.461403 31.826271 28.925541
69.588097 32.073116 28.935461
55.842922 33.375839 28.939262
60.092247 35.45829 28.991621
63.455673 34.175713 29.067825
57.189598 35.15852 29.080147
68.888107 35.288582 29.041214
65.903015 30.998917 29.187914
69.183022 31.631956 29.125807
63.512802 32.286911 29.130482
62.308681 33.188667 29.137089
63.025024 33.170303 29.181877
68.382713 35.651245 29.107098
57.573757 31.309631 29.282267
55.821022 32.78587 29.274818
69.430389 34.923603 29.255816
61.708633 30.980551 29.380808
64.730484 30.932064 29.354261
62.036045 32.449406 29.317005
55.892464 33.082882 29.381886
61.374058 31.58025 29.468174
56.326271 31.86525 29.412741
62.054131 32.466957 29.452309
62.062801 34.059895 29.46172
58.580734 36.004848 29.487514
59.87698 31.033905 29.561853
56.166359 31.724186 29.500885
60.770042 30.830172 29.658043
63.566505 32.159225 29.608704
69.3423 32.458305 29.72253
63.167717 33.951656 29.780413
69.872421 33.966755 29.774805
69.661469 34.490299 29.782011
63.314613 33.228233 29.863997
56.742161 34.923004 29.875938
57.388691 31.364115 29.924961
56.147461 31.965067 29.942062
57.17487 35.203606 29.967367
58.947876 35.658146 29.983318
66.107239 30.663006 30.085285
55.765804 32.825985 30.023457
65.433525 35.920708 30.089302
63.856064 31.290249 30.197845
56.000046 31.784006 30.138189
69.435905 33.964722 30.172485
61.392822 34.996948 30.17289
57.550385 35.794319 30.190327
61.923134 31.231424 30.20414
56.522018 31.507824 30.234734
64.495071 35.62299 30.292431
58.606354 36.053875 30.247543
63.028839 33.365265 30.309694
62.026459 34.232697 30.352093
64.591469 35.724899 30.369532
61.488354 31.616528 30.477516
55.728645 32.856064 30.515598
62.998474 33.249958 30.508026
69.477242 33.939632 30.510117
64.72226 35.405655 30.575035
67.423698 35.484715 30.582821
60.586815 35.85907 30.504923
56.633053 31.428917 30.68103
57.702251 30.921206 30.786776
66.695923 30.959797 30.772617
58.365414 31.037525 30.791916
62.271065 32.223171 30.742994
63.684101 34.789696 30.739586
65.362732 31.035282 30.831776
60.301491 30.699306 30.983723
60.068378 35.558754 30.932777
67.516075 35.985126 30.911753
63.35519 31.748043 31.005053
62.218941 33.21484 31.060223
66.317314 30.848013 31.176895
59.686852 30.932003 31.188965
62.344482 34.629932 31.159306
64.095871 35.254547 31.136261
64.363365 35.315765 31.19548
69.657356 33.173347 31.213371
64.354881 35.522919 31.225233
64.789162 30.830437 31.317318
56.708992 31.348717 31.487648
62.080025 32.289558 31.452335
59.259338 36.226635 31.491518
57.124866 35.269619 31.560904
66.55938 35.720257 31.537132
65.479126 30.978388 31.712517
69.721771 33.254147 31.709793
56.078167 35.00061 31.747482
61.939365 35.263481 31.707588
59.311775 30.52717 31.870609
58.96209 30.856266 31.823675
64.881012 31.088724 31.891735
67.953857 31.239462 31.878929
58.269665 31.02187 32.015129
69.522598 32.4604 32.033775
55.612846 33.078175 32.034794
55.494804 33.587944 32.071415
66.517532 36.235481 32.000938
66.198685 30.840757 32.189301
58.349888 31.002682 32.171677
60.841042 31.128254 32.142506
56.929726 31.488049 32.116596
63.924091 31.624636 32.145992
62.362968 34.302261 32.111366
69.724884 31.723827 32.213776
55.907951 34.076305 32.277695
68.763229 34.994938 32.377857
68.327667 31.407722 32.418221
56.162834 31.617985 32.417404
63.47319 31.763546 32.404171
56.026329 34.339676 32.435837
58.632706 36.134453 32.42638
56.931389 31.487301 32.594185
62.131783 32.347813 32.556652
62.393684 33.536678 32.522469
68.261826 35.839092 32.553921
69.397141 31.559826 32.656628
67.501205 36.02507 32.658924
64.589409 30.852982 32.721233
68.197281 31.349033 32.799553
70.017212 32.879162 32.754292
55.53154 33.429287 32.797474
69.259727 35.239639 32.776226
64.224716 35.405743 32.763783
66.517059 30.865406 32.869274
63.360085 32.030807 32.848717
65.529305 35.617874 32.897961
57.383621 31.28376 32.949989
67.743439 31.159847 33.05085
69.525688 34.0811 33.032749
68.312332 31.016993 33.16375
63.246666 34.095348 33.147434
61.542011 31.579193 33.202156
64.286995 31.291349 33.393242
63.266403 33.455383 33.361507
67.072746 30.644608 33.468647
58.142998 30.768164 33.479809
56.645344 31.616041 33.494026
63.724335 31.808094 33.571236
57.852222 35.944992 33.563305
63.266396 33.134705 33.670246
66.408112 36.209911 33.664974
60.164207 30.651917 33.774307
69.718918 33.651211 33.72578
60.846325 35.859138 33.735958
61.073112 35.806004 33.749214
58.89249 30.872911 33.895706
68.586227 31.524101 33.849339
55.976288 32.215332 33.850525
63.238861 32.596626 33.876629
63.076984 33.597309 33.824738
58.313759 35.605858 33.89476
57.375687 31.287327 33.941399
61.789204 31.8029 33.913086
62.964767 34.300468 33.977951
58.097641 30.780224 34.077351
56.119011 31.639915 34.078606
63.346592 32.172966 34.05682
61.0224 33.460121 34.055145
67.048744 35.623657 34.005432
61.104828 30.789564 34.197372
62.319626 32.235703 34.192551
62.882896 32.2603 34.188068
64.617432 32.319641 34.150368
62.963814 35.108837 34.145531
61.719971 31.273195 34.2761
62.812069 31.672754 34.262543
63.407997 33.747242 34.246216
62.433178 35.136192 34.281246
61.819534 35.353596 34.272446
63.571251 34.540897 34.378414
66.891647 36.174118 34.35474
63.936649 31.446793 34.481941
56.497604 31.682537 34.456535
55.922794 31.739658 34.415802
63.464661 35.739433 34.467148
66.746307 35.690166 34.565983
64.078316 31.178425 34.606682
63.186813 33.166908 34.67556
60.938263 35.685699 34.676983
62.796204 35.794407 34.696762
62.708015 30.562241 34.791546
64.739586 31.105654 34.795803
57.342545 35.393845 34.709892
64.327713 35.340664 34.742668
59.335693 35.859127 34.762409
68.155106 35.865181 34.765469
65.537514 36.006462 34.795456
63.661194 31.032358 34.882431
55.900223 34.059113 34.804852
63.23278 35.515903 34.838863
61.075775 35.912682 34.855843
61.748615 30.739212 34.952415
67.697258 30.811323 34.977367
63.468334 32.208195 34.979065
62.24585 34.248726 34.996223
60.620407 35.990623 34.979317
67.574448 30.778542 35.0392
61.547569 30.848629 35.033443
55.908875 31.799768 35.055874
61.887295 34.823734 35.050667
69.247818 35.248055 35.033333
64.81385 35.667244 35.05455
64.799553 36.098728 35.076462
59.176064 36.136097 35.042194
60.647758 30.626457 35.134575
68.607971 31.080854 35.158924
61.474518 31.49802 35.17918
63.422707 34.268047 35.129494
59.86644 30.290613 35.2407
63.35672 30.425375 35.249493
68.589798 31.525709 35.220646
62.30481 32.553211 35.262001
69.278877 34.630196 35.272861
61.677876 36.267963 35.21104
63.824383 36.269211 35.255619
63.104511 30.310711 35.393589
58.675552 30.474672 35.320564
59.956635 30.716644 35.34951
55.672638 33.653618 35.396301
57.528778 31.17099 35.443268
57.922195 35.537346 35.462349
61.261253 29.845482 35.542961
56.237251 31.640442 35.528156
55.420357 33.934998 35.584244
56.867966 35.209862 35.578548
58.476288 35.845627 35.506195
63.855247 29.70932 35.682335
55.301918 33.417336 35.642498
55.47747 33.526543 35.612671
67.165901 35.820843 35.647518
63.933735 36.261852 35.64835
58.47517 30.569052 35.734177
55.857861 32.044273 35.731766
55.930737 34.69809 35.784531
68.23233 30.720387 35.844074
55.635632 32.328205 35.899311
60.931396 29.396254 36.08532
63.485245 30.089893 36.07935
65.968277 30.424835 36.008923
55.448036 33.869865 36.063644
65.663605 30.090849 36.198101
59.211151 30.296913 36.103703
58.123512 30.528458 36.18597
67.65905 30.803528 36.120586
70.234673 33.378708 36.184902
55.667439 34.456642 36.163025
57.757217 35.496986 36.132492
60.488941 29.770317 36.230125
59.919121 29.821493 36.27779
64.605423 29.754293 36.345196
57.229992 30.811462 36.396931
55.495037 32.497658 36.369347
56.349728 35.360756 36.350136
62.951958 36.295006 36.358635
60.073318 29.263636 36.400455
63.425434 29.442045 36.594116
59.918571 29.843491 36.535725
55.828865 31.953178 36.541653
65.752159 35.871334 36.556534
63.14753 36.290627 36.572678
63.65929 28.939512 36.668957
58.884533 29.495798 36.663246
60.347496 29.665319 36.690887
66.740242 30.209635 36.658531
68.729073 30.830685 36.667225
55.160599 33.248821 36.614689
56.717957 35.320358 36.668381
64.434845 36.228127 36.632748
63.490627 28.88938 36.745193
60.854858 28.948839 36.759811
60.023663 29.65794 36.767426
64.214828 29.627968 36.744865
57.774677 30.422035 36.743122
56.29081 31.591057 36.735981
60.717613 36.194519 36.755692
59.579803 29.736704 36.816719
70.258186 33.860088 36.881008
57.296349 35.56361 36.818703
58.729912 35.70929 36.818775
66.966125 35.861633 36.877655
58.582649 36.139259 36.874123
58.981728 36.227524 36.894062
69.9189 34.118603 36.927116
69.625328 35.229698 36.927017
61.968803 36.079559 36.905411
66.269821 36.303387 36.994156
62.950775 36.607849 36.92099
56.179939 31.671463 37.042713
70.191666 34.663979 37.087189
69.199181 35.449005 37.03735
67.543365 35.530087 37.052551
66.143654 36.015816 37.006718
59.650078 36.345078 37.065254
56.391228 35.398636 37.124168
56.955822 35.677326 37.150486
62.926945 36.091366 37.149952
62.835815 28.598843 37.278542
64.356964 29.403057 37.265221
62.685799 29.67923 37.240047
65.789917 36.071659 37.243626
63.077675 36.292191 37.204315
60.611378 29.22435 37.482689
63.322594 29.402576 37.443043
66.350342 29.713957 37.430798
68.783821 31.247154 37.481125
54.919296 33.055161 37.431873
70.275917 33.979408 37.473045
57.603287 35.640667 37.436546
60.656082 36.484257 37.498077
67.511429 29.771309 37.537308
58.76915 29.981129 37.583202
57.396412 30.305426 37.57571
62.909023 36.091751 37.530701
55.01088 33.358189 37.62133
68.358635 35.510323 37.615139
68.769638 30.678106 37.727238
56.887306 35.21788 37.726021
64.638779 36.006149 37.723881
59.033524 29.242176 37.805473
68.063583 30.116014 37.895241
54.987343 33.702137 37.888569
55.803459 34.64378 37.843262
62.411575 28.432899 37.918571
63.324387 28.432899 37.954666
64.954269 28.627308 37.900925
67.364296 35.779556 37.914669
60.171165 29.287682 38.010536
69.67305 31.951401 38.014336
70.321236 33.476715 38.091904
69.680893 35.235126 38.024811
64.951843 35.971874 38.005501
68.283752 30.791748 38.119698
55.171097 32.70908 38.104679
66.815765 35.687454 38.162739
66.985001 35.65379 38.158779
66.567245 35.943081 38.140038
64.331009 29.101254 38.296452
70.204681 32.583599 38.243065
54.996857 33.167706 38.269516
61.251129 36.541264 38.274071
66.801971 29.329578 38.395973
70.232826 34.131168 38.353363
55.787266 34.654018 38.388233
64.831383 36.191353 38.396851
58.244625 30.118135 38.407196
70.399033 32.863693 38.423332
68.771637 35.334774 38.418041
68.392479 35.809837 38.433945
67.046387 36.149685 38.452312
60.893341 29.143339 38.532463
68.292885 30.843643 38.565712
56.721363 31.213446 38.689663
69.546402 31.860003 38.68885
67.54007 30.335972 38.73967
55.129478 32.760681 38.723202
65.08297 35.95752 38.703835
65.116692 35.953827 38.757584
68.968758 31.436405 38.820213
68.153915 35.380722 38.881889
57.449207 35.421631 39.06023
66.32621 35.78297 39.114136
67.852745 30.544899 39.313309
69.248871 34.928169 39.37328
67.316589 35.585567 39.302696
66.716095 29.883831 39.481636
55.880451 31.848854 39.531372
61.200317 29.082272 39.716831
69.438934 34.842613 39.748619
56.352692 34.985912 39.747059
68.099564 35.39402 39.72707
68.070114 35.401226 39.981224
61.543678 29.017828 40.000374
64.792542 29.193069 40.036583
69.70446 32.008125 40.377083
56.237247 34.916672 40.451164
55.252186 33.554703 40.511024
58.215374 30.132561 40.665497
62.695316 36.095409 40.727715
61.007442 29.12064 40.96867
69.861626 34.171944 40.970947
65.074844 35.958408 40.942951
63.394535 28.912037 41.027802
59.09948 29.608381 41.027802
61.16452 30.077206 41.027802
63.716549 30.378292 41.027802
55.854229 31.934954 41.06221
61.870117 32.490292 41.027802
65.906158 33.089012 41.027802
62.652599 33.289795 41.027802
70.11837 34.051682 41.027802
63.635468 35.007267 41.027802
57.266029 35.374756 41.044941
59.40995 35.816727 41.027802
59.393799 35.994858 41.027802
59.305267 36.07655 41.042633
55.418697 33.743465 41.113941
64.120277 29.059332 41.262127
55.447323 34.012157 41.274075
56.117466 34.812286 41.271458
67.958565 30.091097 41.357262
57.722832 30.201092 41.383457
57.413437 30.393587 41.30986
55.795982 34.413738 41.424786
59.676418 36.122765 41.414581
66.250076 35.794689 41.512516
61.21994 28.907473 41.605995
66.959381 29.652153 41.656906
67.31086 29.819679 41.632172
69.913979 32.639183 41.656464
62.368141 36.33358 41.679195
62.189217 28.970671 41.757618
61.417713 29.039022 41.776817
60.646648 29.192417 41.760826
55.743931 32.035046 41.705681
70.368622 33.223953 41.752239
68.405945 35.276947 41.735954
65.15139 35.950027 41.77557
64.603073 29.155378 41.829128
55.799072 34.406788 41.976078
64.506844 36.279411 41.950672
63.681343 28.904207 42.005871
63.743702 28.930016 42.0998
59.177567 29.658075 42.097736
55.621296 32.603012 42.087605
57.979607 35.822495 42.032562
60.457432 29.154594 42.104477
55.962029 31.890915 42.184242
69.192657 35.257935 42.163319
65.777222 35.867214 42.274815
64.420708 36.023975 42.272789
60.423824 36.185871 42.225193
64.282539 29.141586 42.462807
67.080048 30.117176 42.49242
58.565296 35.673431 42.414463
69.225342 31.304222 42.503273
64.420891 29.221212 42.672199
59.991634 29.438532 42.675747
65.496841 29.473778 42.618881
68.570435 30.813799 42.630333
68.652008 30.893854 42.659561
56.060322 34.490837 42.646091
57.300564 35.360641 42.614311
60.597649 36.18576 42.762478
60.983261 36.224178 42.757809
61.681656 36.046196 42.815632
63.108681 29.124407 42.952137
69.699631 32.162449 42.987888
66.723785 35.696804 42.983845
57.541077 35.694214 43.012573
60.557247 29.335966 43.155651
65.376709 29.556787 43.158634
57.403351 30.83728 43.15099
68.758064 34.903694 43.172688
61.376144 36.011089 43.197311
65.625458 36.145618 43.141674
64.071075 29.296394 43.253963
56.9776 31.198509 43.242592
65.453972 29.627586 43.352966
57.479546 30.832653 43.389877
55.986313 32.806789 43.441818
56.061264 33.739826 43.63863
66.470428 30.13393 43.85054
67.916725 35.751743 43.861507
58.180923 35.811188 43.809841
61.155941 29.372677 43.908619
66.988762 30.111912 43.953659
60.629402 35.92886 43.914272
67.935043 30.712744 44.089466
67.800491 30.923439 44.017944
67.170975 30.232157 44.162827
67.545151 30.78299 44.169979
58.88121 29.970993 44.23251
65.223251 35.883053 44.279045
63.370026 36.001984 44.279835
66.555153 36.011086 44.234463
66.487511 36.01992 44.311409
62.888584 29.422607 44.471977
68.9701 31.63773 44.499886
64.822418 36.168842 44.470837
60.836769 29.547352 44.54147
57.022583 31.446529 44.586273
68.578506 31.788895 44.548355
69.400787 33.884731 44.505226
66.775764 35.970741 44.547749
60.098003 36.075928 44.504509
64.791924 29.59684 44.659157
57.998528 30.624624 44.605194
68.165596 30.883934 44.616325
68.701721 32.070271 44.634048
68.806061 34.190426 44.604656
62.167015 35.985397 44.677345
66.651894 35.987946 44.638813
67.068069 35.606918 44.710548
59.333881 29.922543 44.835739
66.846794 30.484833 44.851448
68.845291 33.004314 45.050266
67.037369 35.94519 45.031223
62.309387 29.537647 45.133472
67.814873 30.746532 45.152245
65.137375 35.865658 45.193539
62.561821 29.580183 45.24588
64.630554 29.68856 45.213188
59.376347 35.964069 45.254562
69.244522 32.478424 45.309448
56.715549 34.309155 45.37822
68.763527 34.951324 45.303295
66.804947 30.602398 45.47147
68.182541 34.839233 45.450069
67.862022 35.15839 45.460033
56.797745 31.974979 45.500713
65.184166 35.850689 45.529476
66.912971 30.411026 45.648048
62.907639 29.729048 45.749382
60.37635 29.873936 45.77787
65.195244 29.921276 45.7817
68.547691 34.149689 45.760994
58.875343 30.307547 45.822334
67.320412 30.919237 45.893723
56.879684 31.877769 45.850296
58.334557 35.800331 45.838688
60.670876 36.084465 45.827106
69.239754 33.267643 45.975082
63.650551 36.161766 45.961388
60.560863 29.920414 46.169662
56.941895 31.536289 46.143425
59.498257 30.129486 46.206871
56.906101 31.913635 46.267689
57.182503 34.905346 46.244511
63.177563 29.820215 46.333042
64.565636 30.017576 46.368267
60.221535 35.797653 46.340775
60.166042 36.022678 46.321682
65.504173 30.065958 46.422264
59.428524 30.195068 46.469818
68.491943 32.399223 46.447067
63.24192 35.919624 46.435913
65.532661 30.085421 46.519997
58.202805 35.559547 46.505161
66.415764 35.686241 46.689133
65.175316 35.819527 46.626175
65.905151 36.012218 46.678787
65.391678 30.269775 46.708172
65.906113 30.403008 46.758141
56.780563 32.29324 46.722313
57.007851 34.619415 46.763535
68.564148 35.01115 46.793053
56.973145 31.581924 46.813126
68.797226 31.898399 46.863071
67.114731 35.907204 46.881908
56.73756 33.894981 46.955997
67.180824 35.556175 46.994194
59.052338 35.67794 46.940926
62.047714 29.956772 47.060753
58.044075 30.688404 47.041245
58.092754 30.877762 47.007767
68.950722 34.00552 47.066254
64.431793 36.103539 47.017609
62.090637 29.971889 47.241032
58.903877 30.442408 47.234795
56.886154 34.792801 47.22776
65.52787 35.768524 47.297855
63.858295 35.879074 47.245422
56.71159 33.414417 47.374905
68.755753 34.477791 47.346092
65.63868 36.019741 47.387035
62.151382 30.087494 47.469662
56.59568 32.64859 47.426624
57.422676 35.485355 47.412292
56.922531 34.276905 47.546692
65.100273 36.054535 47.512337
57.083897 34.561714 47.794865
57.428375 35.461815 47.893761
61.817627 30.180668 47.959358
68.663757 31.947872 47.964985
68.647804 34.56987 47.966373
63.551025 30.201178 48.05035
56.667564 32.668144 48.050354
68.505028 34.794872 48.038841
60.848274 36.026211 48.004654
62.770103 30.027964 48.175106
63.143208 30.03577 48.143257
67.834129 31.506557 48.157322
68.325211 33.203758 48.201393
68.833191 33.669651 48.26886
57.263981 31.342224 48.370277
68.276932 32.861649 48.363609
60.072342 35.963577 48.338455
65.031441 35.782722 48.419617
60.162434 35.960457 48.445023
66.670357 30.541277 48.591038
56.772636 34.119488 48.514709
59.192181 30.573374 48.688179
65.876778 30.579002 48.612053
68.576363 34.508747 48.600075
57.470001 35.473381 48.641998
63.386444 30.243298 48.717651
65.139435 30.254091 48.732132
65.408401 35.732952 48.709099
62.586819 36.051102 48.725277
65.249596 30.476557 48.894051
57.799129 30.7658 48.854645
67.728561 31.453506 48.849201
57.365715 31.570038 48.878571
68.0205 34.276016 48.831799
58.206768 30.841751 48.969284
57.108208 32.127426 48.974457
60.722679 35.758186 48.985706
62.075851 30.25317 49.023781
68.627579 32.340267 49.024574
64.513802 30.388563 49.159721
67.540459 35.794731 49.122185
62.984238 35.815964 49.12833
57.170078 32.00061 49.24913
64.373596 35.777496 49.269714
63.820946 36.026196 49.299843
57.938957 30.724396 49.381672
67.818909 31.772291 49.471531
64.588074 35.758575 49.477142
63.524063 30.158976 49.563713
57.701042 31.186325 49.538021
66.261734 30.495913 49.667507
64.697197 30.279259 49.799931
67.391701 31.074005 49.725578
67.875732 32.028469 49.743111
68.568825 33.846298 49.715515
57.202759 34.374992 49.775864
68.291557 34.834782 49.79472
67.107727 35.537064 49.708752
62.681339 36.012623 49.719799
62.216476 30.310587 49.842972
65.060791 30.512024 49.864304
65.870613 35.690872 49.948334
66.647621 35.881145 49.902752
68.319489 34.6814 50.07695
60.657375 35.711761 50.086788
60.275711 35.913944 50.032463
63.942169 30.425516 50.482414
65.408752 30.419552 50.585953
59.557724 30.5569 50.569176
65.247353 30.597115 50.508457
61.213226 35.718559 50.598557
59.880344 35.885376 50.586048
64.502365 35.973057 50.545361
63.955299 30.287577 50.668381
67.878555 32.579967 50.676735
59.390945 35.605442 50.648605
58.085464 35.746662 50.652805
66.987137 35.831306 50.611099
65.571945 35.931286 50.654663
65.916199 30.733456 50.773209
59.860931 30.382645 50.870323
67.883698 33.82782 50.89735
67.802483 34.206196 50.84354
57.526062 34.936291 50.964939
67.59552 35.761532 50.916431
64.16935 30.497467 51.086159
68.180351 35.009495 51.045673
61.354301 30.278614 51.160873
58.446136 30.602232 51.136497
68.581451 33.655766 51.159985
67.220322 30.950899 51.286057
57.761158 35.309486 51.218567
57.881405 35.465778 51.251675
62.236584 35.945801 51.28064
59.5886 30.572178 51.316536
67.41124 30.805401 51.301765
57.078571 31.736065 51.324318
56.897251 32.254654 51.319878
60.649853 35.885788 51.332085
57.262619 35.070244 51.436234
67.449142 35.097237 51.434971
67.763954 34.400539 51.580372
64.525093 35.935368 51.54319
56.756035 33.565331 51.698372
64.515381 30.408875 51.701267
59.95507 30.573887 51.72517
68.619064 33.143124 51.77623
62.803158 30.331226 51.883629
64.913162 30.438848 51.817642
68.562561 32.53006 51.899712
57.064968 34.719528 51.81041
59.403122 30.456055 51.973412
61.906311 35.688023 52.08173
61.818108 35.684143 52.18
56.704472 33.33807 52.26511
58.074234 30.714798 52.345642
60.081974 30.435806 52.472099
68.531792 32.328888 52.400627
63.29483 35.904778 52.496262
57.190742 34.390369 52.535828
60.603043 35.618195 52.543274
67.663712 35.723831 52.582058
67.106422 30.950899 52.656277
60.159382 34.022591 52.603722
67.154861 35.789734 52.647896
64.651169 30.494884 52.762104
58.97496 30.56353 52.778664
68.642952 32.978748 52.751984
56.674416 33.012775 52.765564
64.409134 35.650761 52.75742
65.433815 35.869286 52.704357
56.948292 33.10675 52.863876
57.487782 34.948658 52.879753
68.059898 35.221874 52.806744
58.858253 35.664227 52.806129
58.938889 35.77673 52.884483
59.778564 36.617142 52.84156
63.317108 30.594078 52.974838
56.729374 32.488995 52.98373
65.579926 33.512966 52.981514
63.920822 34.281441 52.984734
61.241119 33.702019 53.040779
64.094597 33.847557 53.011143
64.623032 35.632832 53.002499
59.420914 35.881367 53.03178
64.479713 36.371059 53.049828
60.784508 30.597591 53.170933
68.080963 31.239798 53.156082
64.157791 35.414688 53.143673
66.178116 36.87307 53.172638
58.719833 30.596554 53.235188
60.7799 33.567467 53.271381
63.08379 35.661591 53.21711
59.365822 36.193398 53.248871
65.744667 37.114685 53.249283
57.976746 30.751677 53.3228
63.290657 34.448845 53.348808
65.438316 34.680401 53.361458
66.199203 35.576405 53.342186
63.859306 35.865707 53.342106
64.170975 35.865166 53.322479
65.47403 33.429855 53.434639
65.473366 34.660324 53.468666
58.813946 35.498367 53.41795
66.695213 35.54834 53.446342
61.645775 36.016495 53.491951
60.685341 36.684296 53.487171
65.665329 36.703991 53.433212
65.674789 30.611996 53.587231
60.568138 33.01688 53.556042
58.786972 33.54311 53.555077
66.594437 35.260803 53.507568
62.888798 35.635071 53.56522
59.688026 32.997349 53.638191
60.60709 32.955616 53.680725
66.016891 33.14328 53.621201
56.776283 34.257568 53.654495
63.093231 34.535973 53.624985
63.751148 35.856449 53.635597
57.359901 35.354259 53.739609
66.874321 35.768108 53.733814
63.480415 35.803177 53.73848
59.941311 36.883484 53.721088
63.884678 30.514175 53.859653
67.547256 31.45137 53.846413
56.693554 32.413803 53.866119
59.273708 35.539474 53.879417
58.000698 35.718056 53.827469
63.55434 36.62392 53.854378
61.821358 30.480629 53.900288
63.543663 30.518711 53.924046
61.189629 33.155823 53.912395
67.063995 35.053833 53.996124
66.877029 35.24276 53.905083
59.461361 27.585171 54.066185
62.052322 30.641302 54.039677
64.349815 30.717331 54.007568
66.491501 30.718573 54.038197
57.556305 30.891273 54.033798
62.580673 34.551643 54.056759
65.090897 35.594536 54.075626
63.45385 35.941483 54.043694
60.885536 37.584011 54.034386
61.176105 26.580816 54.189259
61.02626 30.50819 54.139542
68.209702 31.455669 54.185211
66.735703 33.891655 54.101555
56.685822 34.093891 54.175137
62.821613 34.224712 54.199028
62.796562 35.158661 54.102474
64.495743 35.344025 54.129326
58.501514 35.715313 54.131233
61.776474 35.820862 54.176834
67.96434 32.479889 54.200554
58.461975 33.43351 54.270847
62.864029 34.499844 54.275585
62.742455 35.310493 54.21048
57.476646 35.451546 54.264984
63.386047 36.668953 54.248421
65.504486 32.764046 54.366249
59.294601 32.881104 54.321777
63.567448 33.311512 54.312336
66.871964 33.903439 54.385254
60.91478 35.584526 54.35527
60.790298 26.740593 54.486496
56.660389 34.031551 54.420597
62.664783 34.941753 54.469093
61.075317 35.580036 54.480625
66.910065 35.752728 54.461433
60.030815 37.366863 54.424194
61.667664 30.535334 54.590149
67.963776 33.924885 54.548702
57.79792 35.781792 54.517769
67.267319 35.750313 54.579369
61.471313 37.429039 54.505432
66.121117 29.252054 54.654743
66.188751 29.484535 54.662582
56.824032 33.233227 54.629349
57.146301 34.521683 54.603771
62.488079 35.495075 54.630867
57.734669 35.708462 54.619881
63.149166 36.116211 54.666019
62.143745 36.279869 54.641972
58.467422 36.986103 54.667027
61.205475 37.444061 54.626411
60.247559 32.646805 54.769241
58.349689 33.478668 54.740414
65.51709 37.707916 54.735386
57.116257 31.882984 54.800674
63.734982 32.975246 54.875267
68.061043 33.068439 54.829739
64.842827 37.492649 54.859802
58.631195 28.88171 54.990395
62.955639 30.569633 54.936764
65.676674 32.860435 54.910919
63.475624 33.386101 54.905563
66.553581 34.040909 54.959061
62.497051 34.969501 54.979969
67.250534 35.350719 54.909851
64.345657 35.430138 54.967644
63.46331 35.805145 54.940376
61.764664 30.573574 55.072357
66.261986 30.740267 55.027054
56.807716 32.965405 55.055054
61.351219 35.785645 55.049751
66.471458 36.705788 55.048729
65.370247 37.457069 55.079124
65.953735 37.615547 55.001068
58.659874 30.828278 55.148666
68.137085 31.321957 55.10236
58.95084 32.986546 55.12326
61.861095 33.23954 55.144394
56.596306 33.946259 55.127533
65.346329 35.781406 55.168304
65.195618 37.382896 55.142384
62.493652 26.434475 55.210636
59.930511 30.610107 55.222168
60.068794 30.764561 55.297531
56.548244 32.638512 55.257652
62.565063 35.334133 55.295029
57.475121 35.472561 55.236935
59.726944 35.511185 55.265617
62.752319 35.567329 55.226219
61.360279 35.779148 55.231934
66.829964 36.526775 55.259552
59.405567 32.81451 55.334084
63.863235 33.162968 55.346901
66.692116 33.646843 55.396145
56.59761 34.006058 55.338188
64.43412 35.558033 55.311661
65.166611 35.774204 55.370285
62.848869 36.165287 55.37822
66.44133 36.80381 55.382801
65.437706 37.417442 55.308659
65.921188 28.769413 55.472389
63.75391 30.623268 55.409088
65.950638 32.876141 55.483261
66.325165 33.297531 55.422787
62.840309 34.237926 55.471062
57.904709 34.960701 55.406815
56.806004 31.830629 55.594391
65.392868 32.822876 55.598423
68.626717 34.083096 55.506264
66.919746 34.130501 55.531441
65.601326 37.347973 55.558773
57.69458 30.805401 55.686493
56.597725 32.340744 55.69326
64.107643 32.923225 55.695484
65.756195 32.965546 55.617268
58.71936 33.266205 55.61673
61.925262 33.399849 55.634228
66.784447 36.138542 55.687035
59.379581 37.235596 55.658836
65.391907 30.710941 55.842682
59.952866 30.806248 55.889572
62.604298 35.192295 55.843376
62.231899 37.540932 55.812691
61.630493 33.327499 55.958321
63.978619 33.363037 55.99501
65.378426 34.714802 55.956406
60.04599 35.514328 55.971642
63.541912 35.537285 55.9506
64.09375 35.537052 55.905418
58.90126 28.315134 56.071301
62.761631 36.063354 56.056057
58.329472 30.097439 56.170914
58.466835 33.858551 56.143059
66.437531 34.107475 56.190636
66.707458 34.244267 56.173889
62.42009 35.47604 56.18375
59.441135 33.103867 56.256554
55.929703 33.287544 56.215927
65.751762 33.378204 56.278107
56.112198 33.606068 56.240479
61.823349 33.707073 56.26223
61.990261 33.951515 56.276119
56.560249 34.100609 56.223785
63.321743 36.258095 56.270947
65.495613 36.893364 56.299458
58.654541 28.825356 56.335903
61.721588 30.676384 56.368862
69.619446 33.177853 56.356876
55.090282 33.753174 56.31321
69.999954 33.960892 56.372311
55.543922 34.058559 56.383553
62.971542 34.628811 56.338337
66.688148 35.341087 56.376053
62.933304 35.505821 56.373264
63.691902 35.517601 56.398289
65.041809 36.932755 56.35157
58.311459 30.234291 56.447201
54.686142 32.897282 56.415871
53.757519 32.961246 56.461868
71.014748 33.127731 56.439766
71.590981 33.148552 56.469585
54.488678 33.575737 56.434574
66.566025 33.79697 56.414886
58.293846 35.469959 56.451683
58.329586 35.694103 56.486797
59.676006 36.809402 56.443161
62.20797 26.420954 56.522461
61.409214 26.526165 56.560154
59.621498 30.855722 56.58725
72.246742 33.091286 56.512123
55.170425 34.208923 56.597404
57.128143 35.162979 56.547882
62.66217 35.920975 56.502377
65.853233 36.477539 56.589844
49.457603 33.111637 56.690323
73.008163 33.682842 56.600037
71.677094 34.148708 56.688862
69.282188 34.686272 56.671421
66.544388 34.837212 56.61834
66.178909 36.027016 56.674278
60.949394 30.706347 56.710587
61.726864 30.857395 56.764748
68.393799 33.126236 56.76807
59.906384 33.337372 56.737209
48.013008 33.470036 56.793152
60.165909 33.436245 56.760189
75.473549 33.857735 56.799694
71.967957 34.146042 56.705795
61.90382 34.868847 56.793869
62.199524 35.670315 56.711479
60.89505 30.869781 56.891457
65.052597 36.371918 56.883751
65.583664 36.328735 56.801968
60.825169 36.463192 56.806953
64.625793 36.405693 56.867119
65.222015 36.42577 56.825699
45.364761 33.37878 56.934708
46.944542 33.677471 56.900509
68.393799 33.830055 56.992786
50.742313 34.2864 56.93856
65.907623 34.233131 56.920052
54.379761 34.655457 56.953197
70.985229 34.638908 56.971596
55.023945 34.926178 56.938271
56.197495 35.0546 56.971329
58.852299 35.817642 56.912548
64.351212 36.212418 56.954651
61.63065 26.496998 57.009747
67.892662 31.477392 57.044479
78.651169 32.380913 57.076023
79.278305 32.476116 57.061203
43.66161 32.703167 57.096237
43.36998 32.876301 57.065643
44.412735 32.839573 57.013474
68.4907 33.004242 57.008656
80.204132 33.660587 57.008499
78.328209 33.996376 57.022957
77.69722 34.179195 57.089298
65.433861 34.323158 57.081367
65.672661 35.483349 57.029057
66.797073 35.566139 57.052094
63.896202 35.74543 57.030029
64.278358 36.461781 57.048546
63.24308 30.748348 57.185535
76.219818 32.021305 57.149677
68.4907 33.021706 57.146343
83.413712 33.131779 57.128593
40.470341 33.234238 57.198875
41.433208 33.450886 57.163437
65.217422 34.211502 57.159256
65.520554 34.456852 57.103451
73.545189 34.641663 57.164825
64.248055 35.169094 57.145306
64.335365 35.252884 57.181427
65.788879 35.257023 57.127197
65.401276 27.928818 57.283615
66.074989 29.140705 57.200134
64.94767 30.921391 57.271236
66.92865 30.921902 57.252808
56.97654 31.216236 57.224396
37.317322 32.279652 57.246899
42.076656 32.488216 57.281273
43.422073 32.40868 57.239887
36.17028 32.932724 57.265915
39.249004 33.23716 57.246895
89.191277 33.308319 57.246899
87.997833 33.979542 57.246895
86.42543 34.004887 57.246899
89.04068 34.491894 57.278175
65.478546 34.812405 57.252666
68.393799 34.869629 57.272205
70.37709 34.940098 57.227814
65.302666 35.046577 57.299957
68.425491 31.141129 57.329765
69.573898 31.146536 57.372223
74.223419 31.641495 57.372704
48.155464 31.840641 57.344307
45.287189 32.089573 57.33564
79.79882 32.02668 57.395966
86.820969 32.955151 57.335835
44.016762 34.202705 57.358498
68.4907 34.328945 57.30188
64.923302 34.89669 57.341164
56.614475 35.358707 57.349274
63.152763 35.725464 57.333229
58.906048 28.308895 57.440754
64.617737 30.775061 57.411884
87.361809 31.785543 57.429802
45.463768 31.943043 57.458054
78.776604 31.927139 57.423374
39.883854 33.615177 57.437981
86.173859 33.883789 57.455799
85.147995 33.908058 57.404503
69.070198 34.290897 57.481956
38.621666 34.652988 57.426697
49.000854 34.671429 57.415611
60.157684 34.708405 57.407051
89.596046 34.721153 57.406647
69.946541 35.347313 57.41671
60.097771 35.413414 57.418533
58.422405 29.391426 57.550987
55.710625 31.166737 57.543243
76.196945 31.690237 57.500023
37.493183 31.761112 57.56889
85.987885 33.821323 57.532715
43.455738 34.371181 57.559185
89.75827 34.402683 57.517517
67.217819 35.277264 57.520195
60.246014 30.77718 57.606785
63.270267 30.928366 57.623878
44.825012 31.848133 57.636421
81.467125 31.940197 57.640099
35.258408 32.020271 57.66658
35.185272 32.141529 57.630707
68.393799 32.10828 57.607777
89.502228 33.946968 57.665722
85.653419 34.207069 57.673565
82.034119 34.459949 57.663666
35.156891 31.327312 57.798767
86.067284 32.294601 57.783409
35.918182 33.180069 57.752277
38.844337 34.855377 57.799484
66.787827 35.688087 57.737411
56.146774 30.860313 57.868679
71.411255 31.16853 57.884571
36.264153 31.387722 57.874065
49.586929 31.399527 57.8866
39.794025 32.021912 57.877556
36.01506 32.183609 57.895622
34.282532 32.652946 57.820145
89.361397 32.630501 57.868881
66.441635 35.686138 57.804184
87.154449 31.51881 57.936565
38.114388 31.650583 57.99189
35.045494 33.26236 57.986931
90.33577 34.274117 57.960976
35.25695 34.375244 57.99865
38.312618 34.330696 57.944275
81.995979 34.599335 57.981941
45.434807 34.733665 57.991207
47.153 34.873985 57.93433
51.127922 35.103626 57.972931
57.431648 35.456501 57.951527
63.663151 30.990681 58.094917
79.125572 31.6786 58.034424
42.60759 31.875519 58.021217
43.632248 31.83075 58.043274
34.330677 32.626915 58.089806
89.879387 35.083107 58.012802
57.97916 35.6805 58.019428
64.398994 30.835476 58.109985
39.737289 32.088791 58.127975
36.663601 32.206974 58.147896
38.297901 32.486889 58.123547
40.001362 33.022629 58.157234
38.297901 34.153183 58.130447
81.414627 34.52401 58.109459
52.480682 35.000061 58.191578
69.577599 35.520412 58.146652
59.25771 27.85058 58.221989
53.3088 31.472454 58.292995
45.184166 31.939352 58.242729
42.28196 32.1078 58.227509
41.322655 32.244244 58.289864
91.016708 33.251667 58.257729
35.964149 33.80072 58.2071
89.591446 33.874565 58.21801
89.512665 33.915146 58.22834
86.264465 34.094185 58.224033
37.855347 34.453873 58.28606
60.446819 35.456501 58.205856
61.427761 35.456501 58.202232
69.818626 35.45396 58.207096
72.637009 31.587435 58.330967
42.456799 32.25486 58.34161
83.029854 32.259228 58.33173
89.635414 34.617317 58.382618
61.491871 35.456501 58.381737
64.565819 35.6805 58.3069
45.503853 32.226284 58.450294
42.170975 32.454956 58.443356
43.78476 33.997833 58.479515
82.074257 33.960842 58.472172
82.610268 33.984795 58.444523
74.587189 34.452934 58.495895
73.238159 34.572899 58.481205
70.181427 35.222656 58.406872
68.39003 31.089947 58.599556
56.631149 31.497511 58.575912
39.00433 32.03252 58.545502
89.215775 32.251587 58.5481
79.936157 32.375885 58.51223
86.460266 33.08033 58.548103
38.531265 33.2752 58.545502
40.919029 33.355484 58.566437
85.337311 33.50465 58.519302
81.697128 33.687096 58.578545
89.27153 33.867897 58.548096
77.450668 34.119812 58.561317
89.281097 34.21793 58.548096
87.897797 34.332443 58.546444
87.620995 34.448143 58.523109
56.749306 35.042774 58.557934
60.071381 35.456501 58.554867
63.234497 35.456501 58.534447
65.739143 28.369219 58.615238
59.791988 30.990126 58.697094
60.635811 31.149212 58.696739
69.883507 32.001205 58.69445
48.680016 32.492012 58.673443
44.25116 32.932327 58.644314
45.762424 32.997078 58.688251
80.577026 33.045723 58.659706
46.868595 33.587208 58.695972
81.217575 33.545906 58.623383
60.578209 35.456501 58.614704
74.910645 32.517288 58.720306
45.840157 33.136719 58.700451
46.251865 33.220676 58.715164
47.023155 33.577045 58.702759
50.972839 33.781277 58.769394
52.86869 34.156998 58.718597
54.743156 34.129082 58.790462
64.020844 26.828489 58.864315
58.88205 28.340176 58.846878
65.360214 31.022728 58.820862
68.952187 31.872238 58.888985
54.614517 32.122299 58.877914
72.454269 33.043343 58.86591
50.72937 33.44952 58.81572
63.290657 31.060122 58.962814
55.491901 32.43383 58.999008
55.731789 32.995888 58.94838
53.782032 33.179462 58.910286
69.299789 33.442047 58.940727
69.801315 33.43544 58.928493
68.916168 33.749195 58.915428
66.88887 35.5466 58.946842
58.890221 35.6805 58.936314
61.452141 31.071861 59.007393
62.603451 31.073298 59.012852
63.654198 31.089146 59.073017
64.201881 31.080875 59.041615
66.286163 31.244209 59.057365
69.456505 32.70282 59.0625
59.540257 35.6805 59.010704
58.728203 31.101391 59.119499
67.587509 31.344976 59.170429
56.900249 32.781548 59.196602
58.359695 29.867828 59.289421
56.95586 33.233189 59.256397
56.473652 33.478188 59.292992
57.139191 33.458492 59.33445
66.884354 34.89315 59.303787
58.246296 34.911522 59.472733
63.904957 35.456501 59.485611
59.428509 31.213099 59.543587
60.09584 31.227043 59.596523
65.557991 31.37991 59.57251
57.877205 32.139923 59.549755
64.309143 26.949066 59.610912
62.8284 31.251629 59.689857
63.444988 35.456501 59.617474
61.219421 26.562878 59.780533
60.126427 27.074406 59.741814
65.277008 31.447685 59.76907
57.360359 33.536098 59.73418
64.67231 27.227722 59.86628
61.01313 31.448721 59.833733
58.075195 32.771378 59.820171
57.666298 32.988323 59.875614
63.616581 26.66107 60.006588
59.351547 31.93821 60.067516
63.28429 26.538624 60.140263
66.024742 29.019403 60.183815
64.75592 31.576941 60.106674
65.277893 31.951553 60.148293
58.786163 33.094208 60.148918
58.228371 33.822464 60.15218
58.849663 33.874165 60.155643
65.817543 34.127102 60.172501
59.409603 35.437099 60.120811
59.785065 31.493458 60.241478
58.662907 32.569416 60.284573
66.75798 32.844547 60.214668
58.31609 33.210796 60.210892
64.013069 35.342022 60.202785
59.195026 27.93227 60.334373
61.283794 31.45533 60.364067
62.135941 31.764973 60.311924
62.284897 31.829441 60.354179
59.387405 34.259617 60.350403
61.432373 31.513292 60.41275
65.752365 34.971691 60.418861
61.624535 35.069214 60.40284
65.911888 32.426888 60.517525
65.59404 28.180077 60.638824
60.246254 32.48278 60.67564
64.077278 32.830376 60.770664
65.681091 33.581249 60.795288
64.545135 32.261253 60.874901
61.087494 33.88158 60.817577
62.720234 26.464321 60.971905
64.093788 32.40239 60.933193
61.932854 34.754234 60.913879
65.053894 33.867729 61.093803
63.675812 34.006935 61.099819
61.711552 31.359489 61.137901
62.987236 31.914078 61.119499
60.574577 32.997398 61.119499
64.061386 33.003139 61.119499
64.641273 33.10498 61.119499
64.77404 33.370998 61.121704
62.31953 33.439335 61.119499
60.307316 33.521694 61.130478
60.301334 33.681526 61.119499
61.896107 33.736599 61.121395
64.677238 33.987167 61.103321
58.852409 28.378798 61.200661
63.109947 35.853371 61.279491
61.118755 31.164921 61.378113
60.241066 32.090843 61.3465
64.490303 32.12944 61.38905
61.252739 35.828472 61.344803
63.781609 31.251678 61.436333
60.915993 30.879906 61.594921
59.82737 35.02512 61.556267
61.44326 30.50547 61.65184
62.378601 36.386868 61.667652
65.466377 33.463051 61.777077
64.58345 35.746391 61.974026
62.420006 36.554596 61.968567
64.833618 27.351492 62.053555
59.654057 27.436893 62.075188
59.164753 27.971727 62.067493
59.550194 35.288757 62.021729
64.290611 30.345428 62.15416
65.059998 35.466599 62.175541
65.843941 33.832623 62.22543
63.135258 36.721081 62.398945
