# .PCD v0.7 - Point Cloud Data file format
VERSION 0.7
FIELDS x y z
SIZE 4 4 4
TYPE F F F
COUNT 1 1 1
WIDTH 239
HEIGHT 1
VIEWPOINT 0 0 0 1 0 0 0
POINTS 239
DATA ascii
0.37199709 0.077319644 0.071537822
0.43072492 0.064020716 0.05751266
0.37573704 0.14464483 0.047619026
0.44923651 0.14412412 0.051992521
0.39048997 0.21532977 0.0188915
0.44923425 0.25497386 0.033933517
0.4457809 0.31762108 0.020867877
0.055334978 0.46766964 0.066319615
0.11845677 0.46828836 0.069292054
0.043437317 0.54658979 0.034319494
0.1080016 0.52925009 0.051259607
0.062754586 0.64308131 0.034966532
0.10307278 0.64232743 0.044094674
0.067268886 0.71946156 0.029815899
0.35610187 0.077998273 0.15055493
0.43375778 0.072444893 0.12033367
0.34720081 0.14274429 0.14433248
0.45075569 0.15015344 0.13543431
0.3604396 0.21964434 0.14697306
0.42823806 0.22084117 0.15244618
0.05458758 0.4609938 0.13625538
0.13783415 0.46464366 0.14537282
0.047752246 0.55409801 0.13238718
0.1262452 0.56709945 0.14206916
0.11173898 0.6010412 0.11323201
0.39942116 0.086186126 0.2437683
0.34270439 0.14305109 0.26170599
0.44084698 0.15868816 0.25628605
0.34882 0.25853404 0.26806322
0.4337458 0.23497979 0.25498059
0.11949707 0.39616883 0.26756108
0.037954204 0.45898572 0.23154272
0.14666067 0.44353965 0.25083858
0.043489829 0.54162216 0.26322982
0.13256365 0.5394659 0.24419987
0.37058377 0.14968769 0.35230806
0.41605571 0.16490375 0.36061218
0.32688591 0.25068739 0.34776497
0.43498811 0.2455904 0.33778608
0.087912679 0.38666034 0.31904066
0.11020599 0.38918957 0.31193218
0.35535139 0.3222979 0.35222435
0.41806436 0.3223888 0.38028991
0.042614646 0.45417854 0.36966318
0.15091866 0.45024845 0.33211163
0.053276505 0.53051317 0.33469668
0.12028132 0.5294618 0.35953748
0.37197313 0.18213403 0.40005952
0.35454437 0.22824551 0.45567447
0.42408746 0.24874634 0.44220269
0.084380701 0.37964892 0.43784326
0.11723804 0.37502512 0.45967314
0.34037989 0.35430354 0.46377736
0.42141786 0.32646352 0.44877192
0.043174859 0.45837253 0.44544867
0.14814691 0.46169561 0.43276411
0.072360441 0.52608597 0.44438729
0.12235518 0.52077371 0.44125086
0.3645964 0.18425407 0.56989563
0.41248971 0.19736379 0.52893305
0.14616202 0.29940271 0.56607854
0.29657671 0.26122692 0.58711249
0.32636982 0.22158167 0.54720193
0.42755452 0.26664725 0.55240291
0.07133054 0.36459175 0.55254549
0.15221553 0.35420144 0.5360986
0.35325307 0.34200466 0.54495519
0.41327572 0.32887828 0.54852664
0.057696648 0.44661841 0.57293808
0.15761094 0.44566572 0.55207497
0.087647282 0.50836277 0.53860509
0.1230646 0.51369935 0.54003644
0.35818923 0.15219866 0.66627508
0.41280815 0.17984521 0.64886874
0.083178699 0.2938675 0.68943453
0.14775419 0.25746283 0.6380918
0.27212009 0.26478028 0.65590745
0.30291158 0.21555364 0.61925554
0.42080227 0.27323329 0.66802341
0.069440864 0.35714173 0.63357586
0.19165166 0.37239319 0.63793099
0.24313791 0.3249982 0.64821619
0.34571522 0.34245986 0.62974161
0.40930691 0.31758681 0.63863462
0.075555347 0.42690206 0.63967901
0.16121601 0.43006384 0.66629171
0.33781463 0.082323179 0.78844035
0.15972994 0.16493671 0.75509691
0.25736463 0.16740245 0.76740223
0.35268766 0.12630349 0.73165154
0.41109774 0.14039277 0.76843625
0.089160062 0.27835035 0.73130953
0.11315598 0.22564536 0.74752951
0.25622049 0.26245981 0.75028074
0.41812667 0.25531629 0.73611718
0.087348007 0.33878985 0.74411792
0.13925745 0.38551715 0.74682003
0.23900288 0.34178916 0.75766635
0.35852632 0.31820622 0.74065316
0.13852055 0.40976548 0.7180984
0.17778189 0.095286816 0.86202091
0.25634032 0.080749825 0.86545384
0.34620026 0.067511365 0.8595295
0.40151224 0.075384296 0.87387812
0.13558266 0.14454047 0.8528862
0.25965866 0.1528632 0.82924366
0.4180595 0.14384066 0.8362112
0.10689168 0.25742996 0.86323136
0.25483644 0.25072378 0.82163519
0.36762878 0.28988853 0.85719728
0.42991152 0.21211192 0.84720123
0.16244887 0.33549401 0.84698296
0.25617525 0.3203164 0.85518044
0.32599887 0.30840173 0.85858077
0.18098216 0.093619272 0.95610362
0.22891942 0.088836789 0.95252538
0.34922212 0.086259484 0.96606976
0.40239778 0.098170862 0.93274963
0.13217242 0.13728461 0.97102153
0.24958034 0.10605792 0.9794426
0.34196141 0.10484011 0.98454332
0.41772622 0.14660077 0.94594926
0.14919688 0.26060975 0.95788687
0.25749555 0.2979579 0.98024094
0.35485452 0.28299737 0.94762981
0.41514853 0.2320562 0.9383508
0.18019609 0.30181941 0.93023258
0.25362158 0.31350908 0.93045402
0.15354055 0.088491 1.0404063
0.25550959 0.074684553 1.0481743
0.34158388 0.068581723 1.06761
0.4008894 0.087523863 1.03793
0.12322973 0.15246335 1.0240444
0.23147377 0.10254332 1.0049363
0.36189988 0.10445889 1.0090581
0.42381549 0.16090973 1.0359651
0.14329465 0.25983912 1.0404724
0.25019664 0.29130301 1.0197765
0.37896717 0.29070297 1.0726833
0.41499829 0.24633177 1.0408392
0.26022798 0.31120452 1.0287126
0.33883029 0.31175959 1.0436987
0.1497637 0.068287663 1.1582053
0.23756035 0.042173821 1.1588103
0.3574113 0.058268305 1.1461535
0.055323005 0.18965618 1.1918585
0.11469146 0.16805048 1.1563872
0.41471085 0.15800692 1.1481328
0.062710762 0.2689006 1.1843482
0.13757402 0.25683463 1.1502491
0.23465484 0.29731327 1.1846471
0.35416883 0.28582439 1.1515758
0.40673831 0.2305052 1.1492211
0.08933609 0.32086873 1.1840472
0.13644376 0.32571545 1.1706688
0.25456479 0.30346611 1.1424489
0.33718944 0.30047855 1.1159167
0.24591056 0.55424958 1.1869606
0.33270264 0.57157266 1.1955948
0.14700249 0.04851013 1.2557797
0.25460428 0.017324932 1.2531834
0.36050749 0.031218672 1.2317374
0.40733063 0.074912161 1.2335025
0.069042042 0.15525717 1.2485248
0.11254816 0.15060048 1.2458922
0.41752285 0.168374 1.2504021
0.037058201 0.24230044 1.2513043
0.13335636 0.245005 1.2526808
0.24835379 0.27255642 1.2699121
0.37354398 0.25318733 1.2641815
0.41961789 0.23629914 1.2684461
0.081830017 0.37099153 1.2346923
0.13782744 0.35727119 1.2387344
0.37744328 0.34265354 1.276702
0.42375651 0.3304784 1.2845939
0.1563433 0.44369969 1.2639623
0.21213084 0.48652768 1.2707992
0.35666534 0.45269498 1.2858429
0.19130526 0.54622746 1.269766
0.24744438 0.55719554 1.2512345
0.32763788 0.57177526 1.2596637
0.26201198 0.6356377 1.239484
0.3042202 0.61880869 1.2694718
0.05349448 0.070604436 1.3768091
0.13322024 0.039998665 1.3399559
0.24138844 0.0079509001 1.3442888
0.34465995 0.010327482 1.3647816
0.42714676 0.048477706 1.3598379
0.028337317 0.15774824 1.3420177
0.12110201 0.17276931 1.3317378
0.38300642 0.16771318 1.3514376
0.43908253 0.14435785 1.3353524
0.082643084 0.23210923 1.3111389
0.14603667 0.23417854 1.3409445
0.25561559 0.25088939 1.3378581
0.36095145 0.25119659 1.3540694
0.4402343 0.23456098 1.3293109
0.35004553 0.36265817 1.3473165
0.42536262 0.34216085 1.337731
0.35403532 0.4557865 1.3334615
0.24724753 0.55096626 1.319046
0.32267803 0.54440957 1.3185138
0.29138619 0.61409175 1.3017915
0.07965222 0.066946179 1.4280384
0.16287951 0.058039829 1.4484072
0.23148346 0.034847632 1.4373502
0.35319647 0.054026682 1.4459356
0.43263498 0.056546248 1.4296347
0.086312123 0.12094951 1.4515712
0.13279834 0.15359822 1.4439683
0.2605595 0.16831568 1.4628663
0.36375508 0.15927149 1.4425615
0.4324072 0.13079403 1.4369224
0.17467269 0.20762321 1.4102211
0.22342606 0.21054524 1.4095527
0.42282414 0.21311979 1.4028873
0.19667733 0.072474301 1.5935374
0.25354123 0.057532705 1.5583328
0.3028363 0.069374897 1.5454855
0.19479255 0.15152243 1.5786994
0.24201241 0.14881951 1.5407714
0.31963626 0.14703621 1.5523138
0.25908732 0.21314722 1.5775098
0.18645394 0.06313365 1.6453642
0.24261749 0.036812477 1.6552197
0.32997087 0.062059827 1.630456
0.17599793 0.13859048 1.6463032
0.34374806 0.15610792 1.6512884
0.26696691 0.22025217 1.6589417
0.30253002 0.20480135 1.6106201
0.19044027 0.08445777 1.7055928
0.26739928 0.059136748 1.7333298
0.32765669 0.081530079 1.712224
0.191533 0.14778121 1.7147517
0.2411723 0.16526537 1.7449901
0.32946366 0.1500258 1.7181462
0.19645931 0.20568827 1.7203543
0.24439125 0.22253859 1.711205
0.3193422 0.21032575 1.7177566
