# .PCD v0.7 - Point Cloud Data file format
VERSION 0.7
FIELDS x y z
SIZE 4 4 4
TYPE F F F
COUNT 1 1 1
WIDTH 1613
HEIGHT 1
VIEWPOINT 0 0 0 1 0 0 0
POINTS 1613
DATA ascii
6.1996183 9.362833 12.024466
6.8519702 9.4029789 12.075758
3.6573124 12.75909 12.018362
5.4035497 14.245487 12.056842
6.0924749 14.338554 12.063986
10.691982 14.345423 12.050589
8.1857119 12.927845 12.164526
7.1020336 14.098536 12.121964
4.3342819 10.581553 12.211995
8.9086561 13.550071 12.278258
3.783741 11.299061 12.387215
8.3524609 12.365341 12.313748
13.219564 12.578901 12.3736
8.5205002 13.040884 12.353158
4.4760361 13.811184 12.347514
9.6572981 14.185848 12.31584
5.4338965 9.798502 12.408188
4.9895854 10.088047 12.409283
12.382677 10.581233 12.426963
8.3559895 11.951714 12.409814
8.3149328 12.303281 12.417488
8.461524 12.865169 12.448287
8.8434601 13.460098 12.405519
9.3324738 13.944818 12.454945
10.526377 14.37704 12.491662
8.2958431 12.383118 12.549555
3.8013396 13.29654 12.543285
5.0900507 9.8709507 12.660437
11.410027 9.8837128 12.683763
3.788929 10.943251 12.642248
4.9516039 9.9505177 12.779184
8.2940731 11.890363 12.799713
10.674179 9.298008 12.870539
3.3495312 11.73345 12.888864
11.22014 14.318442 12.828148
6.0244274 14.408178 12.880058
8.9388266 13.581785 12.987207
12.4323 10.498964 13.188633
6.0981956 14.420374 13.182739
11.299717 9.6761942 13.299519
4.8944879 10.069019 13.295054
3.139122 12.317651 13.231461
7.7512164 13.532 13.246284
7.4549847 13.856151 13.297785
8.5048046 11.132222 13.309794
13.403266 11.827089 13.353372
8.2770357 12.39189 13.391766
8.2636709 12.462997 13.355466
11.78082 14.035183 13.313463
10.421381 14.418137 13.354086
4.6118517 10.124103 13.524741
11.562726 14.169341 13.586828
9.6386967 14.226733 13.543627
5.4905262 14.401665 13.534777
8.7223549 10.674947 13.613281
3.3241925 12.604903 13.618868
7.0583763 9.4573298 13.741834
6.482285 9.2951441 13.809781
4.5774584 10.12801 13.884509
4.3656068 10.371494 13.819496
12.578437 10.45755 13.80781
8.2105236 11.372259 13.896309
3.3197765 12.584744 13.873176
7.3528981 9.8162909 13.968776
9.2432575 9.8826962 13.927902
12.922569 11.105125 13.954338
13.232634 11.546797 13.953596
8.3452692 12.169561 13.92838
4.0515075 13.63949 13.97921
6.340631 14.443042 13.904553
6.7402301 9.3837852 14.08381
3.6787801 10.987679 14.018261
8.459444 11.282371 14.015707
3.3528166 12.628328 14.094824
8.9243631 13.558993 14.004813
9.2663345 13.916069 14.040681
6.0827188 14.475458 14.022934
9.6277514 9.4354324 14.125874
9.4362059 9.6672678 14.122211
3.9550395 10.603924 14.131304
9.2671967 15.170305 14.157
8.2713909 15.262463 14.157
7.0479622 9.3417759 14.210176
9.8275986 9.3085938 14.278215
3.8039417 10.983412 14.224699
12.704703 13.577973 14.244225
8.5678072 14.915148 14.271964
9.7122202 15.491313 14.291832
7.3281012 15.653578 14.210554
5.2262592 9.7831268 14.335758
8.503809 14.894974 14.311845
9.9516964 15.849653 14.350626
9.7138786 16.043459 14.395251
3.9619083 13.593408 14.425234
10.874338 15.358242 14.485271
11.310582 9.6881981 14.509708
4.5000091 10.145326 14.517489
7.702415 10.19933 14.532996
8.9657335 10.176126 14.518197
4.1318426 10.37165 14.530136
13.458788 11.896022 14.541817
13.573432 12.157219 14.557434
6.660243 14.437288 14.52056
5.3386083 15.26516 14.569714
6.2599306 16.138538 14.562127
9.0629578 10.051012 14.636127
13.095205 12.943287 14.691002
7.4817019 13.812966 14.675706
5.2404456 14.772882 14.689455
4.8416686 15.644262 14.614128
6.0277972 16.18692 14.609024
10.207525 16.522316 14.680906
7.3612885 17.193098 14.636995
8.841917 17.24935 14.622582
10.386066 9.25735 14.71334
5.5969296 9.4011583 14.768864
12.282665 10.310936 14.743788
13.097053 11.322839 14.769197
13.205278 12.759333 14.720158
4.0724163 13.655678 14.759882
9.0617514 13.712881 14.757635
11.890049 14.05517 14.705095
11.28605 14.405903 14.775397
8.0186481 14.744699 14.795742
11.451989 15.963282 14.707535
11.185334 16.333151 14.775491
5.3915687 9.6249723 14.889636
13.478394 12.299166 14.866507
8.5408545 12.938778 14.89665
8.8991928 13.472303 14.874078
11.147118 14.48812 14.860669
4.3452115 15.225628 14.821114
7.2725849 16.799868 14.833817
9.2573366 16.815767 14.884481
10.798388 9.2222271 14.924774
9.892662 14.428839 14.979334
11.11279 14.70747 14.909702
6.8112383 14.878836 14.972452
4.6569085 16.126043 14.907367
10.83943 16.626513 14.95709
10.227657 9.2443714 15.094217
9.6127863 9.3434353 15.030839
11.203846 9.472271 15.087391
4.6689 9.9986553 15.064252
12.227545 10.25841 15.03833
12.665713 10.499668 15.033493
3.5656428 12.932341 15.061702
8.6674156 13.119574 15.017167
12.94702 13.172426 15.018276
6.1303005 14.50769 15.071486
5.4017758 14.741895 15.043
4.9520941 9.8977108 15.152111
7.8951626 10.56337 15.117519
8.4070587 11.696632 15.113223
8.8073263 13.315495 15.195023
12.835014 13.351332 15.152484
4.7276707 14.905792 15.18037
5.1663938 16.550528 15.180387
5.9357262 9.2077999 15.243521
4.4678555 10.211823 15.281657
3.7898576 10.789932 15.229906
8.2637987 11.787204 15.213518
10.927561 14.702147 15.2321
4.2654777 15.165052 15.219964
11.78815 16.491367 15.209927
11.238176 16.615128 15.22084
8.2730904 17.381256 15.220975
8.5157719 17.385344 15.239552
8.5299206 12.849943 15.371069
5.3655157 9.5995264 15.403282
11.632985 9.7280788 15.477793
4.0321355 10.414818 15.464204
3.1904891 11.895977 15.413157
7.3896046 13.851667 15.499141
7.3544006 17.11729 15.479985
5.8905439 9.258708 15.554926
8.701663 13.958994 15.541296
8.9351645 14.758072 15.502278
4.6536484 16.886047 15.569227
7.3797178 17.451649 15.562641
12.218068 10.106574 15.645328
7.4923663 13.75512 15.681469
4.8425608 14.125694 15.657336
12.052526 17.017174 15.651346
10.057338 9.1947737 15.789652
10.1396 9.1968546 15.704985
9.6789646 9.3885384 15.705194
8.665143 10.302658 15.788864
7.8284063 14.695765 15.771543
4.0000606 15.808419 15.720754
5.276823 16.674503 15.738918
6.0258694 9.1625824 15.830723
8.7556276 10.085785 15.811525
8.4694719 12.238365 15.849588
13.070912 12.846863 15.852623
6.9846172 14.220778 15.810705
11.063061 14.695377 15.825706
4.9853282 17.084066 15.88674
13.480042 12.19079 15.93358
13.410289 12.297115 15.94811
7.8289709 14.391743 15.904613
5.4504337 14.481976 15.900156
7.2925668 14.684299 15.947817
4.8425455 14.88226 15.968859
8.3270378 17.5243 15.986337
6.2368708 9.2303877 16.084551
3.819699 10.807003 16.013964
8.2271862 10.883931 16.02166
13.065139 12.478341 16.01725
12.764029 12.540647 16.000805
7.3077002 13.914431 16.036491
11.432365 14.355902 16.065716
10.332952 16.907804 16.076405
9.8572369 9.297307 16.173264
3.871264 10.741319 16.1367
13.192518 12.594808 16.168961
12.68426 12.783428 16.178879
8.0395021 13.031509 16.136347
11.867812 14.070198 16.191334
11.394024 14.779278 16.156067
10.598103 9.1293993 16.244205
8.8578014 10.344942 16.248577
4.8591814 14.876108 16.255646
12.312758 15.030489 16.279404
4.3020134 16.975771 16.217672
7.5287108 9.9026346 16.348701
13.149657 12.449765 16.397896
7.364244 13.791929 16.30336
8.659873 14.684301 16.301262
9.1703873 14.684301 16.348404
5.9796424 14.530098 16.414576
8.2618494 14.6843 16.458071
10.731104 17.176491 16.491608
9.3028393 17.357843 16.46228
6.9908476 9.2516174 16.556528
13.392958 12.291092 16.500956
8.6898937 12.873684 16.566198
8.9441605 13.272478 16.519314
13.351995 13.62998 16.587313
12.640117 15.703359 16.508385
4.0510759 16.360786 16.508625
7.826766 10.066095 16.602718
3.7517116 11.131433 16.605576
13.832162 12.303346 16.648874
3.4872494 12.535974 16.659552
4.3945079 13.791554 16.64031
6.8383498 9.282423 16.767618
11.591564 9.6891909 16.789589
8.1921511 11.784534 16.755146
11.684343 14.787752 16.721731
8.0395565 12.443514 16.881313
13.154927 12.51133 16.898014
13.532995 13.730566 16.879274
7.1463633 13.83029 16.804329
4.3763752 14.935907 16.816858
7.3113337 17.240337 16.880781
9.3352718 9.528758 16.92963
6.6003919 14.6843 16.979803
8.7485514 10.429249 17.046173
8.1138201 11.497401 17.098663
13.441125 12.022573 17.041782
13.140759 12.498758 17.076023
7.1580544 13.972562 17.070137
7.3460207 14.014208 17.07671
9.7532864 14.051611 17.000383
7.2979445 14.447609 17.060356
8.2199821 14.6843 17.002861
8.8509169 14.609786 17.06144
9.8220463 14.684301 17.006008
11.834023 15.847161 17.052013
9.3501596 17.295288 17.020145
7.005681 9.3626633 17.125687
13.850013 11.496444 17.18713
8.1596642 12.824505 17.164343
8.0745945 13.18354 17.15691
14.043139 13.714107 17.148167
9.5770931 14.616397 17.104792
10.815375 14.684299 17.103117
5.3481054 14.729377 17.169399
5.1807375 9.5962009 17.201561
4.1626577 16.529211 17.202623
11.771141 17.14534 17.258957
6.6866527 9.1157207 17.390251
9.759305 9.330883 17.390453
6.4374533 14.684299 17.331026
10.177118 14.812061 17.367573
7.9691477 14.944084 17.392954
12.504154 16.504995 17.33131
13.130412 11.538214 17.423786
3.3533173 12.167207 17.474979
14.659134 13.344521 17.460081
13.952409 13.577937 17.49198
6.2545886 14.791254 17.440966
11.702545 14.790577 17.463936
7.7392864 14.963115 17.437269
10.096033 17.28112 17.438606
8.4239216 9.2083187 17.535992
13.868696 11.257879 17.530687
13.844669 11.318285 17.581184
14.703146 11.561357 17.528549
3.2802582 12.040079 17.540539
14.113907 13.221621 17.580469
4.529798 13.811398 17.545708
6.9296193 14.6843 17.545301
6.424293 14.8464 17.505672
12.429937 16.67523 17.537779
6.6736689 17.281366 17.546555
10.26229 17.37096 17.575506
14.915009 12.647435 17.619505
12.7317 15.140198 17.69912
11.391426 17.360023 17.694456
11.477937 17.337902 17.69062
9.2374001 17.522995 17.623894
8.362895 8.9785471 17.766293
6.0102997 9.1003819 17.748537
3.8959596 10.906008 17.752443
8.2928486 14.684299 17.778469
7.0030475 15.036611 17.736616
12.657576 16.329197 17.744446
4.3430171 17.110813 17.733149
8.9952965 17.523571 17.743259
10.464744 9.0815411 17.822369
11.710968 9.7699852 17.813032
13.81304 11.105295 17.860519
14.14158 12.661619 17.881926
6.435298 14.6843 17.860699
12.526562 14.789709 17.831371
9.1719131 15.076559 17.884237
4.6916175 9.9624271 17.947924
6.0489306 14.684301 17.916361
9.3020411 14.684299 17.948278
9.468154 15.106436 17.964426
8.2042103 8.9738007 18.033768
3.8391714 12.92501 18.074234
3.9973292 13.213762 18.051149
7.1688766 17.483585 18.081844
9.2047014 8.9236593 18.171061
5.760325 9.20397 18.173542
11.385939 9.5421162 18.141855
12.009802 9.9990625 18.134457
8.3276157 14.6843 18.145943
10.934834 14.64881 18.117525
7.567338 15.175478 18.158308
8.0996752 14.6843 18.270336
9.7635565 14.684301 18.254898
10.646352 14.822847 18.282055
6.3703485 15.676653 18.240887
3.6214495 12.469229 18.392467
15.126475 12.915377 18.371147
3.9872849 13.147629 18.344257
4.0701318 13.295421 18.353296
7.612565 14.6843 18.354275
7.9401121 14.684301 18.311081
10.693564 14.684301 18.365604
11.427626 14.747927 18.391548
3.7104616 15.089451 18.329353
8.605155 17.5243 18.34856
3.4186623 12.078039 18.47282
15.047153 13.222317 18.43169
8.3365088 14.684301 18.447227
3.9340496 15.946588 18.485498
11.463808 17.179604 18.419407
5.2231088 9.24617 18.538332
11.686804 14.079855 18.539078
8.630497 14.684301 18.589462
6.8994317 15.096587 18.536263
10.182676 15.692471 18.580055
4.2491517 16.727398 18.593412
9.7283831 17.280012 18.547443
11.383724 9.2354822 18.624609
5.0106974 9.8064508 18.661144
5.4336443 9.5632381 18.77582
4.304822 13.505638 18.784386
8.8180933 14.684301 18.732573
10.580167 15.700922 18.760509
4.3316188 10.320496 18.80414
12.545458 10.713896 18.89229
14.471317 11.230143 18.807819
11.443623 14.275314 18.83316
6.1330948 14.684301 18.870718
7.6491437 15.25021 18.867929
4.072463 16.322565 18.855536
7.3592157 17.50172 18.867859
8.3058128 8.8610926 18.902374
13.806372 12.285341 18.931328
12.724521 12.995855 18.969942
5.6124949 14.68836 18.989332
12.469476 16.647833 18.988058
9.8186741 17.160954 18.99724
8.1592264 17.5243 18.97673
11.472226 9.271347 19.096594
11.214998 14.421665 19.095871
10.731675 14.7684 19.025908
6.7775364 15.714539 19.054722
5.0542159 17.248289 19.007303
8.2415562 17.5243 19.062855
3.5556731 12.145629 19.123566
5.7343688 14.620993 19.175957
10.199181 14.684301 19.188896
10.451754 14.8519 19.102798
5.8400297 9.3800087 19.21126
11.519119 14.192116 19.26297
6.9709892 14.684301 19.216642
6.5264573 14.943692 19.274164
6.8411975 17.112782 19.227276
7.359303 17.480532 19.289406
10.328426 9.1091499 19.357847
12.251321 10.404454 19.361717
4.2236567 10.691433 19.384985
14.001904 11.124947 19.304884
13.090355 12.156798 19.305622
11.933582 13.827617 19.333893
11.640767 14.093489 19.312382
8.7991276 14.6843 19.31419
12.108654 13.589392 19.431959
3.3774576 13.947248 19.405499
4.6974173 14.894357 19.472086
12.377172 15.117601 19.486862
10.72754 15.732087 19.427433
4.9538565 17.208588 19.482471
13.090837 12.213291 19.532619
4.1520014 13.047495 19.585657
15.048629 13.283792 19.540993
5.0768108 14.095026 19.599037
7.6316795 14.684299 19.509491
8.9720106 14.6843 19.542469
4.5764985 17.083496 19.546425
9.5002861 17.089516 19.575558
4.76652 17.148577 19.597776
8.4524889 17.5243 19.510429
6.4830022 9.0315876 19.629951
15.368526 11.700903 19.685499
3.5964737 11.88187 19.620514
14.349524 13.24209 19.686163
13.089737 14.640977 19.624411
4.5469961 14.959593 19.668514
5.8143616 17.002956 19.670689
6.3609295 9.0842209 19.731068
11.768801 13.933516 19.726971
5.8476386 14.6843 19.742729
9.7744827 14.6843 19.769981
11.552586 14.819101 19.768433
11.959044 14.92085 19.782602
9.2978697 17.437153 19.733608
8.6757917 17.5243 19.75996
10.560792 9.2067451 19.81189
11.343506 9.821393 19.83869
12.345178 10.789303 19.864208
14.191639 11.098162 19.853176
3.5294361 12.1 19.833977
3.859787 12.656138 19.862661
11.701427 14.855334 19.859949
10.698746 15.751862 19.850742
7.4064584 17.107878 19.894302
7.2674356 8.7981968 19.90057
12.692683 12.806168 19.965872
14.05958 12.968857 19.975311
15.200953 13.105864 19.968693
8.7761984 17.5243 19.978498
15.007716 11.108933 20.054214
5.7426233 16.757038 20.074615
9.3733931 17.065136 20.055935
8.5642471 8.7969036 20.153425
13.029967 12.221237 20.19582
12.712401 12.785665 20.187712
7.1444263 15.087543 20.174736
9.046545 15.152465 20.140726
6.2429171 15.751385 20.153566
10.706102 15.749611 20.182133
6.4658298 9.0042753 20.256248
6.1982679 14.753415 20.243172
8.4096737 15.230115 20.216349
9.3703966 17.014145 20.281763
11.489382 14.063048 20.394089
6.5191154 14.768593 20.36079
8.5642843 15.192553 20.301289
4.2846613 16.80551 20.325136
8.6963024 8.5426645 20.42951
8.7855711 8.5708189 20.409639
15.383994 11.30529 20.418367
10.741696 14.585543 20.487286
4.2895565 16.810736 20.427015
7.955884 8.1146421 20.592911
8.6912346 8.2452736 20.500862
9.0145645 8.6945477 20.568712
6.0027761 8.8319874 20.57036
13.715599 10.829727 20.54574
13.662666 12.276176 20.558945
5.7358856 14.469654 20.535664
10.760142 14.575838 20.504036
8.7984209 14.713568 20.579889
11.963415 16.628187 20.527359
6.2217565 8.6260929 20.609159
6.815361 8.8223572 20.604692
5.5072622 9.1306915 20.626514
10.781805 9.2665415 20.660439
10.947811 9.4179935 20.602051
3.8954887 10.135382 20.689051
12.791919 11.723107 20.637093
12.661934 12.71242 20.653442
4.2004094 15.346643 20.6574
3.9795012 16.104151 20.64999
10.09708 8.4877596 20.778175
11.396973 14.090792 20.737988
8.2401009 14.722298 20.735317
10.099778 14.777531 20.735214
7.5241852 15.037936 20.715271
11.176018 16.613594 20.762192
7.3532839 17.120062 20.708469
7.3948803 8.0176029 20.852966
9.7857323 8.0985413 20.840746
6.7330117 8.1040487 20.87089
10.987007 9.4333076 20.831867
13.238 13.318433 20.81732
6.6051474 14.86117 20.841743
12.609161 15.574812 20.886251
5.7056074 16.648823 20.807638
9.4665651 16.870417 20.806263
5.7497587 8.4752531 20.968761
12.100735 9.750268 20.975416
4.2760124 10.181285 20.996992
12.175627 10.692192 20.942326
13.391907 12.552834 20.913149
14.499908 13.07057 20.944889
10.768966 14.495424 20.944136
4.8674655 14.870278 20.94931
3.4650986 10.444763 21.070723
12.357679 11.108767 21.019045
15.677771 11.328297 21.028328
10.208515 14.688799 21.013054
11.261967 14.74374 21.055161
7.2179942 14.896024 21.096174
6.362504 15.664469 21.007187
6.6928835 15.662035 21.013428
12.477779 9.883812 21.133276
14.56982 10.392404 21.131207
4.0860901 11.594454 21.106853
10.402444 14.806347 21.18751
7.260304 14.912239 21.183075
7.7884479 14.999676 21.164021
8.1772909 15.073773 21.107122
12.026505 15.01137 21.178701
4.6573229 9.3710384 21.239182
5.2215438 13.996418 21.262665
11.295265 14.096084 21.2939
9.0742044 14.876626 21.246407
11.684217 14.894937 21.238239
7.6310816 14.92367 21.25989
11.944279 15.523409 21.283295
4.6718082 15.652814 21.295441
4.6474257 15.782846 21.225304
6.0022297 8.0797615 21.359539
12.192987 9.4495687 21.391401
5.5525894 9.5451174 21.351099
14.093954 10.221601 21.327065
12.807854 11.161241 21.392616
4.0524516 11.202729 21.307323
12.769235 12.35202 21.396177
3.2548971 12.564861 21.338821
13.367029 12.75446 21.304148
8.4842052 14.764787 21.360779
8.3712835 7.7614746 21.475506
10.996569 8.2358265 21.429914
14.411918 9.8796129 21.400179
11.961637 10.40077 21.411451
12.87271 11.690194 21.482733
15.777523 11.827779 21.441816
10.751846 14.737015 21.416695
8.8751163 14.857281 21.473656
10.077228 14.870882 21.446732
10.83727 15.60579 21.4561
6.2918262 15.960539 21.45421
8.3011303 7.7226787 21.558758
8.4556026 8.1646299 21.599079
13.530164 11.637466 21.555325
12.495373 12.935877 21.553171
6.3450184 14.897219 21.508648
10.303542 14.944347 21.511992
6.5308681 15.210228 21.560398
10.224947 15.817886 21.544142
7.36237 16.199921 21.554628
7.6678581 8.2630844 21.651806
15.788426 12.027472 21.67498
5.7345629 14.308764 21.671368
7.9381771 14.893511 21.615196
9.7336054 15.432126 21.633396
7.0225182 15.579185 21.653259
9.9908314 8.5522413 21.723623
12.042154 9.0671158 21.798203
4.3355417 9.3636465 21.707233
4.4576645 10.841052 21.702042
3.4859917 11.703069 21.729998
3.0916765 12.052974 21.728846
13.537462 12.221768 21.781336
11.067665 14.200302 21.793221
9.1290731 14.694429 21.757532
9.5483055 14.704195 21.709496
7.7758722 14.955179 21.721893
8.6336746 15.214218 21.7729
10.463563 15.590734 21.744381
9.1590824 16.021547 21.7729
8.4594955 7.3935328 21.89982
4.8585105 10.251591 21.851494
3.9057291 12.092185 21.870955
15.506081 12.54999 21.851114
13.96663 12.844395 21.861214
6.1859035 7.6268802 21.978441
6.30093 8.7178049 21.996147
7.1950908 7.3472519 22.013674
11.594831 8.7036171 22.020773
10.50296 8.8157616 22.027172
15.545459 10.353929 22.052677
15.663742 11.445988 22.030373
3.4160352 11.532326 22.038971
10.661978 15.528437 22.039396
8.2920532 7.3577495 22.182962
9.6082783 8.2272892 22.145061
14.547147 9.4034424 22.109472
3.5965486 10.334377 22.120155
13.277714 11.731414 22.113752
7.5928698 7.1824064 22.221615
6.2884293 7.524056 22.281876
10.269693 7.6401653 22.20673
11.759401 8.6547136 22.250233
10.748222 8.9388676 22.233698
13.282478 11.386407 22.29105
4.5571303 13.444882 22.284441
10.084393 7.2773867 22.371593
5.7214394 7.6844215 22.318893
7.956234 7.8807607 22.382339
7.9550214 7.9100008 22.323988
5.2305188 8.0195932 22.310627
10.228957 8.4721537 22.324383
15.78413 10.563957 22.382238
13.254084 10.98144 22.354446
5.6968451 14.177536 22.324524
7.2738638 14.501462 22.362804
7.500061 14.513262 22.334282
8.7150478 14.506399 22.373943
10.269185 8.4294815 22.438614
15.468102 9.8603897 22.451063
5.0106201 10.063826 22.435209
11.776615 10.248357 22.404577
11.944149 10.415758 22.427402
6.5734839 15.367664 22.401505
10.649468 15.371258 22.4147
9.9182644 7.1223755 22.559696
5.2610688 9.648386 22.561571
15.241642 12.245144 22.56883
14.53007 12.631805 22.549402
7.7876921 14.451344 22.543358
10.046734 14.59654 22.527496
8.4532394 6.9677906 22.676498
11.23993 9.3722162 22.607552
14.910774 9.4247198 22.603958
10.714031 14.527048 22.641155
8.9244804 6.9097748 22.700771
4.2890692 8.5617037 22.716757
11.405668 9.5589905 22.70789
13.236238 9.7083073 22.790895
15.981139 10.802497 22.734062
4.4219503 11.027805 22.754051
5.0100307 14.340433 22.71512
10.864353 14.52372 22.766155
6.6706219 14.73056 22.727661
8.4113798 6.9366393 22.862623
3.4249349 10.175013 22.826498
13.832349 10.728783 22.846561
4.340065 11.198271 22.863869
13.770396 11.218271 22.80283
15.80394 11.346387 22.819466
13.377667 12.098883 22.884003
12.87936 12.109855 22.831264
12.402588 13.038731 22.871553
9.8676395 14.305708 22.872475
7.210968 14.809937 22.889915
9.1019449 6.8124099 22.947056
8.2770576 7.6120815 22.924334
6.6945167 7.8964796 22.981306
5.6906896 8.6816359 22.965126
3.0354359 10.193782 22.975344
2.8263388 10.552151 22.948776
3.3233702 10.580235 22.984758
13.784143 10.775132 22.989323
12.543109 12.742223 22.930231
13.030794 9.2305326 23.037949
15.756926 11.368393 23.066456
3.8623693 12.222328 23.043873
12.246074 13.871244 23.01646
5.7844377 13.982594 23.050514
7.6822438 14.213626 23.096111
6.9875875 14.632017 23.05349
10.713494 14.649888 23.013529
6.8399682 6.8070784 23.193064
6.1725473 6.9910989 23.197506
4.2559872 8.3272276 23.188337
11.456158 9.3186531 23.148628
11.550941 9.4686308 23.159668
15.670851 10.053584 23.157637
13.623505 11.507608 23.159595
4.1832576 11.75283 23.171581
12.419876 12.173468 23.16869
15.073792 12.281914 23.180458
4.7419014 13.193724 23.151226
11.964787 13.993399 23.193594
7.1822515 14.680599 23.187069
11.032627 7.2519565 23.276955
8.9738445 7.4678836 23.277748
9.4007034 7.5943804 23.238316
11.801157 7.6889081 23.242477
5.0196385 7.7770123 23.299007
4.6582208 8.1988373 23.29281
3.3985422 9.8059578 23.260248
13.29535 9.9839811 23.296551
15.66761 10.035472 23.224302
12.157451 10.780139 23.272633
12.315232 11.162279 23.250034
15.731982 11.363084 23.227507
13.083166 11.599242 23.260021
13.198664 11.782857 23.259941
4.2219634 11.944671 23.233456
4.0980096 12.631912 23.253523
12.350599 13.429182 23.2901
8.3003044 14.552113 23.241226
7.959528 6.5896363 23.375233
5.6371288 8.5139055 23.311438
11.99779 10.24756 23.329247
15.787099 11.160107 23.301788
13.031967 11.505922 23.384281
13.215778 11.800898 23.365984
12.404691 12.028864 23.314899
4.1356211 12.703197 23.305428
6.2569122 14.975883 23.350504
4.2495403 8.1846819 23.424545
12.664299 8.6815472 23.483374
11.537905 9.2934637 23.405434
3.1727257 11.231544 23.443901
12.445048 11.462516 23.453463
4.63556 13.88789 23.408243
9.8260698 14.654218 23.457787
8.9970169 6.5300932 23.568161
9.8437843 6.6476583 23.56052
8.3365049 6.8112869 23.573948
11.381632 7.223567 23.554678
6.0801544 8.0068769 23.546545
11.120124 8.5133867 23.546707
3.6711547 9.2337017 23.58573
13.026646 9.8048086 23.582401
15.787781 10.23246 23.573587
3.1985908 11.842622 23.558735
10.991371 14.067199 23.523949
10.307968 14.539518 23.588131
7.7816982 6.4874988 23.66057
5.0444684 7.8136096 23.649323
6.1852298 7.8739605 23.638645
12.756258 8.7072411 23.621937
12.828545 8.7829208 23.607372
12.87458 11.181827 23.630354
7.1075497 14.242089 23.624353
9.5487061 14.280839 23.645298
5.8271399 14.382506 23.697083
11.156309 7.0410414 23.72966
8.7461634 7.2061281 23.702023
11.586689 7.2720766 23.702614
12.041656 8.0392141 23.727327
3.6955175 8.8418674 23.755293
11.853698 9.5534201 23.79851
12.15756 10.576261 23.70627
15.509448 11.739985 23.73885
7.340457 14.620167 23.744469
8.7460403 14.654003 23.792593
8.3340759 7.0471978 23.820925
15.305957 9.5022459 23.853989
13.361275 9.802949 23.819611
13.462944 11.172066 23.838114
12.736797 12.046673 23.885389
3.3663733 12.192007 23.840336
14.619234 12.319469 23.861952
4.5626903 13.695472 23.810888
6.0205989 13.625589 23.855625
6.438096 6.5279613 23.931934
10.074043 6.530539 23.994871
8.4688568 6.9840117 23.917736
5.066565 7.7432618 23.92313
3.5915661 11.386469 23.976452
12.915221 11.675358 23.964804
14.802068 12.116218 23.987265
4.2095766 12.615156 23.996075
10.163216 14.439661 23.947596
8.6518917 14.59787 23.950153
11.049592 6.9626379 24.000147
11.584291 7.7233834 24.00807
11.612283 7.7535973 24.047817
5.3769174 8.4171753 24.061188
13.980982 8.8891735 24.098095
3.3551207 11.881211 24.081245
10.091576 13.708237 24.013428
8.6655264 13.829821 24.000816
9.1159754 14.547199 24.031441
10.632458 14.662594 24.082668
6.5101833 6.3806877 24.195213
7.3636403 7.0490818 24.117195
6.6627192 7.2281427 24.122902
11.588081 7.7108374 24.176746
11.099964 8.0888958 24.106932
5.2447257 8.5569372 24.174232
12.820471 8.5284634 24.152983
7.8847518 13.771974 24.15299
6.7340374 6.3063965 24.23838
9.3545227 7.0093184 24.209839
12.576114 8.2682905 24.229914
14.250156 12.14483 24.212212
13.020676 12.636858 24.2481
8.275507 6.3780065 24.34292
5.3643427 6.9837213 24.384617
9.8477688 7.0244002 24.377636
11.63576 7.2388816 24.320969
3.2902505 9.4771795 24.328213
15.213354 9.4705677 24.397451
3.1919374 9.9837761 24.321377
3.5814555 12.497553 24.322706
4.2162375 12.497864 24.354944
5.1017199 13.058079 24.378082
5.2974253 13.167967 24.389154
5.0102811 13.761359 24.398087
8.1931534 6.2280855 24.48152
8.8718233 6.2015862 24.453056
5.4747496 6.8756647 24.478605
5.4940109 7.9820895 24.407619
4.66014 9.5062342 24.490562
5.56181 13.227091 24.433847
11.664988 13.732384 24.449318
7.7486601 14.417423 24.447617
10.710207 6.5863676 24.556292
7.3062778 6.8349724 24.518785
12.13575 7.8024282 24.520176
12.297335 7.9358025 24.504185
11.805381 8.9140015 24.579996
15.106756 11.595485 24.594084
13.094673 12.371028 24.53824
10.525037 13.372484 24.518101
10.134377 13.502659 24.542175
8.8216829 5.2898526 24.670094
9.039957 5.5718603 24.63406
7.0243888 6.0338306 24.698338
7.1425858 6.0369921 24.641994
8.3103943 6.3598804 24.650093
10.350183 7.1411438 24.620075
3.1054983 10.378951 24.689224
3.1449771 10.776119 24.642673
4.2489977 11.032571 24.651592
9.9358158 13.50033 24.679855
5.6904554 13.810717 24.62607
9.1966572 6.6551991 24.780363
11.183893 7.8123055 24.70225
5.1544514 8.3381433 24.701412
13.41095 9.4581432 24.776716
12.361684 12.818573 24.776255
6.7278132 13.480179 24.736746
7.8757753 5.7829356 24.839914
8.9004908 6.5981741 24.805767
9.6243868 6.6378794 24.801403
13.245923 8.7356319 24.848969
4.6249609 9.2688465 24.847979
3.5185471 10.951915 24.836842
3.6293221 12.389732 24.869732
6.576129 13.434141 24.806894
7.6463284 14.270525 24.83218
7.4181347 5.8174734 24.964502
6.777195 5.9759474 24.94787
6.8385606 5.9402189 24.987644
10.627139 6.9971776 24.975363
10.883612 7.2961774 24.914173
3.5315342 8.8393288 24.961824
15.089919 9.3731823 24.951239
5.1160159 12.884105 24.923761
1.9493866 4.5679092 25.053968
1.751441 4.8397655 25.05468
8.1691036 6.0266123 25.080843
5.9386091 7.038044 25.015377
10.777811 7.1686139 25.016424
11.367872 7.6835051 25.050787
11.683596 8.3503551 25.038473
13.495239 9.7764339 25.044771
15.480049 10.529121 25.084585
3.6061311 12.274605 25.045956
6.2330108 14.230268 25.055103
0.94421387 4.475462 25.127029
9.3135214 5.1709127 25.138931
8.4412537 6.099474 25.14489
6.4836497 6.5242147 25.130032
10.639596 6.9470925 25.17462
4.6477957 8.9207535 25.133177
5.0391717 12.779577 25.126184
8.0245419 13.447204 25.189398
1.5367184 3.676409 25.2822
1.3857241 3.902554 25.227867
2.4608388 3.9457731 25.29254
8.3517981 5.5017023 25.298113
9.3108807 5.5960321 25.283035
10.909021 7.0947351 25.206812
11.283607 7.4508505 25.252319
4.2377515 7.76197 25.254333
14.769334 8.993762 25.255184
15.229724 9.6108656 25.21909
4.1935015 10.578299 25.235409
15.379514 10.647248 25.252968
4.0365577 11.795033 25.269964
8.3216724 13.80728 25.262669
2.0229015 3.4285054 25.363564
2.6860156 4.0370412 25.311794
8.5669556 5.9857373 25.356306
11.345345 7.5016379 25.34304
3.4938276 10.736262 25.33164
8.3434715 13.871273 25.358492
9.4830818 13.974649 25.398638
8.9215183 5.0057487 25.449947
2.2097325 5.4046612 25.43248
1.0065368 5.7521505 25.422531
1.9228082 5.9409127 25.417477
6.6113424 6.152977 25.409189
10.99338 6.4636168 25.420275
13.25605 8.1746731 25.495443
13.085346 11.481594 25.471355
12.193016 12.070154 25.477701
11.099723 13.498967 25.455149
11.228482 7.3561454 25.596622
12.529799 7.7605071 25.522064
0.49111438 3.9935229 25.638241
6.8476629 6.2824869 25.679832
7.1889687 6.3296409 25.671516
9.5002232 6.422101 25.677917
3.6396351 8.1590433 25.694262
4.7094383 8.4183235 25.650686
12.128594 8.9161205 25.630482
14.997276 9.3938265 25.668953
12.664289 11.242664 25.642025
12.680147 12.735659 25.659393
5.6687155 13.297672 25.660398
9.3809566 13.24033 25.649914
10.545088 14.004148 25.660316
8.8647251 6.2820377 25.702793
12.582927 7.726965 25.799725
13.555588 10.353271 25.717613
12.784931 11.281964 25.743162
5.6941705 13.400776 25.782825
7.4134879 13.89883 25.757622
7.516078 13.930826 25.711048
1.1745446 3.3271275 25.803652
8.4495945 4.842742 25.897606
0.28198475 4.9879789 25.849325
10.865857 6.6261625 25.851551
11.448259 7.0217671 25.839577
13.394084 8.1020308 25.810028
13.394602 8.9946899 25.840187
15.314417 9.9004669 25.826254
12.020137 10.564137 25.800432
12.254812 11.905666 25.895281
10.628432 13.966807 25.872799
2.5737889 2.5558805 25.988976
3.7078207 3.9775982 25.978466
3.5790768 4.3746862 25.957329
8.23176 6.1934681 25.938351
2.2144229 6.513422 25.995968
5.4838037 6.8344469 25.912132
11.3943 7.0302968 25.910263
5.4223776 7.192451 25.962206
11.854767 7.3305922 25.94561
14.33666 8.5939045 25.93082
11.92983 10.399074 25.911736
3.8062928 11.08507 25.940613
12.412241 11.993999 25.938894
3.8996294 2.5828478 26.061165
8.8282681 6.2134018 26.072674
6.6791711 6.3888588 26.096058
10.765893 6.8681769 26.084352
12.749511 7.9204259 26.00145
3.7159398 8.0667572 26.099268
11.766125 8.8859167 26.080637
11.696564 10.142325 26.050657
11.739231 10.21092 26.088779
3.6927865 10.833372 26.03134
4.1535516 11.426252 26.024891
4.565804 12.112868 26.002975
9.2495651 13.150831 26.018703
7.1004233 13.412683 26.06876
7.0818033 13.503135 26.098183
2.9369121 2.4362764 26.190517
9.0914192 5.4236665 26.136631
2.0938065 6.6584973 26.135893
11.535772 7.5332389 26.194286
12.018066 8.2978392 26.119068
4.4574375 8.7986708 26.146381
14.490486 8.8278942 26.190708
14.954689 9.4627695 26.134638
12.498934 10.305795 26.15897
4.3049097 12.03866 26.161812
4.6042042 12.135939 26.149382
11.895392 12.335179 26.142635
5.6942248 13.26862 26.148388
10.085725 13.908901 26.197086
1.0482353 3.0876954 26.295647
4.5886898 3.1135182 26.230722
7.8844662 5.4518857 26.210976
3.2836647 6.3223538 26.28867
11.485226 6.9655843 26.262138
4.6514759 7.202384 26.209513
13.196257 7.9309616 26.295424
13.977111 8.27215 26.270058
13.320457 8.5307121 26.238916
4.1255741 9.8746614 26.290695
4.1947432 11.457073 26.281309
13.329845 11.475925 26.215363
11.783779 13.004972 26.26791
11.214056 13.275644 26.262947
7.1075335 13.305054 26.258232
9.672204 13.602976 26.2248
7.4882684 13.719169 26.280405
2.8072333 2.4141321 26.335781
0.018676732 4.4355922 26.319857
5.4932728 6.6146374 26.397991
2.1305807 6.884737 26.319792
11.750772 7.0103626 26.33602
3.593853 8.4860649 26.361223
12.139251 8.4494181 26.33779
3.371563 8.7740841 26.393076
11.500366 9.4428053 26.322479
11.63884 10.140003 26.302591
11.837864 10.5139 26.383591
3.7942209 10.909027 26.357351
7.6106839 13.700597 26.380558
1.1946285 2.8516283 26.466545
4.4274712 3.6489689 26.466534
4.0560536 4.4511175 26.409302
8.2491627 5.9918656 26.478916
5.7145872 6.4738398 26.486851
12.704308 8.1816292 26.47753
11.515013 8.6263056 26.427795
4.1799088 9.5662651 26.451279
12.50077 10.335439 26.495708
12.5658 11.216455 26.464928
4.3258567 11.620703 26.415943
12.461487 11.680809 26.488176
11.207736 12.61682 26.429882
4.7166739 12.854259 26.416576
8.618125 13.079077 26.46019
0.19177678 5.7679739 26.572544
3.8250716 6.1920195 26.561878
7.0489926 6.2204967 26.534761
14.833067 9.3997707 26.508385
14.880968 9.4745407 26.53476
14.776026 10.500198 26.555422
6.8440914 12.953163 26.532692
9.4137383 12.975071 26.571005
5.3508625 13.149065 26.582281
4.7783113 13.310596 26.564983
6.0750794 13.422498 26.506765
10.416609 13.846313 26.553749
4.8518896 3.8185003 26.679178
7.2302866 6.2298203 26.683342
10.943618 6.4527369 26.605751
11.123088 6.9312568 26.674601
11.215561 6.993679 26.636642
12.794884 7.9189458 26.687397
12.521991 10.092587 26.666521
13.325308 10.053859 26.654514
12.473751 10.748477 26.654516
12.863771 10.813747 26.619049
3.8967788 10.986388 26.684612
12.847188 11.301126 26.634018
9.2734528 12.972923 26.620245
10.981255 12.952339 26.614988
3.5344715 1.8038765 26.76878
3.1003327 2.2639406 26.732861
5.4072385 2.2213163 26.768511
5.1553974 2.7370169 26.764999
4.4272032 3.6118901 26.766968
8.680378 6.0637021 26.733841
6.2452006 6.5175185 26.742685
10.662967 6.6498756 26.782822
3.945323 6.7303591 26.782097
5.4276495 6.9808669 26.718147
4.1759577 7.3195982 26.732239
3.8469286 8.0863714 26.762756
14.071327 8.2068377 26.784134
11.307873 8.6025143 26.755222
11.303283 8.8125868 26.705437
11.347036 9.8767481 26.732452
12.471271 10.891514 26.745651
5.8826523 12.683782 26.766521
4.6929731 12.706911 26.778183
5.3207364 13.065026 26.769264
10.245231 13.413752 26.734295
7.2178831 13.512693 26.738914
0.43259656 3.6364155 26.866896
0.12136968 5.1003942 26.896748
6.2379537 6.4916291 26.860544
13.228316 9.6460409 26.839211
13.01879 11.292242 26.893551
9.9331932 12.855315 26.870916
4.5512257 13.128207 26.801069
7.3210521 13.482306 26.86381
10.017273 13.785955 26.89389
4.3642535 6.2990961 26.918037
11.058877 6.7344723 26.957123
12.793091 7.4380774 26.952377
12.806236 7.5653248 26.914991
13.13308 7.6175122 26.973396
3.8754008 7.911891 26.937489
11.097969 9.6964016 26.963871
13.805685 11.222822 26.914238
6.6230998 12.821593 26.971424
8.7366238 12.916895 26.9692
4.5923185 13.109377 26.905619
5.7472124 13.151672 26.949631
2.1834748 2.4013987 27.086195
5.7147789 2.4796429 27.097927
3.852097 5.4835768 27.029354
4.2252069 5.9077301 27.069523
9.1416893 6.1356359 27.020136
7.1545978 6.2021565 27.065575
4.2896886 7.1550298 27.088448
4.4597912 8.199749 27.037388
3.5594826 9.8897524 27.06867
12.359348 11.712166 27.065708
4.3052235 11.849422 27.044651
6.471941 12.793689 27.035667
10.855772 13.143812 27.086094
0.67706716 6.2848969 27.182289
6.7812881 6.2135143 27.114803
10.609585 6.2117548 27.184666
5.4733934 6.8509727 27.126022
11.481388 6.888196 27.168217
12.97942 7.6045022 27.132153
11.005251 9.6139984 27.105129
11.49486 10.298946 27.164019
10.029137 12.780392 27.129017
5.5737381 12.896602 27.131666
7.0174322 12.810421 27.122784
5.538517 13.342009 27.185928
5.1295223 1.1300358 27.246134
3.9260809 1.6897013 27.24301
7.7671943 5.5979013 27.25622
5.01684 6.7224832 27.245243
12.082628 7.7791734 27.275547
11.318228 8.3953342 27.297991
11.601256 10.460124 27.216541
12.035166 11.649137 27.240917
6.5269251 12.719697 27.258633
8.0366154 12.835391 27.25811
9.1696892 12.807234 27.224695
11.24435 12.955265 27.205271
5.7095752 13.361917 27.245872
7.9346294 5.8233728 27.363369
7.3171902 6.098906 27.316385
6.0106864 6.2076678 27.310329
4.464324 6.8374763 27.387096
1.3246582 6.9501443 27.345118
3.9451585 7.5426607 27.359238
12.056358 7.5721173 27.310093
11.872009 7.7070179 27.320812
11.236931 9.996294 27.320438
14.370077 10.52172 27.350716
6.6208239 1.5767961 27.475323
3.2003937 1.784501 27.422676
5.2540879 3.3859456 27.453465
9.6674776 6.1594076 27.465014
10.634363 6.3808584 27.461676
5.0918636 6.6877356 27.4522
11.583585 6.6806135 27.438875
13.674085 7.9024153 27.416365
11.450297 10.31975 27.414404
4.2004452 10.751804 27.41687
11.782463 10.734804 27.451656
11.405226 13.144725 27.436769
0.70070934 3.7851329 27.596581
0.21342501 5.1126022 27.504225
8.3205681 5.7205944 27.502897
7.7582073 6.0832481 27.571224
6.8367739 6.1889558 27.533876
6.5506897 6.3208666 27.510727
3.4721677 8.5901394 27.508217
11.403856 8.5372734 27.515972
3.4896905 8.8019676 27.590429
4.1165962 8.8033857 27.599751
4.046205 9.1363697 27.507057
4.1397495 10.201635 27.535328
4.9004879 11.913633 27.58271
4.4391756 12.236975 27.570848
11.083845 12.253776 27.549145
5.2483234 13.104723 27.593222
5.4007921 13.163307 27.515751
7.1406221 13.103916 27.534378
6.0307369 13.340666 27.54137
6.0472608 0.77612042 27.633516
6.3085456 1.9391181 27.608454
3.3902752 2.3056054 27.643503
0.75963962 3.6767373 27.610218
4.1916347 4.3342738 27.643621
9.1508131 5.7205758 27.692938
12.006858 7.4136167 27.61816
13.74976 7.9874501 27.680975
4.3698959 8.1296043 27.684715
4.6012411 8.2480021 27.667336
10.669401 9.3286581 27.654221
12.049676 11.401975 27.615477
4.3927078 12.192172 27.604729
7.0613818 12.971905 27.664204
9.8322449 13.142432 27.615707
7.5796337 0.27874312 27.741573
8.5811443 0.73372573 27.781902
8.6494179 0.71797174 27.717939
0.96744609 3.7905626 27.77541
6.337079 6.3636279 27.716385
10.544535 6.4057207 27.743782
12.202183 8.0665226 27.705572
11.447237 9.6570244 27.712368
4.1344557 11.072554 27.788584
11.491474 11.964863 27.783245
8.3238525 12.876259 27.753036
8.4029961 13.123367 27.749966
8.2501831 0.22146453 27.824787
7.9289846 0.32567701 27.83807
3.8436658 4.5820789 27.85421
3.202035 4.9322648 27.872576
3.9999158 5.0903397 27.899397
11.232898 6.5877328 27.890362
1.6219044 7.3582382 27.878922
13.518881 7.6914139 27.849834
14.470306 9.5495338 27.897396
12.591805 9.6929541 27.844
14.247225 10.052292 27.89159
13.567015 10.839971 27.834789
11.124954 12.659384 27.880606
7.0648422 12.894251 27.86445
10.159609 13.292523 27.848713
6.6037827 1.857241 27.909576
6.9846525 6.2512016 27.922649
12.165766 7.5569944 27.924471
3.2486997 9.2328711 27.985191
12.260798 9.8626194 27.948826
13.664426 10.793915 27.953754
13.312613 11.027117 27.906643
11.719358 11.76324 27.975178
4.3558612 11.804146 27.989742
12.340083 11.973211 27.965197
8.0301647 13.138202 27.956524
11.364582 6.6009212 28.062981
4.9337511 6.7430782 28.007582
11.729231 11.711411 28.044449
7.2494192 12.448094 28.073973
10.212166 12.92808 28.079338
7.2257414 13.039853 28.040836
9.1210918 13.088413 28.031475
5.8077025 0.91202444 28.138821
3.4398217 2.0481532 28.189489
2.9531975 2.185523 28.141592
1.8693988 3.2728138 28.168015
5.3519449 3.2065935 28.196259
2.2379291 4.1901813 28.171715
6.8854904 5.3367105 28.193533
8.7204895 5.7512693 28.169741
8.5998278 5.8270593 28.173546
4.7101169 7.047049 28.111231
12.769744 11.078047 28.171644
8.5046196 12.494648 28.165869
11.478979 12.482832 28.149673
11.537647 12.462751 28.109802
9.1450052 13.037639 28.161358
8.0282211 0.10867026 28.2971
2.0674267 4.0551801 28.260542
5.309648 6.2979527 28.2742
11.478453 6.6103296 28.223217
4.7818542 6.8881998 28.269413
13.863052 10.477453 28.212448
12.535443 10.961236 28.232363
12.037098 11.168121 28.246136
4.5162349 11.962792 28.254047
11.101227 11.957915 28.202137
9.0708723 12.999609 28.295546
2.9902022 2.462163 28.35252
2.5054164 4.913229 28.34148
4.6928053 5.6355662 28.330896
10.501524 6.0399146 28.30727
14.075221 9.8904247 28.338791
4.1387386 10.242428 28.308514
13.122335 10.839914 28.325253
13.255797 10.832878 28.307671
7.7379942 0.25021124 28.463951
4.5673122 3.8176379 28.422157
3.1898789 4.6627893 28.464893
5.228394 6.3430223 28.415869
11.832804 6.3283734 28.494278
4.2406011 10.796945 28.450521
9.6238766 12.240853 28.495289
9.5522766 12.628095 28.496456
6.2293744 12.754223 28.44956
6.8459864 0.4976458 28.568172
8.9698277 0.85825431 28.592838
3.6619253 4.2603869 28.522604
2.3396087 5.0493345 28.598846
1.3562886 5.8781352 28.596764
3.5919464 9.9872303 28.550625
11.626758 12.085145 28.565727
10.435612 12.993082 28.551434
7.4346333 1.0166901 28.625471
7.1369491 1.4244496 28.658257
4.867218 1.9921174 28.60845
7.0174847 2.300281 28.692856
6.9521751 2.4200647 28.647194
3.6696134 3.7608075 28.665751
3.126215 4.8748384 28.665329
5.195838 6.5659428 28.658401
13.85523 7.9432545 28.611189
7.0056047 12.686284 28.622141
7.3592854 1.124783 28.718124
4.0834942 3.3755419 28.750576
4.5516405 6.1976519 28.706844
13.924594 9.9934187 28.738058
3.9760599 10.204221 28.741055
13.235401 10.608697 28.763596
4.6792583 11.370302 28.749222
11.877146 11.442908 28.723061
5.6993074 12.281088 28.788263
6.0098391 12.57507 28.797709
7.0508804 12.534164 28.774456
7.395072 0.34710273 28.887093
8.4916515 1.3381135 28.802721
3.7688024 2.9668102 28.810535
5.4011092 6.5995245 28.808762
13.545221 7.3669252 28.828199
12.651516 10.629173 28.85524
12.413008 10.96358 28.836166
11.573508 11.586964 28.861956
11.793706 11.645082 28.851467
5.9032459 12.518531 28.883293
8.3205204 1.495976 28.963676
7.5169668 1.9794464 28.958824
7.2494669 5.4900317 28.931694
8.0943909 6.0242639 28.965748
5.2784567 6.6110101 28.919373
7.4321394 12.081096 28.965244
9.000721 12.769712 28.925116
9.292757 12.727208 28.948448
10.629674 13.389015 28.965048
8.8071842 1.3608115 29.09544
8.3166027 2.4796705 29.07498
4.7566586 6.0936489 29.026175
9.4212341 6.2656541 29.070969
10.162402 6.4750242 29.07716
6.0475879 2.3499949 29.125374
6.1061153 2.4672172 29.12575
3.6371214 5.2088251 29.141933
2.8017004 9.3235483 29.109226
8.4116325 12.055261 29.177748
9.2433815 12.007681 29.165298
9.6350727 12.389074 29.16017
4.5473948 5.5892568 29.23188
7.6266603 6.1598635 29.232512
2.0860105 6.3846736 29.261887
1.9471854 6.5268316 29.218283
13.77036 7.6210513 29.220942
2.4357047 8.7341709 29.215378
3.6479335 10.462396 29.265886
6.5791764 11.889504 29.273754
8.4885492 1.011488 29.329153
7.6216402 2.5026615 29.362226
8.5777521 5.541029 29.372307
6.6915045 6.1795273 29.327467
5.1210718 6.7526169 29.34148
11.724886 6.7558017 29.327835
2.0098553 6.8307509 29.37369
2.2903109 7.934978 29.359812
5.5489597 11.601616 29.300243
5.857543 11.654306 29.31361
6.1592169 13.252851 29.350254
11.302646 5.7850304 29.437004
6.9203768 6.3882957 29.411682
4.3745093 6.7009182 29.411682
10.939287 11.998569 29.406973
7.3328691 1.236243 29.501982
7.9642239 1.5949938 29.529467
3.002183 5.7254329 29.545332
11.231345 6.5369983 29.511112
2.5698366 9.1169138 29.542974
4.7853918 11.637079 29.508043
10.990899 11.896768 29.569519
7.1293039 6.0514979 29.672579
5.105278 6.5745349 29.671095
11.585705 6.5509739 29.65522
7.3019528 11.785095 29.678349
9.5626926 11.803542 29.623846
7.6891994 1.500322 29.795723
10.066133 5.4793534 29.754951
4.2503009 6.6861024 29.717216
10.339131 6.6970472 29.774109
5.3264647 6.8992257 29.71669
14.083329 8.4509354 29.750099
5.4662251 11.793701 29.784233
7.2902145 12.225986 29.739004
6.6358762 13.026743 29.726078
7.0150814 5.2175193 29.805952
8.7788401 6.0483108 29.812195
10.212898 6.6268377 29.855888
11.246351 6.7271647 29.8263
11.381771 6.7275577 29.836311
5.9116955 6.8685007 29.87332
13.7969 9.7553701 29.833813
6.9146008 11.685952 29.858967
5.139358 11.710867 29.817551
7.1720166 11.714138 29.818586
6.2820816 11.942418 29.884003
8.9376411 12.300603 29.858625
7.8316984 12.50226 29.817566
7.0598803 5.3998032 29.929283
11.016261 5.8921986 29.936821
5.6275358 6.8000698 29.987167
2.4458854 7.364337 29.94841
13.341593 7.3512344 29.980789
11.554822 11.446762 29.960861
10.328394 12.893908 29.946915
7.3125839 5.7167912 30.067913
6.0359936 6.8791885 30.04673
13.170422 7.1340227 30.043333
2.5410643 8.6094952 30.061169
3.4608772 10.195559 30.03208
5.7029028 11.505885 30.048954
9.2131977 11.844297 30.057892
10.132535 12.82539 30.060825
6.3905811 5.7400923 30.176624
9.9781857 6.6405439 30.162457
11.535264 6.8701086 30.111704
2.6601028 8.8795586 30.161032
3.9881606 10.795962 30.10906
6.5172076 11.526191 30.121212
7.9864812 11.593858 30.110683
5.3198953 5.5689125 30.217731
7.9131513 6.1160707 30.208801
7.56779 6.3900928 30.211052
2.5605388 8.5865383 30.246372
13.708899 9.1191216 30.235813
4.3896708 11.137671 30.243889
6.2243366 11.431032 30.284275
10.556046 12.708101 30.255817
9.1041327 6.5980673 30.390049
9.9540939 6.7177668 30.335155
11.224204 7.046124 30.363087
11.047938 7.1447449 30.362328
12.835328 7.3838797 30.340616
5.0676498 11.336222 30.31576
9.5500622 11.375681 30.395485
6.1201138 11.408312 30.317341
11.459952 11.54353 30.357269
11.66131 11.545946 30.331192
9.9114571 12.622789 30.397646
8.5801744 6.1801167 30.44656
10.644903 7.1463318 30.454254
2.5827818 8.5040798 30.411316
10.999541 11.572232 30.405405
7.7057476 11.647717 30.473839
7.3663893 12.037445 30.431219
9.2541103 12.062002 30.411936
10.500799 6.0337276 30.597109
4.5447388 6.4194851 30.575687
11.836165 7.4861898 30.592783
5.2613716 11.240793 30.55418
7.8536677 11.628015 30.521004
8.3912134 12.186806 30.551929
11.336378 6.9028215 30.66024
3.357398 7.2451091 30.642054
4.7740364 7.3371334 30.609051
2.7570419 8.6449823 30.623627
5.6164942 11.17756 30.696075
9.0698643 11.211407 30.693684
11.055307 11.224304 30.610262
10.990808 11.437092 30.602041
6.4774513 5.5624075 30.759836
4.6968136 6.6079359 30.787195
9.8148212 7.0238271 30.705776
5.5489144 7.3827434 30.742565
13.223145 9.5942411 30.705351
3.8281541 10.227777 30.72489
5.3258595 11.110773 30.743969
7.4592233 11.19945 30.714233
9.5854778 11.159101 30.783873
11.29047 11.329302 30.761589
9.774641 11.427515 30.733459
9.6506329 11.714608 30.730516
7.2040081 6.8666763 30.878479
4.8775692 10.698868 30.897209
9.2615023 11.122684 30.851524
10.615579 11.110806 30.849674
6.2367597 11.289536 30.847221
10.016631 11.359985 30.806416
8.1413841 11.461662 30.829039
10.943816 6.3691959 30.904844
11.389115 7.5797801 30.914982
13.486351 8.3540936 30.930357
11.924797 6.3470082 31.008278
9.5726805 7.192802 31.040943
11.38287 7.6842484 31.026571
11.698174 10.877844 31.093403
11.006707 10.980878 31.079197
8.4762993 11.325082 31.039295
7.1150255 6.3588848 31.134878
5.3145466 6.7501497 31.138882
9.5760765 7.1026716 31.11743
12.218316 9.8530521 31.195679
5.2409029 10.763573 31.183613
6.010952 11.858067 31.11871
6.7732048 6.6716132 31.237251
6.4860191 7.4206915 31.260239
5.1195736 7.6559267 31.267857
3.502584 8.3891544 31.2208
11.721016 10.061007 31.263773
11.021571 10.350983 31.242853
9.6965675 10.886897 31.277769
10.300583 10.880079 31.204807
9.9917307 6.413343 31.385321
9.6001415 6.5948906 31.313862
9.559885 6.9117279 31.368317
6.6635404 7.5970993 31.301628
6.7174745 7.5950208 31.319054
9.9011946 7.5929756 31.330513
11.545921 8.0929308 31.376574
4.0098028 8.4640532 31.323448
5.1602039 10.214624 31.398182
11.601761 10.521317 31.308495
8.5028114 10.604362 31.333138
6.8193555 10.763796 31.322271
9.4697218 10.785286 31.361917
7.3272743 5.7960725 31.40733
9.4242496 6.6076107 31.485336
11.677029 8.4346638 31.438463
5.0629196 9.0311766 31.484396
11.966629 9.1412067 31.437088
11.099256 9.4741907 31.403673
5.1167169 9.7713718 31.442474
5.4394269 9.8240738 31.473804
11.223207 10.092779 31.460733
6.5365701 10.253446 31.44051
7.9863663 10.466744 31.41396
9.0851269 10.432204 31.406235
10.006538 10.487811 31.441231
11.012674 10.641359 31.416458
6.0716429 10.723008 31.477211
7.6183853 10.905206 31.406988
10.792899 7.959981 31.514807
10.805422 9.5408859 31.557289
9.6003656 10.097664 31.512604
6.1584687 10.178062 31.50806
7.4190917 10.302871 31.569237
8.6070576 10.302747 31.516758
5.4436922 10.456517 31.52426
9.2315998 10.438555 31.540857
9.0155897 10.671141 31.519016
8.1807156 10.785572 31.548
7.8885336 4.7040243 31.636145
9.6119738 7.2411036 31.679079
4.9540243 7.4579949 31.655455
11.255123 8.1877222 31.609446
5.0954885 8.491291 31.668316
5.206007 8.4953747 31.61165
5.8892918 8.6068497 31.640488
10.93162 9.2200165 31.609276
6.6702271 9.8768244 31.660927
7.5729618 9.9200258 31.682858
8.4116879 10.244228 31.646664
5.8590689 10.500057 31.612837
7.0794144 5.5060658 31.731613
4.3660583 6.0175953 31.775524
9.5309515 6.9022636 31.719053
10.765266 8.2550659 31.754101
6.157548 9.0568008 31.777782
6.1164718 9.1351395 31.751194
7.7009244 9.5654793 31.714405
11.607099 9.5283613 31.792526
7.0066462 9.6863937 31.738237
8.313549 9.6496239 31.777584
5.319643 9.8324871 31.796581
7.8175535 9.8488903 31.716076
10.949137 6.4903331 31.841547
10.436637 8.2243137 31.814869
11.635829 8.956892 31.847189
7.8479404 9.3780251 31.846256
9.6421261 6.6791263 31.925526
9.4529562 7.686986 31.943106
9.6742983 7.7120061 31.90012
9.4548483 8.889637 31.984488
5.2045507 8.9427109 31.972286
7.376977 9.0552101 31.931847
6.816771 9.1217146 31.906219
9.6826401 7.6571302 32.090359
9.5111294 8.2175808 32.009586
7.4658151 4.6880012 32.134747
6.3425102 7.1147633 32.116844
6.9193554 7.9121461 32.172684
6.9054203 8.3399305 32.181133
8.2303486 8.9763546 32.120602
6.9744134 6.3190098 32.230515
9.466815 8.711194 32.258617
8.1270533 9.1533585 32.275101
10.867266 7.2404375 32.371349
7.4303427 8.2989063 32.361671
5.9969454 8.3926764 32.375732
8.4019375 8.8378124 32.304352
7.8617716 4.5172319 32.421425
3.9983723 6.4929695 32.546658
6.89431 6.8621931 32.544334
10.779914 7.4106655 32.500938
7.5174413 8.3842278 32.546246
7.9503188 8.3782663 32.589615
6.4234018 8.6439333 32.566051
