# .PCD v0.7 - Point Cloud Data file format
VERSION 0.7
FIELDS x y z
SIZE 4 4 4
TYPE F F F
COUNT 1 1 1
WIDTH 1610
HEIGHT 1
VIEWPOINT 0 0 0 1 0 0 0
POINTS 1610
DATA ascii
1.643484 10.804609 7.7946072
9.0891161 11.915321 7.7721257
9.3928108 8.3825388 7.8965526
4.5564075 8.9995251 7.8398728
8.1602516 9.0016327 7.8657012
4.7880044 9.2214432 7.8899522
1.7935122 10.33792 7.8373246
10.34869 11.613817 7.8399444
3.576416 8.295557 7.9630022
9.5314569 8.3270483 7.9096012
4.978663 9.407464 7.9096088
7.5638752 9.6985836 7.9978213
5.3122206 9.7302065 7.9890227
5.1471968 11.076074 7.9469709
7.9390249 11.214327 7.9819498
4.6800089 9.0856667 8.075841
4.9955282 9.4097204 8.0033426
7.5692019 10.514093 8.0353947
5.1786218 11.033959 8.0444422
7.8644848 11.11248 8.0851345
3.3784633 8.1254644 8.1818085
10.397096 8.8289051 8.2813807
8.0066156 11.280804 8.2745676
4.4893456 11.746533 8.2447662
9.1499548 8.4534445 8.3114214
2.9768431 8.5185213 8.3535404
5.0891523 9.4499941 8.3338165
7.4330683 10.199436 8.3788662
10.972544 10.326965 8.3214359
4.2054558 8.669857 8.4574432
5.1295915 9.4698715 8.4561157
10.699554 9.4135733 8.4911795
5.3814673 9.8703442 8.413496
5.4393387 10.339135 8.4308949
10.426292 8.866972 8.5343809
7.8230023 10.99945 8.5701342
8.3783455 11.60689 8.6602068
5.4216108 9.8276243 8.7844934
10.863871 9.909337 8.7522554
10.795229 9.586401 8.8418322
10.820999 9.7311449 8.8807325
2.2788613 11.406879 8.88729
3.58815 7.9650297 8.9952259
9.9860859 8.3242569 8.9614105
7.4850478 9.9520683 8.9168501
4.2603011 11.780014 8.9850788
8.6909161 8.6408176 9.052331
5.4718075 10.179296 9.097785
5.4770327 10.423394 9.0900927
2.9029737 8.6082478 9.1870575
3.9024625 11.904208 9.1774149
8.1169481 8.9309845 9.2926407
5.1316776 9.4326935 9.2838125
11.062837 10.382877 9.2012358
4.892458 11.359564 9.2834454
8.7590199 11.765148 9.2560635
9.5416784 7.9292183 9.3359766
1.7932253 10.722911 9.3977566
5.2622299 11.056238 9.3757524
3.1802886 8.3483038 9.4803753
7.7571273 11.059476 9.4919815
11.136426 10.360472 9.5157118
11.189099 10.47099 9.5376034
9.5451355 11.654234 9.5497446
9.5378904 8.0350275 9.6844444
1.9617529 9.7972507 9.6010628
9.7230368 11.604126 9.6518221
3.3838332 8.1440992 9.7123566
9.6066666 8.1486568 9.7911005
2.941453 8.5861464 9.7161503
2.0444133 9.6153431 9.7532835
5.5538893 10.65983 9.7984505
7.6119504 10.934127 9.7860031
9.6185389 11.62644 9.73596
10.424368 11.388941 9.8826752
4.5268545 8.4930992 9.9364843
10.334052 8.8987274 10.028078
7.8694615 9.223362 10.048409
7.7456961 9.4563065 10.059145
4.0968475 7.8836088 10.153165
9.5962868 8.1812162 10.185707
2.8963499 11.52194 10.177515
5.2094707 9.4134588 10.238187
1.749796 10.011954 10.298612
7.6089144 10.959757 10.224431
10.616796 11.148663 10.356794
3.9819586 11.655596 10.320449
9.5868301 8.1273155 10.478028
7.8370304 9.0657368 10.466497
10.632332 11.129036 10.49264
3.0366306 11.538121 10.444747
3.7865524 11.688977 10.489166
3.3902194 8.0734806 10.522129
5.2824259 9.3981218 10.547078
10.718644 9.3109131 10.548846
10.75461 10.932175 10.508055
9.8404169 11.450279 10.690392
3.1150539 11.537216 10.691862
7.5238028 9.5105066 10.742851
7.3078938 9.9556675 10.760935
11.201814 10.2186 10.781111
2.7234116 11.335032 10.777962
8.0671253 11.320165 10.73308
1.8926244 9.7427025 10.834801
5.1382356 8.9361849 10.91939
5.6354403 10.453083 10.935816
2.8032763 8.5582561 11.084749
5.2169676 8.9854908 11.05665
7.6347103 9.1416016 11.005006
2.1651874 9.3192081 11.047833
11.015493 9.7027674 11.001048
1.9096336 10.557362 11.012911
9.0160685 7.5502143 11.161687
5.3029389 9.0766058 11.162296
8.0583744 11.369 11.133452
11.246148 10.138865 11.245902
5.271059 11.174538 11.214744
9.6020527 11.604836 11.204737
4.4173012 7.7432208 11.366306
3.4330835 7.9585934 11.458181
4.6721611 7.9779501 11.448411
2.2569451 11.07868 11.450709
8.0999222 11.42757 11.427898
5.2152596 11.263135 11.506794
9.4404449 11.779887 11.574079
3.564959 7.8260007 11.663059
2.5719695 8.7180214 11.634771
5.7769136 10.02742 11.676538
10.717373 11.059464 11.659565
3.4147925 11.803432 11.648564
9.2888565 7.7581654 11.736107
8.0245132 8.1267233 11.713129
5.4647255 9.0393763 11.799536
10.997905 9.5976954 11.714752
7.1198092 10.068934 11.789604
7.725821 11.307169 11.713157
10.325855 11.301778 11.74624
5.0165424 8.2491617 11.836013
10.849188 9.3602571 11.850854
5.4404607 11.098372 11.88637
4.7263231 11.535422 11.846863
4.1262627 11.705087 11.868183
4.783905 11.523125 11.905932
4.5124717 11.621337 11.924152
9.7351093 11.659767 11.908738
4.0690851 11.719525 11.908887
3.9151828 7.4821343 12.079446
11.207491 10.194057 12.091619
7.5194917 11.160141 12.066834
10.436089 11.254253 12.02107
8.6451235 7.5262818 12.149129
3.5703437 7.7876687 12.180246
10.78833 9.2285843 12.173634
2.2975736 11.108769 12.140224
4.6158977 11.614484 12.139803
9.076438 7.5310688 12.275316
3.5438683 7.8028593 12.251254
5.5733438 11.003504 12.275143
8.9207659 7.386292 12.335628
9.4270096 7.83705 12.31093
4.8835363 7.9192615 12.331577
5.5084662 8.8456268 12.308549
2.1550779 9.1741676 12.372742
11.148417 9.7370129 12.340756
3.0552881 11.641773 12.38726
10.738647 9.1187248 12.46531
7.1852942 9.4582863 12.457283
5.8637371 10.202724 12.463222
5.0296164 11.504814 12.410927
9.422946 11.881609 12.465824
4.7764816 7.780417 12.527658
11.08735 10.399218 12.590637
1.9921039 10.69053 12.518322
2.8225107 11.481543 12.558577
9.3172083 7.6993895 12.665124
7.6712842 8.2102184 12.615721
10.145802 8.4268026 12.607114
7.6525369 8.1959591 12.735427
2.4291351 11.189775 12.727699
2.8120766 11.468554 12.767033
3.7537417 11.865561 12.733105
4.503593 7.5458231 12.808762
8.2198095 7.6538167 12.833391
5.7594719 10.781734 12.832979
3.6642845 7.6134329 12.920127
7.1602869 9.0414362 12.986919
7.4649429 11.21755 12.980473
4.4860382 11.771678 12.919257
4.1237245 11.839578 12.905991
8.4419785 7.4979 13.011984
10.976971 9.3920689 13.05181
1.8266752 9.568327 13.051405
5.8757982 9.5014067 13.05492
5.8496685 10.510853 13.081839
4.022748 7.2691979 13.125998
4.2115488 7.3366833 13.179588
4.9069147 7.7807751 13.122194
4.9851408 7.8460541 13.148053
3.0503654 8.1188869 13.138426
9.9417648 11.566105 13.155616
7.635838 8.0481806 13.267941
10.199334 8.3846197 13.274755
5.6629395 8.7043715 13.248229
1.8407919 9.5131874 13.292374
11.313628 9.8588829 13.296953
11.085954 10.373193 13.228151
2.4097755 11.139149 13.269167
4.5338817 11.785607 13.200495
8.3389473 7.4883885 13.379181
2.7192121 8.3823442 13.322414
10.170691 8.3487396 13.353212
2.2427731 8.9212999 13.300014
6.9443512 10.0597 13.358083
4.4576511 11.831177 13.361465
9.27351 7.5409369 13.479704
9.5109234 7.7644873 13.414425
1.7984678 10.259122 13.499182
3.427588 7.7391014 13.503162
9.5542307 7.7851086 13.53821
9.692008 7.9009075 13.570177
10.300263 8.4337072 13.555811
10.826424 9.1024885 13.530572
3.9574578 11.919717 13.537482
8.8116016 11.905115 13.603481
2.1531739 10.85426 13.822168
4.9446669 7.6317348 13.968195
5.3401346 7.9079189 13.995179
6.964694 9.2097797 13.92663
11.312244 9.8619709 13.911406
5.9140215 10.636013 13.956631
4.4797034 11.886587 13.937119
3.7640929 11.927567 13.993866
3.7396684 11.926415 14.026806
4.271492 11.923837 14.042717
8.7412291 11.934124 14.026253
4.0947084 7.1828113 14.11434
3.8481133 7.2464719 14.189869
10.728587 8.8653927 14.184368
11.1882 10.051729 14.124985
8.1872654 11.823373 14.189142
3.120132 11.562088 14.272214
10.798698 8.95152 14.302866
6.9198294 10.397412 14.357178
5.5932078 8.121851 14.457602
10.560138 8.5838213 14.422667
6.9032412 10.351012 14.427821
4.5721822 11.905973 14.407298
3.7006631 7.3414621 14.527959
2.3256099 8.6184216 14.569139
11.025486 9.2800741 14.526407
2.6063633 11.13186 14.55671
5.6401949 11.286373 14.584368
4.9912529 11.795059 14.558918
8.5335484 11.938078 14.595595
5.311419 7.711041 14.689713
7.3958106 7.9428415 14.660112
5.6129751 8.0831432 14.681984
1.8764923 9.3042068 14.618883
2.2801976 10.882906 14.668814
2.002284 10.430696 14.78529
3.3047769 11.675367 14.704309
9.7681713 7.7871232 14.836795
2.7184005 11.195021 14.867041
9.9202881 11.424314 14.839681
3.0931845 7.8355885 14.960356
2.4337449 8.4015236 14.979841
5.6885166 11.270922 14.930873
5.53441 11.495031 14.947283
9.413455 7.4851618 15.090918
3.1058378 7.8235569 15.016987
7.0107622 10.944628 15.084577
4.5431118 7.2803011 15.103828
7.810317 7.4622674 15.133472
5.2623339 11.769941 15.10832
8.7191553 7.200819 15.205219
9.9292183 7.9097586 15.266941
7.0480051 8.3539925 15.212937
6.1006074 10.204796 15.291191
2.3183541 10.847261 15.233237
7.014751 8.3611259 15.355158
10.802359 10.559501 15.353291
6.9326077 8.4552402 15.48203
6.8316927 8.9352551 15.409172
10.911047 9.0020037 15.490747
6.1654482 9.9386168 15.477195
10.296513 11.109588 15.451492
4.5166006 7.2006035 15.562832
6.8567104 8.6821671 15.580339
6.7707357 9.174222 15.570695
6.2219348 9.560771 15.56878
6.8181353 10.294509 15.595665
2.9753261 7.6990662 15.696611
2.8672094 7.8231516 15.658384
10.362633 8.1354437 15.653025
6.2049994 9.7892866 15.633965
5.8065548 11.179045 15.687346
8.3417168 12.006375 15.660863
5.781251 8.0234737 15.720127
10.136541 8.0286541 15.772118
2.6307259 8.1428804 15.792284
7.5848346 7.4385009 15.841503
3.4021819 7.5546646 15.856588
6.0808225 8.6159439 15.802896
2.0846713 8.857234 15.845458
10.957865 8.9943819 15.804188
10.357903 8.1708717 15.943962
2.2018197 8.5787182 15.900959
6.2325268 9.3820133 15.977565
5.9539042 10.972408 15.997063
3.1595335 11.562126 15.992967
6.1434593 8.8775349 16.086132
1.7505085 9.3592281 16.047434
6.2398643 9.4389372 16.07465
2.8971632 11.312239 16.057058
9.8621235 11.460951 16.092422
2.2111311 8.623476 16.184517
1.9850788 8.9831533 16.165302
10.5759 10.79258 16.154671
5.6665525 7.6374907 16.205788
10.697712 8.4597826 16.230143
7.5124612 11.816013 16.293962
4.5694847 12.046627 16.203592
3.5524273 7.3711767 16.389257
10.618537 8.2727642 16.3992
3.3840148 11.748833 16.316696
8.9822598 11.977375 16.33172
8.4716749 6.9958639 16.412405
9.8036156 7.2763724 16.426081
2.3604205 8.1561842 16.470104
2.1305189 10.41408 16.488384
7.5728712 11.811532 16.428556
3.6437902 7.2847176 16.52997
9.6984367 7.5986819 16.517555
5.8620243 7.7281618 16.574841
10.947908 8.8800545 16.547955
1.8531106 9.8785105 16.507421
6.88941 10.434666 16.52034
9.6990623 11.724368 16.589607
3.57303 11.979311 16.511093
8.0391979 6.8231039 16.645847
7.2488947 7.0329704 16.688921
6.4089451 7.1171584 16.697117
6.7170849 7.2414508 16.659653
7.0866699 7.4766874 16.643509
10.083973 7.8639164 16.688654
10.814865 8.5519829 16.677967
10.983798 9.0106354 16.638283
6.176825 9.6146269 16.655489
6.0906372 10.042054 16.674721
10.716808 10.55447 16.649515
3.1585674 11.827816 16.691319
7.6773973 6.9295902 16.703787
3.7129424 7.2011318 16.782051
9.4342022 7.3722615 16.769703
6.4786077 9.0357075 16.75193
6.8655071 10.189043 16.706863
4.3882065 6.8264675 16.883127
3.1938293 7.106792 16.841217
9.7348585 7.1130838 16.829395
10.012409 7.7861061 16.865797
6.4509053 9.7027683 16.801174
10.705103 10.555035 16.858438
7.167707 10.978079 16.842537
2.7335887 11.079353 16.854143
4.8041821 11.905351 16.869011
6.6861477 6.603898 16.996046
6.0616074 10.004951 16.996151
6.5382261 10.265235 16.905844
6.6764946 10.328737 16.948536
6.3848691 10.444305 16.932579
5.5865068 11.010256 16.91461
2.8693628 11.268557 16.992489
5.0772257 11.686954 16.928951
3.005945 11.732602 16.910988
5.1739855 6.5354991 17.041624
10.087292 7.8132901 17.082739
1.7092415 9.3329353 17.039932
5.8708582 10.253929 17.006742
7.1100202 10.359415 17.022928
6.9516273 10.593346 17.024958
7.0198412 10.524524 17.02541
10.702126 10.538509 17.057789
5.5656614 10.951618 17.059578
7.1116214 11.126025 17.06534
6.0134988 11.346495 17.085451
4.5695853 11.694124 17.086517
6.4199786 6.4602051 17.124735
2.9007568 7.3053908 17.176937
10.709406 8.5073929 17.114471
4.9045992 11.494206 17.149487
5.2631803 11.473165 17.107658
6.9853497 11.6199 17.114048
3.5996492 12.018215 17.130541
6.4235902 6.3486567 17.284012
8.3087244 6.6810331 17.205273
5.4065905 5.3238091 17.305662
6.5470672 6.3627224 17.352926
2.7116718 7.4260869 17.366859
2.8858399 7.7494683 17.359142
2.4336309 8.1141253 17.355648
10.512883 8.1499348 17.374636
10.818555 8.4594793 17.396858
1.8224872 9.1582565 17.326738
10.628592 10.626526 17.305
10.544055 10.725686 17.347092
4.4855332 5.4094076 17.452366
5.5194144 6.3020215 17.405594
9.0285006 6.6893177 17.415569
2.1441669 8.3656969 17.427734
4.0720525 11.946548 17.400259
5.4802814 5.227952 17.536686
5.9472303 6.2038445 17.552103
6.0648274 6.2180767 17.501099
4.2473226 6.7483964 17.532761
3.3731246 6.8777819 17.597775
9.5575447 6.8911104 17.510286
2.3291192 8.0295763 17.575382
5.4408994 5.3638506 17.625267
4.2274027 5.5960746 17.688524
7.2723703 6.1988096 17.656727
7.3027868 6.2138357 17.609697
8.1494493 6.4562807 17.682535
9.053153 6.6698213 17.661474
3.6145017 6.776144 17.634504
9.5509119 7.3458738 17.608629
2.7178574 7.836875 17.69717
2.5126278 7.9947586 17.637638
11.161576 9.2687902 17.626385
2.1245673 10.35756 17.661255
9.063509 12.078826 17.606773
4.2868013 12.149366 17.687534
4.8855009 12.16173 17.634796
5.7405739 5.6921325 17.77424
9.4661064 6.8247581 17.723146
4.1284213 12.145679 17.715092
5.37535 5.2728853 17.812153
5.5481334 5.8207197 17.80732
7.2077284 6.1389966 17.812252
7.3427811 6.1743603 17.809654
3.774776 6.6896362 17.817814
8.5603275 6.6326146 17.817314
11.129668 9.553339 17.88793
2.7006528 11.561905 17.885889
3.6235299 12.123506 17.812704
4.5634394 5.4503503 17.900185
5.4709363 5.8787189 17.97352
10.511639 8.1545353 17.964962
1.6937683 9.3395252 17.935001
11.056445 9.8190784 17.972836
2.100023 10.486004 17.967831
2.9694762 11.819154 17.928343
6.0571032 3.8442621 18.044399
4.9922457 4.6473265 18.084953
4.4411173 5.5738621 18.056753
5.5089288 5.8148708 18.097353
9.8902502 7.5570927 18.020535
10.999179 8.911562 18.05291
10.611628 10.926352 18.021648
5.0259724 4.388555 18.178104
3.7712038 5.6151028 18.103573
5.7095366 5.6474414 18.168545
10.64636 8.066946 18.188145
10.633511 10.999579 18.176064
6.1410651 5.9771419 18.290386
3.8699775 6.5794225 18.275881
2.1056161 8.6301794 18.201553
11.160271 9.5126076 18.274227
4.0641947 12.260074 18.245899
7.6798544 12.42797 18.264145
5.108345 4.3053541 18.340319
8.3851814 6.3940902 18.370827
2.463366 7.7047648 18.331823
11.020834 8.9454002 18.373693
10.911703 10.326 18.360796
6.4619188 12.473834 18.385412
4.0680084 5.0209603 18.410582
5.5738034 5.5383205 18.467419
3.9749241 6.0305033 18.466049
7.77982 6.0837126 18.488766
9.224268 6.6064129 18.459175
3.3556607 7.2437258 18.434958
2.698524 7.7727146 18.416843
2.7351127 7.1868901 18.515717
2.2825472 8.3417044 18.526869
10.943216 8.7595444 18.500965
11.050409 8.9673405 18.500719
10.192732 11.494549 18.50256
3.7916558 12.212454 18.502413
5.8362494 12.482664 18.553452
4.0273209 5.0440507 18.678011
2.0734255 8.5365963 18.651474
11.004416 8.8887463 18.647488
3.6218584 12.172567 18.664186
6.2260661 5.3812656 18.742748
8.034997 6.1403527 18.731945
3.6761966 6.9245124 18.784496
1.8152654 9.5567722 18.739902
10.569973 11.031773 18.75588
9.6919899 11.859146 18.747604
4.7301321 12.404377 18.77738
6.1935945 5.3020182 18.830551
6.7593889 5.7959533 18.886612
3.1227927 6.8358583 18.875053
11.006622 8.8866186 18.859779
6.7810421 5.7882891 18.91111
3.3219287 5.8530679 18.992769
10.467197 8.162775 18.970251
10.151091 11.420948 18.987549
4.9797425 6.0238156 19.058281
10.379726 7.4718828 19.094496
5.3099532 4.2917743 19.165058
4.1234093 4.9871426 19.171461
9.1130857 6.7424765 19.172062
10.778701 8.5950422 19.104706
10.839762 10.1354 19.195717
2.2902093 10.498075 19.182796
9.7171469 6.7399817 19.24728
10.770194 8.6146603 19.271301
2.4218287 10.731474 19.227167
6.6201353 12.521301 19.250019
5.3865623 5.966918 19.354324
4.1954021 6.3957081 19.314138
3.0304456 6.8130693 19.363892
9.9479113 6.850162 19.341785
3.2703817 11.6956 19.357582
4.8751092 4.4983044 19.477262
4.8141241 4.5071106 19.428461
5.2042413 4.5712709 19.494926
5.5931559 5.3316007 19.449846
6.6297359 5.6987524 19.49773
8.272131 6.1457977 19.447752
2.7031298 7.085659 19.49103
3.1800313 7.2691565 19.426147
2.3410902 8.3878279 19.42416
1.7533108 9.2394638 19.493456
1.8965938 9.5605431 19.455
4.8129582 6.1379471 19.503708
3.3696828 6.6211314 19.552269
9.7764549 7.2995753 19.585875
10.41341 7.3995447 19.559919
2.8301132 7.7259498 19.592789
2.2106786 8.1323042 19.576778
10.589844 10.356064 19.568016
2.9395559 6.48243 19.630621
2.5182667 7.3854909 19.629684
2.5107393 7.4008574 19.694427
1.8408198 9.0720253 19.652716
5.104795 5.0819035 19.774872
8.0873375 6.0373611 19.72934
3.0920925 6.6993709 19.743513
3.5835748 6.862 19.732906
3.2682662 7.3145008 19.754131
4.2281604 6.2893209 19.844711
10.341726 7.2920032 19.840874
3.4295733 7.342278 19.81543
9.9233036 7.4298 19.849752
10.627102 8.4000006 19.87668
6.2764807 5.5986547 19.967316
7.7451248 5.813231 19.988188
5.1411076 6.0318642 19.991436
2.9969573 6.925827 19.940985
2.8672996 7.5697918 19.991734
2.2205176 10.041365 19.940784
2.3588202 10.298323 19.94112
3.373683 5.7223935 20.095474
2.726486 6.3564453 20.030348
2.62304 6.7528872 20.000151
3.5017242 6.9239879 20.057865
10.56993 10.277759 20.037622
9.9107189 11.228418 20.037788
7.2680521 5.6724639 20.150412
4.8666925 5.9659605 20.100222
7.9866042 5.9052858 20.19743
8.1525583 6.0280471 20.101089
2.4984446 6.1059451 20.181393
4.5739207 6.3472605 20.128428
2.2059886 8.6452913 20.136637
4.7180042 6.0475516 20.215254
2.781965 6.173645 20.202892
3.0793843 6.7308092 20.203245
3.3375144 7.0965362 20.279346
2.5552108 7.7304497 20.20166
10.580719 8.4065075 20.210449
10.769737 9.8350878 20.261604
3.2917304 5.8523703 20.333967
2.6780972 5.9136438 20.397083
8.2946787 6.0812321 20.38826
8.3563633 6.1206141 20.396912
8.8818569 6.3248057 20.345749
4.1021786 6.4230227 20.325537
9.0176029 6.5463791 20.376823
2.4145792 6.6809587 20.397392
1.9865034 7.038209 20.393101
2.5482681 7.2165084 20.342937
2.8328872 11.029985 20.339622
9.7564631 11.33127 20.316677
6.6890931 12.162045 20.341791
8.7722664 6.2875156 20.447929
2.3845601 6.6747136 20.460207
3.5579813 6.8765798 20.472296
10.917566 11.620888 20.495861
3.624095 5.464221 20.508213
5.4745069 5.6658812 20.531126
4.2332788 5.8041611 20.595264
3.3412802 5.9684243 20.567162
9.2502937 6.7618976 20.599077
3.8215532 6.8978748 20.57773
3.298085 7.4142203 20.583441
3.1796103 8.1707163 20.598063
10.853364 11.138967 20.556255
2.9347196 6.0530348 20.626083
4.4998198 6.1235743 20.696999
1.7660668 7.5541492 20.624706
2.9683909 7.7008505 20.61729
2.2781944 9.2152548 20.690275
10.880445 11.869326 20.604025
8.7924423 6.2710695 20.700502
3.4787455 7.2706413 20.789452
10.690809 11.194473 20.793095
10.932263 11.900804 20.798342
4.1982346 6.6272545 20.848877
9.1521978 6.7263055 20.8151
1.6353116 7.4520011 20.872787
3.2203417 7.4548244 20.839445
2.4831834 10.088243 20.827095
6.9233284 11.995049 20.817005
3.0539296 8.4515295 20.913937
10.481102 9.0166826 20.953318
9.5037088 11.818821 20.973726
5.883338 11.945755 20.968082
6.6746216 11.922113 20.91753
7.282136 5.5496221 21.085308
8.1424265 5.893744 21.009394
2.9636321 6.268209 21.079844
2.88697 8.5933723 21.065977
10.447775 8.9518442 21.028948
11.621077 10.871983 21.051067
3.4045699 11.428148 21.068699
9.9578476 11.553684 21.095242
10.070677 12.23313 21.025463
6.0401726 5.4855227 21.172052
5.0652204 5.6968036 21.123426
7.864912 5.6984758 21.118601
8.1464634 5.8917632 21.121754
3.3515656 7.4858904 21.187166
9.8975439 7.7866335 21.197552
2.7720404 8.6774998 21.170479
10.424338 8.9091959 21.13158
10.543307 9.1958113 21.126825
2.5395417 10.249638 21.178354
2.8981981 11.012842 21.198475
10.400097 11.093575 21.194912
11.029823 11.060867 21.149136
6.3572974 5.4078293 21.280678
6.4730687 5.484354 21.206314
2.5921774 5.8649478 21.285679
8.3893242 6.0665231 21.242922
3.9786508 6.2595153 21.235933
3.1787827 6.3907986 21.26264
3.8253834 7.8816004 21.25098
10.355056 10.374234 21.219505
9.7963305 10.776421 21.229599
9.7899017 11.485437 21.279049
9.2562943 11.802028 21.284494
4.1696382 6.7639904 21.35767
3.4608877 7.0220809 21.377476
1.6258806 7.5385332 21.326797
1.3185208 8.2743254 21.320717
2.256398 8.276288 21.3076
2.0421774 8.3078279 21.308887
2.1884587 8.3516178 21.387436
10.208079 8.4149456 21.33713
9.7885742 10.675697 21.386089
10.06278 11.202754 21.362513
4.7085495 11.890251 21.311428
6.6070085 11.880459 21.315681
4.9390388 5.7929864 21.435013
2.5877161 5.9543304 21.435785
8.9876814 6.5200748 21.459806
2.7045147 8.231699 21.402142
2.3235905 8.8853312 21.401636
2.597913 10.325418 21.47224
9.5795898 10.876957 21.436708
2.8878942 10.95008 21.489651
5.4148622 5.6216669 21.575703
7.7341619 5.6801152 21.52108
4.4243708 6.162055 21.553213
3.0193493 6.6953201 21.596279
1.6241301 7.2712541 21.579121
3.4300015 7.2363925 21.57406
10.00523 7.9589763 21.586163
2.1638489 8.4692154 21.553822
1.1708907 8.5246887 21.553036
2.6455646 8.6437492 21.53668
1.7702676 9.0536194 21.523272
1.8908365 9.1040869 21.582581
9.764616 10.648721 21.548262
9.2552652 11.595074 21.577806
6.5509019 5.4276614 21.677551
7.9556866 5.771636 21.633434
2.0341351 6.4438238 21.660917
1.2245659 7.6253109 21.638702
10.599974 10.19109 21.693314
2.6246495 10.353687 21.619413
9.3757992 11.456815 21.692644
3.861851 11.681538 21.634228
9.3817577 11.904789 21.641859
1.6219449 7.2811995 21.749456
1.6391096 9.2472181 21.758986
2.5083838 9.6352243 21.785967
6.7602434 5.4989686 21.829828
0.80415273 8.4462709 21.898388
10.404222 9.7895279 21.845915
8.3918219 11.736261 21.898323
6.0183449 11.83693 21.806032
6.7639222 11.838994 21.860693
2.7127392 6.9732924 21.987513
2.8183267 9.1921053 21.948742
9.5980511 11.191929 21.985554
9.2852869 11.490868 21.964596
8.7784996 11.635136 21.974293
7.9093862 11.819289 21.908949
4.3029432 6.2548165 22.029461
1.3338726 7.1262054 22.045977
2.9704986 7.3442717 22.043983
9.5990906 7.3840103 22.051151
10.292115 8.97894 22.078598
10.083624 10.727932 22.092186
10.325244 11.002227 22.025204
6.6480279 5.485816 22.108784
5.7810259 5.5684152 22.1444
5.8074498 5.5639715 22.123255
6.7749882 5.5267267 22.193268
6.8607254 5.5349865 22.165379
4.366128 6.2168312 22.149572
1.800908 9.5930138 22.112959
11.936984 9.855669 22.116459
10.174922 10.583876 22.140188
11.975564 10.622497 22.192421
9.8989992 10.888087 22.100649
8.3036194 11.707193 22.127634
5.9783726 11.832843 22.167576
9.0746708 6.6315422 22.268518
1.1278129 7.3460054 22.22905
2.7837656 7.473125 22.252602
11.742325 10.555368 22.257484
10.476748 11.024072 22.294472
9.6095734 11.811333 22.216822
9.4256315 11.995107 22.273222
6.3112373 5.5428834 22.376921
6.9066467 5.5525942 22.333179
2.4024937 6.591444 22.362917
9.1193256 6.6935959 22.377752
9.2517462 6.882957 22.363682
2.4902596 7.3359118 22.375546
10.239367 8.9080286 22.311371
10.348911 9.2567663 22.377504
10.771635 11.124635 22.314205
4.3695955 11.603542 22.361353
6.3874187 5.4883013 22.476921
7.8241158 5.7578821 22.470915
8.3171186 6.0499182 22.45756
4.3316703 6.2407284 22.44417
8.918788 6.4285116 22.49818
1.46395 6.9834428 22.47426
3.603534 7.0009766 22.481182
0.6437301 7.991271 22.427818
0.54507905 9.2092314 22.462368
12.169649 9.2096863 22.485298
12.25033 10.848779 22.493746
11.921554 10.927519 22.447786
6.628664 5.5141544 22.586037
7.3740125 5.6455631 22.579599
2.3251464 6.759037 22.587015
9.3251276 6.9848413 22.548845
2.5518689 9.5512257 22.538998
2.566421 9.6209984 22.504398
12.680254 10.255875 22.53434
10.001236 10.419081 22.543289
12.178423 10.593021 22.569603
12.234216 10.899523 22.554861
9.0171833 11.47073 22.540691
7.9097962 11.776353 22.519657
7.658464 5.7192645 22.60463
4.5494466 6.107636 22.612291
8.6763611 6.2770882 22.674574
3.9064827 6.5780849 22.678904
2.9298055 6.8766212 22.668915
3.643158 6.946187 22.617371
1.4108291 7.0287819 22.641136
3.4790022 7.6336975 22.669466
12.116761 11.008035 22.678616
7.255311 5.6299372 22.792662
7.8197966 5.7697992 22.711742
9.511405 7.2463169 22.792999
2.3551042 8.431179 22.771942
2.7853515 8.788969 22.796219
10.59638 10.015998 22.770643
2.7760034 10.373997 22.748236
11.573577 10.617494 22.747303
9.4132919 11.304813 22.748434
3.2515125 7.978116 22.873253
0.24280503 8.3998356 22.896057
0.72507852 8.4767132 22.81274
3.1543136 8.6735344 22.853416
2.75881 9.1054459 22.827522
0.30180767 9.3182468 22.811365
11.395699 10.753532 22.857296
12.024026 10.787436 22.812551
12.589071 10.732771 22.881987
9.2393761 11.376429 22.834703
5.2543297 11.67929 22.845116
1.7399859 7.0302668 22.940903
3.1876163 7.5057936 22.950592
0.23649062 8.3793697 22.956364
2.9267561 8.3607464 22.947321
2.7019863 9.127861 22.969799
2.214684 9.2818794 22.904963
2.1823158 9.3065033 22.97327
11.793148 9.4261303 22.951672
2.5299544 9.5766125 22.905516
11.684076 11.006904 22.902252
9.9631758 11.140965 22.979343
3.694077 11.336073 22.974554
3.7781622 11.354303 22.983574
7.4284019 11.639458 22.943748
1.8644574 7.1113043 23.089771
0.61187398 8.5296812 23.092413
0.23582506 9.3860292 23.004309
11.595998 10.576646 23.081596
4.0331964 6.4309845 23.101236
0.55213594 7.760982 23.146564
3.0787458 8.1180534 23.18755
0.55251825 8.6558609 23.132191
2.6678581 9.3254023 23.132591
13.212677 10.262748 23.192375
11.134292 10.875432 23.155046
3.6665096 11.177966 23.100739
10.873587 11.108797 23.170961
7.5308123 5.7320471 23.27083
8.2596169 6.016808 23.230282
0.91661167 8.3726206 23.242641
2.9454136 8.5217848 23.241652
11.311059 9.192543 23.262932
11.376351 9.7327662 23.26479
11.132387 10.07638 23.291708
2.8009121 10.239672 23.280487
11.892015 11.060224 23.228798
12.470136 11.289351 23.226196
7.5069122 5.7336755 23.384266
1.7145306 8.1929989 23.384274
2.8742523 8.4357719 23.339712
12.667633 9.3389053 23.357679
10.334857 11.038528 23.366974
7.4963627 5.7372594 23.460415
1.6483898 7.3205547 23.460987
2.4122369 7.4820533 23.481054
12.915716 10.055717 23.401981
11.023838 10.723183 23.429878
4.2038994 11.41208 23.400999
1.7980599 8.4644899 23.508202
9.924962 10.710291 23.517443
3.9857218 11.381197 23.57579
12.831003 11.320681 23.561417
8.2885599 6.0708475 23.670403
9.1863232 6.7581506 23.624783
0.51658762 7.9474759 23.653835
1.6683801 8.4397831 23.631546
2.6661649 8.5145798 23.60424
13.062853 10.765238 23.658882
3.751384 11.332344 23.688211
4.3589168 11.522299 23.651522
7.1363339 11.749641 23.634617
8.4622049 6.1915874 23.732531
9.8753605 7.9721341 23.720924
0.33205536 8.1958408 23.744884
2.670239 9.5338478 23.783758
13.086432 11.285512 23.791279
4.1574602 11.757198 23.756403
6.8891931 11.917317 23.718834
6.2662201 5.6695065 23.816818
4.1937027 6.4437504 23.808376
3.3796654 7.4960694 23.858253
1.8187065 7.702177 23.877457
2.2884011 7.8491135 23.805887
0.057302162 8.7659445 23.828947
2.7507787 9.0049601 23.885555
11.77481 10.527515 23.865845
9.4117289 11.351912 23.881834
0.69867879 7.9920192 23.906303
12.842281 9.1874104 23.96385
13.017912 9.3101692 23.931679
11.564145 9.5049639 23.996805
13.330126 9.5450554 23.938202
0.85087752 10.34135 23.900127
13.693661 10.426982 23.908344
12.014952 11.364642 23.988361
5.4850216 12.210794 23.93458
8.0915041 5.9699183 24.079544
2.9119425 8.811038 24.05711
2.5781178 9.9073334 24.084816
11.292564 9.9385624 24.070343
13.245239 10.950983 24.021301
2.5790701 9.7688961 24.168547
11.211718 10.710492 24.122005
13.31679 11.382372 24.143114
5.6751823 5.7990718 24.215389
9.2799015 6.8688793 24.276134
9.6831017 7.6286345 24.284523
0.9491936 7.9141073 24.213392
0.63551325 8.1997004 24.224295
11.817855 9.2494869 24.21463
11.481604 9.5898552 24.217461
13.038148 9.8390446 24.221804
5.3603692 12.357492 24.238592
3.5355511 7.3234439 24.386925
2.0549498 8.1151972 24.307522
11.469989 9.6941481 24.349764
11.332487 10.397184 24.374796
11.985931 10.375172 24.323738
1.6912768 10.573858 24.361
2.5519807 10.892602 24.386887
3.0020597 11.64185 24.371706
4.282877 12.220184 24.329506
5.4686384 12.405334 24.339527
5.1494861 5.966423 24.411469
2.8335409 8.8038683 24.484447
13.405375 9.4449053 24.439592
10.508099 9.7928762 24.470337
4.2980351 6.485219 24.555565
4.1698551 6.5710993 24.51619
12.793224 9.8059883 24.516325
10.219493 11.290607 24.590843
0.29697251 8.6663599 24.664011
12.14276 9.2039032 24.611362
12.834361 9.2497663 24.626451
10.456386 9.4723034 24.669197
12.19358 10.489399 24.698246
4.9647059 6.061687 24.726959
9.6826591 7.697917 24.743307
2.5254762 8.2664328 24.718142
10.006272 8.3287401 24.711161
12.54698 9.9074001 24.76387
14.317536 10.90105 24.788797
13.570108 11.401035 24.768446
13.755709 11.56011 24.772087
9.1266212 6.7477407 24.876154
2.4597373 9.7942371 24.861347
13.209782 9.9295387 24.816128
12.607944 11.184345 24.897366
13.487088 9.348711 24.967249
12.585049 10.044518 24.97105
12.256947 11.474596 24.919477
9.8847914 11.926871 24.904741
7.2448478 5.8661189 25.064537
0.73485237 10.259363 25.031067
2.3885458 10.34557 25.067369
2.3755879 10.804718 25.066603
2.5460646 11.165504 25.03257
12.939493 11.743379 25.0851
3.170208 12.082843 25.043489
4.3886752 12.496954 25.048986
0.24627486 9.1072502 25.12904
13.765824 9.4783754 25.156929
13.782641 9.5051785 25.124451
0.4883244 9.8227434 25.182461
2.3697896 10.079926 25.193779
14.646215 10.637815 25.18388
11.726343 10.766357 25.180943
12.429249 10.710293 25.142509
14.117805 10.816391 25.121593
14.559464 11.085106 25.132143
8.3141575 6.1806526 25.201031
3.8353751 6.6682549 25.223082
9.3093042 6.8720293 25.273199
0.83406401 8.2316246 25.295235
13.189846 9.3400974 25.229149
2.3567493 10.471556 25.263153
11.753725 10.628435 25.21571
2.3875952 10.947207 25.219412
2.4431696 11.052631 25.284973
12.062549 11.246428 25.20866
13.127246 11.575839 25.288118
13.363854 11.645776 25.296227
5.985044 12.662275 25.245693
1.4992616 7.8538303 25.324287
2.6230869 8.6370411 25.394182
0.48712134 9.8359213 25.376308
2.4557815 10.46025 25.319115
10.133167 11.751135 25.313488
9.8090992 12.051132 25.340031
4.48136 5.9137344 25.499657
1.4769168 7.8362298 25.470043
1.313108 7.9639997 25.465496
2.679292 8.4357281 25.471409
2.531487 8.806757 25.464817
13.309222 9.3675623 25.457569
0.2582776 9.4964972 25.462358
13.862398 9.4456844 25.409964
1.1222062 10.554806 25.429138
12.577742 10.818796 25.423151
10.50897 11.113678 25.473684
14.472637 11.514597 25.410477
13.159058 11.613785 25.432425
10.156092 11.750504 25.474611
6.1825304 12.719597 25.497368
5.3144383 5.7629218 25.591351
3.1891785 6.9428759 25.579285
10.654539 10.725806 25.568935
13.843342 11.997021 25.557178
3.4847255 12.248291 25.552977
7.2612624 5.8219161 25.649656
8.2807159 6.1151705 25.626368
2.3999038 9.0596056 25.653048
12.894116 10.325395 25.649103
13.153233 11.880514 25.6049
14.168171 12.053198 25.669737
5.0173283 12.657538 25.638275
6.8561659 12.718395 25.608606
4.8959055 5.7918472 25.793882
5.2478218 5.8972373 25.714516
7.4841533 5.8620725 25.7111
13.390148 11.956177 25.779594
13.968048 11.935858 25.778608
6.2728271 12.724337 25.73875
8.7033148 5.965323 25.817232
8.3209238 6.1140604 25.833076
9.6050797 6.7269306 25.825459
9.6757603 7.3807416 25.801849
0.95375222 8.1421347 25.885828
3.0266838 8.5742426 25.807014
10.516445 9.0871048 25.817295
0.64860946 10.101562 25.855286
12.910173 10.466784 25.821766
15.097762 11.394969 25.898399
3.9355042 12.415257 25.836746
8.7368488 12.521751 25.856129
7.0701752 5.7738628 25.95504
3.2573867 8.865386 25.98938
2.3938367 8.9252806 25.972328
10.618349 9.2784948 25.958202
14.235698 10.511185 25.950388
15.23968 10.817598 25.996313
15.172024 11.090357 25.953455
10.382193 11.379081 25.969316
14.186198 11.917513 25.954988
3.5904562 12.302889 25.962862
8.564683 12.578585 25.97294
4.4928041 12.616852 25.967052
3.605413 6.6378551 26.094887
3.1383364 10.085127 26.06707
13.784189 10.254071 26.073141
13.185753 10.408055 26.02396
12.249229 11.103415 26.064644
10.271507 11.56567 26.019381
9.3871183 12.280199 26.065632
5.0722208 5.7558594 26.141939
7.9358554 5.7713294 26.167702
5.3012724 5.8294206 26.100834
3.5832088 6.3953285 26.129391
2.0067039 7.7944083 26.138086
2.7914758 7.7168136 26.121052
3.1778154 9.9420347 26.101301
14.019403 10.317345 26.152985
15.332805 10.401402 26.1689
14.642703 11.534662 26.186888
10.18394 11.68743 26.182796
4.0450377 6.0037346 26.265759
3.3629956 9.3328495 26.223915
13.230742 9.497982 26.269855
13.501933 9.4441519 26.253681
14.176977 9.5614119 26.259501
2.3016934 10.672097 26.205303
2.3582499 10.953821 26.268133
9.4174681 12.265052 26.225353
3.6515217 6.4778414 26.360418
13.580663 9.4609919 26.320084
12.553941 10.173326 26.398073
14.690397 10.88429 26.34528
14.738205 10.927281 26.354345
15.427578 11.314894 26.356808
5.6243429 12.690944 26.327728
6.0024481 12.706131 26.335865
8.4751606 6.0948992 26.416307
3.8219147 6.3545308 26.445473
2.4822598 8.4199533 26.402615
14.029916 9.5621729 26.429117
2.194382 9.8095798 26.479437
8.6218204 12.537292 26.476913
7.5579653 12.675125 26.446304
6.063961 5.6935916 26.579697
7.6280613 5.7854156 26.56345
9.3290405 6.4323444 26.5028
1.6628796 7.6811161 26.536737
3.3354492 9.8084831 26.533098
12.977388 11.341587 26.50424
3.9528627 12.446256 26.526524
6.4046397 12.720044 26.528511
0.64280933 8.809618 26.606804
10.603416 9.2792368 26.674839
13.321874 11.380442 26.639397
15.414432 11.557755 26.601206
13.187853 11.761479 26.696112
10.045458 11.803522 26.629011
14.66446 12.091256 26.683432
3.8464799 12.411132 26.646881
6.3492689 5.6219902 26.756115
9.7386036 6.9192934 26.765368
9.7903194 7.3217697 26.767971
2.1005983 7.8103104 26.796391
1.1279862 10.771655 26.753681
2.4938955 11.294281 26.747084
13.362761 11.401008 26.703424
14.950247 11.62476 26.767252
3.1085391 12.162273 26.778065
3.2075691 12.195492 26.736622
4.6632519 12.609276 26.792545
14.372383 9.6549892 26.822197
14.420054 9.6629305 26.800245
3.4189155 9.8256779 26.820992
12.966817 11.7239 26.852879
9.0731812 12.37319 26.875523
7.3497558 5.7577162 26.964104
10.100675 7.7562985 26.919802
2.1697927 10.326912 26.922901
14.875622 10.925446 26.948158
15.428904 11.635346 26.945192
12.945824 11.883448 26.960379
4.8023911 12.59407 26.969627
4.0598612 6.178339 27.040728
9.6091404 7.0515437 27.067284
2.6992395 7.4597268 27.073011
14.641457 9.8072681 27.020691
12.207794 10.178672 27.08213
2.202261 10.509074 27.014557
11.654963 10.707235 27.048771
10.24194 11.370022 27.036495
7.2331591 12.631702 27.093697
7.7855525 12.616481 27.077219
5.3808265 5.7044458 27.113234
8.9632568 6.1226811 27.172522
3.5049057 6.2299352 27.160446
3.6942925 6.351727 27.193295
3.2861047 6.6096473 27.161385
9.6515341 6.8334098 27.167494
2.3007452 8.5777283 27.119654
0.56173766 9.4427013 27.173897
2.1342361 9.453021 27.172642
0.45701349 9.8130112 27.125774
14.935016 9.9308491 27.10841
10.435924 11.009248 27.181658
4.8968945 5.871038 27.280727
4.4894075 5.946692 27.240793
1.7253941 7.7416449 27.243126
0.81158412 8.5358534 27.263369
2.1983564 8.8103924 27.244179
3.5148292 8.9266338 27.25668
0.67426574 9.0797138 27.294155
2.2907186 9.4317179 27.202049
10.548877 9.7223921 27.291508
3.0482316 10.066528 27.269581
2.7386723 10.249242 27.236923
11.614731 11.125957 27.268936
2.4518931 11.270218 27.233582
11.916563 11.282492 27.200726
2.5763254 11.530834 27.267237
9.9879093 11.708224 27.280041
5.1821175 12.583426 27.215538
5.6475477 12.604959 27.238575
3.7590942 6.3067894 27.329979
9.5655403 6.7376909 27.332832
3.1067233 9.1300554 27.330746
11.132399 10.536526 27.302872
2.3931394 11.382393 27.386784
15.396801 11.538641 27.317261
2.6282506 11.620272 27.347483
3.1008067 12.163773 27.333529
4.2920446 5.7107992 27.463062
7.6218801 5.8213201 27.402809
9.1108074 6.4125242 27.484337
2.1958477 8.923562 27.458874
2.5128574 9.0728426 27.418041
11.426767 9.6046963 27.476692
10.88481 10.409391 27.420033
10.934515 10.470856 27.4151
8.1656094 12.548191 27.467031
11.834209 9.3102245 27.52928
0.64513165 10.330889 27.553381
10.818087 10.468827 27.500065
2.4295187 11.372319 27.56535
2.3143559 11.510313 27.557365
9.7865849 11.966967 27.50123
4.1369681 12.423168 27.554049
7.9955139 5.6685071 27.666641
8.0963125 5.9275866 27.634466
12.961168 9.3292961 27.690041
15.329281 11.291286 27.644905
2.5056167 11.693514 27.624229
13.438813 12.417562 27.629204
5.7077107 12.558352 27.634853
8.2579174 5.9467487 27.747004
0.91711408 8.5053959 27.730434
12.265488 9.1550808 27.789186
13.533651 9.4619045 27.794823
10.399672 9.9663076 27.721071
0.94248855 10.925875 27.789171
10.789503 10.961369 27.75919
2.2735744 11.434707 27.72864
13.970872 12.390446 27.799974
4.3871775 12.469207 27.734768
8.2858543 12.479494 27.731482
7.8362517 5.9194503 27.825609
8.3822546 6.0750704 27.837143
2.160193 8.2424002 27.849672
11.576555 9.087822 27.874645
10.271646 9.7305098 27.889303
10.162144 9.9215918 27.841232
10.284178 10.289439 27.800316
2.2895079 11.605971 27.842093
3.5516195 12.222891 27.892166
12.906795 12.276345 27.823917
8.5597506 12.39913 27.82921
6.4428196 12.5553 27.827503
10.476405 9.4509735 27.941347
10.228642 9.6355419 27.95315
14.290009 9.9014482 27.931896
2.3616722 11.788343 27.938038
12.275297 12.058071 27.943264
7.7057233 5.6020203 28.071373
6.2281847 5.7120171 28.058907
7.4166899 5.9004707 28.098301
4.3822684 6.0971699 28.080639
9.5000353 6.8293018 28.021751
1.8115695 8.0137577 28.09553
10.318726 10.634119 28.053177
15.191198 11.096532 28.059092
1.6205062 11.565297 28.038197
5.4490156 5.8825874 28.179424
4.1588178 6.1517067 28.104565
9.5942745 6.972723 28.179293
9.978363 10.404895 28.11795
3.8992119 12.283616 28.107365
8.894475 12.259923 28.181419
12.664539 12.2743 28.107738
7.0509324 12.482648 28.195835
7.9774618 12.452373 28.185143
8.4236946 5.6972957 28.223906
1.7120845 7.9951158 28.227612
10.339443 9.4042377 28.258465
11.526058 11.875525 28.24538
6.5173826 12.488199 28.245861
5.6648293 5.8856616 28.365198
6.1866722 5.8364687 28.319567
6.9083314 5.8953962 28.39209
5.2886653 5.9767447 28.392189
3.9941473 6.2411404 28.363428
1.4740094 8.0786591 28.345539
1.1574798 8.3512802 28.385511
14.636681 10.504557 28.319874
1.3612775 11.562485 28.325668
2.939316 6.6764221 28.483955
10.077761 7.9600382 28.487032
1.1504617 8.364645 28.48031
14.19433 10.115244 28.434591
0.82418907 11.029711 28.450705
5.238461 12.390637 28.423779
4.4842267 6.187645 28.524012
4.6863608 6.1495824 28.532637
9.0083904 6.4490705 28.517002
0.973454 11.246172 28.543016
14.122565 11.709581 28.507139
11.499659 12.010719 28.565571
8.5099583 12.267591 28.551689
4.6405096 6.1940069 28.660757
9.1245604 6.5251598 28.690619
10.081174 8.1347847 28.663162
11.934195 8.6690197 28.651573
10.216082 8.932188 28.60605
12.419668 8.9880238 28.635384
13.759722 11.789367 28.635513
4.5703158 12.283794 28.694307
7.2111969 12.380997 28.631649
8.7023678 6.3348103 28.730389
13.101954 9.4710026 28.707346
13.789114 10.106792 28.749029
0.92971706 11.177983 28.759314
10.136665 8.4754467 28.875845
2.9930701 12.091211 28.894299
7.4913182 12.327728 28.829765
11.475387 8.4789257 28.969915
1.4529665 11.719239 28.91143
6.0902548 5.9774585 29.054064
5.7079248 6.0161257 29.046236
4.7129736 6.2820301 29.043484
9.5233097 6.8454762 29.009815
1.9815369 7.5886765 29.026447
1.6295228 8.1433439 29.0021
13.848467 10.877214 29.078358
12.936205 11.631555 29.095018
11.461012 11.91501 29.026192
4.0863566 12.163302 29.086336
4.2591352 12.176996 29.062037
9.5180969 6.8120604 29.190315
11.56369 8.6048679 29.129749
11.630716 8.6784325 29.198278
0.60358721 9.3674965 29.103315
1.723722 11.835432 29.136425
7.7094126 12.258858 29.100201
4.352529 6.4680681 29.241905
8.8609676 6.468277 29.290289
2.5102465 7.2909636 29.294487
9.8964043 7.522306 29.21755
2.0783575 7.7450123 29.285425
11.050226 8.3079147 29.28228
0.71161515 9.0003614 29.276669
0.65422374 9.3297291 29.283043
2.8499808 11.987573 29.242939
7.7389383 6.2720189 29.333103
1.9991524 7.8602619 29.321285
1.8021927 8.0281124 29.359493
12.328814 9.1952324 29.314383
0.93562138 10.925329 29.306927
6.5115643 6.1777425 29.459209
7.2817674 6.2699852 29.448935
7.8590007 6.3614178 29.492287
4.0091076 6.6771531 29.443914
3.5236421 6.8251495 29.448307
2.7868364 7.2123532 29.468279
10.028402 7.9173985 29.402943
1.6639104 8.2239227 29.492941
0.65025306 10.040028 29.4431
8.7450237 12.071288 29.460808
5.4281816 6.2102661 29.559792
7.9508576 6.4007759 29.551828
2.703721 7.3929086 29.576576
9.8995953 7.6143374 29.624662
2.2625785 7.8858986 29.623358
10.112553 8.2225819 29.610588
0.8120445 9.7923508 29.670755
12.645185 9.9572792 29.604155
12.665727 11.057632 29.621975
5.1922388 6.3159399 29.722351
7.6961427 6.4965591 29.777681
10.324359 8.1594639 29.761896
1.2244842 8.7579508 29.718853
7.1459689 6.4658213 29.896374
7.9822989 6.5649967 29.859814
11.570103 8.8712025 29.859097
5.5164804 11.954987 29.818417
9.7048864 7.3692689 29.930868
2.6193953 7.8353605 29.928638
11.13267 8.5478687 29.935999
9.6469135 12.073943 29.97212
3.8842568 6.9817438 30.00477
3.7893593 7.0403805 30.008919
9.8897362 7.6830053 30.041122
10.882791 8.3798285 30.059834
1.3636602 10.858164 30.111717
3.8109996 11.752747 30.130705
4.0237889 11.747277 30.175142
6.9111481 11.915777 30.125698
4.7681818 7.3927369 30.283749
12.209054 10.440512 30.245588
11.996276 10.700668 30.250959
1.9319013 11.243961 30.232193
3.0682299 11.462222 30.264874
3.3009102 11.594662 30.207634
3.3295467 7.6703644 30.387983
11.756322 10.784322 30.396648
1.7898092 10.876444 30.333256
1.8431602 10.865942 30.369827
4.6968374 11.730335 30.314766
7.4266386 11.854937 30.354755
9.6127167 11.829487 30.368645
4.2086706 6.4668322 30.449194
8.6369619 7.0648203 30.469456
6.2558928 7.2869158 30.432014
9.3121614 7.4265504 30.485283
9.548192 7.4736972 30.405228
1.6227565 9.9305 30.47884
1.5949783 10.062057 30.496063
11.933145 10.21506 30.459997
2.5408628 11.246073 30.414856
3.5310001 11.39971 30.491037
3.7922487 11.489472 30.467545
9.9571705 11.837161 30.447563
5.3100295 6.4977274 30.595104
10.024335 8.0899448 30.528563
11.388209 11.049005 30.518831
5.8155594 11.708799 30.519276
7.1835637 11.776042 30.528536
4.9246511 6.9697433 30.659571
5.2117133 7.2915592 30.67775
9.9742146 8.1310749 30.681437
3.9557014 11.334986 30.662382
9.7057648 11.797585 30.603008
4.1669607 6.7729797 30.754135
5.6515756 7.1647806 30.766253
3.6297836 7.459506 30.781521
4.7596798 7.5499902 30.718517
11.084882 8.7893696 30.730438
4.7589884 11.372856 30.795851
5.0425849 11.481565 30.744406
10.475244 11.559987 30.766102
6.4267287 6.9839907 30.892376
5.0644426 7.4448366 30.879379
2.5254641 9.2160063 30.887127
11.664537 10.381431 30.86116
7.8947487 11.674846 30.874737
7.8661175 7.3188105 30.942608
7.9862766 7.3373761 30.900021
7.1287565 7.6404166 30.987045
11.408668 9.766922 30.936285
3.9521041 11.071564 30.940493
5.1507435 11.335867 30.932587
6.1801734 11.464702 30.949322
8.1119928 11.578829 30.987104
8.4217625 11.572309 30.981955
3.9162011 7.2309299 31.010475
7.4442005 7.3619194 31.073267
4.5626159 7.4995818 31.014427
3.4272535 8.1941605 31.043175
2.8815296 8.8753433 31.089685
2.9156456 10.44591 31.014271
3.8260362 10.914113 31.032146
6.3894644 11.346389 31.094498
7.8901243 11.492277 31.079334
6.2594409 6.894558 31.122257
10.937922 9.1241102 31.172619
6.3974333 11.261644 31.188751
7.4162407 7.125483 31.286818
6.212872 7.5747719 31.278374
10.875475 9.1785078 31.254272
11.23137 9.9608431 31.261894
3.5547616 10.396358 31.297802
3.8232284 10.626048 31.229876
5.3940454 11.073497 31.289537
6.1333122 11.224811 31.209827
5.5265493 6.9427018 31.378242
10.593782 10.946333 31.329453
4.7785726 7.2158685 31.49638
5.9886351 7.3181701 31.48243
7.6739645 7.7941408 31.446453
4.3454742 7.9098396 31.409437
8.1808615 7.9933167 31.428869
8.6189461 8.2007656 31.407089
3.4126339 8.6583557 31.40683
9.7072954 8.7716923 31.463713
10.456103 9.0668516 31.426786
10.78763 9.6665573 31.432896
5.6271853 10.854244 31.4837
6.8827171 8.0836639 31.597725
3.7922497 8.7499628 31.597549
3.1631742 9.6619663 31.508064
10.874321 10.43297 31.52976
5.3852539 10.65788 31.573051
10.443009 10.694903 31.567682
5.7507987 10.834961 31.508797
6.2689552 10.838575 31.557354
8.0148849 11.041923 31.556473
4.5088434 7.0934334 31.688244
4.0291562 7.5815268 31.643675
4.1407828 8.2452211 31.651947
9.0936031 9.0884018 31.674921
3.2503755 9.4081306 31.646156
10.775886 10.268399 31.693289
6.0656462 10.613413 31.688118
8.6291828 10.912394 31.677994
4.065207 6.8728814 31.789288
6.5610123 7.8810368 31.763578
3.9876142 8.4880362 31.791143
3.5260358 8.6226101 31.739502
8.9812155 9.1142235 31.719807
10.359912 10.443768 31.78319
9.8886681 10.600965 31.797684
4.3467994 6.6477523 31.834183
3.7742994 6.9196749 31.875313
7.0065994 7.3812656 31.867794
6.5993657 7.9428763 31.88483
6.6336927 8.2073574 31.878412
8.0698032 8.406724 31.80735
3.8440142 9.0926447 31.813194
8.7267456 9.0896616 31.821568
5.592329 10.387531 31.868433
3.6679854 7.0540948 31.99041
4.1665282 8.4942656 31.977383
4.2661538 8.5133686 31.908295
8.9116154 9.7451687 31.970154
9.4107075 9.8408833 31.944008
9.6422901 10.036416 31.994133
4.7778912 10.165249 31.907249
7.9276867 10.410132 31.919121
5.9046178 6.959547 32.060982
6.5973902 7.7926259 32.049377
6.7433448 8.1656418 32.061832
7.3907385 8.4777794 32.063858
3.9076276 8.9073811 32.036652
3.5995543 9.0371008 32.065052
4.1288261 9.3953142 32.000889
4.6102257 10.015482 32.08968
9.2088366 10.007396 32.026684
4.4632301 6.3216138 32.102524
7.96173 10.075542 32.154869
5.7590303 10.135058 32.181152
7.3093557 10.169941 32.125561
5.2510748 6.506094 32.224617
3.6477754 7.8641458 32.290024
4.2658529 8.1812811 32.246159
3.7654886 8.353301 32.29081
7.2647104 8.9264269 32.224754
7.9576087 9.1045666 32.232777
7.0477495 9.9955492 32.298473
7.7039647 9.9221125 32.250893
4.264513 8.4377041 32.321476
3.868515 6.3454456 32.448814
3.3540907 7.2828517 32.441566
6.6848559 9.0885963 32.490772
5.7974958 9.760397 32.424168
4.7562747 6.0883617 32.527924
6.3539467 7.2158699 32.553364
6.5605173 9.0108871 32.560486
6.1840329 7.0301752 32.622967
6.6393833 8.8016214 32.699638
5.3569145 10.097393 32.653759
3.4225001 6.8157568 32.739311
7.0682249 8.5720415 32.769192
6.1397238 9.3223829 32.765648
3.7502501 6.2760415 32.854153
5.4458466 6.298996 32.898731
6.9821839 8.3862877 32.818752
6.7914772 8.4149771 32.886894
5.3453903 9.7061739 32.997791
4.4267335 5.9730272 33.084099
4.8120456 5.9171519 33.067646
6.2502174 7.0172663 33.073586
6.7251587 8.1272383 33.08601
6.4139643 8.9915333 33.055386
6.1866736 9.1186295 33.069763
4.97084 9.6088028 33.008205
5.2302971 6.0657825 33.173878
3.8993123 6.1732216 33.171017
5.3244619 6.134903 33.128124
5.3227835 9.7676315 33.163452
4.8684382 5.927948 33.224552
5.2700052 9.3459425 33.378654
3.7514982 8.7112093 33.422867
3.5174842 8.811389 33.455559
5.8067641 6.5683436 33.53548
6.2021275 6.9087172 33.578453
6.5811362 7.5806646 33.550564
2.9765477 6.3504453 33.642834
5.2670836 6.0625296 33.701336
3.3236992 6.2117338 33.788506
6.3204012 8.9105043 33.733524
6.2466927 9.0277405 33.718151
5.7565489 6.1771364 33.877941
2.9740546 7.1553388 33.8097
3.7888923 8.8972797 33.867542
4.5334888 9.4527798 33.846291
2.6604972 7.2627916 33.912155
3.7474368 8.8346872 33.917534
3.7083724 8.9187126 34.004261
3.6946578 9.4129982 34.061913
3.4922965 6.3343363 34.148537
2.4903839 7.8629961 34.206757
2.8336 7.8160887 34.233295
2.9021444 8.485096 34.249619
3.2416716 8.931531 34.200947
3.4349933 9.0316954 34.238682
5.6099882 9.5489407 34.292229
2.763263 7.5066876 34.338123
2.8188071 7.9797788 34.397346
2.9913993 8.2838707 34.322834
6.225214 9.2647867 34.380371
3.7291703 9.5490694 34.489288
3.6731215 5.8825164 34.583054
3.6229434 6.1799145 34.613487
5.9788265 6.2545257 34.682644
5.2181082 9.7724133 34.61367
4.3558507 9.9603558 34.682838
2.0578692 7.0839396 34.790165
2.7884274 7.9657755 34.885742
5.5430279 6.012166 34.986473
2.3051107 7.2688398 34.907146
6.5308776 7.2272105 34.968048
2.503185 7.5742273 34.935547
2.7607393 7.78058 34.960358
6.6135149 9.197463 34.975037
2.1656466 6.8800836 35.002415
2.7145362 7.101532 35.055801
2.4938679 7.8930779 35.038834
4.9755321 6.0071688 35.180355
5.9133601 6.2072806 35.158237
2.5153332 7.3893161 35.130856
6.2477055 9.3513155 35.170002
4.459476 9.8163147 35.162056
2.5737579 8.2859268 35.264145
2.5861585 8.3088989 35.272171
6.3703222 9.265296 35.299473
4.2321115 9.9776468 35.291367
3.9436104 6.0210238 35.341278
6.4992914 6.8786488 35.375477
2.8940063 8.0687504 35.497284
6.7847128 8.7169466 35.439346
4.0050068 5.6531134 35.576611
4.4721909 5.8079753 35.579243
3.0530567 6.6435633 35.532772
6.4336586 6.8668346 35.518562
2.6537442 7.8908887 35.595284
5.7439137 9.5542202 35.576096
