# .PCD v0.7 - Point Cloud Data file format
VERSION 0.7
FIELDS x y z
SIZE 4 4 4
TYPE F F F
COUNT 1 1 1
WIDTH 1547
HEIGHT 1
VIEWPOINT 0 0 0 1 0 0 0
POINTS 1547
DATA ascii
-8.3575001 -1.8295805 2.2068539
-10.553005 -6.4202862 2.3705182
-8.1285162 0.11814301 2.3694768
-12.164221 -4.1069221 2.4943249
-8.6614313 -5.0416417 2.5748246
5.888453 -0.28189248 2.5360537
-8.4520473 -3.9874239 2.6184742
4.7528 -3.099731 2.6233861
5.1640425 -2.7469988 2.6889777
-7.9878244 1.0464157 2.7355523
-7.7486057 2.6086009 2.7663825
-12.088473 -3.789257 2.8862693
5.4774704 -1.9319911 2.8992319
5.7208681 -1.3067415 2.8506155
1.6103829 4.8727326 2.885088
1.9977845 7.37643 2.8286397
4.8385124 -2.9191742 2.9322062
5.6331167 1.8237345 2.931741
4.9941139 6.8557596 2.9778025
-11.720692 -2.4940853 3.0021272
5.5581293 3.0170293 3.0721717
-8.657629 -3.8562608 3.1764159
5.2124419 -0.97589612 3.1882901
4.9561625 0.35048583 3.1650505
5.5319705 4.9128218 3.1033492
5.1455741 -1.0502589 3.2179816
-9.4116344 -5.3340473 3.3803995
3.1347303 -1.0272437 3.3212233
-10.5363 -5.6777167 3.4954512
-10.097352 -4.5301266 3.4693956
-11.307759 3.7151003 3.4682174
-10.347406 -5.4730015 3.569571
2.6630137 0.19361895 3.5778861
-7.7443867 2.2916031 3.5830252
1.9712392 2.6146345 3.6650286
5.3832889 5.7505269 3.6679862
-9.1029568 -2.3136954 3.7776165
-11.338908 3.5653453 3.8104305
2.8691409 0.46637809 4.0848732
-8.040678 0.89862704 4.0430832
-12.243414 2.0831561 4.0709419
1.2291729 2.5238481 4.0964656
6.0863447 2.8648005 4.0890446
-11.172159 3.785254 4.0848279
-7.9128699 4.4865837 4.0287771
4.6109443 7.2456393 4.0417976
-12.23954 0.84133762 4.1608543
5.1689596 3.6382449 4.1562004
4.8303657 6.8085742 4.198947
3.9371345 0.67948365 4.2771335
-12.398573 1.4224839 4.229104
-11.92342 3.3906493 4.2480154
0.95948422 3.6053426 4.218832
5.8726506 3.661468 4.2356563
2.8174095 8.5511427 4.2298632
3.6132262 9.0128088 4.2313294
-8.060421 -0.68342328 4.3947954
3.7757668 0.81891298 4.3958559
-7.9235425 1.7249341 4.303493
-8.1961012 4.1069489 4.3843818
-8.7867928 4.8291054 4.3436737
-11.527895 -0.82919717 4.4995866
-9.2035131 -0.79567814 4.4866104
-8.2078762 0.75643402 4.4125299
-7.4027758 1.2100064 4.4734297
5.8269224 6.1629763 4.4753971
1.6064765 6.2679315 4.4232411
5.6583614 7.0355196 4.4591341
-9.6369305 -1.092293 4.5537682
-6.782373 0.67208278 4.5456915
-12.46047 0.87585485 4.5845938
4.9967499 7.3210135 4.5334625
4.0541782 0.17672828 4.6989727
-7.994154 0.3238914 4.6401095
-11.567741 0.91152811 4.6374936
1.9621476 3.7653122 4.6103926
-10.291292 -0.63697851 4.7870736
2.0381036 3.0094891 4.7875614
-8.4924221 4.3736672 4.7524114
-9.1600018 5.1118979 4.7479057
1.3414638 5.1605616 4.7968502
3.5062551 7.7300572 4.752378
4.0517635 8.6144733 4.7899218
-6.6780171 0.55603617 4.8985581
-11.151773 0.96047217 4.8017397
3.9665084 7.4706507 4.8202481
4.0423856 8.6172571 4.8623114
-7.6913342 1.9982761 4.9241648
-11.749758 2.7446401 4.9003119
6.2293663 3.3050518 4.961185
0.45889685 3.9447241 4.962204
3.2092946 -0.10528437 5.0140543
-12.240728 2.4161153 5.0226512
-11.721487 4.53615 5.0273018
-6.6197848 0.45005548 5.1279974
6.1585259 1.6227199 5.1613126
-9.9459286 5.9242201 5.1387515
-9.5864658 6.1774702 5.1663589
4.6926804 0.39396834 5.2584586
0.48585868 5.21696 5.2686157
-12.333605 -0.86121935 5.3012934
-11.332638 4.8027959 5.329133
2.0038288 -0.026798785 5.4773464
-6.5964079 3.2821937 5.4305897
5.3654976 0.56383336 5.5044613
-6.4082665 1.3787191 5.5277729
-7.7092113 4.8461308 5.5845852
0.45665497 5.6850686 5.5380735
0.69068468 7.0991573 5.5825939
5.6515303 0.62895584 5.6298928
-10.477343 -2.6990218 5.7292695
6.3095961 2.7774606 5.7606263
-7.0577936 -1.8393074 5.8379369
-12.276092 -1.2507334 5.8998184
5.2643294 7.5668402 5.8425093
-9.0429363 -3.1195207 5.9014778
6.3150043 4.6582108 6.0943937
-9.2282619 6.0089617 6.0340366
-10.611731 5.2966042 6.1713877
-8.6661434 5.633532 6.1093125
4.7298908 7.9682031 6.1112108
-7.8141937 -3.0282645 6.2758222
-6.0896521 1.2836592 6.2919602
-9.7060375 -3.1170833 6.4366341
6.4257994 2.6421819 6.4954972
5.9587159 6.0475087 6.4742794
0.35432458 7.0945191 6.4733868
-6.5396223 -1.1238775 6.5707736
-6.2346582 -0.16996425 6.5815773
-6.6452661 -1.5199549 6.6188226
-12.56159 0.79738611 6.6440568
-0.032117803 3.6888056 6.7223754
5.6463184 7.1803222 6.704545
-7.0421634 -2.9182816 6.8183746
0.94756722 0.13742858 6.8202672
3.5647368 8.8628874 6.9914165
-6.3844709 -1.0805074 7.1562614
-9.8486328 5.7094679 7.3437195
1.2961059 7.7900863 7.3506355
4.7965622 -0.063370012 7.4961705
6.2427683 0.97520161 7.4597001
6.5626273 3.3172877 7.4484267
2.5666742 8.5184917 7.4135513
5.6579471 7.0318632 7.5033107
1.0438173 7.6069589 7.5544057
-12.515766 0.86513364 7.6673222
-10.198888 5.3443346 7.6851645
1.4908907 7.8576493 7.6080837
2.1132536 8.2061176 7.6856847
-12.213418 -1.4179664 7.7870383
0.14091745 2.4160604 7.7930546
5.335176 7.2141242 7.7410059
2.0520272 8.1542368 7.7769299
3.7067087 8.5592136 7.733726
-6.1883879 -0.8118943 7.8229756
-11.50588 4.2882032 7.8737855
-8.1735668 -3.2780857 7.906064
-6.1457915 -0.74995583 7.9605465
6.4336858 3.8568919 8.2079763
-9.5003433 5.7405243 8.2926254
-7.4593954 -3.2245626 8.3165979
1.1392735 7.5295043 8.3017645
5.1813345 -0.014164373 8.4623585
6.2726951 4.4201822 8.4392262
-8.2031345 -3.3512552 8.579546
-5.6311684 0.33204836 8.5370464
-11.500475 4.0952172 8.6495104
-11.07111 4.4049649 8.6566553
3.9174552 8.1499538 8.6704235
-8.6648788 -3.4273868 8.7182283
-5.5494275 0.35998034 8.791687
-6.2747345 -1.5742177 8.8344898
5.1453738 -0.068166077 8.8798084
-11.202177 4.2906718 8.8532648
0.063445657 6.5585198 8.8408966
-12.16261 -0.954561 8.9670696
-5.6382594 1.5134889 8.9302778
6.4889193 2.5157685 8.9701405
4.7719641 -0.22042267 9.0162067
-6.604166 -2.7203331 9.1223946
-5.6216702 1.5960431 9.1276236
2.8925626 -0.9335165 9.2948303
0.56560463 0.76124239 9.2177906
-5.7185545 2.9281683 9.2130241
-0.011817854 5.5916257 9.2230024
0.97874427 -0.55621552 9.3596506
6.5634937 2.9907007 9.380187
6.2126899 4.3859959 9.3981056
5.8834877 5.6626654 9.4248123
-0.051263578 5.0856237 9.7718935
0.9886905 7.1774383 9.7873192
3.3233938 8.3734064 9.7310352
5.8360548 0.11484137 9.8257999
-5.3628602 0.21844959 9.8057575
-5.2260656 0.44496357 9.8528309
6.1907649 4.3448277 9.8509798
0.014591329 5.9325013 9.8356743
-5.6965852 3.889514 10.055757
0.53393096 6.8402414 10.198626
5.4252262 -0.094906792 10.225191
-0.22571526 2.5244038 10.300649
2.8308492 8.1464748 10.367663
-11.054865 -2.5991704 10.433737
-6.0339994 -1.6301409 10.434635
-12.210286 0.44501871 10.487836
-5.1474247 0.69349736 10.4842
-5.6183991 3.6195853 10.536201
2.9853418 8.2112627 10.508927
-10.223264 -2.9004273 10.628706
-0.039606631 2.0349376 10.683364
2.1177936 7.6828842 10.640249
-9.8635445 -3.0299177 10.748386
3.0854771 -1.171468 10.776248
-9.4769115 -3.1903174 10.828319
2.6399949 -1.1660502 10.894454
6.5588064 3.0422411 10.808953
-0.08387287 4.6685891 10.817845
-7.4836426 5.0033994 10.81967
-9.6466064 -3.1045501 10.969406
-0.37888706 2.5997913 10.904427
2.8650126 8.0617046 10.955664
-10.675312 4.1923518 11.113661
-5.9991922 4.132369 11.174035
3.594275 7.8010159 11.11944
-11.341683 -2.3925345 11.205626
-5.2527933 -0.25854981 11.233773
-5.5227079 -0.80616307 11.353169
-6.4790287 4.4026828 11.385098
1.1077261 6.9755998 11.310738
2.9657869 8.028389 11.472424
-7.038332 4.7216845 11.529592
6.0579114 0.61139244 11.666582
-11.887767 -0.96096885 11.750003
6.0385566 4.409493 11.74215
6.5675855 2.5904014 11.876543
-7.9367533 5.2315845 11.870746
-5.6188827 -1.268579 11.959337
3.3152573 -1.213418 12.079135
-12.010069 0.085023552 12.006073
-0.51385856 3.0882454 12.09049
-11.584727 -1.6272837 12.184809
-11.827774 0.98621696 12.156688
-5.7649045 -1.7240832 12.286983
-5.1829243 -0.5940218 12.209168
-11.980185 0.012293309 12.20547
-6.0036516 4.1002517 12.236549
-6.2629642 -3.2750218 12.35376
-6.0958805 -2.7497585 12.321287
2.5653532 -1.4139605 12.433376
-8.7672873 -3.5333114 12.584255
-7.6329875 5.0329204 12.552006
4.6277833 6.6524343 12.668512
-8.9926987 -3.4148991 12.742798
5.1857691 -0.42661166 12.718327
-11.72883 1.0041977 12.800949
6.2675161 1.0538244 12.850567
6.4817986 1.7949231 12.850458
-10.222031 4.1447544 12.856041
-7.0895586 4.7082243 12.839247
-8.8700314 5.0731201 12.817866
-8.1042328 5.295855 12.868102
4.8980265 -0.5544154 12.931118
-0.25461885 3.9969749 13.076595
-9.4666204 4.5529647 13.093143
-4.6959906 -0.18002376 13.203957
-6.1538234 4.1529188 13.280531
0.21663235 6.1106625 13.274362
0.75925857 -0.80242693 13.310466
-5.1143389 2.1809964 13.427647
3.4251733 -1.342772 13.583691
1.3513747 -1.2737334 13.55144
-0.64074099 2.1444967 13.575666
5.8125525 4.7660761 13.618808
-8.6339073 5.0415773 13.665289
3.7723999 -1.1827712 13.751033
-4.803791 1.40891 13.732377
-11.73761 -0.58155936 13.818986
4.0113354 6.7811642 13.952436
-5.1579714 3.1169224 14.10713
3.2899218 -1.4984913 14.271671
5.9502316 0.54346138 14.372002
5.9394855 4.2081318 14.46496
-9.8616638 -2.9420907 14.590219
1.0532278 -1.3235117 14.595085
-0.4467257 1.4364567 14.529564
5.549521 5.5311155 14.55171
4.776021 -0.77400929 14.66779
1.9985005 6.8982601 14.658413
-8.8905563 -3.4405165 14.793979
-11.279594 -1.338549 14.735703
0.42889103 5.9687905 14.76775
5.4258246 5.736186 14.813412
1.5795591 6.6175914 14.870766
3.4383159 7.0007524 14.815372
-7.0824232 -3.7825317 14.960549
-11.083601 -1.6366508 14.911212
-0.05220037 5.0849462 15.068019
-0.22132008 0.78965372 15.144561
0.14995374 5.723948 15.23638
-5.773468 -3.2555203 15.337455
6.3230667 1.2742753 15.310174
-4.7648859 -1.3922164 15.495783
-9.4608765 -3.1362505 15.548538
0.55242455 5.8937521 15.594443
2.5505126 -1.9435081 15.600698
3.9994416 -1.297101 15.62611
-8.5117512 4.6540456 15.662274
-5.1681032 -2.2581601 15.775107
-0.70869315 1.4614487 15.853833
-9.7768707 3.8619106 15.85858
4.552021 6.0690784 15.869394
-7.8769145 5.0541992 15.94065
6.0711603 0.85069132 16.135818
-0.77031654 1.471498 16.153645
-11.024965 1.6295691 16.178047
-4.2347994 1.066972 16.279926
-10.31912 -2.5345936 16.396976
5.2693033 -0.61246979 16.376299
-8.0828676 4.779592 16.377842
-7.899056 -3.9308341 16.408461
4.1007996 -1.35144 16.483311
-4.7195029 2.6080675 16.427425
5.9781799 3.760196 16.4011
-9.7006445 -2.9999359 16.501659
-0.41408098 0.63750505 16.597475
-7.2215829 4.6614451 16.598133
2.4184597 -2.0615349 16.627932
2.8614731 -2.0193887 16.617085
-10.42205 3.2342918 16.636709
-11.493227 -0.28751075 16.722908
5.9306431 0.62148285 16.743477
-0.57771796 3.4642854 16.747829
-5.0116835 -2.3154855 16.810791
-11.198118 0.8566854 16.848087
-5.7634511 -3.5568976 16.965309
-4.3385482 -1.1174558 16.969685
-0.69656277 1.1106086 16.91291
5.5236921 4.988667 16.932241
1.7268248 -1.908061 17.003641
3.3157558 -1.8429831 17.037865
-0.10100496 0.074353218 17.066662
-4.6075487 2.5134728 17.08674
-4.1361022 0.86143959 17.153
-11.200328 0.69389367 17.227411
-10.776209 -1.4031558 17.307407
-4.8227139 3.1859119 17.305593
-0.10387146 0.11126429 17.494961
6.3189921 2.4051442 17.495901
-10.365819 3.0090179 17.416054
5.7876925 4.1319919 17.44943
5.9927773 3.4464135 17.537094
2.1440682 6.468123 17.558109
-8.8708344 -3.4192216 17.673231
-4.0924459 0.59847027 17.613266
-6.6195669 4.2221813 17.682821
1.7287695 6.2035737 17.692207
-0.13586104 4.7158523 17.775665
3.4385214 6.3873224 17.753225
2.7651227 -2.2428989 17.82929
2.8178563 -2.2059727 17.828112
-4.3105402 1.1984184 17.966413
-0.76101333 1.1467189 17.97714
1.2696135 5.8589606 17.934326
-7.6537118 -4.0612655 18.050325
-10.858584 0.93051302 18.168585
5.4650688 4.5913105 18.168272
5.8635979 3.2292001 18.212137
-10.017343 -2.115629 18.395929
-6.2669725 3.8446126 18.305433
-0.99221015 1.478117 18.414785
4.7130885 -1.2249779 18.58828
-10.799683 -0.83693111 18.526358
-8.5590324 3.8910272 18.567215
-9.7342415 -2.4556501 18.754705
-9.1315298 3.4595242 18.803862
-7.0997601 4.2154126 18.886478
4.6647997 5.1493969 18.873806
-7.7614059 -4.0390453 18.952358
-4.513082 1.6188697 18.928268
5.8672619 2.5829277 18.985418
-4.843966 2.7310014 18.919865
-5.4825287 3.2015665 18.970507
-8.8739071 3.5428786 18.964073
-4.9514008 2.8647363 19.039196
-8.7004528 3.6278777 19.002445
-0.53725636 2.4685278 19.136864
-9.1004457 -3.2373614 19.271187
-5.0275831 -2.794255 19.390766
-4.3940544 1.3056619 19.384954
6.1024437 1.6659318 19.303854
-0.74466836 1.8083082 19.446907
-6.7272358 3.839896 19.45216
1.5431863 -2.2108865 19.548059
6.1144505 1.4565997 19.5403
6.0135188 1.638345 19.69059
5.1278811 -0.57597733 19.721388
-8.2459383 3.5320702 19.780777
-7.6088696 -4.2556677 19.843357
-10.299053 0.80678773 19.862171
-4.8428164 2.4205768 19.897425
0.52015078 -1.3535646 19.90313
-0.86917979 1.2999345 19.913984
-9.8853502 1.8583981 19.925247
-5.9700785 3.2253006 20.097637
4.5232177 4.6504173 20.186991
-6.0569696 -3.9540224 20.263472
-7.237062 3.8637478 20.251146
-0.15684521 -0.1509648 20.386917
-4.934618 2.5745811 20.321548
0.94670951 4.6898875 20.363346
-4.1716709 -1.6185782 20.474878
-5.3817315 -3.4731174 20.516808
-9.7905922 -2.024673 20.573788
0.64851546 -1.6021019 20.549812
-0.65372652 0.67620063 20.572369
4.1120715 -2.0272605 20.685759
-9.5075274 2.3321676 20.605473
-7.6407585 -4.3430581 20.840868
-7.8117237 -4.2184086 20.896345
-5.9529991 -3.8959455 20.820026
0.38012803 -1.4023288 20.990719
-4.4870768 1.5483706 20.919853
3.2250569 -2.8014822 21.017239
-4.3081264 1.0934446 21.051224
-5.5003366 2.7641304 21.011051
2.6881032 -3.0794716 21.123905
-9.9389944 0.66915476 21.116413
5.2838469 -0.68509102 21.249308
5.3122149 2.8970017 21.320673
-7.2632785 -4.6008005 21.530563
-0.80975217 0.89285803 21.550417
-0.61077327 1.338613 21.589479
-7.5652518 -4.433754 21.662992
5.4761686 2.3068271 21.645178
-0.18033944 2.4688311 21.619333
3.2284794 4.8593907 21.780933
-3.6324067 -0.034061015 21.93487
5.7084107 0.14519793 21.986839
0.54437673 -1.7296683 22.078102
-3.8129418 -1.6704261 22.076332
-4.081202 1.0800062 22.060953
5.6850371 1.764315 22.061157
0.49602342 3.9492528 22.067968
-8.237236 2.8116224 22.164803
0.19113015 3.2978778 22.148176
-4.1940098 1.5135269 22.297176
0.34968561 3.6879287 22.253445
2.9081287 4.8961215 22.239227
-8.019165 -4.12041 22.372417
-4.4801102 2.2077045 22.451414
-0.36208859 2.2779007 22.417868
0.1809925 3.3134627 22.41234
0.84560061 -2.228334 22.561146
-7.0811448 3.2564142 22.568584
-0.57982123 -0.24008119 22.698681
5.1621909 3.4108007 22.600679
-6.5876093 -4.6298532 22.982117
-6.1098905 -4.3549786 22.920116
-3.083111 -1.1807058 22.953192
-10.334991 0.26500237 22.989861
-8.8987808 2.5893855 23.03067
1.1739289 -2.8637078 23.144054
-10.115016 -2.1709497 23.16148
5.938992 1.2181504 23.193026
-3.8526962 1.54974 23.152229
-8.4078598 2.8128645 23.18644
-7.1255293 -4.7068944 23.231298
-5.6511803 -4.3445206 23.251188
-9.0998945 -3.773489 23.288019
4.0073786 -2.9814279 23.283989
0.29266959 -2.119113 23.293594
-9.9721699 1.657423 23.377356
-4.1105113 2.29282 23.329901
-9.1791954 2.5284455 23.373741
-4.5106921 2.6062155 23.434381
-10.323479 -1.5049685 23.595715
-5.543951 3.0614796 23.569471
2.622694 4.8725624 23.545349
1.927174 -3.555979 23.628666
1.0226094 -3.1265686 23.678402
4.2857809 -2.9947689 23.60631
-10.330201 0.21167341 23.642818
1.2763278 4.3181114 23.694998
-3.1530528 -1.8097425 23.776176
-8.2554541 2.9600463 23.728323
-8.6609783 2.8132501 23.85487
2.4232094 -3.9434083 24.052387
2.3115268 4.8331413 24.001961
-8.1226397 -4.5000434 24.134268
-8.7046251 -4.2134337 24.182959
-10.071415 -2.4104445 24.142483
-9.8422661 -3.285872 24.273989
-3.1564069 -2.0353446 24.331108
0.35534102 4.058156 24.364929
-4.6252723 2.8447196 24.404045
-5.2504663 -4.8010178 24.554205
-1.0560316 0.79508722 24.552011
-3.6633265 1.9956826 24.543865
0.68938118 -3.4053786 24.74321
-4.0303516 2.6028988 24.749304
-5.5198684 3.2783809 24.794523
1.6523775 4.6440659 24.748083
5.9698849 1.1953368 24.80772
-3.6128075 -3.0110586 24.942944
-10.498448 -0.77274781 24.950579
-3.8343797 2.527858 24.923004
-7.2393909 3.5964427 24.999432
4.0488281 4.4812174 24.908657
2.4263616 4.988658 24.92487
0.39670008 -3.374398 25.017836
-10.302668 -1.3809447 25.130596
5.2853775 3.2878213 25.180393
4.0720248 4.4414334 25.128122
2.9563038 -4.1011028 25.201591
-7.3059921 -4.9665823 25.308369
-3.2452965 1.3137919 25.393066
5.2067137 3.4982047 25.390842
3.8066955 -3.7509537 25.49305
-5.8325171 -5.400229 25.59794
-2.8141439 0.07351312 25.624578
0.92089963 4.2437019 25.660717
4.4602895 -3.4192693 25.736897
-10.290798 -0.31012481 25.813709
-3.1547155 1.4304734 25.894386
2.9300265 4.8753114 25.836033
-3.1797652 -2.7044346 25.922647
5.499855 -1.5634295 25.924343
-10.010589 -2.0148098 26.073338
5.9181757 -0.33689773 26.041367
-2.8580749 0.59144473 26.070833
-6.5608687 -5.5126133 26.177181
5.0630245 -2.8062677 26.117998
-2.6758089 -0.69880468 26.12418
-2.6817219 -0.45381731 26.153187
-2.979198 1.0467007 26.13398
3.1056323 4.7502294 26.16785
4.8411551 -3.26331 26.246319
-0.99584866 -1.0971318 26.280205
6.1238909 0.34886292 26.348858
-0.88743919 1.9865513 26.35339
-4.5796309 2.9765291 26.383652
-9.6511908 -3.2412932 26.454792
-2.7550004 0.60637254 26.499886
-1.0924726 1.3296695 26.408182
5.4525852 2.5084231 26.58404
5.9967346 -0.085960299 26.640083
5.5630922 2.1515844 26.62989
-3.4043245 2.4712563 26.708
-4.4437075 2.9453397 26.775063
1.9496691 -4.6842237 26.880939
0.78319681 -4.3335066 26.854002
5.6885614 1.7082139 26.894899
-5.0154934 3.192733 26.897121
-0.83228606 -1.5760611 26.925568
5.9612231 -0.2129603 26.966118
4.8817892 3.9672198 26.948765
4.7097068 4.009882 26.936743
3.3987703 4.5080643 26.973679
-5.6531439 -5.6857567 27.038414
-3.0783277 2.2058053 27.129429
5.3270578 2.8974743 27.194527
2.6860077 4.8158092 27.136555
-6.769259 -5.4913373 27.312483
0.51841915 3.9443231 27.306061
5.2943811 3.0289247 27.443817
1.3203344 4.2787094 27.41238
-9.5756226 -3.137517 27.571194
-2.4735262 -2.0426037 27.5697
-9.5936737 1.9512055 27.564775
6.1028171 0.2602399 27.681355
-4.2537656 2.9213221 27.648533
0.95969141 -4.7064762 27.728662
-6.9462714 3.5217223 27.797451
-8.8723984 -4.3246555 27.802485
-9.9441738 0.1325613 27.844395
-5.5465455 3.4076438 27.849232
1.4967341 4.2907472 27.867619
3.5263925 4.3336701 27.845211
-1.209851 -1.2528927 27.902342
-9.7717428 0.93458056 27.92454
-0.82883793 -1.9356022 28.03718
-8.7330647 2.8722057 28.034885
-0.35310531 3.4915919 28.042395
0.68370348 3.9568121 28.083973
4.7184486 3.9446242 28.061644
1.076489 4.1055217 28.084339
5.9501457 -0.27826291 28.1975
-0.86984748 2.6980793 28.205997
-3.6630287 2.7104955 28.299519
1.3908376 4.2014818 28.276253
-6.214488 3.6682167 28.487467
0.59151483 -4.8821425 28.599419
-9.9108276 -0.018651932 28.579433
-2.4584355 0.43116909 28.56921
0.022310525 -4.6918793 28.622261
5.1850801 -2.8349392 28.666653
-1.0674585 -1.7469653 28.698376
0.68584883 3.8913953 28.634487
3.306968 -4.7995858 28.751099
-3.0757027 -4.2411203 28.775942
-2.7702665 -3.4077229 28.767143
0.018390119 3.6159606 28.720301
-1.1434937 0.4971559 28.863552
5.7304339 1.2229093 28.862936
0.15123045 -4.8783107 28.930878
-8.6205692 -4.0331125 28.928616
-0.56818604 -3.1537566 28.90255
-2.5404849 1.901186 28.909237
-3.1388912 -4.7415223 29.165562
5.116971 -3.09848 29.179834
5.2037306 3.3563683 29.201797
-9.2469578 -1.9105844 29.343027
-3.1505992 2.5382547 29.311409
-0.82318127 -2.7895532 29.472919
-2.2665966 -2.2186024 29.463665
-9.1595364 0.86517739 29.423481
-8.5268335 2.9315016 29.427309
3.3976302 4.1913295 29.408398
3.0970483 -5.0922661 29.507706
-2.9218054 -4.5262871 29.595959
-7.291255 3.2995441 29.505926
5.1761189 -2.9191215 29.706051
5.272541 -2.5951295 29.737284
5.9272161 -0.39044398 29.735327
2.9674222 4.3456526 29.7047
4.1423526 -4.4465637 29.813543
-9.3007364 -1.5007803 29.975079
3.3151019 4.1766076 30.029587
-6.3622007 -6.0127997 30.230154
4.6625834 -4.1724982 30.20307
5.7012224 -1.1627295 30.229807
-9.2759666 -0.019508243 30.2691
-1.0823996 1.982264 30.230789
-0.21155015 -5.0296974 30.393152
-9.0186529 -2.2499676 30.395498
-9.285553 -0.10782683 30.368307
3.7552137 4.0496373 30.378563
-8.2137098 -4.780601 30.484543
2.6188304 -5.5445395 30.517555
-1.9532622 -2.149852 30.5487
-1.0805902 -0.78986603 30.643795
-8.4341221 -4.0140409 30.745874
4.0446978 3.9561136 30.786453
5.6640282 -1.3010997 30.80678
-1.0539138 -0.64949578 30.834171
1.2491792 3.8432946 30.807652
1.5530701 -5.5157108 30.980293
-8.4888029 -3.7398663 30.998192
-2.9559388 2.4658523 30.974512
-3.4279101 -5.9928617 31.029858
2.5121293 -5.6649504 31.074135
-7.6757617 -5.1551833 31.051275
-8.3013029 -4.3491831 31.002495
-2.707747 2.3958361 31.086802
4.993958 3.7111235 31.024714
1.749383 4.0047956 31.039839
-0.024300035 -5.4133492 31.19693
-7.9661288 -4.9646602 31.196289
-0.45504531 -4.7313328 31.118687
-9.0163574 -1.9272227 31.142799
-5.6407585 3.4983144 31.184629
-1.8689276 2.2894638 31.211977
-3.7620537 2.8730712 31.28688
1.093242 3.7173212 31.226891
5.7208052 1.0623907 31.38452
1.1297247 3.5760832 31.317093
1.3497996 3.6673899 31.365341
-2.7224236 -5.3456941 31.415169
-7.4653597 3.2207532 31.445616
-8.6654167 1.8514034 31.551346
-0.31531948 2.6516571 31.551243
4.1803951 -4.6391931 31.677891
4.2852659 -4.569211 31.692858
2.5083046 4.2048159 31.609777
-6.9907246 -5.5422697 31.794765
-0.7361604 -4.4683704 31.849525
-8.9685307 0.40638602 31.868748
-0.22425154 -5.6782098 31.960018
-8.7837839 1.164046 31.968372
5.5734835 1.6667387 31.968826
-1.5600023 -4.9749565 32.017521
2.2174933 -5.7934408 32.194458
-4.8802247 -6.2433176 32.207832
0.62340683 -5.7887707 32.270622
5.6400461 -1.4210688 32.213264
5.6789827 -1.2892101 32.201244
5.4811697 2.0158215 32.251068
-7.5064683 -5.1229172 32.528324
5.0886583 -3.293596 32.545078
-1.2445943 -6.1954813 32.675476
5.5006647 1.8440441 32.742569
4.8854661 3.6367416 32.782387
4.0210805 3.9705241 32.700787
-2.4758031 4.2016354 32.729576
-0.56070936 4.242496 32.799839
-2.1241448 -6.3349919 32.882462
5.9478478 -0.011418387 32.801037
5.9357719 0.032252342 32.843151
-8.5681486 -2.5845256 33.029743
5.8979492 0.15945676 33.13847
1.8486294 -5.9752412 33.273525
-8.264492 -3.4756584 33.29575
-2.278595 4.3772154 33.276112
-8.4418507 1.6518376 33.486504
2.4027221 -6.5081224 33.668922
-3.7880993 -6.4109025 33.603878
-2.3864262 -6.4822578 33.643566
-8.4107275 1.6502008 33.690563
2.7041764 -6.5169325 33.806557
4.8317289 -5.3155351 33.987938
5.2735591 -2.8053827 33.995178
-7.94596 -4.2170362 34.016735
5.9316068 -0.84757543 34.061218
2.572742 4.4237785 34.068016
-3.1566787 -7.2959342 34.151798
5.770709 -4.0987911 34.136276
-8.3382864 1.5820075 34.263382
-11.386035 1.8055062 34.233604
5.9829245 -3.1674833 34.382252
-6.3540459 3.7890458 34.36462
-0.83953726 -6.6511431 34.477596
-5.2864704 -6.4191327 34.433281
-8.2500124 1.829968 34.458332
-6.9738626 3.5103679 34.48391
0.70036662 -6.9934287 34.509041
-3.1815202 -6.4747782 34.583199
-8.8099937 -4.6187477 34.552044
6.0046878 -3.7030244 34.570984
6.3840542 -1.7133595 34.525753
-8.9381714 -0.84661466 34.522884
-1.6429846 4.6396995 34.581623
-4.5975752 -7.100461 34.657322
-12.486625 1.5341219 34.692707
6.3348446 1.5219282 34.671947
5.9877934 -2.7990952 34.752144
6.4658079 0.55938011 34.779362
5.4586916 1.7447407 34.725681
-6.1835475 4.5418615 34.752289
-5.1240511 -6.4270062 34.843719
-8.7333307 -4.7910781 34.840286
-8.7109203 -0.15136653 34.884182
-4.1820059 5.2607026 34.880165
0.23862749 -6.3128529 34.96014
3.6698415 -5.2475901 34.928135
-11.656992 1.3323048 34.947105
5.3971815 1.9657916 34.963978
-12.091972 2.8588762 34.95335
-8.2094679 3.3609593 34.966499
-6.4225283 4.3874483 34.929073
0.29473877 5.2770047 34.924873
-7.5581398 -4.7612009 35.040596
-11.75647 2.781527 35.008198
-1.8683907 5.2743821 35.05835
-1.7974389 5.212184 35.09861
-0.15048476 5.2284675 35.065079
-0.6478948 -7.3186026 35.117039
3.0462325 -5.7487278 35.131241
6.319541 -1.3877565 35.126217
-9.6273413 -0.81124055 35.117115
-7.9956861 2.4895453 35.103298
-7.4678068 3.2591786 35.176006
3.785697 3.8437352 35.134541
-2.4486611 4.7020788 35.118546
-8.0673475 -3.3618114 35.203766
-8.871418 1.5893217 35.211105
-11.691599 2.6317039 35.23328
1.4416806 4.7295861 35.260777
-2.7599523 -6.6047392 35.329803
-8.7077789 -3.6346412 35.334332
-9.3397665 -2.0957336 35.386745
-9.447648 -0.99542165 35.392689
-11.887275 1.5223843 35.398651
-8.6242962 2.3205831 35.328941
-1.2026474 -6.6963353 35.484932
5.0192866 -3.7586453 35.415264
-9.1254511 -2.0080376 35.456463
-12.078416 0.1572649 35.456207
-12.506342 1.9300797 35.438709
4.815793 3.7581918 35.453617
6.2728395 -1.239311 35.556908
6.45017 -0.6864897 35.595371
-12.273815 3.2894335 35.544445
3.0427318 -6.7341251 35.612
-4.4034648 -6.4442921 35.657467
-3.7844176 -6.4855232 35.616718
5.9880543 -0.33368152 35.677441
6.5428095 0.1981284 35.666496
-13.2997 2.5011096 35.669277
-3.5422177 4.7202988 35.613289
-6.8776498 -5.2363777 35.713463
-9.0650225 0.82382214 35.77375
-11.929569 3.0882449 35.700676
-12.047128 4.4202023 35.728546
-3.8482072 4.726326 35.77034
0.6092751 5.217886 35.724827
0.41244304 -6.8463426 35.848049
-9.5151625 -0.82756603 35.896503
-12.118532 0.89647943 35.834
-12.798723 4.2308869 35.860786
-5.2970495 4.2064686 35.877293
-3.9277654 -7.2911592 35.905834
2.1542566 -6.2797732 35.990997
5.8457103 2.0984755 35.934666
-3.6589839 -6.5408421 36.014458
4.0806537 -6.2046461 36.059967
5.0364118 -5.4666319 36.072678
-8.3741159 -3.5859127 36.092407
-7.9310446 -3.446177 36.054897
-8.9529486 -1.6748993 36.061638
5.8089461 -1.5662047 36.01598
5.8276882 0.25956649 36.009861
6.2416234 1.4806066 36.051853
5.1184239 2.9964411 36.061165
5.6522388 2.9760203 36.06805
3.6436124 4.5253754 36.082367
3.298018 -5.7022448 36.169556
-8.6898832 -1.0430971 36.189293
-8.6901054 -0.65681022 36.114273
-8.271595 0.94702864 36.129139
-12.954649 2.3212304 36.173336
-13.760019 2.8567812 36.193588
-3.1254153 -7.4087133 36.228844
-2.3025672 -6.7385778 36.263306
-8.7584648 -4.0112071 36.28067
-8.231245 -2.4433661 36.234509
-12.09756 3.9333944 36.214386
-2.9359381 -7.0688734 36.3466
-6.2836347 -6.7505608 36.355164
-8.4827604 -1.6305631 36.321396
-7.5705729 3.5852418 36.384102
-7.343627 3.7138805 36.396667
3.5571949 4.5651026 36.393261
3.2533188 -5.9765849 36.441853
5.7082319 -2.2559743 36.496025
6.6900797 -0.98860127 36.421989
-8.5874844 2.3678956 36.492958
4.7409568 3.3565755 36.419838
-2.4133213 -7.1998882 36.583954
4.5312648 -5.9327192 36.545815
5.7146621 -1.7987977 36.557854
6.0299902 -1.3080465 36.520336
-13.669416 1.1703176 36.541553
-13.539909 2.4143252 36.511841
-5.1953411 4.6897159 36.529335
3.0456262 4.8516698 36.587341
-1.3889095 4.9922185 36.562832
-2.8488648 -7.4488316 36.668751
-2.3953593 -7.4574227 36.603718
4.4320488 4.0102978 36.614815
2.8914487 4.2293639 36.618752
-0.24799269 4.7789621 36.605114
0.050576359 5.1516314 36.674473
5.1145463 3.0994473 36.778675
3.4303584 4.6234303 36.797691
0.16435611 4.7837486 36.734692
-3.680099 -6.783041 36.837452
3.7519739 -5.5230999 36.897018
-1.1601205 -7.4740353 36.933922
-8.1115007 -5.3383217 36.959232
-7.0187225 -5.2924776 36.90073
-8.0605898 -2.6803658 36.906219
6.5265727 -0.062610388 36.976639
-2.0296631 5.1467247 36.929638
0.69656724 5.187191 36.986015
-4.909657 5.2062783 36.903225
-2.4912779 -6.7720165 37.025826
5.9307318 -0.7130633 37.084972
-4.454011 4.7766943 37.079037
0.32731432 -7.6704803 37.116749
-4.6591134 -6.5896149 37.182369
-13.178316 2.2635021 37.175846
5.4004102 2.6217966 37.155613
4.226408 3.5466428 37.138119
3.2693548 4.6858978 37.161453
5.0407538 -3.6685882 37.253471
5.3836842 -2.6175234 37.261215
6.5524549 -1.6141266 37.200611
-12.368534 1.0679408 37.292747
-13.120821 1.2060162 37.26989
-8.429697 2.7423534 37.256474
-7.8512673 2.9363987 37.249557
-0.70524949 5.0971327 37.2528
-3.0049827 -6.7593203 37.343491
-3.9990349 -6.6637583 37.337196
-7.7957764 -3.5979052 37.329258
5.5592012 -2.1182177 37.360428
-8.4312792 -0.63606358 37.356319
-14.001589 3.400198 37.357468
4.4386444 3.4489951 37.352509
-9.2142143 -1.5585537 37.479454
-8.0564756 1.330399 37.411354
-7.7060518 3.1273129 37.420933
5.4174724 3.2987893 37.438782
-4.2579727 4.8080354 37.456562
-0.9887048 4.8091946 37.427872
1.1510642 4.8117094 37.493443
-0.40960151 -7.5528555 37.513939
-2.5723462 -7.4387279 37.564453
-7.7301574 -5.5499668 37.589298
-8.3655539 -0.58694232 37.595528
-13.096428 0.46872741 37.578056
-13.795815 3.3975122 37.562897
3.5871043 3.9789548 37.577976
-2.6298089 4.8145866 37.576599
1.2938192 4.8480635 37.52581
2.8256676 4.925591 37.537949
2.2415559 -6.9750586 37.675732
-7.0857291 3.4177032 37.657822
4.3880773 3.9304633 37.612057
1.7824616 4.8180952 37.666199
2.7047148 4.422575 37.719028
-4.1270556 5.2185392 37.713593
-3.5084662 -7.354239 37.819233
0.54456544 -7.605257 37.995377
-13.849908 2.0368161 37.93787
-8.5155993 -4.0701308 38.079082
-12.807869 2.9087296 38.036922
-3.9957221 5.1682353 38.021324
3.2791631 4.5087414 38.275139
-1.3263861 4.9933414 38.23877
5.0561724 -5.3287411 38.331627
-12.30959 1.8864927 38.320404
-1.9361143 4.9683237 38.565857
-13.348127 1.3395575 38.641113
-12.675071 3.5359159 38.743347
-6.96105 3.6732111 38.774742
0.36676154 4.9869499 38.738308
-1.2169149 -7.4507027 38.816708
-4.4092307 -7.0574608 38.906784
4.0060692 -6.0623226 38.958652
-7.4110732 -5.5377674 38.939728
4.8528004 -5.4035196 38.986858
-10.825558 1.4746984 38.947891
4.1705647 3.8187747 38.922443
-2.9703088 4.9715919 38.948196
-3.9843745 5.0480552 38.919571
-7.2511725 -5.6442871 39.007839
5.9948339 -3.144834 39.083588
-9.0317898 -1.4679842 39.000435
2.8668799 -6.7602158 39.165123
-8.4661636 1.547215 39.178417
5.6146603 2.9419847 39.147167
5.8806396 -3.5129452 39.211746
-8.5638924 -3.2435141 39.215691
-8.4012241 -3.7529926 39.396648
-14.048225 4.3411489 39.361584
3.1873169 -6.6741047 39.46563
-7.990427 -5.0036669 39.493519
-6.0824099 -6.4806957 39.514442
2.4104214 -6.8300114 39.623398
-8.1925449 -4.3955922 39.634731
6.2749476 -1.8474405 39.606567
-8.301218 1.9690957 39.614258
5.8006139 1.7132709 39.757668
-12.292986 4.2144928 39.743004
-11.056181 1.7826955 39.874966
5.6612301 2.3077004 39.849365
-7.3568158 3.2878301 39.889153
-5.0503502 4.6753402 39.821304
0.2695471 4.8608918 39.82626
5.6044579 2.5185597 39.935295
3.2465329 -6.5674992 40.070484
2.7423434 4.4912529 40.099426
-12.682451 5.0163407 40.136887
-12.02353 5.0220261 40.222637
-10.974419 4.1936207 40.324459
-6.3962736 -6.0785575 40.447445
-11.794981 4.5939217 40.489079
-4.2462082 4.862999 40.453308
-13.866569 4.9782863 40.446537
2.1290751 -6.8597112 40.566174
-13.848516 3.498364 40.508919
-13.701479 5.4338484 40.506741
0.40921772 -7.3414612 40.630127
0.52007633 -7.3408136 40.605377
-5.8043342 -6.5188608 40.683624
5.749588 -3.3959315 40.717915
-13.442219 5.4279327 40.724178
-10.998014 3.0887201 40.881195
-13.662085 4.5731173 40.800533
-2.1523056 4.7922449 40.862175
-8.0057268 -4.3325424 40.939705
-8.8039265 -1.3005736 40.964245
-7.4596338 3.0966077 40.90181
-6.2527113 -6.0932541 41.08247
-2.7097125 4.7792006 41.033058
-10.774841 4.0848255 41.16814
-12.092751 1.4114015 41.283852
-10.81276 3.7753592 41.260315
-1.7902824 -7.3153887 41.378948
-2.56424 -7.248311 41.388676
3.8708594 3.6487312 41.320229
-3.1399932 -7.1922598 41.496025
-8.3042994 -2.9103594 41.462212
-8.3260202 0.70851803 41.490833
-13.306547 2.5737524 41.462257
-13.870148 2.7514837 41.588661
-1.9207537 -7.2862425 41.629761
-10.878421 2.8072228 41.661301
-7.5441837 2.9685926 41.660328
-5.4998937 4.1405468 41.650944
5.6471519 -3.3941131 41.780518
-7.9700003 2.1358137 41.774879
-3.6881468 4.7393637 41.737362
-8.2093182 -3.1643505 41.884052
-8.6450653 -1.5257076 41.850174
-2.6750312 4.7348323 41.869202
2.5865452 -6.659255 41.975407
-4.1109161 4.7322388 41.940853
-2.101126 4.7324939 41.937328
-5.7792654 -6.3308792 42.033508
-8.0141897 1.8488176 42.162437
-10.799937 2.6223757 42.173321
-10.599985 3.7891762 42.143097
-11.823316 6.9649405 42.147434
-5.7148404 -6.3557601 42.216507
-8.376647 0.29771754 42.246601
-7.9992213 1.9001912 42.207836
-5.7132592 4.0029526 42.277592
-1.4901861 -7.2591038 42.392532
-0.66965258 -7.2669988 42.343979
-8.2802086 0.67671126 42.354103
-11.459768 6.4632502 42.306194
-11.680966 6.850389 42.306015
2.9320874 -6.4731855 42.421555
-8.2106123 -3.0246081 42.425655
-4.0919123 4.7129245 42.494713
-10.38852 4.80618 42.478157
-11.766012 7.0785923 42.448792
-7.5268407 2.9648137 42.566845
-10.746202 5.3663783 42.535656
-7.8327713 -4.5430408 42.608498
5.6351185 -3.2133548 42.611523
-2.0246363 4.7063217 42.686966
-4.9721575 -6.6243777 42.736771
4.8816705 -4.9343147 42.756664
-7.8152776 -4.6025271 42.74086
-11.255108 1.6832976 42.76199
-10.845755 1.8112973 42.75758
-3.0511026 4.7045517 42.73674
-10.680937 5.5383558 42.762764
-10.342815 4.2680316 42.834496
2.8328454 -6.4255161 42.939865
-3.7848794 -6.9140787 43.074299
-6.0723791 -5.9508791 43.000084
-10.284795 4.3621392 43.001804
-6.0554104 -5.9428916 43.146339
5.6633825 -2.964797 43.164635
-13.95063 4.3806434 43.144798
-7.0745206 -5.1198645 43.228584
-8.1751595 0.89277816 43.298058
5.2114487 2.8072696 43.267811
-11.228416 6.7349172 43.257519
5.2053022 2.8033321 43.374386
-8.3362131 0.30231392 43.453403
4.832427 3.0507154 43.449272
1.0015012 4.6766233 43.497364
6.0760136 -0.59633934 43.525265
-7.076829 -5.0742936 43.604725
5.5318036 -3.4712803 43.692806
-8.1089706 -3.2129295 43.612511
-13.82469 3.3090208 43.640209
2.077311 4.6094613 43.613876
-3.4929938 -6.9259791 43.798019
-7.5723553 2.923532 43.700478
3.1290438 -6.1527333 43.895176
-13.870824 4.7147346 43.809631
-0.039532959 -7.1023426 43.944374
-10.48704 2.4189827 43.913078
-10.289527 3.6276734 43.958473
-10.179508 4.3421202 43.916862
-10.016528 5.2435236 43.964577
3.2321928 -6.0533867 44.076462
-8.0693808 -3.327795 44.068478
5.8265715 -2.1449933 44.026436
-10.580987 2.1043241 44.087761
5.1573529 2.8100531 44.072132
-7.1526027 3.1544385 44.091667
4.6261568 -4.9558816 44.205608
-13.572514 6.5516214 44.292751
3.2735066 -5.9745326 44.383266
-5.7405052 -5.9985185 44.485863
-7.1121035 -4.9454722 44.484158
5.6607456 -2.8165054 44.429279
-5.2307243 4.2318091 44.424667
-13.542415 6.5719614 44.483372
-4.8550854 -6.3714805 44.569679
4.5015535 3.2228932 44.630577
-13.521722 6.5903411 44.605354
-12.69424 2.248487 44.705822
4.2328324 3.3724582 44.776848
-13.273505 7.2384439 44.770058
1.9797205 -6.4387522 44.845158
-8.6006193 -0.72332519 44.806728
-12.634113 7.4116902 44.879536
-1.0790627 4.6434469 44.952217
-7.6338978 2.8064876 45.078503
-6.0783377 3.7718291 45.005463
-2.002867 4.6458588 45.05043
-6.5797043 -5.2675371 45.126099
3.9589772 3.5554161 45.102268
3.8275232 3.6527319 45.331791
-13.263058 7.1992035 45.346897
0.806198 -6.886723 45.5429
3.7737026 -5.4347634 45.56015
5.6755018 -2.6786742 45.537689
-7.8322115 2.1716864 45.659279
-7.4251103 3.0760956 45.624382
-10.18383 3.2311897 45.677761
-9.736805 5.2847953 45.65443
-10.279825 6.7360544 45.630669
6.0595937 -1.1031585 45.71777
5.5547934 1.5958874 45.798401
-13.662151 4.3157082 45.785172
6.0368629 -0.19174969 45.877518
-7.9115715 1.9101006 45.838326
2.6837935 4.3533649 45.83062
-9.6581488 5.4673624 45.862049
-6.1389403 -5.5099607 45.910759
5.5003815 1.8952591 45.973778
-12.520032 2.8143401 46.094975
-7.3659334 3.1767406 46.198715
-8.2604561 0.70204246 46.288979
-12.24669 2.5434449 46.297314
-12.804533 3.316452 46.260048
-5.3467293 -5.8613634 46.376965
-6.0438948 3.920938 46.333382
-12.047382 7.9401875 46.335457
-8.4241209 -1.7872934 46.414974
5.8829412 0.67725849 46.415409
-5.6404886 4.1604681 46.43148
0.0011271238 -6.7348595 46.526726
0.26968026 -6.7194834 46.520184
-7.3798714 -4.5214295 46.51601
-10.787503 2.7959538 46.532494
-10.160355 3.0180607 46.512108
-7.6482038 -4.3107176 46.612705
-6.6152625 3.6399448 46.659485
2.4023123 4.5922871 46.635319
-0.92648292 4.6864157 46.702026
-13.400663 5.6286111 46.705494
-13.099815 7.1435099 46.723652
1.7742712 -6.1938486 46.854824
1.8020954 -6.1884689 46.821167
2.8497915 4.3626285 46.896149
5.8273606 1.1731278 46.98402
-9.3744154 6.1422672 46.969395
-1.4016382 -6.6970968 47.094185
-3.1732206 -6.4813375 47.087578
-2.8043182 4.6956291 47.077213
-5.9193006 -5.5310431 47.266228
4.8559742 -4.4311228 47.423481
-8.320817 0.68695384 47.490368
-9.3483286 5.8470454 47.463524
-6.063839 -5.3898029 47.585384
5.4814939 2.2785058 47.573296
-9.3249741 5.9023113 47.522736
-2.1734874 -6.4873643 47.656612
-8.120141 -3.2669122 47.646595
-8.2366371 -2.7319853 47.663342
5.5123281 2.2071421 47.660713
-5.7355981 4.2344995 47.633621
2.0275369 -5.9514728 47.764545
3.7212884 -5.2443705 47.733143
-9.3128347 5.8661308 47.703354
6.244482 -1.2321242 47.87606
-7.7378044 3.0419447 47.892166
-13.028957 6.8677192 47.84103
-9.1659288 6.4419713 47.957314
-9.2349768 6.5426979 47.941566
-4.5233297 -5.8998032 48.049782
0.48091269 4.7202282 48.078949
-10.371226 8.4800043 48.027546
-5.260633 -5.6785374 48.174713
-13.223118 5.644309 48.134762
-10.652571 3.4673705 48.244858
-13.158813 5.1243734 48.281227
-13.186422 5.7795768 48.295616
-10.777169 8.7444143 48.240505
-8.1406364 -3.208864 48.328384
6.0881777 -1.8760619 48.36557
-7.8831306 2.5803692 48.319313
-0.55888283 -6.4045105 48.406914
-1.957583 -6.3655486 48.430122
4.7154055 3.5392327 48.469463
-5.2693644 4.6130137 48.473698
-9.1252632 6.2129087 48.402996
-5.0358434 4.7488976 48.517639
-8.5833368 -0.14095393 48.648586
6.4414535 -0.24317497 48.75061
-12.785934 7.3526106 48.717762
1.1691817 -6.0130191 48.847588
-4.4034753 4.8040175 48.822845
-3.0138469 -6.1351538 48.907772
-2.7297113 -6.1579609 48.9813
-5.6659265 -5.4764924 48.941841
3.3093889 4.3959823 48.942287
3.1031098 -5.5415215 49.047791
-11.83438 3.5608513 49.028828
-10.79122 3.7087047 49.07777
5.943769 1.5073359 49.185711
5.4374828 2.9691057 49.194248
-10.124207 3.6118057 49.113731
4.6730928 -4.3878579 49.251526
-8.2619257 1.4768609 49.211044
0.2479113 -6.1859951 49.342915
6.5084772 -0.14580697 49.356941
5.641233 2.5187905 49.368038
-8.9459562 4.6903281 49.483398
3.6463125 -5.4955654 49.52417
3.590642 4.3567247 49.560425
-8.7474689 6.1458087 49.540707
-0.22110374 -6.1910663 49.672115
6.6781635 -0.5408721 49.674656
-12.883626 5.5878072 49.679489
-3.9569104 -5.8819609 49.746826
-8.2314453 -2.8216951 49.752129
4.795579 -4.8033781 49.834324
-8.5823326 -0.35832635 49.813084
-8.9213896 3.556015 49.920044
-6.6591272 4.119863 49.941643
2.1497412 4.9315438 49.949635
-9.5159302 8.317255 49.941219
-3.2281296 -5.9843602 50.061432
-8.2430782 -2.8488679 50.057205
-8.5869179 0.55489475 50.030266
-2.7566724 4.9396715 50.021454
-4.6936665 4.9806681 50.383675
2.6446071 4.9802337 50.379837
-8.126524 5.1579123 50.478252
-4.1335907 -5.7635903 50.515556
-8.0840273 2.4583988 50.503281
-11.377237 2.7692556 50.536304
5.5117569 3.2603207 50.513794
-8.0701771 4.9193988 50.583698
6.8439293 -0.43853167 50.607674
-8.6895075 0.41163105 50.611416
-8.4646683 1.32789 50.652386
-8.1339684 5.7367897 50.617218
6.5227785 -1.3047886 50.775978
-8.1198254 -3.5279822 50.802368
5.6244106 3.0998368 50.854012
-4.5519199 5.0295539 50.81562
-8.1088982 5.7502623 50.834156
-9.441638 8.5045595 50.861618
-1.2697761 -6.072154 50.960903
0.32679453 -6.0174088 50.973381
-6.0873723 4.6086187 50.909763
4.2427101 -5.2521601 51.067535
-1.1324666 5.0756855 51.22324
4.816577 -4.9003553 51.325802
-1.0881947 5.1025786 51.460861
-2.1472826 -5.9227333 51.567257
-3.6463675 -5.7875605 51.544174
1.7622869 -5.5437632 51.574192
-8.3165512 -2.8829541 51.578072
6.2975378 1.6719447 51.593155
-1.4098465 5.1090636 51.518162
0.12546369 -5.9331141 51.682449
3.1825898 4.9380703 51.635288
4.8097582 -4.8820395 51.708923
-1.2647052 5.1409483 51.722237
4.7460141 -4.6449804 51.855118
-12.026729 3.5858083 51.814926
-2.3637955 -5.850913 51.970299
4.5739527 -5.1003599 51.903923
-8.6635303 0.52191794 51.945099
-0.44326934 -5.8959551 52.072395
4.9934468 -3.9634523 52.035049
-10.936094 1.6982654 52.069176
0.81323349 -5.8436751 52.1852
6.9535279 0.22707623 52.166359
1.5531101 5.2107515 52.151783
-8.9366112 7.8443742 52.150925
6.2392259 2.0533214 52.228733
-7.5763712 -3.8159187 52.473011
-8.4853153 0.90455556 52.466595
-5.9358964 5.0821342 52.434933
-3.0618463 -5.7113876 52.581123
-8.9466534 1.1487668 52.524071
-12.587999 5.299612 52.523193
0.64206773 -5.783309 52.632561
-8.3669004 -2.0705101 52.655289
-8.5637379 0.74267328 52.639374
-10.936672 1.4239205 52.606346
6.5281982 1.5427077 52.626076
-1.8965136 -5.7766943 52.725651
-8.4771252 -0.51604748 52.725433
7.1375971 -0.56533754 52.7351
-7.6510563 3.2647984 52.751228
-1.4476888 -5.7836576 52.899399
-4.8262653 -5.3034763 52.816574
-12.536014 5.3744173 52.923546
-5.069725 5.3491235 52.982368
-8.1334763 6.4285007 52.99588
-7.4700136 -3.9709067 53.010674
-9.0385122 -0.50654447 53.289055
-7.8764524 4.3398876 53.234154
2.2590747 -5.7918 53.430893
-7.9544845 3.5754805 53.457909
-7.9023905 3.9556861 53.406555
5.5073037 4.3833666 53.405399
0.33088496 5.4448199 53.477631
-7.9028921 3.9760261 53.550018
-3.0910435 5.4637761 53.566517
-2.8336949 5.4549208 53.524994
-10.744246 8.0348473 53.538872
-2.4302711 -5.6142073 53.638351
-8.0916443 -3.0202482 53.728775
-7.9357157 4.6921906 53.794567
-9.1530704 -0.68407571 53.814419
-4.9775276 5.5303917 53.878918
6.863492 3.8927569 53.907314
7.0838318 -1.7276524 54.019016
-2.7873492 5.5605583 54.02026
-1.534952 5.5746818 54.086426
3.5511913 5.4673734 54.148361
-3.1836271 -5.509552 54.289597
7.6192265 0.71913946 54.20499
7.6114807 2.7610726 54.212723
3.9581699 5.3553638 54.272022
-5.9466996 5.5293965 54.275055
-1.3678122 -5.5483212 54.370583
-8.2948971 -2.710248 54.355854
2.2099714 5.6244164 54.378792
-8.2367172 7.0028415 54.315796
7.6872139 3.5938158 54.478638
-2.9071124 -5.4635611 54.513645
6.2846737 -3.2735991 54.511307
4.8579197 4.9962358 54.577629
-10.718404 7.5606146 54.52504
-5.6437802 5.6080108 54.690105
1.9062189 -5.150507 54.706734
-11.816621 1.7033727 54.737419
-3.9130702 5.7265797 54.798683
6.5297475 -3.1298723 54.807392
-2.999893 5.7459316 54.889374
6.7882628 4.2744803 54.987473
-12.071171 5.1413269 54.993645
-11.510799 6.5105391 54.999489
-8.9750013 -1.7150671 55.073746
2.0750115 5.7219496 55.16465
8.5422878 3.1825199 55.253334
6.7085304 4.4004726 55.247837
-10.411736 7.1855125 55.327232
0.4720794 -5.3019829 55.473064
-6.2633266 -4.4084311 55.463844
-11.697916 1.4467328 55.471352
9.2050037 1.8854634 55.461739
5.0947509 5.0851002 55.413597
-7.4855499 5.4544649 55.430862
0.15467346 5.8681469 55.462357
2.7945404 -5.2317133 55.507359
-3.470896 -5.1812506 55.553123
8.7380838 -0.83697844 55.548557
-10.98692 0.43787211 55.585388
0.79953551 -5.2534728 55.659451
-2.8398211 -5.1864195 55.645798
-4.6290369 -4.9183483 55.60817
-6.4488297 -4.2594252 55.620972
-11.813672 1.6239208 55.637161
4.5176983 5.4361153 55.714802
1.6608438 5.8251114 55.745941
9.7398481 1.923219 55.850849
1.8124902 -4.868083 55.95052
7.692132 -1.9402374 55.916824
8.0483856 -1.6139722 55.920471
9.7755547 0.68159413 55.989738
5.8924012 4.931386 55.971321
-6.6719398 -4.0060978 56.099709
9.5721121 -0.17926228 56.086262
2.5886393 5.7706127 56.091713
-10.275476 6.7979326 56.031246
-10.072084 -0.70769495 56.238747
-8.2796049 5.5834804 56.255798
-0.8467173 -5.0799003 56.318787
7.7547345 4.1641016 56.329803
4.6765079 -3.7289293 56.467236
-4.4420695 5.9423847 56.498558
-5.7767315 -4.2762952 56.68119
-6.446136 -4.0103545 56.600914
9.902113 -0.35761601 56.656326
-11.766115 1.575742 56.604774
9.5604734 3.2479384 56.658424
6.0413504 5.0711112 56.644875
-11.572263 5.1705408 56.617928
6.2923069 4.905488 56.797398
-8.2876396 5.6374726 56.728191
4.6401296 5.6296291 56.754921
-0.6645174 -4.9625826 56.801868
-10.12747 -0.53658581 56.814629
0.20908743 6.0907526 56.887985
-1.6909173 -4.9116917 56.924797
5.2632027 5.379293 56.950954
6.3768387 -2.8110824 57.078541
4.2070956 5.6970487 57.062195
4.733727 5.6018901 57.100506
2.8917577 5.8485003 57.127045
1.6425281 5.9818487 57.191681
-4.1521659 6.0552959 57.166851
1.3374853 -4.8095379 57.284149
10.133337 -0.65946519 57.270599
5.3740435 -3.2833862 57.361233
10.001968 -0.87463921 57.305504
5.2441454 -3.2284927 57.455292
-11.613405 2.1206517 57.423096
-11.432911 4.6509299 57.42046
-11.683521 3.4210079 57.557457
9.7188101 3.4629107 57.501522
4.7953014 5.4704151 57.563629
3.2036741 5.730288 57.578045
9.1933689 -1.7465298 57.686081
10.817525 2.5126741 57.734589
-4.267478 -4.2514839 57.850883
9.7779322 -1.7798073 57.899387
-11.026915 0.70506394 57.834663
1.9601563 -4.0829811 57.917511
-10.619972 0.2778579 57.919983
3.4503138 5.635375 57.946686
1.2501073 -4.3577223 58.018539
5.8186035 -2.3384795 58.049496
-11.256846 1.4578216 58.078709
-6.8129053 5.7422752 58.055534
-5.3570642 5.8881083 58.092041
11.26345 -0.040723443 58.193836
4.9325743 5.2654114 58.19516
9.909812 -1.9721477 58.269779
10.926862 2.8485367 58.214146
-11.47097 3.1597779 58.215408
-9.6615925 5.3772516 58.212223
-8.0411367 5.2567797 58.342247
-10.988512 4.2928061 58.444649
6.1694388 3.9359245 58.547516
5.6898618 4.5939479 58.51265
5.5512333 4.6977415 58.577492
9.8846827 -2.0832374 58.628578
5.875494 -1.641471 58.692551
1.4976666 5.7454286 58.689545
-10.667982 1.4157374 58.712193
8.1045303 4.0572701 58.737751
-9.7944603 4.946517 58.738934
5.3851705 -1.614882 58.845287
0.71196264 5.8061323 58.89695
-5.1427598 -3.1062212 58.957706
3.5276957 -2.8265638 58.944
9.9755802 -2.1728184 58.955212
6.1302004 -1.5307624 58.942413
4.275167 -2.2573814 59.1399
-8.4291496 -1.129936 59.162247
5.019743 -1.5970368 59.232788
-9.8360424 4.7509251 59.293297
-8.6452847 4.8413391 59.204586
-9.1393108 -0.23402894 59.38541
-10.570141 2.9320014 59.322502
9.1870031 3.9468141 59.377121
-2.8460462 5.8573589 59.321564
0.80704856 -3.4574971 59.445507
-1.8918595 -3.1309991 59.428539
-4.5220881 -2.9139557 59.473412
-8.0806932 -1.1108276 59.493088
11.489866 -0.99797773 59.453808
6.3711967 3.0897241 59.48098
10.839529 3.506211 59.477325
3.2547202 5.4008741 59.432587
5.629487 -0.7132023 59.585766
5.7273064 -0.77089107 59.532379
11.748154 -0.77205527 59.581482
-9.6581068 0.39419159 59.506035
-9.7470417 0.56968486 59.572872
-2.0080159 -2.890358 59.60981
1.9299732 5.5323849 59.608467
-0.91359347 -2.7332184 59.746872
8.928606 -2.1533151 59.721992
-9.4312878 4.6069694 59.763569
9.1959572 -2.225374 59.826298
-9.7155075 1.9082687 59.87888
12.077163 2.5848894 59.886032
-2.7157273 -2.4138947 59.950714
8.6351938 -2.3913107 59.921783
5.3866572 -0.30070901 59.915325
1.0519016 5.5796175 59.954662
2.7759869 -1.9372754 60.068233
12.640011 1.8900679 60.036041
-7.1105499 5.1464195 60.070316
-2.1185975 -2.1088662 60.14283
-6.302249 -1.1927974 60.190678
-2.2139421 5.7394466 60.167015
-1.3522328 -1.8471612 60.312969
0.17463738 -1.707334 60.37088
-9.0185452 2.152611 60.393414
4.3171263 4.1545954 60.333672
2.4259069 5.1180964 60.377747
12.362047 -0.8167457 60.463333
-9.1894836 3.6392546 60.456146
-7.3187876 4.4384546 60.513084
6.1828189 0.15535307 60.640751
6.8184686 -1.277922 60.725151
-8.0334949 1.6532669 60.791878
8.5632782 3.4702985 60.775627
2.1620488 4.9677334 60.758636
6.8625927 -1.1912099 60.87524
2.1799147 4.9091835 60.864044
-2.5025172 -0.94971657 60.943115
13.446081 0.15071025 60.98003
6.1249218 0.60817087 60.912796
-6.6779699 0.4626807 61.089645
-7.6491008 1.7250807 61.015305
-7.6479616 1.933996 61.013519
4.1770868 3.4389181 61.010124
-6.4422498 3.997041 61.05764
1.5632684 4.9284239 61.046684
7.4577456 2.7785807 61.142105
3.8180048 0.90593261 61.283539
3.1584423 0.51665688 61.381042
9.8232841 3.5317097 61.359318
12.298684 -1.6167004 61.403645
7.0149989 -0.85554266 61.416771
-3.1812377 4.9502001 61.422058
10.990801 -2.2201295 61.552135
0.96257645 -0.46349734 61.5924
3.320503 1.3473953 61.513126
13.769384 1.4038368 61.57634
-2.607867 4.9488349 61.551739
-5.874939 3.391444 61.690208
-5.5431161 3.7876613 61.648571
-1.1831297 5.187603 61.668564
-0.80721855 -1.1056057 61.769417
-0.70990872 -1.0722561 61.751003
13.712104 1.6598029 61.757683
-0.037438989 -0.57535732 61.905029
13.816282 -0.28649637 61.93544
-4.5479641 0.6528942 61.973892
12.683302 -1.6188594 62.071476
-3.4278452 -0.41924375 62.020054
-3.4459276 0.33352858 62.013645
6.8408785 0.55388606 62.068783
-5.0711989 1.4206176 62.043186
10.792749 -2.2163217 62.124489
-0.65437639 -1.0304942 62.16423
-1.9926577 -0.8790471 62.190918
-5.0555067 2.1139984 62.11026
2.5374365 3.0230587 62.165451
-0.60715556 5.8810468 62.112255
-1.6405102 -2.0675094 62.20118
-1.2390863 -1.2750783 62.240288
1.298187 0.25678092 62.22316
1.0693876 0.72188377 62.221779
