# .PCD v0.7 - Point Cloud Data file format
VERSION 0.7
FIELDS x y z
SIZE 4 4 4
TYPE F F F
COUNT 1 1 1
WIDTH 1611
HEIGHT 1
VIEWPOINT 0 0 0 1 0 0 0
POINTS 1611
DATA ascii
96.918152 42.541855 4.1980457
111.46769 43.670715 4.1809425
107.2258 43.15955 4.2004032
108.88003 43.331837 4.2968664
94.837601 43.595001 4.2477193
109.17108 45.527729 4.2015243
94.819717 46.607903 4.2758303
109.78593 45.720665 4.317275
98.069733 43.217697 4.419693
111.30151 43.580635 4.4598384
97.554276 44.587177 4.4965253
101.21198 49.567749 4.5847754
111.34977 43.587898 4.6461067
112.31795 45.99403 4.6663408
96.506065 48.981613 4.6858072
100.45926 49.464378 4.6912169
111.77805 44.803314 4.7325988
102.85616 42.570087 4.8070459
96.740921 49.014507 4.8476586
110.0675 18.124475 4.9040594
96.191376 43.590801 4.9196606
110.97368 46.835663 5.0566669
94.91478 42.344921 5.1178808
94.830116 48.361748 5.2442765
96.752159 41.702759 5.6158028
108.06733 43.02787 5.6555882
98.820831 49.124992 5.6179795
109.57121 49.209412 5.6594391
104.04989 49.717155 5.6439495
109.47979 49.222038 5.7241497
95.322693 42.106422 6.2970109
101.30051 42.135056 6.4664388
96.664413 48.710693 6.4188824
109.89424 18.094606 6.6650147
110.49429 18.196287 6.6392465
109.781 17.667244 6.7741418
99.536301 41.87841 6.8303146
110.53928 48.516285 6.8908987
108.36568 49.590714 6.8988533
110.56894 18.166862 7.0153155
106.73988 42.637871 7.1921253
94.807983 47.748814 7.1770725
109.93304 48.613625 7.2734199
101.06061 49.110497 7.2585464
107.8667 49.887859 7.2990432
110.50951 18.219151 7.3077736
110.44649 48.400742 7.3963871
105.04437 49.601757 7.3275089
109.78379 17.675356 7.4899659
96.33857 41.645134 7.467206
109.82762 17.578081 7.6788602
106.96422 42.598488 7.6074991
106.82069 49.779472 7.7064867
110.34645 43.42041 8.0117855
94.639458 46.517357 8.0458384
97.171677 41.337502 8.3008852
96.494553 41.486893 8.3831673
99.471497 48.748547 8.3565807
101.7256 41.86425 8.5105171
110.10754 18.339481 8.6590118
108.89446 48.854446 8.605051
99.778915 41.607323 8.7437611
94.587982 43.462433 8.7834167
100.81542 48.834484 8.7935648
104.88853 42.173592 8.8244076
104.85317 49.361401 8.8089333
104.39618 42.096916 8.9583158
95.084167 47.823116 8.9347239
101.92088 48.925011 9.1675072
99.06723 48.555267 9.2508926
109.88628 17.572258 9.3996124
104.57796 42.038273 9.4660978
111.30605 44.660782 9.4819889
94.609978 45.242691 9.4057264
100.53758 48.70372 9.4428101
105.84396 49.395344 9.4688244
110.12679 47.889076 9.5271044
110.53734 17.525478 9.6401978
94.584282 44.926994 9.6268291
102.19584 48.894188 9.6275148
110.7072 17.78145 9.8095627
102.91277 48.934883 9.9939985
109.20529 42.470161 10.057265
96.067001 47.903809 10.005143
110.68358 47.021591 10.143233
94.859612 43.048267 10.217199
98.054749 41.126877 10.411261
105.96947 49.268566 10.454329
96.834824 48.014503 10.525738
98.12149 41.069477 10.8347
106.0164 49.220604 10.826664
104.59926 49.01873 10.93784
106.02277 49.205902 10.933595
95.615105 41.565304 11.105092
105.05357 41.833378 11.12447
109.78735 42.778778 11.24551
110.97221 44.131432 11.3086
100.15349 48.375072 11.35781
95.376724 41.711334 11.482177
94.929077 43.242966 11.403472
95.573219 47.533401 11.514933
109.73767 18.002666 11.787066
95.276031 46.755413 11.760838
100.59474 48.392853 11.711151
106.246 41.770546 11.847221
110.20309 18.528561 11.947232
95.367416 47.060066 11.963307
111.21036 44.55838 12.011372
96.587708 47.535717 12.19306
95.235359 46.095535 12.295603
110.71039 17.979759 12.304912
97.194099 40.637997 12.374367
110.82788 45.895164 12.371925
109.77183 18.263594 12.456182
103.39663 41.271221 12.436827
95.422112 41.577927 12.689
110.95486 43.765965 12.888724
96.255447 47.116993 12.97943
104.64009 41.232677 13.051823
98.763199 48.096817 13.065279
111.2949 44.407555 13.138248
97.396751 47.891197 13.115162
107.93336 41.501366 13.477039
95.338707 45.690983 13.417487
97.897911 48.000587 13.464545
108.09354 48.477692 13.486418
106.53098 41.306381 13.557886
100.4166 40.558708 13.700718
95.217422 44.581863 13.988865
108.07343 48.417496 14.118019
109.74734 18.31217 14.20541
98.754181 40.195076 14.252132
95.595047 46.249477 14.338277
110.55573 17.822506 14.482013
104.76686 48.829708 14.40242
107.6162 41.172813 14.50279
95.057716 43.521118 14.566119
109.93668 46.776627 14.56386
108.1172 41.166821 14.741836
95.357468 41.849838 14.733402
98.474045 39.995113 14.806437
101.87862 40.392883 14.83371
106.72971 40.968048 14.84257
95.63884 46.055687 14.840334
102.82153 48.557434 14.815625
96.202087 46.265064 14.923492
107.88234 41.043369 15.076954
96.018021 46.178204 15.022982
95.498123 44.921776 15.320938
99.456573 48.093384 15.361894
95.262825 43.633778 15.705339
99.325676 39.769089 15.941828
95.123611 42.664051 15.906868
109.2726 46.96756 15.991189
95.370193 43.864864 16.023512
111.30083 44.107544 16.09078
97.229851 47.308662 16.020931
100.5052 48.204414 16.008451
95.53331 41.256519 16.100483
110.39626 17.807873 16.231716
95.749298 45.444992 16.2519
101.95233 39.943111 16.395512
105.02299 48.783768 16.337347
107.76283 40.611282 16.555326
110.54323 41.859173 16.55669
109.27189 46.898041 16.542164
103.62568 48.592266 16.535128
97.58931 39.466091 16.619606
95.651283 44.577591 16.682384
107.83568 48.332542 16.667961
110.75983 45.11908 16.707062
106.09394 48.905495 16.795029
109.73205 18.460108 16.93215
95.608994 44.249397 16.940414
97.43734 47.567162 16.928209
111.20329 43.018242 17.200134
108.03792 48.049698 17.284418
110.67193 45.169422 17.340044
107.81371 40.375275 17.413332
98.092812 48.216835 17.468533
107.67287 48.390621 17.452723
104.36576 48.650932 17.470402
108.71142 40.435146 17.591599
106.59111 40.081669 17.938818
105.63979 39.91029 18.149231
97.431412 47.431793 18.129507
99.74926 48.016266 18.171673
103.77252 48.540264 18.268557
95.864456 40.137737 18.351257
96.834808 46.24844 18.615765
96.599609 45.759434 19.025394
95.751328 43.681458 19.181368
100.47984 39.202457 19.224974
110.43947 45.2257 19.227646
107.79868 40.050953 19.32332
100.23712 48.031006 19.370342
99.228172 39.050373 19.56041
106.32883 39.871094 19.788834
109.0994 40.418404 19.710585
98.176086 48.346581 19.783108
102.51991 48.314137 19.770281
95.61142 41.320244 19.938042
111.05065 42.485558 19.906975
99.777023 39.142654 20.139565
96.863205 46.274391 20.111572
105.46297 39.758995 20.378586
106.51727 48.762192 20.580984
95.668045 41.305779 20.676508
107.02019 48.404911 20.644968
108.83039 40.349079 20.818333
108.92461 40.413532 20.871662
95.633301 41.490818 20.960672
104.56402 39.64151 21.047691
109.73908 45.76767 21.199278
105.23653 48.614914 21.12574
110.83793 42.424828 21.257521
110.74664 42.273155 21.326412
97.883278 39.130707 21.660999
109.07212 40.590538 21.790956
97.174698 46.922424 21.73811
100.4659 48.098808 21.791424
107.52757 39.921379 21.820171
95.831566 41.029243 21.82621
102.20618 48.189011 21.81212
110.31764 19.025803 22.115652
100.42374 39.189659 22.323254
97.267441 47.134392 22.583698
110.83878 43.125252 22.603821
101.84814 39.28912 22.937376
109.38851 40.761089 22.994293
110.66664 42.460175 22.923786
110.49554 18.256735 23.039955
110.37038 43.887028 23.240799
105.60841 39.715843 23.460953
110.60516 43.316441 23.428232
95.994743 40.974365 23.616707
99.277222 39.132816 23.772501
99.78495 39.196968 23.731754
96.1091 44.792992 24.050863
104.1953 39.532211 24.458412
105.02943 48.447571 24.534769
105.94682 48.569077 24.507652
102.11732 39.28738 24.632053
97.680405 47.805264 24.621506
101.83002 48.05146 24.607336
95.763641 43.711628 24.946754
109.49227 45.355026 24.997206
101.81577 39.243492 25.086378
96.219818 40.733208 25.033815
109.66121 18.81741 25.178068
96.731499 46.299088 25.102577
108.74694 40.477921 25.5298
104.41792 48.326107 25.537157
105.28842 48.441261 25.514887
103.12068 48.15163 25.640215
97.75235 47.832634 25.93276
96.064423 41.489788 26.29113
110.27205 42.966686 26.274443
96.529327 45.933239 26.205704
97.850731 47.931122 26.20113
97.740845 47.805038 26.302708
110.14278 42.241661 26.472321
105.51958 48.430534 26.513481
96.379517 45.478951 26.793419
103.4323 39.39761 26.816788
108.31684 40.290459 26.854759
104.85985 48.32243 27.037128
95.750305 42.566032 27.111624
102.17731 39.24408 27.212347
105.69873 39.450821 27.353989
104.29347 39.40657 27.451439
100.85896 39.22607 27.510612
106.02165 39.435612 27.663815
109.3987 41.272717 27.674774
99.104103 39.186878 27.723583
109.79567 41.917522 27.778437
96.235718 45.024757 27.872112
106.55194 47.738075 27.870409
100.01755 39.226173 27.951437
96.407463 41.0205 28.065453
107.05643 39.756725 28.263035
110.60987 18.810621 28.327682
109.68212 19.109034 28.487072
96.818954 40.001884 28.467344
108.18311 40.224957 28.407532
101.41466 39.234699 28.510942
103.35312 39.296135 28.574818
108.22144 40.239883 28.571461
104.74937 48.228451 28.970234
96.192261 41.855423 29.00033
109.84869 19.335577 29.184193
96.67601 40.563118 29.113466
96.209015 44.901844 29.166248
105.87744 48.009739 29.296726
95.904694 44.076183 29.39817
109.62524 18.991928 29.462122
109.37811 41.560177 29.442112
99.570679 48.72039 29.480419
95.892181 44.091209 29.585096
96.076469 42.325901 29.646358
109.43395 43.726822 29.645512
107.82486 46.617794 29.607708
96.402725 41.455624 29.739307
106.52254 39.616108 29.86669
105.47114 48.216454 29.842136
107.93513 40.19833 29.950367
107.33781 46.911057 29.929844
98.253731 39.754677 30.041431
101.67201 39.252201 30.272469
107.99626 40.271206 30.434956
95.926483 42.866806 30.460503
100.02581 39.323952 30.556553
106.68139 39.762726 30.701242
105.84291 47.808105 30.940895
97.449524 40.302505 31.375587
106.84529 47.061485 31.320772
108.77316 44.863602 31.590137
98.512466 39.948822 31.655478
105.40042 39.331078 31.710867
103.28373 48.272896 31.999504
109.65356 18.862152 32.053013
95.79715 43.317062 32.019241
96.187271 42.43956 32.275162
95.952087 44.640018 32.337311
104.35098 48.11935 32.321152
95.928055 44.568893 32.491539
106.77077 39.990467 32.680786
104.50937 39.290012 32.754761
109.91132 18.655457 32.86351
107.03665 46.716469 32.869312
99.582504 48.929554 32.889061
107.263 40.221684 32.97073
96.281944 45.870384 32.917454
100.56936 39.579544 33.015015
108.35929 45.488262 33.094864
90.610886 37.287514 33.138969
96.960632 47.844246 33.197781
90.395798 37.271015 33.229992
109.15575 43.015823 33.208363
108.03582 40.746799 33.303104
98.879822 40.050331 33.47533
100.50488 49.743382 33.485107
97.588608 40.600048 33.514141
106.94399 46.688549 33.570461
106.34305 47.10849 33.544044
99.755264 49.659313 33.530651
90.693451 36.316532 33.68177
96.051498 42.815598 33.64249
94.444496 44.201504 33.629223
97.845352 48.34568 33.610195
95.897888 41.024723 33.755951
111.10359 44.74921 33.714115
93.754608 45.758659 33.735283
96.305885 46.085377 33.727001
106.02083 47.31044 33.735905
103.96254 39.201477 33.839962
104.22623 39.179672 33.926487
109.67722 41.68808 33.975979
91.191284 39.140442 34.081303
110.55023 47.45018 34.053593
91.198181 38.833599 34.185303
103.37447 39.178879 34.15749
95.971199 40.986034 34.172752
103.56104 48.392548 34.110268
96.649124 41.418972 34.283718
108.87597 42.488567 34.238117
94.295471 44.711174 34.237221
96.832588 47.992126 34.221355
94.080307 45.206917 34.304321
106.17931 47.128021 34.378944
111.03596 44.90712 34.456867
96.393036 48.817421 34.453022
96.203705 42.384335 34.57159
109.913 42.444099 34.535221
90.336731 37.781712 34.657951
90.381462 39.373829 34.636902
96.045685 42.740974 34.674923
94.206467 45.022907 34.625114
101.19783 48.829659 34.634399
104.66393 49.760651 34.669434
98.438095 40.231819 34.756008
106.89444 39.963272 34.847729
96.286209 40.188328 34.817261
97.995911 40.442234 34.838669
95.718826 41.745888 34.853699
110.00433 42.782318 34.861233
96.502197 47.013966 34.840481
95.187065 47.737732 34.821388
110.06033 18.734472 35.017197
109.49063 41.716713 35.044285
91.255127 36.739742 35.158512
90.338341 36.966782 35.116051
109.09235 40.66433 35.165012
107.75713 45.94709 35.143688
97.00016 49.372154 35.133625
104.74245 49.748665 35.157684
96.870277 49.257389 35.290627
91.521088 37.004879 35.378773
100.22699 49.712097 35.370972
102.73607 49.978603 35.354774
111.39862 46.144512 35.496639
91.316101 40.009575 35.554306
93.723663 46.368011 35.561378
109.96666 48.008564 35.511948
109.33548 48.568901 35.597073
99.890091 49.674301 35.566284
109.59026 19.342892 35.679829
94.374229 44.966278 35.686478
96.353073 46.523369 35.603256
94.062752 46.73597 35.609177
102.43011 39.094997 35.765572
99.013672 39.899952 35.703548
98.090515 40.348843 35.794647
93.752068 46.422318 35.718163
102.52812 49.970116 35.757538
95.564995 42.387657 35.87178
109.69783 42.520962 35.87281
110.76411 44.886963 35.864189
107.09067 46.491844 35.862709
101.0125 39.291634 35.905746
108.78419 43.473083 35.923279
110.84067 47.247444 35.900749
94.786911 47.392815 35.976883
103.03465 49.940392 35.987671
110.14299 18.789314 36.046074
103.66425 48.654213 36.013588
90.572304 39.42268 36.164711
94.370895 47.021412 36.185539
96.299721 48.755112 36.125984
96.607941 49.033005 36.182774
99.316467 49.60994 36.137283
97.115746 40.850594 36.223072
95.18634 43.338318 36.254112
98.825562 49.554882 36.289177
101.28398 49.830566 36.240662
109.08919 41.017803 36.350357
95.888084 41.755821 36.370686
108.63712 43.843784 36.333694
110.2611 43.957569 36.318283
94.279549 46.941177 36.333855
97.669556 49.451168 36.472557
91.756653 39.477547 36.555687
93.964462 46.621262 36.593464
109.66661 48.303471 36.529381
96.360306 48.814835 36.531895
90.479347 38.780376 36.677296
90.650146 39.727715 36.605602
96.5644 41.696079 36.606495
91.800026 39.338631 36.704544
109.23252 41.627892 36.761768
96.727142 48.006783 36.787312
110.47037 19.040743 36.887428
98.939262 40.023113 36.844677
109.49591 42.476376 36.84671
108.60349 42.551369 36.884224
101.6359 49.020596 36.849712
106.73813 49.508842 36.803665
101.56694 39.145138 36.98674
95.010254 43.92738 36.928043
95.865257 48.375504 36.984516
109.37833 48.569477 36.913269
96.271729 40.518551 37.023811
96.001625 41.453644 37.067535
103.28526 49.905369 37.008656
96.263039 40.564243 37.148109
109.76915 43.212181 37.156643
94.535583 45.042381 37.148243
111.29601 46.613464 37.176334
99.840164 49.668606 37.114349
92.516136 37.164677 37.212303
92.521622 37.512527 37.228321
106.75363 40.124573 37.286884
94.990494 44.073341 37.2733
110.19373 44.17981 37.214733
94.183846 45.855087 37.265759
111.29675 46.666321 37.299747
95.177589 47.761154 37.29599
102.16367 49.92915 37.27243
103.32597 38.865669 37.3918
95.557899 48.104324 37.387787
98.775139 49.119659 37.391346
110.55302 19.377213 37.468033
96.026993 41.415924 37.45755
108.31816 42.326538 37.483566
95.354538 43.314671 37.430031
102.0312 49.914284 37.403481
100.03078 39.57637 37.595573
95.88858 41.908844 37.588234
106.02656 46.99865 37.509674
107.46983 49.610126 37.504192
90.732841 37.504986 37.636971
95.185226 43.768059 37.696606
94.843277 44.514282 37.66275
96.912033 49.325783 37.68047
106.57698 40.288174 37.770844
110.07076 44.107918 37.700062
94.274925 45.782578 37.700974
110.22678 44.518265 37.853355
96.062149 44.801651 37.805885
109.22897 48.727947 37.81955
100.91096 49.788635 37.879486
101.75688 49.883492 37.906837
96.364197 42.295975 38.078983
96.267624 45.515671 38.003799
109.45128 48.538769 38.069397
109.88597 19.84688 38.169991
102.02181 39.069336 38.127117
96.162682 41.033878 38.125984
95.913979 41.895519 38.171116
94.249046 46.881725 38.141068
110.17715 44.571144 38.246582
95.742264 42.514168 38.389328
107.61195 44.810616 38.301502
90.864403 38.148373 38.417831
109.74 43.695896 38.478462
101.53674 49.032021 38.459068
97.695602 49.486679 38.451897
92.258514 39.985443 38.562492
109.71738 43.669838 38.536812
95.77076 43.811756 38.589092
95.220444 43.938568 38.535179
94.820007 44.816826 38.510445
99.197273 49.190186 38.502022
105.74745 39.634541 38.629311
99.713402 39.751774 38.687748
106.61761 49.638634 38.657772
102.81155 49.94978 38.693161
107.67304 41.809776 38.732944
97.553497 48.728584 38.703457
100.41417 39.569084 38.899323
91.417793 38.757923 38.98859
91.978905 41.351429 38.943401
107.40726 44.628052 38.900311
99.174591 49.163712 38.980133
107.42346 49.728432 38.975212
105.37704 39.366577 39.036411
95.461349 43.556839 39.045197
95.791939 43.885502 39.081528
96.1306 45.038685 39.01796
94.580818 47.200249 39.031773
105.35005 49.654919 39.097187
106.92101 49.691036 39.001579
92.271469 39.66111 39.12336
95.959496 44.456291 39.122116
94.776382 47.394562 39.15427
105.94449 48.096912 39.144691
92.280502 39.937843 39.208889
90.794563 41.20573 39.282955
106.76265 45.703087 39.256927
106.45224 49.673676 39.237553
104.95248 49.700092 39.200989
90.521561 40.796883 39.308239
109.2112 42.348293 39.341263
110.8064 47.224747 39.355736
95.557724 48.130535 39.430969
104.75852 48.638252 39.42836
96.234238 42.834774 39.547981
92.300095 39.369762 39.610836
99.132858 40.105583 39.647507
95.749863 42.648689 39.653904
107.90676 43.595451 39.667198
110.26807 45.373756 39.693848
90.653946 39.772602 39.736115
90.392067 40.729351 39.783798
94.873192 45.064606 39.744011
94.755234 45.319992 39.725471
95.327454 47.927837 39.769321
100.36415 49.727192 39.762474
90.711128 39.732319 39.857933
90.605782 41.593117 39.845566
92.14386 41.735954 39.91758
107.84096 43.547462 39.956165
109.31485 48.713448 39.921528
101.67806 49.068508 39.958118
108.37033 42.740471 40.070194
109.93495 44.767624 40.017227
106.46442 46.884109 40.040874
95.51889 48.10408 40.086594
97.793243 48.775768 40.021709
105.28712 49.656708 40.003059
98.004379 40.706253 40.107407
109.0834 42.176556 40.186245
95.858459 48.410416 40.162628
110.50623 19.325878 40.286736
104.1787 38.592251 40.297783
95.67247 42.987316 40.222534
95.895126 44.24065 40.225655
96.081566 44.875565 40.211895
100.23402 49.71257 40.213219
107.75224 49.858139 40.227318
101.96001 49.90612 40.283508
104.44412 38.853775 40.351505
104.63824 39.039085 40.349453
107.09023 45.327457 40.373039
102.95377 49.923309 40.366173
106.46567 47.416817 40.415688
104.24809 38.679482 40.514877
109.89589 19.046051 40.652725
90.373192 41.587456 40.615643
105.99788 48.358253 40.620811
109.16916 48.864609 40.688534
98.072823 49.5513 40.689705
100.80325 49.776375 40.658939
98.702606 49.59729 40.788074
109.59349 19.729038 40.871105
109.38976 43.420441 40.86985
107.68317 44.175179 40.864624
107.21141 45.21537 40.873005
96.794998 46.969322 40.839596
97.09333 47.392929 40.860111
109.56107 48.510025 40.839378
105.4427 49.728222 40.854675
96.002411 41.940411 40.919399
95.952332 42.112495 40.91761
90.417709 42.323166 40.922787
95.137177 44.837795 40.949348
103.7308 49.830101 40.979446
107.25709 41.538883 41.071907
91.269203 42.926773 41.003223
94.592468 46.08638 41.09763
110.10107 47.927094 41.00927
103.10979 49.90131 41.033787
108.65742 41.030926 41.13689
110.27077 47.740417 41.173149
98.026802 49.556 41.156055
108.3342 49.616997 41.182335
100.75124 49.770512 41.130322
95.644623 43.221199 41.308727
91.594437 43.338524 41.361183
107.15308 45.485561 41.332226
97.141884 48.36937 41.376106
98.006477 48.747021 41.376915
98.396111 48.845802 41.370079
101.92863 49.060997 41.356468
102.36673 49.036034 41.361603
106.37425 49.853851 41.484921
104.77115 39.154503 41.566696
107.25845 41.529724 41.525604
90.693253 43.132572 41.569954
91.317032 43.407463 41.544319
108.76857 49.243858 41.551186
109.55496 44.222733 41.666626
100.53401 49.74612 41.649357
105.18678 49.774406 41.654987
103.15161 38.765911 41.775848
91.325638 43.584393 41.746826
96.216103 48.752102 41.718895
109.09057 48.965282 41.757088
94.767433 45.930622 41.87809
97.094429 47.591404 41.884712
106.72155 48.197041 41.819096
96.390991 48.910583 41.812569
97.066139 49.499992 41.837009
108.56778 49.431297 41.892673
99.86499 49.696846 41.832718
103.87553 49.808163 41.853329
90.15686 41.739204 41.990795
91.334061 43.8615 42.065868
94.930168 47.502277 42.018509
102.70665 48.944233 42.054287
97.022446 49.481773 42.073616
105.4007 48.502663 42.138321
109.26689 48.78437 42.118843
99.339935 49.000755 42.174751
101.71425 49.878437 42.136372
90.494904 41.257153 42.235786
107.42348 41.333561 42.213223
92.532486 42.607437 42.261276
96.171745 44.675125 42.258968
107.28834 46.059872 42.224689
106.49017 48.25206 42.202003
109.23889 48.808796 42.294098
96.442841 40.612251 42.395252
97.264664 40.751686 42.473183
96.96875 41.289974 42.4002
109.75294 45.136154 42.465214
110.49891 47.455849 42.461536
104.61992 48.692001 42.445812
108.31253 40.301456 42.551281
108.31805 43.287212 42.510242
108.05817 43.879459 42.577087
95.474373 43.96701 42.567509
101.99391 49.909767 42.617004
102.14232 49.926411 42.634586
97.610115 40.575111 42.730316
108.61749 41.379704 42.711071
94.773376 46.161766 42.702881
103.38991 49.858566 42.772228
90.624954 41.324471 42.85165
96.804611 41.806488 42.897781
95.602859 43.564911 42.882626
110.4838 19.442823 42.948074
90.632965 41.367435 42.969711
99.52491 48.966602 42.960678
102.70813 49.936058 42.946026
92.609154 42.149849 43.02676
106.5943 48.231712 43.002415
90.300034 42.06609 43.188465
109.36462 48.647427 43.148296
102.01582 49.912193 43.139729
98.489731 40.154308 43.230022
107.35008 40.74754 43.276096
109.59637 44.876411 43.339745
96.537491 49.062187 43.352009
106.37885 50.009613 43.359291
107.09196 50.066742 43.37072
107.5194 40.731678 43.428204
96.056816 48.610664 43.403046
99.929787 49.728729 43.438343
90.983025 41.626713 43.562721
110.30441 47.052837 43.545753
95.998436 48.550316 43.509747
96.508194 49.038734 43.575504
96 42.29985 43.683121
92.482132 44.414021 43.693916
97.55867 48.434929 43.615822
95.895615 42.662491 43.709583
110.3325 47.591679 43.799957
103.85163 48.775482 43.760544
104.62138 49.903046 43.743809
105.49161 49.972546 43.75518
108.02157 49.967815 43.733017
96.448532 42.932449 43.895782
92.658989 43.810974 43.884869
104.5806 48.774471 43.84193
108.91854 42.764664 43.912109
92.400726 45.077332 43.952236
92.008957 45.735149 44.087181
105.34673 48.604389 44.036755
96.263313 43.40564 44.17778
92.593719 44.411026 44.174084
100.83582 39.169968 44.214745
108.0163 45.413429 44.211063
109.76916 45.732628 44.228714
94.740974 46.692436 44.252567
96.923264 46.737057 44.281952
99.819214 49.735165 44.273876
96.557106 40.471546 44.382927
107.83672 46.539402 44.393383
91.930702 42.278614 44.425507
109.04475 48.948547 44.450485
109.51057 48.447506 44.539906
101.4146 49.85178 44.530029
104.80202 49.983166 44.538544
109.43182 44.731796 44.676823
108.6835 49.329872 44.610519
97.437042 49.573761 44.638966
103.04971 49.886505 44.637703
102.33055 39.155853 44.715942
108.64949 42.12254 44.777618
96.652245 45.49239 44.7285
109.64584 45.464558 44.710911
96.762131 45.905815 44.761555
92.382919 46.06477 44.737473
97.548523 48.332058 44.758625
98.921295 49.679672 44.725533
105.40018 50.048038 44.752655
105.58862 50.061298 44.733593
96.778328 39.774506 44.888691
94.953499 46.047615 44.834225
101.12527 49.836594 44.834248
89.962868 45.133255 44.947083
98.322006 49.641769 44.976543
105.69656 50.089737 44.974007
91.430695 46.453426 45.051174
108.25518 40.897766 45.12257
108.01831 46.295399 45.182026
109.00821 48.964333 45.189957
110.10484 20.233099 45.272682
108.84258 42.887505 45.211987
99.473122 39.351929 45.380299
108.20952 45.33535 45.342384
109.77719 45.934273 45.37513
97.220329 47.486992 45.309418
109.55275 19.579733 45.425514
107.51516 40.380939 45.404663
96.263451 41.38636 45.460323
109.13039 43.390507 45.451744
110.26665 47.62402 45.468369
96.43425 48.955536 45.490395
104.72159 48.582855 45.584583
92.142731 43.036831 45.635147
95.684692 43.314465 45.618328
95.59964 43.572941 45.698959
89.745895 44.334965 45.640854
95.108795 45.300667 45.619564
102.64955 48.707764 45.649685
105.07449 50.0951 45.62978
104.06866 39.064465 45.767799
108.65978 40.987541 45.747868
108.29792 42.503029 45.751392
103.44968 49.974419 45.717995
92.143463 43.141972 45.800636
109.32881 43.246643 45.830635
90.085838 46.561131 45.863029
100.03955 48.71582 45.865192
103.01163 49.951595 45.858917
108.59544 39.873623 45.982201
108.08493 45.932999 45.919659
109.40373 42.838421 46.127819
110.17303 45.609367 46.147526
98.59877 39.744293 46.265503
107.25888 40.080624 46.225746
89.829391 46.134277 46.276844
91.945435 47.45153 46.223888
89.91787 48.256088 46.270756
104.58104 48.549587 46.274857
97.721054 49.620956 46.238312
90.403336 47.089363 46.388176
95.866722 48.429058 46.356667
104.82442 50.137924 46.383907
96.865059 41.832695 46.464321
96.645554 45.082256 46.490108
89.914566 46.873123 46.465591
110.70652 47.241119 46.429008
106.71054 48.037289 46.434792
92.640175 46.786274 46.5317
105.2034 50.180595 46.547009
95.110855 44.848919 46.645123
109.28849 48.697502 46.685753
99.944916 49.798225 46.650818
105.535 50.213871 46.642754
105.67621 50.228615 46.691216
95.156281 47.767563 46.746944
99.480225 48.546314 46.757507
97.225456 49.607533 46.791775
107.42612 40.192223 46.830597
89.418839 45.964874 46.892265
90.831421 48.794453 46.887402
108.47971 49.543865 46.885262
102.23914 49.968822 46.819427
105.23143 50.205261 46.847206
110.13608 43.548241 46.986061
92.555771 44.04435 46.983131
101.67316 48.691563 46.971508
91.696152 49.274254 46.907074
97.217857 40.814499 47.085693
107.79202 46.934219 47.007683
91.472382 47.997845 47.025105
89.992096 48.59803 47.04776
104.58336 50.171562 47.07888
95.307709 43.957294 47.135246
95.151741 46.264057 47.172615
89.568047 46.650517 47.104424
91.076889 48.905983 47.169086
101.41074 49.939159 47.187748
105.98033 50.289257 47.181816
107.70775 40.933334 47.256699
110.21365 43.261353 47.234608
89.629166 45.922588 47.225964
97.252182 47.383011 47.265411
90.725929 47.94585 47.275066
95.40596 48.054825 47.28064
97.479774 48.221058 47.269806
101.94481 49.983028 47.282848
104.58472 38.858498 47.300671
97.344238 40.43578 47.324738
95.850388 41.99865 47.334785
96.289398 43.522461 47.35733
111.15336 46.368877 47.379448
103.73018 50.127522 47.388214
107.27557 40.045727 47.459663
89.490616 46.295273 47.424515
89.49527 47.929001 47.461788
100.81473 48.545349 47.439072
96.914131 49.51342 47.481548
100.12245 49.869965 47.450462
100.81195 38.820152 47.574463
95.739624 42.283276 47.559547
108.24463 42.286312 47.543713
96.544456 42.793053 47.580853
110.6862 44.176262 47.589497
106.83951 47.787899 47.541599
100.98547 49.938728 47.575588
95.323441 46.57085 47.632076
92.720749 47.119942 47.604137
91.217133 48.707024 47.642326
102.1154 50.019527 47.615318
104.82204 50.230537 47.616085
89.421272 42.390442 47.798668
111.2766 45.889599 47.784561
96.651222 49.28186 47.760036
107.3773 50.43338 47.719845
96.66758 39.525307 47.806053
110.14854 41.563381 47.870144
95.89502 41.727291 47.856701
96.866028 41.873604 47.842403
110.90018 44.415363 47.826462
96.321472 40.486282 47.951553
101.86024 48.701683 47.950874
109.53169 20.054165 48.055809
110.23798 39.569347 48.081879
97.099785 41.172249 48.024113
91.597656 44.548309 48.06786
93.082977 44.766323 48.087971
90.468666 49.412025 48.090286
110.25795 40.026024 48.155968
89.523384 47.565834 48.117134
92.754883 47.888798 48.175522
89.890503 48.132843 48.103352
105.42966 48.121235 48.196976
100.2898 48.41259 48.143974
106.89865 50.424622 48.103073
97.173431 40.951817 48.248436
102.90768 50.124874 48.218613
106.72014 50.419941 48.225456
110.40184 39.85149 48.324287
90.3228 40.858795 48.375694
89.601654 47.797485 48.363281
90.508644 48.123398 48.356728
103.05727 50.148033 48.370834
108.32838 42.64246 48.442402
111.27516 44.44936 48.409348
111.73798 46.054844 48.448006
92.616379 48.397617 48.409584
100.00723 49.939968 48.497799
110.59187 39.557339 48.539928
110.50768 40.383842 48.517792
107.76382 41.223122 48.531372
108.20591 42.349384 48.51783
92.68309 44.704456 48.552818
89.571747 46.669456 48.57864
96.389671 49.090343 48.573166
107.84808 50.288582 48.568974
96.742798 41.88015 48.685413
95.384003 44.587029 48.637615
95.473267 45.387608 48.617996
98.737885 49.831829 48.635658
102.92054 38.67786 48.742928
108.88639 49.227287 48.77425
104.27228 50.272453 48.75518
90.548515 40.631687 48.813858
89.746208 42.29306 48.860565
108.05254 50.094521 48.881649
95.485909 44.730446 48.925873
89.352524 45.663113 48.985447
101.47906 50.078201 48.992805
104.30357 50.292824 48.994606
107.6498 50.514778 48.959023
111.30063 42.96299 49.097103
89.147118 43.314163 49.057152
111.55333 43.942886 49.073254
97.673187 49.722874 49.06686
108.43519 49.709091 49.061089
98.492119 49.814568 49.013832
110.40466 20.208134 49.153454
90.384911 41.129761 49.12257
91.614212 48.507744 49.180527
91.521774 48.609337 49.105202
107.32339 40.26363 49.279606
111.12732 41.898853 49.284203
92.954964 44.570717 49.239788
103.98147 48.471062 49.203465
102.98644 48.742558 49.210445
103.33713 50.238182 49.281403
111.63809 43.638424 49.340916
111.78073 44.218437 49.315742
112.15213 45.395767 49.395123
93.246933 46.198513 49.35384
101.25475 48.616432 49.34333
99.759613 38.723064 49.467064
111.34135 42.374893 49.418087
95.59684 44.300659 49.475937
106.07558 50.459946 49.494576
109.73553 20.39043 49.530903
107.87643 46.270927 49.525173
90.166603 47.667526 49.570206
92.592484 48.656639 49.596169
96.906082 49.647972 49.504799
107.32193 50.553089 49.51907
99.553566 38.822292 49.613041
96.444496 45.314331 49.602543
95.877899 46.218956 49.657028
96.016876 48.128376 49.683533
89.312355 45.479668 49.734253
92.599518 48.631142 49.789768
106.54713 50.513527 49.770496
89.808517 42.688728 49.882164
93.586807 44.571449 49.899239
111.9811 46.205376 49.877304
107.65205 47.357033 49.816208
103.59595 48.58477 49.895042
98.645844 39.423347 49.918751
111.52379 41.127426 49.914974
112.43355 45.168427 49.942673
89.495209 46.319771 49.949577
90.04216 45.626724 50.012413
109.86628 48.401089 50.097198
98.930923 49.895241 50.099747
110.24858 19.589865 50.155037
111.80219 40.374615 50.196884
112.36446 44.518566 50.115494
95.941856 45.611084 50.119328
89.877907 47.031296 50.114143
93.820923 47.142044 50.109188
106.07022 47.903137 50.199738
92.609451 48.040314 50.150112
110.05648 48.224068 50.154758
96.190506 48.901665 50.117912
99.452332 38.884781 50.259121
91.380692 40.169949 50.277592
93.873787 46.191017 50.299828
91.266602 48.735744 50.255901
92.294853 48.906704 50.270588
99.717255 49.989777 50.278427
112.6778 36.143459 50.358925
90.277954 42.012699 50.371155
107.58662 47.525101 50.340061
96.214256 48.052597 50.392838
98.859451 49.894382 50.357101
100.16489 50.041889 50.320049
102.01159 50.215168 50.340282
107.68073 41.364128 50.489277
108.34463 43.393154 50.42778
108.36198 44.01252 50.444321
111.62465 46.667618 50.468925
107.70441 47.136757 50.455505
96.505417 41.728207 50.530678
93.958488 45.152847 50.568272
89.281189 45.337616 50.558449
93.562912 46.239742 50.552677
109.2412 49.034374 50.516464
98.954796 49.910652 50.548607
103.19675 50.320644 50.54026
105.45407 50.48497 50.521309
112.17857 40.374561 50.685394
95.990051 43.98682 50.687645
106.26616 47.866295 50.61924
98.012398 39.643822 50.71096
89.245056 43.493622 50.792542
108.15974 44.975952 50.792175
112.14408 46.117706 50.721909
93.122452 48.227318 50.710751
103.72131 48.546455 50.784878
97.631203 49.765247 50.732891
106.06683 50.545444 50.746758
106.79884 39.566456 50.833378
91.755135 40.163498 50.892872
107.33618 40.250397 50.879879
90.695869 41.405785 50.832298
96.196884 42.924042 50.899551
112.87627 44.652794 50.872833
93.998222 44.998707 50.855595
111.79524 46.5215 50.863029
111.53123 36.260895 50.978817
106.52715 39.462471 50.983826
92.139603 40.058964 50.944603
112.31232 40.894871 50.913834
88.962769 43.875671 50.961296
112.9696 45.229721 50.997345
110.40543 47.954105 50.907631
96.645042 49.507767 50.959965
94.893295 39.267693 51.062897
91.545929 40.25835 51.089645
92.522148 43.978821 51.089317
100.96739 48.632496 51.040779
103.4409 48.612797 51.013176
91.09964 49.403538 51.060734
109.72565 20.476429 51.196396
98.230515 39.466503 51.166607
112.08099 36.256496 51.294674
111.09395 36.888023 51.223122
94.565048 39.395035 51.244408
90.583328 41.859798 51.253922
98.891701 48.417404 51.213165
91.901962 48.588856 51.289406
96.672653 40.526859 51.33456
96.343445 41.865631 51.387295
112.54518 42.076908 51.340714
90.964333 44.054188 51.376881
107.88442 46.369835 51.325867
105.60239 50.553856 51.364403
95.474579 39.165119 51.469677
94.729996 39.375507 51.416595
90.734848 45.460594 51.452034
96.150742 46.013527 51.455315
103.97019 50.438568 51.42952
107.74847 50.549091 51.445343
107.51352 50.699322 51.440426
109.50803 19.917101 51.59182
113.0484 43.627373 51.593689
113.0042 45.251457 51.540577
90.177422 46.440205 51.530636
91.961601 48.74976 51.586357
102.95332 38.781029 51.626377
89.050217 43.860771 51.633858
107.97797 46.340473 51.624584
91.824974 48.444115 51.614132
103.83801 48.505627 51.630638
98.533401 49.893181 51.625759
108.35709 49.975094 51.640606
110.57831 37.054485 51.76989
94.357147 39.544769 51.768547
95.797195 43.809635 51.781403
89.141113 44.695824 51.732552
108.23567 50.097427 51.714226
113.15764 37.307316 51.838154
96.601341 40.042965 51.897442
90.479828 42.242092 51.835335
95.817337 43.667999 51.844231
94.058495 43.85379 51.865715
99.17749 48.506466 51.858868
93.152451 39.938339 51.997627
113.16648 40.059666 51.934338
91.089531 44.676472 51.972458
89.171387 44.83511 51.91222
108.07101 46.376865 51.981491
90.839493 48.002525 51.914062
92.80748 48.199757 51.918297
101.47828 50.196365 51.900711
112.42315 45.956112 52.064613
96.486183 40.117668 52.193531
96.437485 47.821808 52.163612
113.26743 38.458801 52.290245
89.006493 44.078156 52.201912
90.918381 44.120003 52.204567
90.972107 48.804928 52.207035
104.45326 50.460052 52.2435
96.130363 41.623711 52.325592
107.32639 47.280594 52.331005
90.474709 47.957092 52.351624
113.33884 38.523506 52.432243
102.28746 38.899738 52.474392
103.35463 48.624641 52.490032
102.783 50.294785 52.471313
104.01021 38.802063 52.52343
111.41446 39.053185 52.526798
97.799911 39.346062 52.522202
107.77618 40.99054 52.500458
113.43208 42.581192 52.544949
91.604424 43.237011 52.507217
113.71989 43.846741 52.568485
108.01765 41.537331 52.684143
94.107605 45.087532 52.67889
89.41291 45.945396 52.66143
96.379807 47.46405 52.690849
98.180611 39.222126 52.710773
95.354973 39.411552 52.720825
113.84834 36.50005 52.811035
89.110367 44.556141 52.867905
107.36477 39.635155 52.925274
90.501633 45.930061 52.918613
104.34919 50.412842 52.954964
107.60746 40.235668 53.02113
95.311607 43.630875 53.054199
96.65757 48.994419 53.022972
110.76247 36.757984 53.117817
95.610229 39.527489 53.284653
111.31631 40.170933 53.257114
109.95121 38.553284 53.376503
108.43946 46.516808 53.390911
90.672974 47.226357 53.351265
96.463707 47.890381 53.327023
113.52 36.553787 53.449112
106.51802 39.078987 53.433189
99.217072 39.136028 53.404697
91.62915 42.920509 53.458572
89.864571 43.2267 53.456108
114.07744 43.244259 53.400711
94.776161 43.553719 53.454178
89.21608 45.042381 53.409248
95.375046 45.066212 53.428814
90.38295 47.429752 53.457596
106.0954 47.765396 53.476055
90.868088 48.194157 53.498421
104.21502 48.448746 53.484123
110.93267 40.447132 53.515694
91.572571 41.057983 53.537766
113.96848 44.402557 53.560345
114.39798 41.667351 53.629471
112.99406 45.495888 53.642643
97.120239 48.402775 53.646404
106.37022 50.562786 53.624275
110.23044 19.779381 53.787975
109.63992 19.813969 53.784401
98.904106 39.18486 53.741066
110.48174 40.675121 53.758312
90.721603 42.293358 53.796383
94.337563 42.840992 53.710423
95.753006 39.66827 53.831455
109.9641 39.936234 53.818863
112.74309 41.521919 53.80394
114.10912 44.279419 53.861031
104.64849 50.390354 53.898235
100.80643 51.690315 53.823353
115.19719 39.57198 53.999252
92.385506 40.486557 53.906723
110.19384 48.413303 53.940414
102.52119 50.192108 53.957123
109.67131 38.953999 54.003407
112.7099 35.927315 54.136017
112.3979 36.883339 54.195351
97.729309 39.400139 54.143822
114.29807 44.098751 54.127693
106.97189 47.200439 54.138618
98.457924 48.772133 54.100437
105.38415 50.443558 54.167904
105.45346 50.449158 54.182102
108.85924 45.823074 54.219051
101.60658 50.086052 54.225727
104.8227 50.386921 54.264923
113.03508 36.642372 54.35619
114.0484 41.439713 54.348343
103.02585 48.726158 54.370323
114.82564 43.365101 54.414803
94.855797 44.437325 54.492241
101.77723 51.564426 54.474667
112.97396 34.637287 54.50737
113.22778 35.878311 54.50069
113.94859 36.715267 54.545631
89.919952 46.30415 54.570934
104.75557 48.377399 54.574112
101.19548 50.027985 54.51318
103.87761 50.287067 54.513618
112.89327 33.568512 54.622658
95.072914 40.0369 54.681259
92.273956 40.63945 54.617786
115.0404 41.474495 54.671612
94.467941 42.621536 54.619511
89.688751 43.632397 54.656487
105.33746 48.256046 54.600513
98.478195 49.697624 54.613663
107.68898 49.694992 54.699558
101.2129 50.021103 54.676613
104.6921 50.353767 54.664875
103.0233 39.070744 54.715492
103.44388 39.048279 54.755283
106.04885 39.041172 54.717155
101.54158 39.163078 54.751492
94.985718 40.085426 54.794418
92.758514 40.523251 54.775074
89.200768 44.973785 54.700558
89.646034 45.797451 54.766384
112.83782 32.982208 54.84013
113.47571 36.043018 54.800972
114.56566 38.116688 54.850262
96.489838 47.931293 54.895966
107.51381 49.69709 54.831673
109.75694 19.796528 54.998566
94.643997 40.196865 54.976154
115.16957 40.224052 54.935272
109.44301 41.212563 54.978951
89.513687 43.885002 54.954315
95.168381 44.0056 54.935783
108.16901 46.335491 54.953682
111.84566 34.669262 55.049057
113.69116 36.24482 55.067741
107.15111 39.1259 55.027813
102.83154 39.234367 55.091736
101.51646 39.317211 55.054081
97.368744 39.683418 55.074764
91.578239 42.666859 55.015724
113.78469 34.094231 55.101128
115.11548 40.647873 55.186424
114.89745 41.726906 55.187897
111.07449 44.511147 55.138062
112.29206 31.986467 55.289646
113.42957 33.061993 55.298569
105.21787 39.181286 55.219353
94.455795 46.419952 55.255806
96.995552 39.848255 55.374813
96.442001 40.013901 55.360817
109.27081 40.884258 55.356674
96.535805 48.159584 55.323456
114.02191 35.290718 55.413597
92.515717 41.969742 55.410145
112.0191 44.51326 55.42157
95.472588 45.698364 55.478317
96.059105 47.148235 55.433228
105.67973 47.942326 55.471504
105.29533 50.702881 55.490761
115.20491 39.566719 55.547569
94.819565 40.327774 55.508259
89.632103 43.851944 55.569939
91.1996 44.029331 55.594303
113.17762 44.1231 55.580044
91.723541 48.614491 55.553658
110.04008 48.62281 55.529068
114.25922 34.304428 55.644405
107.81642 39.613823 55.673954
115.11961 39.738422 55.665001
115.05898 40.011555 55.671757
114.59928 40.000595 55.707497
113.386 44.088112 55.762512
110.18878 45.232635 55.709461
95.291473 48.121185 55.783253
104.85901 50.209244 55.786392
96.172531 40.492039 55.831482
114.19281 43.844376 55.802971
102.44702 50.083294 55.883999
105.11205 50.756344 55.877228
101.24442 51.21632 55.852631
113.25269 31.408592 55.990273
95.011223 40.425056 55.937469
110.68112 45.197311 55.916267
112.98643 45.755283 55.904812
92.479843 49.023575 55.923168
98.458893 49.528992 55.951653
113.59933 31.874125 56.084705
114.4176 36.281582 56.034126
105.83116 47.568043 56.055992
101.31472 49.959686 56.030518
97.34243 51.21991 56.069874
113.7043 31.969889 56.194199
91.239273 42.523621 56.165749
93.00351 47.162575 56.147697
110.77618 48.04705 56.191715
97.082108 49.24464 56.161259
109.58288 19.980524 56.213699
111.40271 30.925785 56.228699
102.68553 39.945457 56.299271
94.186531 40.64225 56.204025
91.494446 42.322205 56.218445
114.84127 39.397865 56.365566
114.62135 40.770088 56.336506
90.690178 43.449623 56.376835
104.51237 39.91082 56.455475
93.801056 40.781445 56.453861
113.46696 45.285812 56.492836
109.38481 48.476444 56.407677
93.353294 40.87606 56.521122
113.10941 44.232079 56.562965
110.79245 45.381596 56.591072
95.074326 45.426781 56.652534
91.4151 45.511147 56.6819
93.610779 46.681614 56.611618
113.06182 29.64068 56.732647
114.53728 33.773827 56.702991
100.58923 40.402596 56.754726
96.020805 41.337109 56.767986
92.198181 47.182079 56.73045
110.36817 48.028908 56.752346
94.382149 48.725578 56.728439
109.51224 38.368507 56.852924
114.2715 39.912853 56.895977
114.0876 42.270683 56.854942
92.225128 42.524384 56.882401
113.7657 43.763031 56.869225
95.822044 45.276302 56.892975
105.08193 49.705971 56.814339
103.30699 50.112507 56.822144
103.0873 50.992706 56.856884
113.49387 38.103203 56.976204
91.401733 43.460331 56.90078
91.971458 44.350822 56.935524
95.901077 45.10408 56.949841
95.528442 46.083435 56.989845
94.422913 48.791454 56.9921
113.97195 39.730049 57.091713
91.880135 43.136955 57.035297
93.086014 47.848812 57.077042
93.76432 48.913403 57.0294
110.27803 32.159466 57.142868
114.31055 33.918091 57.117645
96.494972 40.556705 57.194401
92.442459 42.756073 57.192902
91.763962 45.978344 57.140839
92.369736 46.642761 57.173401
95.365524 48.506214 57.135628
106.59515 49.058346 57.144196
100.37727 50.849514 57.198372
109.5038 20.135365 57.228352
114.02804 37.588562 57.20504
102.33861 40.486012 57.228367
113.86044 41.362915 57.272377
113.88332 41.994545 57.247307
92.0578 46.098122 57.242142
112.85297 46.057388 57.289764
95.613739 46.530472 57.233486
112.20798 46.767269 57.248585
99.677071 50.904312 57.259125
114.11433 33.17131 57.357422
110.07767 38.721611 57.367317
95.667908 45.847729 57.380829
97.252167 47.958012 57.30954
96.171005 48.303539 57.393448
96.681702 48.83989 57.335968
106.19516 49.04303 57.375389
105.54554 49.859074 57.391258
109.64867 20.77808 57.476582
113.99055 35.181667 57.47723
113.36956 37.65625 57.442886
112.94353 38.094948 57.463516
108.97163 39.737823 57.494888
105.15074 40.550896 57.417797
94.471535 41.128998 57.487701
93.377197 41.860153 57.477837
93.244545 47.425663 57.444035
105.35347 47.467728 57.439156
97.808937 48.070721 57.444008
112.36651 26.852757 57.506699
110.38229 29.864666 57.519955
113.59531 37.624249 57.532455
110.1413 38.965919 57.532291
93.944885 41.02549 57.557064
113.59167 42.345364 57.518314
106.98866 46.795464 57.528461
94.454475 48.900772 57.597572
106.46867 48.953617 57.504421
98.676178 49.369652 57.574493
98.449806 51.113785 57.54192
113.82603 31.667625 57.654961
113.18893 36.719696 57.688618
93.05957 42.733055 57.626022
113.43522 43.115337 57.660309
111.17863 25.285957 57.711655
113.90562 33.427582 57.753075
107.03101 40.871475 57.784863
100.01506 40.972675 57.742336
112.71095 44.069225 57.702141
91.266571 44.190521 57.741096
93.481354 46.434502 57.754772
93.215279 46.8815 57.726456
111.84077 47.160828 57.749008
110.92858 34.537121 57.814495
113.30019 40.506516 57.801834
105.29939 47.21579 57.862675
113.84987 33.85849 57.90535
111.92256 42.93787 57.994865
112.6044 46.402912 57.911407
106.20044 48.99073 57.951698
111.71146 24.586758 58.016159
110.37095 27.392189 58.092251
113.68326 32.436241 58.017067
112.97778 44.976902 58.077759
93.898712 46.481037 58.091389
104.04318 47.875256 58.014439
95.702484 46.784286 58.192474
94.464035 47.893684 58.172066
94.770958 48.311695 58.186356
112.75134 45.19278 58.288483
112.81802 45.439957 58.224636
95.238235 47.128014 58.247704
109.80358 47.606491 58.248001
97.993622 49.164238 58.200928
98.53125 50.765892 58.28257
110.84869 31.577578 58.351574
94.868538 41.907917 58.396584
112.42603 42.231827 58.380806
95.761108 46.707813 58.356617
96.948181 48.943733 58.397312
112.90189 26.839647 58.418411
113.17898 34.07843 58.435356
105.68835 41.632984 58.498608
94.981667 41.788525 58.400116
104.88999 41.709496 58.42487
92.381912 43.779907 58.415333
92.314819 43.860413 58.464714
110.56496 44.098419 58.428402
95.665955 46.88456 58.41288
95.714424 47.014801 58.405136
110.86004 47.184273 58.472267
110.19206 20.390919 58.534084
110.11283 28.028547 58.586296
113.03001 33.378426 58.551056
99.761322 41.55048 58.512215
100.25679 41.737961 58.558914
92.399727 44.208904 58.577839
110.48128 45.241608 58.518532
95.643394 47.191143 58.578236
96.023361 47.536274 58.574821
100.70369 49.627399 58.571304
111.38683 21.494217 58.669979
110.20316 28.142479 58.618912
110.55798 40.59227 58.626488
102.31473 41.085022 58.649555
96.87532 47.302902 58.691406
100.61949 47.482635 58.617176
94.948875 47.758472 58.642311
105.34107 48.843704 58.680382
97.633575 49.036888 58.685394
112.87788 27.456331 58.707714
113.14503 31.713455 58.705467
95.416283 41.342396 58.724518
112.31294 42.195869 58.716263
106.9623 42.274837 58.78611
112.22626 42.299232 58.796806
110.08432 43.044468 58.755157
92.918915 44.600151 58.769287
93.899918 45.009403 58.756771
99.80825 47.747463 58.762497
98.209946 49.131889 58.792564
111.71542 23.204172 58.896004
112.6147 31.227835 58.892052
112.36878 32.744877 58.820213
98.856056 41.400074 58.891308
105.63167 42.217537 58.813797
112.12183 45.337635 58.876968
94.167809 46.187099 58.89159
106.11267 46.527382 58.892464
95.407295 47.119133 58.870857
111.71902 31.337791 58.937038
112.10052 32.599449 58.927181
108.94135 44.607964 58.902271
95.784767 47.163185 58.90686
98.946121 47.555386 58.994621
96.255013 48.736687 58.91568
97.508018 48.981739 58.941422
111.56819 30.492542 59.013786
112.05168 31.095779 59.030472
103.2948 41.610107 59.070671
94.388016 42.7659 59.077499
94.267715 42.817001 59.022873
108.16914 44.291004 59.099228
108.81796 45.912262 59.071732
96.614532 47.166489 59.048622
101.66548 49.437981 59.076088
101.59789 50.670841 59.073433
111.89745 20.61657 59.141663
101.45806 41.422222 59.124397
99.602829 43.056568 59.187168
107.9709 43.781757 59.128059
111.6965 44.253822 59.195477
102.33172 47.106983 59.199005
101.74784 49.39011 59.128685
109.54736 20.061138 59.211121
110.16801 20.04459 59.254536
109.4875 20.246651 59.287155
93.975937 44.845867 59.271984
110.67606 46.628712 59.276726
109.17842 21.262148 59.326931
111.90809 22.741907 59.353298
96.041451 42.000137 59.364449
99.629547 42.805084 59.331039
94.597076 43.488041 59.364822
107.33057 46.247269 59.362518
101.42235 46.906868 59.377182
97.935974 49.003006 59.317741
102.27234 50.620361 59.300468
103.18851 41.556805 59.421207
104.23642 42.110054 59.439102
99.89357 42.311512 59.498169
95.5867 42.639793 59.415375
111.27787 43.820621 59.410656
110.9897 44.005386 59.485371
97.477432 44.217247 59.458977
94.623856 45.222656 59.467453
107.49765 47.82658 59.496273
111.30534 27.713419 59.573162
102.81434 41.312508 59.598557
96.459023 42.262772 59.569939
97.887741 43.471352 59.593811
94.886353 43.781559 59.540279
94.751724 45.114479 59.552555
96.714828 48.587132 59.550583
110.86609 20.878157 59.646534
111.0289 26.850607 59.661812
111.17057 27.196093 59.653206
108.01091 43.405304 59.606865
96.849564 48.301224 59.684082
100.10739 48.762512 59.674664
103.52429 49.103348 59.602318
110.18919 23.013203 59.706329
112.14007 26.101048 59.764839
101.83901 41.109173 59.745659
108.86627 42.809017 59.740181
98.566475 43.768764 59.773346
103.27651 46.750969 59.70789
96.667091 46.86779 59.735455
101.69567 48.74419 59.770298
103.39699 41.662094 59.874672
110.80345 42.260204 59.817089
107.24054 43.579994 59.859467
98.857651 45.774696 59.890476
96.850861 47.743088 59.826935
99.974213 48.576302 59.855309
110.38918 19.786373 59.949039
110.40797 20.452013 59.949566
111.4864 26.548399 59.961193
99.164619 41.987968 59.939232
100.23286 42.032326 59.909275
104.83981 44.301823 59.928234
107.61275 47.621315 59.928688
100.16692 48.52758 59.914581
98.323822 42.342739 60.029358
107.45074 42.302509 60.013069
104.6744 43.864491 60.099621
108.77524 46.648216 60.042664
98.219513 48.321243 60.050472
110.72946 20.493496 60.190918
108.98801 42.800396 60.158459
99.645355 43.932335 60.139835
107.13941 47.622921 60.160259
104.18021 48.648209 60.14426
110.55405 19.859602 60.214931
109.69415 20.873962 60.237198
104.38219 42.46101 60.260639
102.47118 48.245514 60.256363
110.68655 23.295429 60.32473
107.1145 43.067825 60.373711
108.04994 44.961941 60.388664
97.20504 46.21804 60.375034
103.74258 50.322727 60.368229
109.10945 19.965345 60.446568
110.86565 22.9601 60.431221
100.39554 41.941177 60.447746
99.768814 43.162369 60.410255
97.818741 43.722683 60.41851
99.312698 49.550434 60.432129
110.28485 22.507271 60.503815
105.34396 44.730904 60.548439
106.65972 45.601788 60.545334
97.58149 46.276535 60.529495
101.6544 46.268158 60.521397
97.782639 46.395954 60.589558
103.71677 48.184307 60.533623
100.13235 41.931644 60.680199
107.53323 44.544151 60.63649
99.783173 44.834881 60.674656
106.69003 46.646072 60.601395
98.035065 47.228622 60.64312
