# .PCD v0.7 - Point Cloud Data file format
VERSION 0.7
FIELDS x y z
SIZE 4 4 4
TYPE F F F
COUNT 1 1 1
WIDTH 1612
HEIGHT 1
VIEWPOINT 0 0 0 1 0 0 0
POINTS 1612
DATA ascii
49339.062 23564.205 21432.311
27433.297 18085.787 38917.961
39196.547 23452.109 74693.18
32264.482 32589.994 79858.539
27545.701 33919.121 75693.852
32583.723 31611.109 88218.797
26963.617 10802.592 93493.492
38378.941 2196.5354 67955.188
17115.467 14000.686 16197.702
35164.234 3759.0112 64789.852
21864.857 26349.188 60330.859
7715.6172 16691.512 8383.1562
35103.055 27694.219 57086.766
33988.289 11171.021 55954.059
22872.699 12831.229 88859.93
29314.834 30421.779 61110.051
21901.848 27235.535 92598.422
41196.422 28616.293 23629.066
20837.055 25556.477 81673.062
33323.719 11350.721 60182.781
23150.791 28402.332 57001.902
9184.5801 11698.684 12128.993
31694.229 26217.217 38261.43
27981.541 23304.586 98270.359
19737.795 31534.955 85876.711
53396.82 23253.521 11741.498
51022.695 23860.674 19917.115
22296.539 21874.99 89560.883
37689.305 20318.371 106085.41
35303.801 4902.0171 79939.594
26116.32 23657.811 104409.11
34176.754 28395.68 72476.82
19245.477 18943.781 27054.289
22089.66 13006.771 81586.641
31525.93 25590.877 108472.48
22396.045 26137.305 48587.633
64484.945 29399.904 6513.9287
41664.621 26325.934 15322.791
35092.836 16115.252 111094.78
56081.035 6117.7715 6543.1421
46806.773 4131.8071 60431.695
38011.109 22186.852 64251.691
36257.797 6885.874 79227.922
21427.004 25969.086 74122.82
28849.947 2701.7351 76753.055
26270.836 29867.811 50658.641
20972.102 15542.383 51331.395
45305.859 26560.645 37231.984
39078.629 22310.135 35417.758
18423.188 33030.352 66377.102
38184.336 13389.959 75290.219
39150.922 1192.0703 64376.715
19281.924 31272.25 74441.281
24371.395 11849.576 80953.406
25278.223 37148.344 84494.062
24676.887 19027.611 38339.031
23526.156 34917.852 60537.621
28754.498 2657.2363 88159.922
22767.701 36053.367 70615.594
38199.066 1128.7458 64979.074
21658.691 26440.148 50090.281
25687.867 13390.51 26891.734
42859.777 2559.7737 57783.695
39959.344 1960.9763 61052.887
26918.594 29789.432 72838.875
22013.434 11712.338 46945.738
45571.039 28624.322 13599.115
33604.531 26631.072 91085.32
23762.09 25580.09 47869.988
35961.906 3896.3354 64480.016
40853.77 23034.168 38165.051
34039.051 11550.213 59928.398
23828.682 12100.009 91725.562
20169.102 28498.152 76986.359
33818.887 28390.83 71726.562
17809.447 35724.629 49907.766
39087.5 19843.832 78885.805
37646.742 24483.098 54839.402
45791.184 3671.3943 61270.789
21750.82 18690.777 76403.836
25611.73 8557.6113 80295.305
46819.641 24620.443 35506.59
33373.273 17921.594 93586.984
36167 24151.324 33327.379
22548.035 12991.987 86266.82
18682.91 34766.602 55563.195
20615.674 24980.766 56953.93
53256.336 23439.791 8204.3066
33218.168 9471.0732 75930.672
25952.32 9682.2852 81145.703
38915.145 24708.748 52273.074
17777.635 35973.738 54109.625
29927.158 10103.334 59028.254
22420.992 36515.055 51207.051
51688.906 23360.051 5910.7222
24129.957 21312.133 50421.914
25879.285 8769.1709 79519.773
20654.277 12288.395 21577.344
25814.33 30045.424 61188.43
22414.578 31406.117 65289.367
37981.273 23205.896 80724.484
29946.355 9645.9238 74520.961
22982.764 23567.084 64913.309
31551.377 4602.8408 67344.422
42907.27 28341.23 40690.895
22577.645 17270.504 46500.234
19581.004 32283.34 87625.242
39159.688 21735.062 32577.832
26527.102 12741.933 29919.236
33372.102 10418.891 90925.516
46614.301 2342.7822 59701.57
40467.625 25028.012 22530.928
33147.375 29843.785 42277
21123.686 30798.301 77195.484
3088.1621 15502.943 13117.398
34866.746 27984.191 86960.078
36603.379 21377.289 62270.168
21060.516 34620.699 83787.445
30953.344 10320.583 74930.984
35087.156 14556.629 63799.148
26165.508 19516.727 44598.711
23330.941 29508.684 75279.203
45885.688 1601.922 56885.469
28930.844 3897.8521 69563.016
38978.68 22986.439 77772.266
20283.697 29981.111 83274.391
37629.41 5142.3682 65000.02
49727.598 25782.844 7615.1836
26954.438 9959.5449 69619.602
23187.186 11848.172 76219.531
64008.391 23494.375 6641.5771
34518.898 11626.233 73626.477
31833.152 32865.625 80221.984
30957.482 7681.3501 73317.016
14585.868 14767.225 1362.2789
44848.352 5244.8145 60199.055
36794.812 24881.324 83061.578
27225.18 30799.811 62325.273
31958.727 2516.3215 77944.922
50850.695 27063.422 21039.402
25200.518 29587.826 68842.578
27135.777 24228.309 103557.75
39957.164 21808.078 73581.852
52230.102 29584.797 9174.2305
9052.1299 11941.664 10979.067
22981.961 28401.24 74236.43
25215.01 36912.828 81953.781
35455.641 26073.467 33314.531
31160.488 11164.455 44886.422
33330.238 28528.551 90804.836
26314.307 14142.736 94939.219
27281.809 12221.777 32741.564
35991.762 27931.406 82548.094
29944.322 29051.922 76105.547
32744.064 11242.879 49479.078
25292.5 11249.772 78905.672
62594.016 29012.934 9068.4814
47804.609 2100.6467 57051.016
51303.871 8869.4902 51090.238
50421.703 23849.67 21360.865
55656.738 28985.723 4138.3291
24633.768 4819.124 79816.766
38990.773 17437.408 78581.969
39107.719 17106.516 68994.25
48354.934 24575.371 5455.3984
26399.104 31599.518 74646.633
38288.039 19210.902 81114.609
21425.855 21654.941 84028.531
29208.496 10340.71 74369.172
26931.355 26940.602 45426.852
50307.648 27073.836 2652.981
22577.566 13726.438 86737.664
22488.27 36302.875 65439.172
25302.174 36992.207 88590.07
37361.305 11484.952 77665.109
21823.58 18195.42 75901.891
32466.504 17965.785 46094.496
38603.102 22965.121 105213.03
30258.178 29785.879 63039.953
27346.035 11045.154 78740.953
22375.215 15750.297 72210.812
29126.977 29330.76 72367.414
24292.973 22072.195 105951.45
27779.051 3169.0488 76394.422
40327.695 24372.449 24928.258
11380.721 18506.982 17891.869
24675.82 6288.1904 79933.188
30424.176 27263.664 93276.727
36163.461 8635.458 83594.828
34082.867 20888.68 94725.484
35754.672 8678.3154 85568.094
24544.373 18232.791 33337.797
42255.191 27534.746 42783.297
34540.438 7123.7285 70198.891
32544.664 28685.723 76126.016
27603.246 30680.871 93383.172
21392.045 28851.773 85357.523
7889.9395 12741.235 16625.434
54444.117 6523.5479 17161.031
26547.332 28452.328 77463.422
24628.041 23821.227 48437.117
36841.887 26338.881 81310.695
23113.965 16864.977 92089.805
37784.512 18885.41 110639.31
18849.07 36147.688 47699.023
50102.781 5100.8037 56582.891
45327.242 1574.9233 51922.828
22920.885 27102.531 48731.691
16645.955 17154.682 15950.425
38403.871 14212.488 78668.422
20508.305 36952.688 50116.906
36501.273 21793.473 56285.922
18233.457 34860.129 64756.406
21274.059 22103.109 79182.75
32482.018 31267.348 45335.984
24793.365 9203.8281 48150.34
36511.707 11072.7 85094.312
16478.904 12211.99 18414.785
31517.029 14812.516 102926.6
28385.605 24163.16 110385.48
43374.727 30374.299 23689.797
35586.789 24330.543 110547.96
39307.891 16968.527 74214.172
19617.301 29063.812 77125.578
24265.346 9100.4648 43120.203
25989.09 13356.121 27689.141
53574.395 7256.4844 21014.338
39245.234 17245.744 70931.406
33523.52 25034.994 100740.84
23466.723 19063.131 38843.273
53031.453 8847.6797 41649.07
34110.977 10727.221 79298.562
36110.281 17020.984 62714.449
31459.605 31092.996 55133.578
32044.969 10452.503 56081.039
22444.666 35705.855 84339.078
22199.537 24872.529 70955.922
40046.488 20433.139 68042.875
35397.496 15455.367 100290.48
38964.164 3869.6567 62716.266
24005.775 19108.719 106977.86
19089.654 18923.412 26319.104
29574.619 10844.017 66147.109
44785.527 22544.832 28742.713
27065.992 29712.682 74516.844
42070.391 30603.299 31269.467
57592.91 23500.496 9202.5576
20817.086 25728.184 81771.594
23154.793 26618.762 65829.477
59552.852 23296.275 5911.0649
33510.785 10728.756 53532.395
26808.611 10015.143 64703.102
49908.43 8710.8398 56538.512
58635.219 25834.797 4935.1631
32552.125 3640.8989 83973.695
47908.484 29274.832 20297.199
38598.043 24613.215 53004.801
26058.422 21931.879 98390.758
22100.744 36744.488 52197.762
39519.57 1553.8652 65038.125
21295.686 21186.82 60236.969
27116.578 30709.633 63597.312
25239.227 12089.494 93668.289
19706.641 35647.574 67309.148
33462.152 20661.006 113329.57
21470.67 18301.074 60381.859
38711.941 22868.559 31577.137
47646.547 29547.09 19063.457
30528.441 6178.7422 69799.508
25143.777 28799.047 77898.43
40576.543 2640.637 66130.945
11942.461 12719.037 11324.378
1171.9609 14153.719 8548.5977
23810.195 7284.0566 85841.516
46702.238 2185.2607 55364.914
36584.516 21709.006 35872.336
12469.334 17072.686 7994.5493
38960.723 16689.211 68525.281
24406.652 6074.8921 80749.656
22734.434 12213.654 81948.938
37467.977 18047.199 100228.99
31581.357 10740.063 46602.918
20747.105 36532.332 59699.062
36824.754 20979.979 86525.078
35994.559 20459.596 89108.57
36620.094 19741.209 62081.672
22466.752 26769.027 61712.914
39663.508 2476.6084 67024.836
38032.109 21821.752 106628.27
30856.594 29109.506 77710.812
24323.557 11610.839 70331.172
33742.93 29835.004 57491.328
39032.281 26502.387 50360.156
7892.708 14000.366 19518.457
21733.666 35196.121 83397.867
34136.875 17528.5 91814.766
39936.965 23335.039 47965.094
63968.172 29129.99 6374.5508
21708.105 27901.174 89031.484
21681.902 36281.941 48967.027
41179.879 29001.465 24859.395
58350.227 26096.484 4858.8755
39313.996 23251.635 50118.238
23637.021 8886.8984 88404.375
18821.562 33545.488 76620.992
42721.73 2357.0498 57930.352
22020.949 21134.852 51894.641
40703.516 29441.697 28083.438
31205.766 2526.1064 78161.977
19850.676 18084.572 54645.039
22251.496 19553.928 69701.172
24702.547 27785.328 48500.855
31853.299 33429.887 84846.688
22706.453 28313.416 57796.703
31500.066 23755.574 96566.25
47888.629 23903.043 29546.033
37480.191 21798.188 103235.7
46513.188 22726.068 16919.551
24917.131 4800.8311 86572.625
27708.154 15569.85 30396.221
21629.133 26326.945 73042.617
35523.012 15034.744 54658.156
25119.406 17943.578 102786.17
29723.107 11084.731 68812.078
31875.527 12704.852 92669.734
59074.941 23342.242 6755.25
28495.225 23949.67 100667.84
37616.078 31074.215 39332.039
33119.5 13889.529 47039.609
22824.902 22716.254 65612.953
50962.156 30108.729 7237.5488
54566.57 8040.9067 21267.48
20366.293 23233.328 55422.227
32815.336 30886.885 80404.93
35624.629 5587.4062 79798.234
31529.41 7452.4668 72151.758
30652.49 10543.524 75789.328
24544.07 32869.945 63984.609
24091.668 11563.094 26395.02
14156.643 11732.565 17863.277
37040.41 24612.221 55805.629
21492.422 23558.588 50767.539
23399.164 27199.473 78233.156
33890.711 10264.613 90454.969
7997.1816 11769.08 4172.46
34253.637 1313.0325 65678.672
43112.582 24310.199 18684.678
53505.266 8368.1572 36015.438
21502.691 20796.926 77550.797
36172.281 17327.412 55183.391
21905.393 27398.967 89879.391
34097.871 19198.75 93007.695
43583.473 24368.574 42570.293
26135.545 10036.714 60918.301
33509.047 31281.83 49198.5
9609.5801 16985.854 19188.115
40855.156 1331.3257 62866.57
21166.986 32684.648 61282.062
52467.105 23733.328 7833.5405
21239.926 28773.129 92089.828
40617.566 23367.652 43306.297
47642.047 4816.0215 57458.723
37793.777 19935.969 82974.336
63821.57 28274.598 6333.7573
6144.0796 13460.022 15356.121
24938.119 9789.5078 85161.633
49901.723 26409.895 23869.916
32177.246 1515.0286 72948.82
49870.891 9182.9629 54711.75
35650.539 15336.889 54322.297
38741.957 25995.027 51422.344
12546.917 15287.42 8333.9834
11568.241 18466.639 17103.924
54075.246 8407.1221 24675.15
25023.449 28707.656 78098.922
18468.82 17825.871 22589.949
36918.188 11335.331 78133.078
36992.754 18734.393 95086.844
19351.119 30658.828 81169.359
41727.762 4330.8442 63221.758
30983.98 29836.152 44976.867
36509.047 12030.393 85410.203
50691.285 28692.766 4919.1392
44561.262 3086.208 56806.645
46717.734 1566.9761 57897.367
21193.621 27738.285 80087.211
24864.254 4747.4453 82618.5
29096.453 10644.417 71337.414
20381.824 34104.91 46136.117
19866.152 32806.703 63200.02
35566.824 19349.82 112211.48
38209.914 17911.467 81027.781
24740.266 35366.324 65737.5
33979.18 15125.669 100603.67
36413.008 12404.335 85900.18
36610.41 21674.928 63177.645
28226.594 16069.596 95864.234
19413.154 33004.062 63191.996
23755.303 36661.797 85848.914
38267.297 25218.049 74767.648
26732.709 3302.2466 75643.172
22679.875 27757.754 79834.414
35698.152 16080.371 110602.28
34335.844 29439.051 77462.594
42536.805 4354.5864 61298.086
20090.35 14603.95 19510.746
24512.168 36708.746 88345.172
30980.676 6932.9561 91141.633
55473.316 24110.07 4082.0393
35163.395 14448.268 52293.152
33456.887 865.52417 68924.695
14254.806 17563.451 13867.006
21871.652 25353.199 72294.086
21880.195 22825.932 61273.219
26707.811 9199.3936 76635.031
18404.924 31493.775 78914.141
29725.113 24423.586 111468.09
48183.84 29226.572 19662.742
31780.072 11450.182 46282.809
25873.107 29523.914 76134.258
21466.244 19762.201 79216.383
23567.668 22402.023 50125.227
34611.27 28315.82 87573.305
28177.77 30267.391 49435.633
22056.393 26963.73 91334.719
38700.07 15099.58 76745.906
19132.992 36557.555 49222.469
31533.842 6702.9214 69385.062
29588.322 1628.113 82955.25
35412.031 28193.5 72780.922
33962.801 4508.7959 66181.242
51663.707 9741.1699 44993.125
37351.469 24180.559 65841.766
19707.307 33382.172 60987.469
39120.578 18846.566 78541.664
25112.35 4848.3955 75495.781
36419.047 15906.359 99948.719
22809.178 14859.732 88979.055
30724.859 30672.836 77491.164
23547.422 6819.3203 88564.438
21670.051 27760.926 92627.32
23969.789 37054.008 85017.938
33960.555 21012.641 93691.734
33808.973 23802.104 37056.117
18804.727 34352.672 53677.469
23921.422 32492.074 91928.938
22714.066 14395.675 88059.047
50405.391 26574.842 8616.2031
32850.203 10814.004 77916.227
35054.918 30955.695 41129.875
25592.072 10584.574 83952.828
22604.16 17320.887 68722.453
30632.797 14779.258 102438.55
39795.805 4866.4263 64657.684
36294.996 6845.5215 76934.82
33200.297 8252.4277 89191.164
20476.83 21747.996 56853.312
39399.137 18604.418 65923.352
28702.145 1843.3621 77410.703
18317.398 35036.805 64750.594
36406.719 19162.883 107616.95
30550.822 31474.781 54176.105
33491.641 29102.762 76879.727
22866.082 27019.043 68142.93
28449.793 24160.582 110537.42
29930.111 2431.251 87033.359
22473.439 22146.52 69395.344
47276.547 27583.82 32522.375
30618.895 2171.9602 67765.242
25193.998 11426.135 66740.359
26209.416 27294.252 46602.66
22882.211 35880.398 49715.754
39242.836 21675.115 65907.891
15612.056 18182.633 20550.961
47835.219 29277.094 10895.889
33275.453 1489.0238 72372.445
19437.482 33179.016 46651.219
28738.51 11601.23 94213.648
32963.438 14622.979 106338.95
34257.68 29835.188 56369.484
23503.887 27302.836 77506.211
37624.195 15632.831 82255.719
37947.887 30259.418 47162.73
40220.797 23402.73 48154.586
22520.463 26419.455 68858.938
66004.406 24637.496 8245.917
25318.748 35821.078 90125.648
39313.055 22831.754 40227.383
37415.43 20805.328 103779.59
23067.982 20697.537 93474.203
31828.004 10989.679 73801.648
21117.756 28839.826 83383.586
36994.754 27066.395 71410.172
4763.022 17342.592 10261.703
36988.449 24008.098 105293.85
13442.274 13161.864 11258.902
51408.379 9814.7383 47142.688
46738.648 29381.969 24611.617
23410.336 36034.754 70460.102
39990.742 4768.7422 64374.949
5366.791 18186.117 11280.081
32048.477 10731.299 92018.023
34525.781 20533.508 64737.242
34449.461 21911.727 52371.465
19324.184 15276.146 41255.703
23170.578 31901.77 64474.195
21599.688 18744.893 78415.602
29608.928 29724.391 79453.117
34709.359 11144 77529.547
27842.008 3470.9141 78061.562
23266.777 10134.482 44065.312
24206.629 11845.516 69757.164
41078.469 24891.453 21566.807
36783.641 10394.563 81267.305
22780.637 22582.18 63504.125
23833.816 10238.375 33410.141
35491.27 2010.3369 71422.578
35168.078 28388.152 74568.883
26554.129 35789.914 79283.953
37681.176 25458.258 28413.232
29166.742 11671.455 38621.836
38212.574 30646.082 42100.773
25899.061 11918.859 93756.906
21486.594 33838.375 55386.555
35820.266 21721.047 38073.391
32422.068 17733.617 111807.84
44314.414 28498.197 15909.911
23959.078 12153.137 84595.398
31195.137 1169.9141 71638.5
32540.658 32572.586 80905.172
22979.254 6087.3022 87090.578
26886.512 4621.1582 88688.859
35229.438 10762.005 89373.18
42148.945 26649.846 15073.795
18505.562 35463.098 61351.836
32728.139 22540.318 111896.73
27961.494 2487.6401 77775.375
28164.668 21061.523 111448.66
26558.58 27062.051 94877.992
20049.461 14618.51 57240.461
25270.668 37183.395 84781.055
24932.227 24855.324 95317.969
21208.994 26012.969 86269.5
40167.645 21606.797 74704.141
28383.789 35379.031 84631.945
28872.32 9476.7246 50653.246
33138.602 2577.394 77278.469
30762.43 10940.209 62183.047
41868.355 29296.193 24075.664
24973.105 25131.812 95228.109
36422.645 20911.469 55102.871
9806.0918 18793.07 15208.264
20038.779 18024.949 53899.355
30094.004 14509.33 37943.469
26989.924 30647.617 63253.66
30601.043 14977.49 94302.492
19592.295 10914.367 24126.434
26032.059 20636.408 99222.961
9470.8291 17295.875 3208.2644
21687.406 36037.355 79144.062
22473.145 30062.23 69108.102
34814.742 27665.525 87554.438
31380.457 31291.574 77435.328
43789.84 24417.219 16636.859
24215.629 7610.7173 84679.391
34544.316 12305.286 68535.188
30422.254 7619.7852 92439.867
20302.133 31273.064 78014.203
18730.74 32887.469 81571.953
31143.217 1175.1202 68802.312
33432.426 30744.537 88217.828
31456.238 32809.586 87828.562
33567.266 2327.3762 75106.867
19076.426 17757.41 23152.621
21427.955 20384.385 83141.93
22878.928 24264.594 67484.945
28836.934 5996.6113 71886.219
28632.684 33762.094 78170.367
24065.936 6358.335 82748
31315.658 3314.5908 86199.406
22467.574 35930.109 48539.352
38078.711 5072.1987 68980.539
27035.73 23272.773 100903.49
20948.912 13149.314 50171.508
18627.965 15182.117 38767.086
36426.609 7656.3296 75482.453
26538.465 10082.345 40544.254
46055.773 23002.814 28168.234
20091.045 33687.047 58933.793
36202.898 28565.998 81185.055
23008.443 16664.154 64884.102
44770.828 5030.3193 61440.617
39575.684 21219.598 77586.188
27053.469 29120.908 75046.664
30353.873 15518.557 94765.453
34556.527 25305.553 89951.438
36022.531 13886.982 66284.805
61714.496 27396.631 5765.8213
38135.922 22379.234 81032.945
20414 33382.051 59656.637
29817.229 24550.172 42013.809
24615.336 11946.268 88902.281
27754.99 34422.094 75090.273
26651.623 12880.477 94416.711
25781 21758.016 96119.562
22184.773 18333.225 86515.125
41079.723 25474.188 47066.059
20924.525 16955.066 21508.15
22255.564 14758.156 73886.906
20094.338 33121.254 61397.168
3235.6665 16517.045 11231.236
22181.59 15776.176 61758.727
34809.438 29368.867 39173.016
36723.48 20556.477 62843.602
30673.301 29016.229 74562.891
33021.574 2664.2424 65888.469
36033.156 20974.293 64525.164
34019.906 16283.435 91943.234
21585.512 19105.277 78251.047
25366.229 36130.676 76529.445
14915.305 11930.626 25493.785
22654.9 14557.904 70503.273
21853.947 27304.404 93233.773
17341.938 13523.941 31929.797
24055.91 11344.359 59305.445
18399.711 34242.434 67501.727
38934.75 4838.3887 64217.102
34015.379 3281.5991 78347.797
24458.637 29718.078 76455.18
37180.551 24023.742 82569.578
36265.34 3024.2539 71821.242
23618.732 33588.469 60553.938
33027.18 10506.277 53042.508
43021.352 29610.479 22178.33
24677.48 23517.494 95388.82
20221.705 34056.586 77633.828
46074.273 23223.51 30132.723
34577.086 3827.9026 77440.68
58098.234 26394.248 9209.6621
43883.809 1562.8829 61215.594
26305.338 34714.672 74523.234
42459.234 30455.406 26202.115
11199.611 17190.246 20546.059
37278.062 20406.701 94418.547
24100.871 25229.09 47846.742
18470.328 34310.918 71204.555
25996.561 5467.9272 88851.352
22706.902 26187.816 68081.781
49653.461 23609.545 21053.953
24885.172 27609.346 75335.375
29984.086 32977.289 89560.141
34704.262 20298.174 64709.945
19244.014 32826.961 87710.844
30283.01 34144.34 83845.547
36964.703 18739.973 94911.625
23724.4 11231.688 77428.734
38892.531 16284.99 69564.289
20795.928 10092.523 28556.031
49278.75 23346.965 7760.1748
45825.691 1411.9105 58097.273
37756.133 16678.412 106737.4
19387.887 13512.817 40957.875
24552.504 33266.281 63982.039
33044.082 2727.0676 78331.922
22083.434 26060.949 93189.922
2210.9519 14759.441 11758.584
36585.656 2352.9775 71009.695
40521.543 30304.52 39634.297
34021.105 26142.912 35224.723
46438.117 23142.441 28011.689
36626.953 11230.47 84699.844
45648.031 22613.348 19669.059
33834.953 21519.562 93359.469
21893.836 17394.367 75738.047
14623.895 14746.839 28840.156
19355.457 35157.129 69821.406
32771.055 884.15369 69222.156
21144.957 35020.316 75927.156
33322.293 26632.174 36888.312
21630.982 19444.807 83749.766
46314.242 29123.357 31950.773
25328.354 35971.488 75282.016
29416.652 1737.3646 71204.188
53256.605 26430.27 9055.3213
22042.291 16457.637 74691.586
21626.838 30839.148 66576.375
45998.836 3494.375 61179.598
29522.457 34306.125 81855.281
50500.367 8394.2344 56269.102
29410.967 10470.57 62095.68
37503.047 21522.189 83967.875
26093.316 9860.4268 73905.836
30762.391 24676.246 100126.62
28788.713 33145.297 75205.703
25613.395 30005.875 74310.031
26344.654 8601.7588 77020.648
21154.137 33484.781 54304.062
32676.982 24682.582 99220.859
38480.801 19740.344 80669.969
35082.746 21204.006 106025.5
29230.461 9843.3838 47886.719
22576.137 22102.25 67936.18
36527.711 19018.23 87159.703
46902.035 29502.758 22767.258
24992.109 34107.281 64547.59
25860.506 31043.549 69912.625
32951.957 15013.408 100417.7
22533.629 18251.361 38256.617
25026.197 11461.324 67434.68
11085.253 11690.731 19427.613
39688.852 19517.152 66309.219
48475.418 25215.018 31115.021
30322.707 33597.477 79617.953
46217.695 2831.7749 54766.273
44094.387 26467.891 39695.277
36032.914 24955.988 85887.75
30059.996 24014.383 96821.047
44549.023 29743.643 31870.66
41581.664 27348.42 44400.008
30677.689 29034.047 92225.984
28219.836 31299.758 58892.613
27833.834 5576.2993 72521
49579.938 5782.272 55825.328
19916.621 28609.277 77015.773
37239.438 21227.209 53599.793
25233.891 10753.644 61346.398
7815.9419 19066.361 11500.113
22828.568 13630.666 88751.375
8917.8574 12682.305 6752.8066
12444.818 11402.207 2628.1538
19199.531 34202.383 53298.789
25921.984 11676.466 80657.312
19681.963 34917.387 50542.203
25651.664 14888.995 95128.047
36240.441 20144.797 88367.539
23721.648 27731.551 80227.328
23841.217 9208.582 41470.93
26475.164 20131.635 48889.504
32433.277 30238.814 80056.953
19655.234 15964.803 38610.441
30083.881 10848.884 63979.391
33001.805 24746.5 99334.172
24471.014 33513.762 63655.461
32878.992 28671.41 40726.406
35827.328 21085.834 89493.594
21680.277 20543.781 84812.898
14394.17 18573.783 21718.631
49172.539 28478.391 22051.084
32820.68 6344.6567 68143.688
29919.648 10367.002 75875.43
30275.234 31911.41 51267.02
44229.809 4495.2842 62031.43
33727.621 12158.088 68241.688
25946.588 24030.496 95942.32
33722.57 9209.1855 75834.078
22174.316 25653.514 93371.383
43360.738 4862.8979 59709.477
29584.486 31562.711 49724.926
38329.816 16097.783 67670.219
24155.414 6566.1196 88691.328
25098.258 11241.326 78829.266
15090.303 16458.707 26795.988
21630.131 21884.693 74771.406
25625.117 35444.715 69085.711
31703.541 25394.199 93625.625
30830.855 33951.734 84650.469
21803.348 19657.82 74777.242
40221.824 20598.592 70584.781
38649.062 17146.146 66619.766
30150.461 14834.508 107958.54
23260.25 11608.431 78596.891
12099.179 18173.105 4390.9487
23781.477 27378.496 65509.043
33840.027 4607.9785 83481.773
37616.395 15023.502 82091.367
29971.463 1479.2468 68552.906
36082.457 19564.904 88796.133
19411.094 10348.232 25587.098
24424.867 18111.426 32395.941
25940.184 30384.883 52416.047
33862.422 11221.422 76499.68
32204.18 16341.811 41635.629
32298.416 8310.3105 90673.672
30136.121 31402.723 91388.109
20137.031 12724.655 40336.957
22609.217 11565.566 55780.414
20826.625 24692.277 58189.086
20272.826 34072.578 82515.797
23530.367 30206.941 69990.539
24029.344 33505.742 91487.961
31826.281 25767.262 93337.734
27045.801 15322.975 106414.59
24903.469 6051.5879 78515.656
45603.164 28989.75 14624.371
26760.582 10459.722 37754.172
39253.422 23343.99 74672.383
46933.395 26161.641 34216.027
48165.035 26917.557 2067.6699
27788.643 32747.381 92227.953
53885.078 23822.303 15310.889
19967.025 35506.789 69958.93
33615.844 10659.938 79292.438
40623.926 23398.561 44469.105
25820.797 30706.5 72508.656
35039.215 18002.799 90462.734
51385.766 27999.562 18150.885
36607.637 25394.604 83182.195
37709.879 1291.9419 63699.273
21448.23 26982.656 82035.047
22886.027 35705.625 52860.094
19761.518 33800.516 53775.266
61814.98 23440.805 8748.4531
29044.27 10223.812 93699.055
22296.922 24115.549 61981.195
34468.828 23433.287 36451.172
27799.908 8575.3408 74325.961
19619.129 16811.727 33661.039
24489.234 10771.567 87875.664
56614.59 23712.012 9490.0859
37648.359 19359.402 83351.594
42923.359 1320.5634 57984.469
47323.25 22696.818 14005.998
26480.311 8721.8945 55441.48
15729.788 14750.248 30828.32
33808.637 3488.6846 79708.008
24801.672 26701.436 94591.461
8941.5078 17837.035 6702.0518
48038.438 28902.078 22838.604
22228.652 12777.764 77581.219
38004.398 23191.574 106233.07
22373.182 29879.297 72014.406
35238.875 5017.063 79064.352
26655.723 35637.719 78680.43
22359.266 22775.535 91069.016
30732.09 1783.8237 82834.906
16001.372 15628.591 866.47772
26874.746 28675.725 79416.383
33910.43 29130.906 59330.078
26337.4 17884.451 35255.871
34888.848 30771.557 50427.848
66308.938 25583.736 8742.2129
33717.703 25185.855 105470.27
20051.184 34440.508 75354.781
30894.285 15067.922 39484.805
9449.3691 11206.779 15633.723
23422.801 22388.461 50227.227
22703.365 35512.73 73930.102
21608.742 19249.973 77789.734
28739.828 10575.172 77598.211
40545.469 26636.551 19049.395
21297.266 26750.707 84153.969
31611.936 28723.027 76229.227
16221.236 13505.265 29601.234
18276.84 35302.832 61650.914
66173.305 26032.104 8992.0518
35440.922 15138.594 103798.98
39650.633 22479.516 73860.703
4459.1655 15538.741 10392.737
20504.066 18967.012 29615.52
27125.568 8741.1006 75192.391
34043.781 29210.105 58779.324
29352.703 13592.566 94829.016
36687.199 10198.986 80770.141
36215.398 22491.73 34817.348
36541.008 22243.646 56846.352
37357.383 22792.855 49121.738
29849.045 12186.858 94080.023
18295.055 36219.539 49274.523
28523.57 31034.684 50279.734
20278.301 13657.275 49354.742
26900.594 18652.623 41099.746
39649.164 24826.863 50675.551
38840.594 15788.402 71481.555
29493.498 8356.293 77313.234
21792.396 25344.672 89973.422
53920.195 29240.066 4735.6152
24020.854 12171.602 87185.188
47253.52 29113.766 24602.328
14751.609 13059.154 4719.8823
35470.188 5004.4263 79350.555
38841.641 16498.527 68127.562
35428.055 16494.768 96915.727
17055.373 16620.16 500.83054
25798.121 4148.7168 79350.609
23279.912 5846.7935 85326.297
37787.195 20351.125 100164.77
25935.678 9703.9736 71222.789
55100.312 24499.844 8986.9795
28735.535 29485.668 68019.281
39536.105 21384.379 67365.305
41301.781 27464.053 44863.586
28366.477 8950.0391 54277.781
29159.598 24026.197 43243.383
41500.766 2402.8892 59424.219
36962.453 14490.028 84445.094
29597.625 30501.799 59783.844
22890.598 33782.359 52677.754
22372.316 34136.137 90028.516
39718.27 21436.879 69413.438
38076.539 22234.838 105649.34
20472.301 34290.457 81746.953
10918.727 17229.658 20142.176
39838.539 22654.025 36938.652
27259.613 9979.9814 73137.18
31367.52 28170.449 41814.93
19697.367 37162.961 53725.914
23224.506 12277.066 84550.258
53975.848 29017.82 5754.1094
19479.883 18987.227 26833.533
39717.207 23353.629 50617.352
28575.883 35407.23 85926.727
36625.172 3920.4141 71505.422
9670.6436 12117.497 18169.885
30522.721 2075.9365 84325.703
22580.17 35884.863 83638.258
39765.512 30974.031 33985.633
47759.625 23088.102 19429.473
34881.879 25433.43 64723.562
14397.064 12902.986 14289.498
23992.625 14430.383 23745.406
43122.996 1228.7823 61054.953
39595.145 19838.967 101795.72
34165.93 31762.141 81370.508
36562.992 8432.9609 80983.109
14215.682 13284.229 11847.177
51597.543 25650.352 19343.082
25405.359 20678.174 101782.84
22629.4 26632.266 68268.977
21575.973 19007.312 60687.273
26043.678 19141.076 42085.969
50570.781 27025.121 6706.918
35347.172 9578.7061 87851.391
31358.514 33632.32 84348.805
33929.484 880.44922 68629.367
39812.152 22142.934 75943.391
33461.656 28578.104 73117.945
21507.689 18158.586 80255.766
51274.391 23545.654 5046.8242
35849.73 29823.254 81080.547
25346.971 35729.242 76207.281
22743.717 11616.697 56526.344
18545.645 34101.527 48582.203
38650.32 22014.785 34151.793
36711.422 20956.311 86909.633
53626.633 23716.834 3584.7771
5276.9536 12652.427 5782.9302
31801.344 4469.7095 88239.078
22210.926 17112.672 44970.141
35480.328 15526.822 100101.88
19277.168 32976.012 63570.609
33879.484 3542.8633 78765.055
12213.256 11510.385 3849.8511
29787.785 32014.877 75814.133
21141.535 34362.422 88259.219
29689.564 29145.492 71532.93
26332.09 32754.041 68577.859
27145.838 3548.563 72747.406
42708.074 2235.2827 57919.148
26129.803 10694.406 77006.078
47132.691 23417.621 25721.557
24443.012 18078.688 32249.029
30871.496 10900.112 72425.625
46075.805 28633.918 12552.531
21934.906 36800.062 54236.359
22896.25 14809.376 89672.234
25010.797 22136.533 109096.55
37544.453 21884.43 97001.766
41360.695 26759.875 45374.508
50961.195 27027.475 8791.1016
31342.686 26105.799 38522.797
39204.055 22996.795 77047.234
20480.527 10076.97 28126.742
55769.477 7114.1606 5592.0942
27869.289 8973.3652 55981.477
38274.734 17253.438 80672.469
41993.543 22719.297 26205.719
18881.76 11589.309 31654.461
45189.574 2779.6926 54823.277
52835.75 9329.0449 42586.398
43920.824 26276.227 40232.844
22717.852 29775.361 73427.25
29957.984 1457.2001 83836.039
22328.273 13098.598 74292.508
22657.338 12288.497 77407.453
35496.594 18906.695 89803.656
49698.973 5095.4385 54840.113
35401.465 24662.387 88209.961
22624.488 23627.734 69464.266
22314.998 35340.895 87920.016
22832.289 12120.853 77331.117
27198.533 35990.359 83981.828
21206.238 34036.637 89252.422
10443.457 16867.047 20391.055
22452.57 16975.957 87366.609
27105.242 10899.106 79196.438
33194.047 12059.73 63939.18
3541.7463 16752.971 9554.5713
35110.473 14246.903 53380.242
32697.074 23979.047 93734.844
36268.785 7958.6016 81532.344
37094.395 4757.8262 70990.609
33144.863 19049.729 49912.688
28745.191 35091.223 83886.141
29104.838 2647.2979 77107.398
34022.402 30767.451 86570.602
36330.996 25609.672 84021.391
21857.91 16133.225 77482.773
56221.41 6736.6938 6773.6182
21270.441 23131.408 84114.172
39483.648 22183.537 76946.352
32228.232 9969.1143 77196.312
29461.516 34542.066 83203.648
47680.941 29650.496 18095.912
47118.008 29911.246 18103.949
21260.324 23631.668 77641.109
45222.023 2886.0969 54223.398
21268.924 28923.68 88657.258
26840.852 28950.207 75095.281
53428.641 8802.7383 29455.77
34993.121 30791.389 50083.449
9757.8066 13325.199 20931.977
28530.289 2367.2185 74118.422
47643.07 29536.105 19165.58
34341.938 15937.978 98148.438
29632.051 18012.58 111909.22
34284.863 6936.7607 69559.883
8030.9507 11605.018 10958.902
18905.244 31187.686 80552.25
37593.91 5453.5117 69241.156
22081.488 18002.129 73374.898
25787.773 35025.398 73629.32
50859.887 9969.4043 54415.188
49066.02 22930.324 14747.4
24348.578 12005.058 25170
27734.012 3212.8457 87052.867
27577.43 30266.406 66309.383
27924.59 10379.321 40982.395
33059.215 30864.998 80942.438
52787.926 24569.906 3360.0291
16375.355 11547.56 26803.094
31965.512 7220.5161 70727.43
29298.031 18370.613 43575.773
54653.094 7696.8555 14099.032
53193.016 25330.336 9197.0176
6968.582 12850.596 8307.6094
40019.719 21762.432 75652.695
26872.291 23464.117 101678.53
30464.586 10649.721 44113.109
47376.102 26263.127 33212.418
33030.531 25645.605 36446.09
50277.34 23861.648 6021.1016
33739.711 16578.654 111453.49
19981.162 34579.945 77537.375
51609.633 23966.182 19397.037
26190.156 9566.8535 79804.305
30813.791 11882.842 43014.516
12401.712 14504.95 8177.7939
37258.797 20110.957 105987.2
20449.664 36220.281 65745.023
38458.348 24505.238 72072.602
27071.018 9826.8115 65042.469
38291.359 21953.871 34318.996
37200.395 1763.7466 68456.039
13479.551 13930.219 1748.1724
7182.1118 15880.986 4013.4688
35355.574 26475.695 65135.84
49935.219 9134.499 54444.941
36902.289 16165.712 85212.031
34017.336 8654.9141 89063.469
20589.504 33417.961 54229.07
27533.104 2762.0396 76928.734
32514.393 2072.8931 78842.141
54427.438 23352.432 11168.639
37796.062 25958.447 72687.438
49186.16 5823.2139 53665.906
31566.871 11544.973 69033.258
39025.938 22483.551 78108.469
23903.402 37278.09 83834.328
31730.818 14350.568 107329.14
26597.719 29756.402 75200.602
26205.059 34552.152 71334.367
21156.592 18885.285 31199.703
35208.434 28957.541 37991.219
60892.516 23072.309 8531.3242
29808.166 19577.945 112327.47
31201.668 25857.775 93607.367
19529.695 34835.367 71885.836
21799.809 22804.598 73622.906
32915.691 26666.723 92231.953
22988.924 26127.357 66793.047
22679.086 19268.799 63524.824
19978.773 34756.008 50978.004
44293.262 4577.9961 58257.594
28996.016 29479.939 67393.367
42649.465 23869.105 21057.234
26681.783 33638.594 68802.711
52658.996 25684.641 3326.5322
31315.324 13277.503 42700.289
7468.9976 19028.914 9417.2109
13212.793 17253.145 22947.809
10052.797 11556.566 4218.1255
36197.734 22761.885 111477.37
30751.312 18432.822 112042.02
18920.984 30988.754 79983.594
47322.258 4670.5894 56115.938
18155.871 14586.15 40087.414
32909.621 12782.236 47796.281
39264.324 18773.422 65253.059
30676.559 25913.367 39589.102
17932.973 17690.902 20990.289
35601.316 6920.7808 82862.969
46018.828 4551.1641 60852.531
35881.348 22338.197 96516.406
12178.078 13616.092 6226.0176
22484.121 35549.824 48107.102
19400.834 33829.504 76205.078
32904.008 1492.8994 66260.586
24552.227 12041.65 83609.688
24089.721 22013.875 107860.05
38636.547 24163.508 30488.949
35301.316 5676.7153 81747.398
5264.7734 18583.723 10273.634
50198.543 24078.264 8034.4375
35539.582 21108.508 111886.03
10709.201 11116.812 17597.881
27129.756 35842.125 82227.25
22538.252 14426.346 86637.133
15254.138 14959.457 30019.359
30262.996 14984.019 94500.656
40168.406 24115.826 50185.023
26357.311 22146.316 48233.602
21192.27 36378.586 65167.922
32950.633 25223.123 101876.75
28946.58 30559.367 74723.234
28106.941 2954.3813 84829.375
37085.02 22359.922 84631.195
37007.656 22802.883 103157.92
22339.332 21178.297 51662.199
35871.258 30593.391 49584.301
39750.871 27960.262 47542.312
23849.268 5680.1675 87773.188
27002.301 3604.3394 85932.289
40775.309 27401.553 45988.648
26344.5 14793.372 27499.42
37915.625 1242.9625 63988.59
26036.006 35548.738 75424.414
21322.768 26868.762 74593.102
11498.711 16781.348 21772.953
50730.074 28665.191 3668.6965
29931.406 25167.721 110078.64
28962.832 10141.811 76254.172
33178.5 12513.765 91624.938
42713.496 23851.924 44090.879
18794.816 36121.613 56032.23
22479.846 19480.572 63076.355
36666.184 19417.938 111502.27
28599.172 11122.887 37698.836
15664.085 10208.129 22823.039
49131.711 28139.93 5007.0332
24354.035 31623.883 92586.5
16874.598 11817.667 19846.127
24153.779 10627.551 88821.117
37470.523 12908.865 71111.828
23124.135 13073.578 90983.227
24000.334 18896.613 44263.562
22661.441 15028.327 22299.578
20450.686 36150.512 66610.359
37522.883 25624.32 69676.812
21235.793 24332.598 77182.117
33248.699 28441.449 71140.328
22666.066 25711.432 68457.695
9758.2334 15239.299 23149.379
38375.258 17828.127 64875.488
27229.012 3329.5977 75788.75
37033.812 11232.253 78763.539
23995.988 20013.289 107743.42
22044.199 17122.668 74256.203
34121.645 31519.227 44968.344
34649.832 14800.494 105775.44
24306.76 20879.758 105876.06
37923.715 30982.043 39396.551
38013.648 24118.07 67683.781
35474.621 24912.939 87757.539
44636.766 29251.826 17492.988
23221.617 11688.787 77998.562
23207.609 15828.492 92527.141
36778.023 9917.9111 83090.047
21311.568 23183.424 77451.148
22368.988 16870.178 51533.727
8156.2441 17688.404 15958.166
24081.988 29429.365 74629.555
30136.377 932.2851 80327.078
8998.4033 14688.041 7769.9067
29903.723 1749.4683 84916.883
24386.436 15157.929 24046.547
24714.461 6182.8257 79578.898
21831 22506.707 73594
21522.785 18526.789 82536.758
37398.062 29634.002 50745.684
32329.723 33118.297 84933.328
7074.0757 18585.418 12720.228
55137.898 24203.801 3991.9712
49947.473 30066.617 9106.9736
22879.631 17369.559 65398.922
30651.145 30048.988 79987.078
11088.547 16702.867 7268.3564
37654.758 26382.984 75307.516
22627.701 27885.801 75951.109
25504.258 10550.684 69435.141
30588.871 15275.941 109400.67
36205.766 5691.0498 71149.594
22161.846 23137.852 71808.211
30297.623 2762.9658 79343.383
53795.207 7999.7666 32103.387
48228.836 24000.363 29158.602
43405.828 27299.645 14247.07
20589.256 29645.717 83588.516
57104.754 23714.143 5682.105
33081.484 29427.211 77820.453
29326.023 2297.6252 75770.312
30596.281 24604.195 94674.875
35907.492 28087.836 82693.172
34825.051 29679.531 55470.285
32763.367 9730.0332 74477.227
31870.992 22265.871 113048.41
19566.07 35461.594 68280.969
22736.434 35910.328 58759.879
22535.541 18210.062 68263.922
35685.652 15918.954 51580.086
18133.219 33620.75 47657.305
36402.926 26748.158 68903.375
28666.652 11111.417 78361.375
31397.941 10398.084 76832.195
20565.846 14091.418 58661.219
36182.812 29166.238 76207.477
28108.605 20843.08 46822.172
37592.078 22111.691 83176.289
34317.129 21675.383 41675.945
19585.51 31551.076 75938.289
26915.49 35227.121 76991.016
49304.594 23780.258 23578.285
44989.781 1126.1599 59221.773
20382.482 35659.875 70461.875
36974.414 1466.178 67948.477
25859.613 16967.066 102915.91
21487.762 25530.773 50025.969
44938.785 22733.207 24857.701
3991.2507 17604.805 10205.564
21893.154 27741.629 84887.938
37257.371 13240.644 82908.172
7592.7432 11521.646 10705.73
26827.609 31509.838 77016.398
23356.412 7674.6797 87848.75
37871.531 18443.883 101762.09
21893.453 22431.244 51191.312
19618.033 32646.65 89163.477
25582.045 30780.1 70256.234
23832.295 35655.738 76139.719
57852.406 29855.74 6979.7061
22998.279 15493.707 63393.672
20930.016 15606.428 47324.004
35197.266 25494.943 88175.484
38465.359 14387.714 78009.578
22706.801 17733.061 89387.156
22677.053 11326.646 48944.391
23449.152 22550.754 94195.531
31323.945 16671.613 111543.62
18381.059 34071.629 63676.145
23780.053 10653.537 90104.383
29885.848 16171.46 98437.227
13738.734 17786.699 15342.633
30361.467 7501.6777 73649.82
24002.645 12143.424 84386.539
23032.992 34384.602 54139.664
30311.969 11254.934 67602.609
45859.617 23686.885 14148.559
31500.93 11125.89 71864.297
18859.809 12885.001 33987.91
29875.17 9998.418 48190.652
13949.152 14111.393 5211.2344
37774.75 22093.227 82552.734
22370.594 36173.586 69549.812
35343.34 29064.154 76210.734
20401.414 11011.102 24523.293
40083.848 3694.9309 61909.93
23173.324 15604.536 92177.719
14938.47 15530.058 28225.508
22793.662 34691.105 55539.828
18474.656 35719.73 58327.781
35178.273 11733.118 74248.719
39239.762 27734.691 27374.164
26174.764 15001.258 26905.869
37465.43 24271.09 81331.359
27608.35 3291.5747 76569.18
13244.658 17716.23 11877.863
23636.484 28355.156 70483.867
28594.262 10681.787 69979.461
32537.629 29278.943 77616.508
24682.246 28021.539 80038.812
21816.648 17220.76 83579.797
34738.07 7584.1953 88144.773
57000.379 27449.785 9699.043
20949.74 33431.168 54330.355
48582.922 5796.3115 56840.965
30141.068 1557.0288 83671.672
7011.5684 19224.748 10810.453
38075.492 21894.516 105308.98
51968.227 9950.8203 46648.422
27938.318 10856.764 36821.133
36076.422 26796.885 83590.727
36661.695 24274.242 105205.98
10802.723 17714.777 5807.3799
19233.896 15102.054 18487.672
30603.416 659.26605 79569.219
27522.5 2720.4045 76386.477
22033.785 17116.521 23263.602
39432.242 18646.871 103479.5
35370.688 29573.633 83022.391
51746.52 23721.227 17269.672
5294.3906 18548.973 9329.417
21370.26 32679.033 61396.398
26958.309 23936.023 95993.266
15515.771 12214.099 26844.672
21321.957 24667.002 75632.375
22932.037 32984.441 91159.438
55079.145 6506.6045 4989.6113
20328.959 31503.922 66797.664
20025.436 37272.934 54078.527
21791.904 25670.738 90394.758
57540.941 23699.887 6911.415
8666.1133 12427.991 7769.9287
30326.875 1302.748 69608.188
39874.055 21387.17 70701.109
31741.402 32863.582 79811.344
28392.766 10477.539 41134.793
32648.242 32877.352 84711.031
22570.957 20531.004 90303.891
8539.3994 13262.159 18911.881
26017.561 29910.387 56262.219
21877.691 18486.715 74872.781
22510.766 36384.539 54942.445
35807.422 941.7453 67441.43
33277.098 17730.189 96469.672
18046.674 31444.773 76862.641
23242.205 35997.512 88283.797
45691.82 27374.562 35856.25
16705.582 15583.283 31095.469
34220.664 4104.1602 80553.539
27425.904 3477.4041 77029.766
37746.801 26209.967 76365.156
27970.896 29797.932 68099.188
21799.473 36141.383 48586.078
23156.148 31393.066 92061.508
21230 21401.572 80623.875
30866.35 1291.0183 80899.297
37301.008 21017.082 94292.234
34252.559 31157.668 81800.125
17175.91 16512.391 3498.7224
21391.068 36977.711 53875.961
15867.876 15604.619 913.79877
23950.766 37422.891 79933.211
23724.777 18976.074 41517.148
30438.082 25309.98 109517.5
27171.23 35862.758 82642.789
19921.613 36276.141 61283.414
50326.203 9487.6953 55561.32
32229.316 30747.586 79922.469
36191.652 26416.746 67507.469
9216.0752 16950.328 18819.043
41609.844 23531.537 24454.473
35204.715 29055.922 84312.234
21375.207 27184.646 79417.641
22781.969 21929.912 64871.211
63541.344 24471.344 9269.3916
25821.949 36980.992 85849.188
31208.902 28501.594 67780.375
47308.008 25916.98 5353.4111
28452.131 34787.242 80560.492
39571.918 30793.043 36742.34
37671.852 29182.734 50612.547
14001.794 15497.633 1577.6259
19611.945 30641.582 82329.078
20658.627 33451.102 89588.516
29620.449 11052.309 68981.641
21922.016 9694.5576 33985.406
33121.777 32426.883 82230.289
35491.336 28131.879 72292.562
41727.047 2722.8088 59266.219
39381.691 17288.115 76603.859
38976.973 29309.076 47850.238
28527.691 9883.3516 76138.102
26380.924 9452.9668 58775.773
28021.922 10426.962 69812.656
17028.609 14468.539 3489.3828
38928.594 25838.168 23677.543
51718.25 23000.891 12092.999
26868.996 31142.918 54073.648
23067.867 29013.955 93184.461
21804.283 16463.186 47098.422
51878.641 8875.5977 49862.953
21075.564 23072.684 80992.508
9849.1494 16903.238 7877.0068
25491.621 18670.734 101401.81
20064.154 34054.207 48602.211
47373.359 1903.833 56877.07
26082.123 17688.979 33526.621
27596.029 34800.312 76989.82
34170.859 31154.293 42708.605
37564.383 22586.082 42401.07
7063.1533 17809.617 14421.48
22962.551 18374.078 30772.672
23588.102 35090.242 89732.031
27869.848 3540.0725 78477.82
53090.078 8382.4863 28091.205
45053.457 29350.686 34875
26358.125 34325.711 70773.82
22971.133 35550.508 59095.391
40049.863 20242.213 102302.72
35339.703 25720.992 61328.238
23545.941 11629.551 25466.719
26597.641 32954.789 70463.812
21136.033 18982.689 53047.723
36229.684 13895.506 87083.578
48843.242 5364.7793 57338.297
30974.912 25439.369 106028.53
8190.333 11857.124 10044.883
25032.975 11417.171 67621.719
28522.422 29277.049 76817.109
39322.496 18200.373 66791.383
33622.32 16254.778 45523.859
25864.785 35213.82 91339.211
24976.033 28977.316 67053.531
30392.967 10490.148 45358.637
21892.062 19638.15 73826.875
34007.098 7154.25 73175.992
39352.273 17104.078 74002.445
24410.154 12061.193 83204.812
31724.684 17785.426 111824.24
18786.045 33759.727 61386.07
38490.051 14732.504 70725.477
43463.227 28478.664 39370.18
7231.8687 16771.865 10095.055
26894.734 9911.2559 69276.289
21214.734 25684.992 85886.844
21704.904 10201.816 36572.078
30498.734 29014.676 75081.516
24699.746 11559.791 88143.031
55166.281 23764.703 8330.7705
20709.697 25522.549 55194.789
29109.605 9279.9697 54909.613
37855.496 19085.697 64250.375
22801.736 12223.005 58868.273
36106.793 12308.332 71049.648
25760.73 4028.854 74841.852
21359.289 30577.852 75943.047
28469.184 15121.847 32961.559
36308.266 9079.3545 78022.086
34347.562 5242.9873 84097.375
3618.0103 17414.418 9519.7441
21359.496 36764.684 50471.504
17601.656 12613.01 18195.242
28560.594 12388.695 36076.766
30234.125 5110.9834 90161.109
38063.75 13008.367 72431.25
21517.119 35291.207 75747.594
38281.117 25196.945 77671.695
25838.301 28620.527 79008.953
49360.898 22673.332 12759.621
21451.676 36167.082 48305.168
29363.934 1630.3883 80989.109
66189.297 26507.359 8640.5977
36275.148 1030.9106 67317.922
36707.273 20006.441 106015.55
52792.695 28584.891 8907.043
34419.102 20045.957 52580.008
30936.145 9337.9141 92500.078
38092.551 20352.111 96086.547
29854.508 10692.238 62879.418
25299.5 11437.496 93368.844
26131.469 36330.684 81433.594
53372.156 23523.809 13725.508
54731.117 23495.791 5414.6509
34242.188 25020.297 104546.07
36305.07 15542.733 104925.5
36773.492 23170.826 103711.66
20750.885 36441.707 63826.859
32286.436 2700.655 81661.656
35683.07 6203.9609 71292.117
22971.963 18402.9 64046.898
42002 23737.824 45807.312
22671.479 17856.182 67163.211
12677.686 12568.168 2020.212
22043.576 36218.617 68930.703
20523.584 30813.119 68592.734
15211.454 12902.857 15377.275
34646.262 23223.096 64740.445
23923.658 10275.372 49768.512
37191 13177.546 83144.172
45362.965 3086.7671 54902.051
28394.836 29800.236 76886.766
29025.162 11057.417 79335.688
11433.279 15817.301 23792.326
42831.086 22884.178 23542.434
27559.953 2602.8645 72802.969
22202.885 18366.857 71969.75
21835.623 12399.182 50742.395
13295.144 11781.172 23002.176
22531.314 21069.25 66805.648
22672.152 21864.584 66242.305
56167.844 25702.141 11395.136
48520.035 28146.025 6160.6143
21894.604 26967.982 92608.039
20405.578 17507.635 33399.023
25579.717 19659.855 44135.766
22767.162 21471.199 63726.184
21371.529 20334.729 79856.906
36355.992 25338.354 65519.738
20654.375 13773.934 58368.43
22737.789 23291.906 67754.461
22836.008 36198.223 62672.363
22905.512 12389.298 73753.258
12031.982 13207.708 8607.6074
42114.551 1486.5621 58492.27
20879.467 25307.957 83240.867
39553.117 17771.846 74626.938
30683.602 21266.586 47257.891
37934.578 12727.562 79403.18
30533.953 1358.7395 68222.445
28327.172 6210.9253 73801.875
38612.523 14854.352 77807.938
23465.705 5599.3594 85391.195
36639.871 28311.184 75112.508
35404.641 4131.2671 76959.562
34396.641 14635.263 91305.773
19928.047 32049.604 65894.859
33455.809 32287.672 82545.906
29113.971 32471.299 75219.062
27056.938 5412.0645 77533.367
27873.215 13954.868 32523.551
25311.189 36615.395 79690.547
29566.322 5396.2354 69944.852
25059.117 11094.65 30211.59
26920.457 32843.844 75541.562
29990.293 9921.207 49415.742
38742.93 5329.0557 65967.766
35011.977 15081.178 103221.84
14142.934 12315.724 16176.541
33209.641 7577.5522 77312.906
32227.191 30797.033 90343.25
31933.434 6411.1719 68581.023
30200.143 29010.016 75998.227
43131.125 30586.07 27739.764
18572.748 35276.723 58571.5
24586.648 4808.2583 78033.844
30503.482 4476.707 67944.25
35283.68 18555.629 90113.219
37264.66 3913.4443 63746.219
35122.742 12187.742 70298
24180.102 28416.523 52943.387
36168.328 20188.264 88623.711
36819.621 17923.721 85942.227
37936.176 18999.488 105769.95
48635.426 5993.9346 53563.922
22828.139 26680.977 67325.195
22525.396 14849.271 86665.133
19365.711 36920.988 51286.852
34425.711 31290.178 46491.535
25692.715 29780.096 67290.328
36180.016 15896.139 99513.281
19823.383 13783.47 56383.648
33926.227 14780.285 92026.125
45712.703 22884.689 27094.635
22051.504 35195.336 86973.156
18640.738 33174.605 77314.859
36332.926 21998 104909.78
29113.758 9369.4131 52182.207
23124.992 34242.969 53155.996
19781.365 29821.676 80402.445
30025.213 32649.578 76504.102
20859.041 30006.215 86274.773
12670.916 13179.295 9853.6387
50335.844 28537.344 4050.3484
32037.648 8239.377 76997.969
37675.934 24941.088 30421.391
29560.727 19103.375 47920.473
22702.205 27915.365 55120.734
54383.227 6544.353 15354.564
38067.5 28765.988 33315
29412.748 29919.986 47133.082
52912.824 7769.0806 28006.025
22172.082 16642.793 73434.328
21668.52 23809.766 60503.859
24106.705 11016.79 75112.234
34472.035 27294.369 89033.227
37787.199 19486.043 100549.91
47286.695 24741.703 8179.3589
21124.973 26464.418 86199.242
9681.6826 13973.496 22075.055
30280.148 3075.9602 67582.875
25978.738 29900.707 58243.43
23148.393 13868.251 91430.016
22237.996 27282.078 72197.5
45642.422 4727.9873 61060.543
38206.945 24347.746 68829.039
26746.848 28716.305 48471.094
29913.914 17638.52 40538.93
20661.852 33140.062 60245.922
19159.307 35516.164 65159.531
16267.883 14866.156 32036.906
56182.035 28238.473 10147.539
22593.693 18716.588 66854
37307.414 23552.508 55616.656
