# .PCD v0.7 - Point Cloud Data file format
VERSION 0.7
FIELDS x y z
SIZE 4 4 4
TYPE F F F
COUNT 1 1 1
WIDTH 1612
HEIGHT 1
VIEWPOINT 0 0 0 1 0 0 0
POINTS 1612
DATA ascii
634.55383 311.49249 4.9215751
649.77875 299.9953 5.0306044
637.33081 305.73807 5.0725718
637.33142 305.93884 5.0572348
637.34399 306.172 5.0811577
634.34814 311.3562 5.0228338
632.7179 306.17715 5.1196489
637.37646 307.26105 5.1013632
633.70203 311.00446 5.1445503
650.41467 292.89807 5.2555614
651.58209 294.68893 5.2558317
652.60699 295.0614 5.257781
652.83948 296.36298 5.267653
648.11182 297.55212 5.2679257
652.30176 298.66553 5.2477455
649.95038 300.10812 5.2993355
650.95587 294.81018 5.3922291
637.11487 304.39807 5.394989
637.46613 307.78214 5.3723774
632.65753 309.45047 5.3169613
633.92346 304.48843 5.4777689
632.55725 308.52643 5.4971442
637.08691 309.59045 5.4165864
653.17645 296.06506 5.542089
653.40094 296.77417 5.542316
632.66608 308.96014 5.7251892
637.26324 309.04813 5.7483063
653.69452 295.31012 5.8578596
650.78467 293.24557 5.9319878
637.57092 305.75922 5.9173198
650.02502 292.85858 6.017982
649.76758 293.13632 6.1815867
653.44153 294.82825 6.1947761
653.23364 297.34952 6.1658936
632.74817 309.00439 6.1080604
651.75751 299.29156 6.254715
636.95032 303.98392 6.295413
634.11157 304.20685 6.24544
648.26929 296.13889 6.3740606
648.21918 296.25812 6.3530378
634.54681 310.91727 6.3918171
632.98596 305.80048 6.4689689
637.3418 308.77252 6.4497652
653.24054 297.14868 6.687912
650.50763 300.30133 6.7189336
637.79559 305.0032 6.7751541
649.20605 300.29013 6.890049
649.47119 293.77289 6.9561348
652.04761 298.9975 6.9785333
637.14075 303.64355 7.2624531
637.85571 306.41028 7.2105656
636.66223 309.45514 7.2666688
653.26318 296.82425 7.368207
633.02472 309.16412 7.3893242
637.6012 307.66843 7.4407148
652.6792 294.71082 7.5629959
652.71161 298.23099 7.5513353
649.31226 300.49103 7.5946984
636.23492 309.70935 7.5623498
653.35461 296.32056 7.6132193
649.46191 300.55627 7.6929026
633.47412 304.81241 7.6257687
650.1228 300.59729 7.7178497
637.12286 308.97174 7.8026295
637.49872 308.24011 7.9807301
636.9707 309.0419 7.9866004
637.99561 305.86526 8.0908442
637.6333 307.61505 8.1348763
653.05658 295.08643 8.2238703
653.0838 295.17865 8.2856169
647.95276 296.81635 8.2590218
633.19507 305.8736 8.2085037
637.55219 308.022 8.2502689
636.06659 309.70142 8.2407656
649.04785 294.78986 8.396039
652.71008 294.92688 8.3978844
650.23022 300.52521 8.3125134
652.9884 295.14612 8.5681305
647.76202 298.29977 8.5166788
649.61426 294.11835 8.6050701
638.23602 303.41898 8.6727324
653.18134 295.65485 8.7492189
633.80579 304.46838 8.826438
638.2547 304.72531 8.8232231
638.16223 305.16754 8.804883
633.22833 307.46579 8.8763599
638.22925 304.87061 8.9813471
638.4231 303.84457 9.0885572
653.22583 296.42456 9.1415424
652.33234 298.75592 9.1844168
633.94336 304.2923 9.1620922
650.6991 293.93024 9.2315102
647.67505 297.94382 9.2623634
633.96246 309.51654 9.2105846
649.50964 294.49194 9.3399553
647.99829 300.29276 9.3891945
635.76489 302.86359 9.375061
637.8808 303.04562 9.3075743
634.5777 303.19241 9.3090725
633.3197 308.56598 9.3280239
636.74548 308.89935 9.3197861
647.65576 297.94684 9.4525442
633.44806 305.61349 9.4862633
652.65082 298.05682 9.5230808
638.15363 305.31146 9.5097561
647.63446 297.76959 9.6081953
649.44788 294.74377 9.8706379
653.04688 297.03772 9.8150072
636.13831 302.65494 9.8127375
633.8302 304.63123 9.8302212
637.63953 307.84125 9.89501
648.97424 295.40173 9.9947968
649.74915 300.90039 9.9881315
634.5484 303.38123 9.9739065
633.81458 304.68179 9.9402561
634.49176 309.49982 9.922554
649.43073 301.13153 10.089891
634.66638 303.18878 10.059472
633.57715 305.28503 10.03119
633.52856 306.4429 10.080054
633.46808 308.62271 10.037137
647.64648 299.87927 10.128295
649.98871 300.72565 10.155811
633.51929 306.7717 10.115743
649.08325 295.3559 10.293507
647.64349 297.47147 10.288013
650.76251 300.15585 10.243347
633.84442 309.0517 10.216693
634.78595 309.5098 10.270485
648.86804 300.9978 10.529118
647.55688 298.62195 10.627584
652.91797 297.30661 10.783125
634.39978 303.67117 11.075274
634.58179 309.00238 11.273205
649.43579 295.25153 11.395334
636.03882 302.01236 11.321402
635.17078 309.28784 11.309564
650.06317 300.7106 11.4877
652.90796 296.71085 11.50914
635.64093 309.3436 11.501506
651.4856 299.63889 11.610554
635.64459 301.91034 11.743552
638.17554 305.95694 11.769896
638.2522 305.7251 11.978826
652.78052 296.73898 12.007692
647.4353 298.05048 12.141356
648.29315 300.90228 12.175087
634.00269 305.38922 12.190989
634.26587 303.74963 12.285213
637.49548 301.33096 12.322863
638.67383 304.08014 12.372185
635.42255 308.69363 12.371132
652.65253 297.60068 12.488455
637.76526 301.36652 12.424122
652.00323 299.00784 12.586662
651.65039 299.58417 12.551712
637.07941 301.22934 12.531065
652.58844 297.71295 12.629396
635.48621 301.51031 12.676648
638.7785 303.74792 12.626495
649.59747 295.46649 12.714969
652.67712 297.5155 12.708882
651.1189 295.03204 12.89053
636.76428 307.72357 12.914028
647.99225 297.29199 13.083178
649.91162 300.97809 13.08359
634.8642 307.7796 13.084756
636.63757 300.97723 13.234886
638.5235 301.13556 13.293522
638.73016 301.22891 13.245514
635.04181 302.08597 13.263084
652.43176 296.72772 13.386394
638.22589 301.01825 13.319954
648.70007 301.20514 13.310079
639.0105 303.1521 13.470757
639.38971 301.26187 13.566198
638.39423 300.88162 13.663919
649.84393 301.07153 13.655856
648.17792 297.08762 13.896605
647.41736 298.46915 13.882634
634.26245 306.53381 13.808151
634.52539 306.8559 13.937407
650.86816 300.34039 14.161156
637.3111 300.42542 14.191145
652.12366 298.72137 14.221582
634.42102 303.73621 14.248672
647.49481 299.42819 14.337786
647.45111 299.00189 14.467367
636.84766 300.40369 14.403183
638.85181 304.32211 14.461071
635.52075 306.94305 14.415154
650.34552 294.9028 14.638821
634.50378 305.00275 14.676055
647.50751 299.74542 14.793432
639.16248 303.13315 14.786055
639.04761 303.6214 14.773692
649.58069 295.51883 14.838053
636.60651 300.16547 15.005346
647.64325 300.83197 15.040785
650.3598 300.8125 15.008766
648.50031 296.73212 15.173608
647.46539 299.3678 15.126785
638.81635 304.80316 15.177762
647.70215 297.64981 15.256931
637.73859 299.87021 15.242455
635.67059 300.54935 15.297144
638.47083 305.10208 15.206909
650.90979 295.40863 15.398721
648.00098 297.3075 15.45013
634.66064 304.04358 15.40663
635.13165 305.84982 15.434937
636.99768 306.04999 15.485136
648.67712 296.53552 15.525679
634.72424 302.26151 15.578359
652.15247 298.63983 15.615274
636.37781 299.88428 15.696203
652.36176 298.1601 15.871241
652.13892 298.66309 15.977303
635.47076 300.80853 15.939261
647.32208 298.09894 16.080315
637.3252 299.58487 16.008015
639.59045 301.92072 16.084642
651.91968 299.15298 16.266758
638.87451 299.60406 16.214947
639.14661 303.92041 16.272457
652.22034 297.23138 16.344711
636.91589 299.50522 16.326328
634.83209 304.79504 16.315723
651.76819 296.41299 16.487904
647.5307 300.49249 16.416023
650.56238 300.78061 16.493219
648.80261 301.48868 16.48546
651.36493 295.91382 16.50458
634.88531 304.68863 16.563709
636.61627 305.62509 16.530039
651.85468 296.62555 16.615812
635.27185 301.04355 16.627041
647.92596 301.1116 16.662937
636.88525 299.34647 16.759474
634.92358 302.81644 16.840351
635.85181 304.92126 16.896732
651.92328 299.13077 16.986723
647.75977 301.05908 16.94997
634.96667 303.42468 16.991589
636.47729 305.20056 16.933279
635.78186 300.06177 17.078552
649.27649 301.72083 17.140657
634.98633 303.31097 17.126162
639.05078 303.72446 17.148453
651.74762 299.52292 17.281645
640.0202 300.65262 17.263988
650.6344 295.61743 17.337343
647.66833 301.05307 17.413452
638.14423 299.13919 17.56024
647.51837 300.71619 17.541872
638.96924 303.8483 17.54603
650.04626 295.30225 17.619339
639.38654 299.54816 17.699503
651.6925 299.64075 17.623135
647.3927 299.53647 17.708874
635.55707 304.44495 17.723991
648.21582 297.09109 17.870636
649.74939 295.34427 17.922337
651.10205 296.03885 17.978233
635.84851 300.04337 18.015995
651.19775 296.13068 18.137701
639.89929 301.76361 18.110933
637.3042 305.01971 18.165033
649.62311 295.48727 18.23506
651.70142 296.8367 18.241861
639.93359 299.83817 18.298132
647.41901 300.08261 18.262001
651.74969 299.49551 18.376316
649.94641 301.34619 18.34721
635.07416 304.37158 18.373148
639.03241 299.50348 18.407728
634.9342 302.00397 18.628185
634.94482 302.26917 18.670534
651.51343 296.65341 18.799915
640.17224 301.09433 18.773323
634.95831 302.59518 18.714155
651.00952 296.16229 18.899685
652.0769 297.69312 18.885788
635.67871 300.48148 18.829409
648.45209 301.98248 18.837751
635.0437 304.33255 18.840303
635.65942 300.53888 18.966335
648.95709 302.22778 18.932907
634.97839 303.22375 18.909004
635.0365 304.32581 18.966547
635.47858 304.74579 18.904579
649.37927 295.76569 19.17708
647.10437 299.92316 19.130322
640.12567 301.53912 19.115067
640.08838 301.71167 19.135983
639.52527 303.88904 19.222498
636.43604 305.37384 19.222149
651.41754 296.63934 19.345907
651.57776 296.9299 19.355761
650.8808 300.8461 19.327204
650.13995 295.71503 19.411922
652.2522 298.33429 19.432829
649.13232 302.24127 19.465485
646.81879 300.71558 19.578068
651.8421 297.50378 19.706093
646.69653 301.05328 19.769855
638.0105 305.13492 19.748173
635.85266 305.2178 19.736423
636.18048 299.85513 19.905685
639.44885 299.8602 19.904892
651.20605 300.57016 19.945881
640.43457 300.83228 19.934704
640.32001 300.07382 20.102139
646.55139 300.30185 20.122446
650.59625 301.28189 20.100525
646.83167 302.59207 20.283876
637.34235 305.70123 20.280071
648.71118 302.82019 20.360281
639.82037 303.48627 20.314985
649.71442 295.68478 20.460249
638.99036 299.74902 20.413609
640.57031 300.12042 20.50601
638.80103 299.70477 20.636356
635.54059 301.0376 20.663767
640.29913 301.92267 20.648409
646.44971 302.74478 20.607851
648.84937 296.38571 20.746809
651.71008 297.8526 20.795786
646.58643 299.05991 20.791857
646.1969 300.57095 20.755648
639.6001 304.39081 20.79784
646.18652 299.68628 20.870731
646.72351 303.05219 20.879047
639.66724 304.19641 20.825344
647.24628 298.28824 20.935883
647.01453 298.56476 20.991739
651.64911 299.40848 21.043821
635.94592 300.44675 21.009668
635.28235 301.56042 21.057699
648.76178 302.98251 21.077402
637.65149 305.78918 21.085823
637.35571 299.82703 21.256027
646.41815 303.27643 21.264317
651.80103 298.67471 21.323132
651.26746 300.1218 21.388897
639.70703 304.32178 21.358921
647.02063 298.58411 21.509424
637.63031 299.84363 21.5376
640.85364 300.24051 21.708563
648.40002 303.48743 21.873016
634.9696 305.1713 21.822145
636.70691 306.37933 21.897873
640.02661 300.22482 21.904613
645.5882 300.29922 21.973524
650.96155 300.6351 21.928551
646.44934 303.82526 21.916386
639.54559 304.83984 22.090475
650.97058 297.98923 22.197931
651.1925 298.37335 22.12801
651.38074 298.79459 22.146324
640.3067 302.85333 22.181206
639.85583 304.24207 22.175186
648.26917 297.08395 22.465113
645.22955 301.32568 22.481075
634.80127 302.64392 22.433578
638.14893 299.95203 22.575886
648.66278 303.46729 22.527781
645.30786 303.98145 22.52276
639.78711 304.60947 22.50946
646.32855 304.36813 22.612581
648.88324 303.3714 22.737362
645.9574 304.36261 22.749268
646.04852 304.36911 22.724152
644.9505 302.81976 22.848104
651.13342 300.05658 22.928537
644.94189 303.36285 22.980968
645.79163 300.12143 23.187733
640.17578 303.7269 23.19079
648.50073 303.78299 23.148766
647.69177 297.74927 23.291893
638.37976 300.04047 23.286215
634.75464 302.86575 23.253553
638.21887 300.06342 23.313416
640.55939 300.37561 23.335392
651.07697 299.68576 23.497454
635.95654 300.93546 23.484209
648.41394 297.22247 23.554838
638.02631 300.12408 23.551167
638.89062 305.73376 23.513367
647.20123 298.37155 23.605221
638.61804 300.07846 23.690325
636.1369 300.69772 23.699183
649.88721 302.64246 23.661163
634.85181 302.76996 23.698065
639.01282 305.70624 23.713923
638.84875 300.14243 23.847403
637.63062 300.2247 23.891392
637.72009 306.68466 23.897163
648.80774 303.82336 23.973782
640.31171 300.42584 24.002039
644.37256 301.85516 24.024864
645.12646 305.15588 24.013391
638.62207 306.09552 24.080956
649.0896 298.05939 24.143206
650.44141 299.23892 24.130119
644.84235 305.16971 24.133345
638.59467 306.13821 24.158279
634.89032 302.80774 24.319258
640.66034 300.47977 24.443316
646.83533 305.44016 24.492722
634.94275 306.32187 24.485716
641.09094 301.42395 24.554667
634.68408 303.3963 24.531805
640.37714 303.72598 24.525501
634.85309 305.45346 24.571659
648.94293 298.31409 24.688049
649.99634 298.88516 24.610023
641.0238 301.76105 24.629009
644.1571 302.12439 24.610874
643.966 303.39355 24.617857
646.15717 299.63208 24.709362
638.23322 300.30185 24.796284
640.2428 300.49118 24.756248
634.91058 306.12387 24.729103
646.61285 298.97836 24.931816
644.39984 301.85724 24.990471
639.1134 305.99384 24.917467
648.71783 304.23254 25.043772
634.88428 306.02444 25.044861
634.9433 306.6062 25.0079
644.0564 302.26968 25.124744
643.73828 304.40421 25.215
638.23236 306.73022 25.271759
647.40918 298.1189 25.384493
646.1947 299.49048 25.324341
645.90576 299.88007 25.352165
647.54962 305.19345 25.377378
634.87158 306.0394 25.315086
647.60028 298.32202 25.487833
643.77704 305.88644 25.473904
634.85962 305.99026 25.450649
636.38159 300.69003 25.531988
650.03967 300.12579 25.626827
635.45496 302.15289 25.612633
647.31317 305.46469 25.684004
640.1897 300.57672 25.726414
635.98059 301.3609 25.752018
648.71558 304.46704 25.769455
634.70728 304.61194 25.776814
644.49512 306.36188 25.70575
637.60931 307.30429 25.700958
649.54785 302.8205 25.8437
634.66699 304.25061 25.867926
635.83527 301.62277 25.923929
637.68213 307.31274 25.903511
636.0979 307.4566 25.957756
647.64343 298.81326 26.06163
644.84595 301.22076 26.056118
644.43921 301.77087 26.083981
638.72504 306.6272 26.10675
641.52637 300.67407 26.206875
634.77362 305.54871 26.263796
647.16626 298.80057 26.388458
649.34131 299.69644 26.402216
635.98486 301.50015 26.4671
649.07117 299.32614 26.566628
642.92249 303.7775 26.525932
647.37085 305.6907 26.51956
646.3324 306.46265 26.559778
641.20294 300.69913 26.628567
648.29755 305.08487 26.742558
643.45093 303.00955 26.817703
634.58136 303.83008 26.832207
643.10187 306.87747 26.857084
646.82257 299.05078 26.946226
644.8092 301.13492 26.980297
638.02832 300.72519 27.265169
642.79767 306.22308 27.229687
646.2796 299.07364 27.373035
639.72247 300.70181 27.319548
644.36627 301.68317 27.356941
640.28656 305.32529 27.363308
635.65063 307.79181 27.319113
636.22491 308.04492 27.389088
642.99707 303.53168 27.473921
642.84985 307.33838 27.45315
641.35724 302.08459 27.500278
647.98877 305.58069 27.58424
640.1405 305.87122 27.57123
649.36285 302.7287 27.67078
649.15149 303.25275 27.638313
639.09241 307.048 27.631311
644.72168 301.14526 27.721474
643.00671 307.90039 27.795788
648.12805 299.78558 27.826145
641.75598 300.99335 27.818996
648.81641 304.00055 27.866711
642.78516 308.03961 27.993149
637.44128 308.55609 27.962692
649.40826 301.54303 28.058037
634.65924 306.17511 28.079067
639.93262 306.72424 28.054319
634.88171 303.5502 28.143614
648.185 305.45721 28.137215
646.26917 307.05267 28.179823
636.55121 308.68225 28.186317
646.46008 306.94531 28.279732
642.5918 308.28882 28.289867
634.62445 306.29749 28.395086
647.45667 306.22549 28.337875
634.6377 306.31677 28.315132
637.66376 308.6734 28.31287
644.6944 308.49796 28.472206
644.84869 300.85632 28.509991
648.70471 304.06259 28.573181
634.52405 305.25897 28.512465
648.09979 305.58246 28.561337
645.80603 307.53781 28.544973
634.61267 306.57904 28.648537
642.17786 307.10419 28.623123
647.08551 300.09271 28.744617
648.0733 300.23822 28.732302
638.60541 300.9938 28.719856
637.91956 301.09503 28.725597
636.21765 301.57663 28.72266
636.0755 301.80658 28.771471
641.70667 305.53256 28.73111
638.80139 308.16733 28.797319
644.18188 308.88278 28.750694
638.54749 301.02863 28.81105
648.38672 304.78278 28.857832
641.79498 301.39142 28.904625
635.46313 302.78519 28.914467
645.43451 299.97314 29.088087
639.96863 300.97302 29.019476
640.44794 305.58249 29.008789
635.02869 308.29297 29.059908
639.10602 301.02747 29.175861
648.8075 301.7691 29.263021
641.50757 302.43588 29.253489
641.22778 303.28293 29.235636
648.68872 303.92694 29.235157
640.80383 304.59445 29.246067
634.50073 306.04059 29.225708
640.48224 301.0582 29.368286
640.54181 305.44254 29.3346
645.83026 307.8219 29.304237
641.91907 307.97119 29.327301
642.99426 309.40985 29.393322
648.15704 300.89517 29.462872
641.87048 301.42053 29.445108
641.66327 302.06866 29.478157
648.4375 304.52026 29.483526
647.83716 306.0759 29.423035
634.59094 307.62323 29.434761
642.74402 303.59253 29.505749
644.57031 309.034 29.529314
645.88629 300.34827 29.609089
641.31763 303.21368 29.666603
641.74487 305.41623 29.647064
641.57104 307.69232 29.6122
641.92004 308.97729 29.63442
640.89978 304.53574 29.763647
634.46863 306.14682 29.730938
645.2533 308.52045 29.763817
644.94275 308.80035 29.772312
647.29712 300.68762 29.849873
638.03656 301.39725 29.863209
634.45013 304.34552 29.833956
648.25647 304.90665 29.857162
644.77374 300.75189 29.90921
643.24768 302.82605 29.934483
642.68579 303.67615 29.96254
641.31641 307.76263 29.922302
645.86804 300.67844 30.170315
647.15662 307.09039 30.199959
634.45715 306.91016 30.267952
641.17639 306.42188 30.364506
636.42065 310.12042 30.371616
636.70654 310.15649 30.378401
638.01855 309.71924 30.400265
641.47284 309.7522 30.48554
644.84961 309.20001 30.599548
643.98956 309.97028 30.580538
639.99457 307.73914 30.664814
634.48322 308.37814 30.643112
640.41681 306.48907 30.763927
640.04883 307.60751 30.74279
640.68951 308.12921 30.757648
636.0578 310.1019 30.786337
637.04095 301.85278 30.858616
643.66199 302.13348 30.800503
634.8172 309.09241 30.870701
639.5788 309.10828 30.855982
638.12799 301.64905 30.950319
641.51172 305.77637 30.978296
644.86652 309.27261 30.939533
642.04932 304.78851 31.031799
647.88092 305.57889 31.000671
641.38696 310.10248 31.026276
644.07111 301.53067 31.108452
635.22992 303.43182 31.197235
640.73419 305.71082 31.159988
644.29077 309.86523 31.100555
643.56995 302.18518 31.296734
642.3689 304.19409 31.203743
640.52643 308.85303 31.20801
634.7749 309.24994 31.278992
647.51923 306.41879 31.372032
634.43768 308.71741 31.352776
648.33289 304.1322 31.415133
644.88281 309.39771 31.483641
637.84418 310.3678 31.454868
634.41406 308.66049 31.590473
639.48486 309.72958 31.579693
640.8288 306.99609 31.606037
637.23309 310.65442 31.603218
644.73206 301.31787 31.779545
648.17133 303.93707 31.721233
640.05219 308.60007 31.745907
635.35364 309.87836 31.856226
640.92511 305.49612 31.926346
634.31244 306.52039 31.929447
634.97363 309.54236 31.965229
643.1059 302.80139 32.038338
634.31836 307.16791 32.099453
635.16705 309.72058 32.002197
644.49524 310.04526 32.055702
634.27838 306.1441 32.166588
644.89478 309.64001 32.108238
647.34296 302.7377 32.200012
642.6922 303.55069 32.213684
634.27283 306.32791 32.29335
638.33057 310.61679 32.262524
641.19678 304.86584 32.339298
641.52728 305.68073 32.304749
640.20038 308.27301 32.399109
643.61639 311.0874 32.301147
635.7771 302.74619 32.448013
635.95172 310.52747 32.450623
634.27551 304.87952 32.500763
634.64575 309.56293 32.516075
644.62994 310.0871 32.50108
636.00281 310.5835 32.505962
639.70911 301.80585 32.657593
639.28186 310.50775 32.678909
638.31726 301.95142 32.754406
644.17383 310.66772 32.723644
634.25464 307.20898 32.811981
646.99152 303.14499 32.946789
642.54395 303.63797 32.996418
634.7417 304.11923 32.972645
641.94202 304.47025 32.982071
640.62891 301.83084 33.045677
644.68506 302.00732 33.037266
634.81451 304.02094 33.0009
643.01343 311.681 33.08075
646.83301 303.10492 33.148998
634.26337 304.7695 33.117222
641.04889 310.77383 33.15612
639.5199 301.8208 33.268505
640.18347 308.68839 33.28756
639.74268 309.85028 33.212822
639.49872 301.82309 33.357281
635.60846 303.0123 33.361736
641.57654 304.69476 33.363689
647.67035 305.21552 33.354362
640.7652 306.83002 33.363701
640.68866 307.01724 33.33799
647.26111 304.42673 33.445244
643.41412 311.75314 33.486408
641.82959 304.23047 33.595837
634.23999 306.99521 33.50692
643.90662 302.03241 33.646011
634.30493 304.69977 33.668823
639.85016 309.85342 33.663578
639.94922 309.62827 33.7286
646.64441 303.53381 33.838398
642.13599 303.69452 33.820053
634.23486 306.58847 33.881886
636.47345 311.22534 33.944466
636.8078 302.36575 34.009621
642.25378 302.8912 34.037659
642.01855 303.76788 34.020321
634.6239 304.28192 34.008797
642.48523 303.05164 34.145126
636.99799 311.31445 34.10453
634.54907 304.3916 34.274277
634.23169 306.07242 34.20121
647.20715 306.43307 34.223381
642.56726 311.70508 34.227097
643.88391 302.1795 34.312603
636.1181 311.04803 34.329414
634.55231 310.22293 34.460144
644.51642 310.86734 34.59922
647.2804 306.08246 34.662857
639.51648 311.39899 34.670994
638.19592 311.42621 34.652092
646.83252 307.72479 34.728634
635.66852 310.80188 34.790516
639.14838 301.90857 34.851753
638.37677 302.0939 34.885029
643.0271 311.50238 34.889595
637.63037 302.28424 34.971863
638.59839 311.34952 34.969345
640.52576 311.53229 34.93224
645.86353 303.25864 35.086639
635.44385 303.37079 35.02021
646.17609 309.28247 35.044491
639.10266 301.95694 35.185116
643.12939 302.15387 35.186729
643.25256 302.18192 35.131664
636.99078 302.46497 35.163651
640.771 302.03442 35.217251
634.90564 310.19449 35.234276
638.18689 311.23849 35.219193
639.16187 311.25891 35.263565
635.52783 303.30756 35.334538
635.37256 303.50122 35.334167
643.96008 302.62747 35.463905
642.03656 302.14871 35.661682
636.38745 302.68027 35.642529
644.79749 303.06042 35.648457
646.7262 305.53378 35.750347
634.32349 308.34445 35.731163
645.39307 310.21597 35.755032
637.51019 311.01489 35.737568
641.49304 311.41663 35.76437
642.52954 302.19589 35.846058
642.95483 302.32043 35.801918
643.19647 302.50369 35.82251
644.85651 310.77716 35.853214
643.9024 302.85532 35.952015
634.35297 306.88235 35.927696
634.2262 305.42801 36.052242
641.30042 302.25446 36.126514
634.56012 304.6777 36.307564
638.45972 310.79611 36.406746
643.30469 311.28766 36.442833
639.10895 310.72366 36.661972
634.55872 309.50027 36.757584
638.26178 310.67145 36.713676
641.44324 311.14075 36.757187
639.46899 302.27069 36.862522
639.19073 310.63751 36.896137
638.14087 302.44952 37.017372
636.44794 302.87625 37.040936
636.27026 302.92578 37.089691
634.43823 308.17294 37.09259
634.44635 307.46082 37.112057
645.04156 310.82385 37.135445
644.74414 311.08307 37.152298
635.44141 303.66974 37.264034
634.41699 307.34531 37.399651
636.04364 309.90332 37.323734
643.02875 302.92587 37.463707
634.2644 306.30267 37.488663
644.23804 303.82129 37.566456
634.31421 306.7067 37.61211
639.89331 310.40005 37.671013
635.90131 303.1655 37.791714
645.35876 304.57907 37.792854
636.26245 309.73901 37.733868
636.9043 309.84167 37.799969
640.2912 310.49829 37.707024
635.83606 309.59644 37.834415
634.13287 305.51373 37.958614
634.31561 306.85474 37.940163
638.49872 302.48837 38.020309
640.97314 302.64157 38.061707
645.76514 305.7706 38.077335
634.23755 306.3465 38.045181
646.23511 308.25284 38.035961
640.77332 302.63647 38.176331
644.77521 312.18686 38.191395
643.66101 311.10513 38.203793
643.24475 303.38885 38.330116
637.08649 309.59482 38.352951
640.70654 310.75995 38.493484
644.94153 311.31158 38.411194
644.10229 312.07358 38.451206
644.43451 312.16205 38.427883
638.97137 302.47971 38.523285
637.83923 302.72739 38.520882
644.37134 304.35742 38.504135
634.20752 306.36386 38.592995
646.21106 307.96207 38.570072
635.64099 309.20966 38.505623
636.40283 309.35168 38.544968
634.94727 309.75656 38.523975
645.35681 310.74365 38.568291
634.90045 308.9751 38.655014
636.23846 310.10245 38.64283
636.44354 310.10364 38.626183
641.75647 310.98962 38.679428
642.27618 311.16788 38.682884
640.98914 302.7597 38.782639
642.93628 303.27963 38.778786
634.34827 305.35092 38.719746
634.29962 308.60568 38.763847
638.48035 310.26904 38.715397
634.9826 308.99994 38.872902
642.48413 311.67819 38.889938
643.47351 311.91327 38.866302
636.33734 309.86496 38.917889
638.82593 310.37036 38.974144
641.11322 311.31738 38.919197
643.11206 303.50095 39.00898
646.01013 308.13354 39.098373
634.44678 308.86542 39.033699
635.22723 309.07159 39.086483
640.95233 310.40454 39.020638
634.71765 304.96823 39.196213
645.10486 305.38797 39.135593
637.5155 309.49753 39.142101
638.20105 310.26859 39.162308
636.60461 303.36887 39.24725
634.51611 309.01187 39.263275
635.19965 309.08704 39.211094
638.41083 309.70346 39.240189
643.9762 311.07074 39.20858
634.26385 306.46234 39.300686
634.15466 309.21924 39.303509
645.4931 310.48724 39.321926
639.31213 310.51688 39.369862
645.02393 311.57635 39.365578
640.91132 302.92126 39.478245
644.82776 305.05972 39.411373
634.25189 306.27017 39.472748
645.78717 307.67944 39.496986
646.12219 308.40253 39.497498
634.09332 308.58353 39.471195
645.30249 310.75266 39.492558
635.37903 303.14166 39.503601
634.56567 308.97363 39.516731
646.23987 309.33594 39.535172
638.43994 309.90414 39.535347
644.97021 311.25992 39.5616
646.30872 307.96033 39.674637
646.25916 309.11505 39.689884
637.87561 301.97379 39.704224
635.6875 302.8006 39.746601
640.74835 302.96521 39.712929
633.98425 304.72769 39.753902
634.60754 305.27603 39.757458
646.44122 307.76996 39.72398
636.3418 309.34628 39.732491
641.60992 301.79489 39.868706
638.46387 302.53458 39.811672
636.72253 302.94064 39.879265
642.87775 303.22525 39.871479
645.54639 307.91104 39.872807
635.05042 302.90057 39.955379
638.14166 303.07758 39.909313
643.2782 303.24881 39.956169
642.49182 303.30249 39.998817
636.94714 303.47717 39.975525
644.00317 303.56189 39.990486
644.32385 303.59775 40.050892
645.87347 304.78522 40.086838
645.10657 306.33878 40.095554
646.354 306.48618 40.046429
640.80554 311.47034 40.017616
638.87292 301.37457 40.165134
644.77063 303.81775 40.393677
634.19116 308.64383 40.367355
637.08221 310.81482 40.302105
635.73157 301.89999 40.429298
643.42609 302.90521 40.405231
641.12219 311.65155 40.420097
634.51282 304.13028 40.502483
646.62964 307.10553 40.599922
634.26202 309.08951 40.525806
634.4375 304.31454 40.604332
633.98804 306.28281 40.622116
642.93427 312.01367 40.6922
647.03003 300.02469 40.745018
643.97729 312.0853 40.786064
644.64154 303.83511 40.840111
645.99805 304.79608 40.896038
641.21368 311.77994 40.873894
647.10626 300.53735 40.996632
634.01703 305.29932 40.985298
647.55762 300.2243 41.149658
637.55969 301.73169 41.129589
642.16394 302.26407 41.108429
634.5321 304.40622 41.155998
634.65991 304.23123 41.272747
636.30615 301.88013 41.316139
646.38965 308.88608 41.386543
636.9295 311.00763 41.3946
646.56152 306.39215 41.430916
647.37732 299.04834 41.539196
634.62622 304.41492 41.531342
634.26636 307.82437 41.540878
646.76984 298.98654 41.653217
639.53882 301.70166 41.60997
647.41174 299.19824 41.770378
640.37775 301.81512 41.74543
636.16547 302.00494 41.766144
634.19305 305.51331 41.744137
634.26813 306.93298 41.757519
640.26776 311.74319 41.734612
642.63452 312.24149 41.794559
634.30377 307.10004 41.882133
637.53235 311.21225 41.843452
647.18628 298.46536 41.98193
634.40436 308.9769 41.905907
636.88202 311.10748 41.93116
639.83783 311.69272 41.986523
647.20129 299.43298 42.075775
643.95276 303.4512 42.094643
636.39355 310.92917 42.013866
637.05939 302.01733 42.101921
646.45361 308.43924 42.166576
646.4303 308.82568 42.159332
641.83429 302.35471 42.210781
635.2113 303.69275 42.223545
640.58081 311.94098 42.245075
634.38831 306.59668 42.388206
637.97009 301.96149 42.493629
643.03619 303.15253 42.473942
646.32434 308.82028 42.404949
637.66309 302.03253 42.588474
646.26727 308.84866 42.521545
637.43457 302.08572 42.660919
634.47711 307.24841 42.644341
645.39722 310.64197 42.678246
638.40894 301.9368 42.758911
634.42676 305.63513 42.789719
646.47607 308.53897 42.707993
644.74377 312.0238 42.760838
646.41797 298.0322 42.804115
645.80048 309.7988 42.850986
640.99799 302.26093 42.977501
643.41498 303.15131 42.98912
646.43823 307.28839 42.915169
645.30463 304.13757 43.026749
634.50287 305.5694 43.154976
646.48688 297.80383 43.248779
645.65698 304.35318 43.22644
637.31641 311.4296 43.260345
635.52222 303.6925 43.380974
646.30341 304.77612 43.379608
646.36212 308.63501 43.389709
645.8894 309.65179 43.353439
645.01941 311.48688 43.31863
638.20007 311.75787 43.41227
635.9527 310.85101 43.551449
642.83923 312.45383 43.525246
636.12512 302.7793 43.802162
642.27661 302.75012 43.843395
635.55194 310.67474 43.815479
644.21576 303.31131 43.906094
634.92029 304.89114 43.913368
646.26501 304.83621 43.930016
645.94434 309.63739 44.083763
637.79211 311.67914 44.018188
643.10437 312.52112 44.01453
634.53564 308.56992 44.101128
634.53882 309.09369 44.155434
637.76086 311.71411 44.152241
646.46338 307.35004 44.288788
644.11353 312.56042 44.276314
634.48853 305.92181 44.311974
646.59106 296.54367 44.536098
635.5293 303.9545 44.503559
646.45355 307.44647 44.555542
645.09851 311.36938 44.554512
636.97717 311.59686 44.588966
640.05005 302.27701 44.665634
636.2392 311.43585 44.856842
636.36194 311.49091 44.894745
646.50122 308.29108 44.922775
637.08417 302.61649 45.046227
637.1731 302.61145 45.104469
642.93298 303.0386 45.166573
635.88232 303.49054 45.273308
634.70996 305.41916 45.201607
634.49091 305.78958 45.260178
646.31189 306.62531 45.205624
641.92743 312.92267 45.253292
646.48779 295.04785 45.399975
640.47345 312.9624 45.345596
645.10419 304.21353 45.451881
636.78625 311.8107 45.408638
639.5188 312.9252 45.482182
634.40808 306.05597 45.510677
645.97803 309.72171 45.570339
641.85272 302.72171 45.770611
634.88562 311.27289 45.756195
641.36676 313.08008 45.775116
637.9071 302.51715 45.822105
643.7926 303.32526 45.803055
646.26648 306.77747 45.829544
634.38275 309.39767 45.814243
638.39532 302.41861 45.932915
648.26294 305.58868 45.999184
646.23889 306.63876 45.976147
643.60931 313.04108 45.970436
639.12762 302.30978 46.034626
644.92413 312.01553 46.034031
645.12408 304.43268 46.152271
634.34344 308.40256 46.198975
641.93256 313.15958 46.171665
636.07581 303.39301 46.332008
648.27386 303.93945 46.466427
636.69592 312.11166 46.492916
646.36041 308.44952 46.56245
634.28931 309.57092 46.535908
637.22028 312.34323 46.582771
636.45862 312.08121 46.683979
639.89709 313.31448 46.65115
635.91736 303.76813 46.763367
645.32336 292.91354 46.883171
649.90265 304.51028 46.876091
645.51868 304.98828 46.870815
650.21765 305.03473 46.845718
650.42322 305.20163 46.892456
650.67957 306.66376 46.823021
647.97656 307.35925 46.871338
645.00525 312.08887 46.870468
645.98438 305.47827 46.952595
648.65466 307.97754 46.918301
636.36243 303.20163 47.002972
644.52417 304.18494 47.022541
635.60919 304.36151 47.06588
634.76318 305.62503 47.067207
646.06421 309.95123 47.0905
635.42139 311.88361 47.063698
643.96118 292.81424 47.128696
646.0282 293.41016 47.130798
649.52374 307.80893 47.187759
636.89508 312.37659 47.134995
644.86517 290.72128 47.214695
645.85083 293.78186 47.258995
647.99005 301.50616 47.219959
638.8645 302.53955 47.270927
647.50128 304.18021 47.298443
648.05115 308.52032 47.250443
639.17834 313.41867 47.227203
643.45203 292.66064 47.376934
647.95532 301.1893 47.360603
650.43671 304.5253 47.342598
647.55652 304.95709 47.367676
634.30457 306.59329 47.3465
646.39966 293.55341 47.489563
647.37036 303.76483 47.478573
644.68665 304.43976 47.486629
648.58588 308.57715 47.469204
647.28204 309.25031 47.435261
643.01733 292.58722 47.553795
650.09607 303.44336 47.552494
647.74341 308.38037 47.512707
649.00183 308.36633 47.53796
645.43896 311.38449 47.500763
634.14459 311.45782 47.530434
645.52228 290.93784 47.661343
645.4137 291.01282 47.660065
645.44196 291.82849 47.658024
643.26355 292.34088 47.619366
636.22339 303.4679 47.6166
634.16748 307.88348 47.607491
634.16022 308.57874 47.617825
634.13519 310.25256 47.696301
645.76135 310.77408 47.666054
636.45563 312.36014 47.669819
636.92401 312.5495 47.690262
646.26489 292.66901 47.764202
643.39215 293.41489 47.704609
644.83313 304.62457 47.70594
635.24176 304.9292 47.72155
634.19037 306.97375 47.767311
647.58392 307.43402 47.703526
636.10901 312.27728 47.740593
646.63959 293.53293 47.868771
643.06104 303.54926 47.873333
650.41022 307.85712 47.892208
641.23511 313.59048 47.975227
645.81366 291.80432 48.024399
650.27386 303.9711 48.093838
634.62488 306.06171 48.009548
634.52228 306.29599 48.017525
646.06689 308.19482 48.085472
650.27869 309.24692 48.017246
637.20435 312.76703 48.060169
645.51495 289.14957 48.123268
646.43042 292.29071 48.190556
647.69867 299.26065 48.184555
650.34753 304.15668 48.11409
647.43408 307.86804 48.129002
647.01263 308.50095 48.151901
649.40369 308.5506 48.129227
647.34009 307.30045 48.265678
634.08209 307.81564 48.267212
634.07141 310.05484 48.201912
645.63934 288.90454 48.375015
646.42236 294.60468 48.309959
646.59253 300.2977 48.379234
644.83044 304.77136 48.333893
649.49023 308.67072 48.361702
643.72528 313.67059 48.303596
645.44794 288.1582 48.494671
642.98669 292.58521 48.440208
646.49377 299.40024 48.409931
647.22083 304.53143 48.431122
634.62854 306.17218 48.418198
650.56622 307.89276 48.440125
650.02509 309.65863 48.43309
646.16174 310.12103 48.473057
644.64685 288.18524 48.572151
644.34473 288.82974 48.571007
643.93213 289.71432 48.566273
646.37384 294.74686 48.590179
650.28247 303.81848 48.569996
648.98083 309.11435 48.594757
645.25952 288.54343 48.696205
644.25195 289.01523 48.618782
646.04065 289.04492 48.681267
645.51794 289.53259 48.690525
648.10956 298.78522 48.628281
639.39679 302.89178 48.676105
650.72675 304.84708 48.630997
647.26465 304.99039 48.690666
643.96802 291.49872 48.782047
643.55865 291.59555 48.731415
645.32489 292.00674 48.725342
648.45245 298.91861 48.797928
637.5321 303.29047 48.736511
650.63257 307.45624 48.703526
647.22943 308.72861 48.752575
646.18848 309.88275 48.775826
646.07001 310.4838 48.755611
636.71765 312.76181 48.71138
645.64709 288.6814 48.856331
645.08234 290.54086 48.8741
645.1441 291.92529 48.825645
644.54614 304.73108 48.898899
650.62817 305.28186 48.851585
633.9082 310.78033 48.831436
636.34241 312.6402 48.847099
646.19476 288.71902 48.993668
645.47491 289.3634 48.923088
646.24164 294.99417 48.994137
639.01215 302.90085 48.917152
643.19049 303.8494 48.949867
650.3443 304.7894 48.986782
645.95477 306.31973 48.961494
650.5965 309.19794 48.954887
650.15002 309.78369 48.938656
649.08881 310.95905 48.947357
634.91437 312.21893 48.907555
646.6131 294.97195 49.081055
645.51666 295.07584 49.024197
645.65808 305.65442 49.02919
645.34998 290.42282 49.125267
645.20502 291.86969 49.129768
643.60364 304.0025 49.10519
645.28882 305.44366 49.174828
640.15576 313.79968 49.195152
645.74933 289.19559 49.261574
645.81091 296.13141 49.254223
649.84351 303.62152 49.264427
645.96259 306.13577 49.285515
634.54645 306.46451 49.29549
646.2804 307.63803 49.215191
644.66455 290.43985 49.385834
646.3017 295.95108 49.363152
647.23206 296.53244 49.368435
647.59448 296.91714 49.338116
646.01282 298.36707 49.30677
633.93042 307.53473 49.363449
650.60742 309.13849 49.311356
649.36743 309.48218 49.300583
650.54279 309.58789 49.341927
648.24072 311.45322 49.398048
648.47314 311.42188 49.352364
647.03503 292.70544 49.418987
649.65338 303.76056 49.427635
646.06842 307.71881 49.41246
645.78516 289.06094 49.527084
647.09729 295.638 49.598503
646.28943 300.47379 49.5923
636.23041 303.68585 49.597084
648.98792 305.43094 49.513489
650.39844 306.66245 49.51268
650.41394 307.06396 49.580513
647.33337 311.45633 49.534275
640.75403 295.37915 49.667576
648.41608 298.65353 49.675404
646.914 303.16205 49.614906
644.2356 304.73325 49.626656
640.62408 313.90265 49.695175
641.22125 294.1015 49.751545
640.96643 294.58746 49.727722
649.00677 300.35687 49.714294
636.80872 303.63995 49.794754
649.38574 304.21124 49.716805
649.76416 305.38153 49.724941
645.98474 306.04959 49.748375
650.18036 306.487 49.727554
646.1676 307.16006 49.709591
644.69946 290.90015 49.809883
640.82556 295.6059 49.876625
639.8045 297.05536 49.881668
637.14282 303.6026 49.811577
643.39008 304.2702 49.897301
646.10925 308.30084 49.897106
646.33844 310.67609 49.845921
642.97546 291.62976 49.941994
648.73267 301.51788 49.998436
646.10541 307.46902 49.93042
646.20166 310.05487 49.995384
643.83032 289.47177 50.043861
639.40851 297.86761 50.050343
633.60315 310.27786 50.070667
643.70087 289.8147 50.110378
645.45605 295.53009 50.160969
640.8147 295.99796 50.129181
646.43463 300.91092 50.160995
646.78577 301.20679 50.126671
638.32324 303.46127 50.136784
636.02576 303.53259 50.134079
635.30743 304.96722 50.162998
645.96368 309.36465 50.148067
646.04041 309.64774 50.134178
649.95093 310.52322 50.179249
645.65808 311.89642 50.158947
645.9845 292.14868 50.292622
641.51196 292.51736 50.277252
639.60461 295.18509 50.259392
639.05847 298.64395 50.238075
647.13043 300.84476 50.230659
636.28827 301.40942 50.229095
636.31378 301.66397 50.224686
641.59204 304.02075 50.272156
646.43707 307.33704 50.26759
649.94714 307.46744 50.206703
633.82922 307.55344 50.227257
649.82501 308.89142 50.26799
646.73315 293.05212 50.331017
636.69043 299.35638 50.340332
638.47632 299.68597 50.39048
637.82465 300.39862 50.329727
636.19592 302.17212 50.308491
635.15924 302.73584 50.361206
645.09906 289.51501 50.489105
640.92334 292.94043 50.442566
647.67249 296.63342 50.446861
636.37213 303.31253 50.456917
634.81958 304.13007 50.441547
650.1344 308.20132 50.405361
649.89252 308.66571 50.456348
645.00342 313.0639 50.442753
639.97699 294.00671 50.598225
645.44653 294.63971 50.503948
641.14777 296.1774 50.564117
647.3573 299.51257 50.558979
635.55707 301.28577 50.525219
635.13074 302.34457 50.574142
634.59833 302.63477 50.539856
635.45074 303.30533 50.589645
635.81091 303.43747 50.513695
637.18677 303.68066 50.58181
634.57965 304.15451 50.553802
634.68945 304.68134 50.598648
646.12378 306.70682 50.515636
646.09778 310.89319 50.549591
646.32129 311.91367 50.527122
641.23828 292.3024 50.699585
645.46161 294.1647 50.670303
641.24121 296.22733 50.687267
647.81787 298.33591 50.694221
645.9126 307.16876 50.639374
646.29541 307.86719 50.612595
642.8147 314.20569 50.683228
644.44263 288.4433 50.710693
646.64362 293.41351 50.77626
637.80945 296.88226 50.751793
633.86835 302.99026 50.750469
639.00763 303.61932 50.730648
634.16412 303.94739 50.703556
645.77081 309.85083 50.742874
638.61157 295.53079 50.840847
634.7677 301.98682 50.885635
634.37518 302.72086 50.82415
633.98553 304.30966 50.848625
634.52563 306.06543 50.885628
649.052 306.547 50.816734
634.17059 306.83368 50.813629
645.65076 309.42145 50.835644
639.70312 314.09848 50.818844
637.28662 303.66998 50.990944
641.92023 304.349 50.964516
648.02917 306.8822 50.978439
641.47644 314.23212 50.925293
643.86951 292.03271 51.062492
637.52014 296.70706 51.063782
647.21283 297.78696 51.060257
634.04095 302.19287 51.006714
636.65491 303.73819 51.069794
645.53497 305.77246 51.056026
645.69165 308.06964 51.085495
649.85822 308.11237 51.011444
636.27997 303.57205 51.189163
643.43939 304.72217 51.111454
633.79553 305.3017 51.111416
649.18683 311.66998 51.192329
644.53241 290.66937 51.259212
644.4068 290.78055 51.275242
641.89044 291.54938 51.219242
644.08643 291.7612 51.243683
643.79541 292.33435 51.209873
640.00055 293.85532 51.224213
638.98486 295.04178 51.221825
641.45685 296.41309 51.262627
636.76294 297.63699 51.273743
633.29242 304.37396 51.251434
642.59888 304.58707 51.268234
635.96851 305.10333 51.286438
633.66016 311.16049 51.258045
638.37891 313.94525 51.255051
640.01727 314.22421 51.277527
642.35736 295.13068 51.366844
637.8092 303.61371 51.319397
637.33008 303.88519 51.337414
633.90442 307.03101 51.326958
633.94653 307.23013 51.338375
647.21393 312.78717 51.385696
640.73444 293.01318 51.457981
635.10315 300.12457 51.413258
638.36804 300.95419 51.464256
638.3028 301.06598 51.483459
634.04169 302.64117 51.43951
637.86676 303.65234 51.478809
633.17828 304.52496 51.422852
634.54675 305.86053 51.496239
644.5943 314.17105 51.481827
645.62598 308.74957 51.580544
633.48279 309.21878 51.514061
645.0542 313.51834 51.506657
640.8877 314.34665 51.595299
642.07556 295.83395 51.675236
639.04626 300.33792 51.663525
637.8609 303.58478 51.694084
633.13196 304.32098 51.643845
635.13513 306.51428 51.649601
638.08203 296.25946 51.715496
640.58191 298.26245 51.734726
638.59082 300.98138 51.756229
646.11462 307.40182 51.767941
633.76337 308.38232 51.744461
633.71515 308.49802 51.74638
637.93414 313.78271 51.730549
641.64996 296.63113 51.811752
641.1947 304.45303 51.840038
647.27216 307.30545 51.891262
645.4292 310.79346 51.858505
644.42743 314.46069 51.804241
642.20331 292.14023 51.917706
641.97894 296.05267 51.958652
635.82037 298.95416 51.912704
642.29144 304.73853 51.998657
648.22089 307.14859 51.926239
649.77643 310.41479 51.937469
644.96136 313.42725 51.978718
641.18774 314.40582 51.958206
641.95349 292.5376 52.080517
641.49609 297.14279 52.066429
640.638 304.38159 52.024399
633.87463 308.02457 52.096657
632.95575 308.20203 52.082806
633.83051 309.07092 52.049843
633.28564 310.2525 52.07457
633.25745 311.09216 52.094128
637.97205 313.74997 52.058147
644.0022 287.12646 52.129429
644.33057 287.40616 52.188873
642.37805 292.98132 52.126572
639.30933 300.40704 52.13345
633.31738 302.77979 52.106144
644.78241 305.43472 52.126553
632.99158 308.43289 52.12928
634.23077 311.92303 52.176048
647.99213 313.16736 52.195404
639.42712 314.29889 52.132553
639.87799 294.42499 52.21936
641.84558 294.53384 52.242531
634.04504 308.54694 52.222599
638.93518 295.45575 52.376213
633.7832 301.96075 52.357117
646.06598 310.21817 52.33279
644.25 287.35663 52.437473
640.69141 298.83398 52.480019
635.19147 300.33374 52.482658
637.7793 304.15836 52.417419
634.16522 306.60788 52.445465
633.29749 309.73303 52.409149
649.09662 312.22836 52.436783
638.78424 313.99612 52.4174
640.7301 294.21689 52.500748
641.30347 294.77612 52.54002
637.23633 303.69135 52.509426
635.79938 303.83087 52.576065
636.15857 306.42215 52.526875
639.07416 314.09381 52.570343
644.45129 287.13376 52.640205
638.76758 295.98016 52.617798
637.62598 297.1015 52.619217
638.40039 302.21069 52.606598
633.30261 302.3024 52.626732
649.01489 307.92389 52.620152
649.15033 308.69431 52.699387
645.06488 313.98041 52.659653
642.91687 314.52371 52.616699
637.5589 303.5686 52.790577
632.78906 303.7305 52.768009
632.13715 308.26736 52.767616
632.37903 308.81219 52.745087
645.07214 314.02567 52.726494
639.83282 314.39661 52.793236
640.56018 314.4415 52.727921
642.59839 314.52802 52.714783
636.1908 303.84753 52.881218
632.31238 305.44809 52.873451
647.49683 313.4808 52.803612
641.43445 314.51324 52.820259
644.12939 285.93835 52.954277
634.54938 302.02414 52.999954
633.07861 302.9834 52.991707
636.25507 303.86926 52.934162
636.48676 305.92487 52.993595
649.27405 311.85876 52.918594
647.74719 289.97964 53.029953
639.75433 295.90366 53.032921
636.80695 298.3053 53.083603
634.10388 302.60126 53.056454
632.31158 305.13763 53.059547
642.87897 305.17715 53.05761
646.23688 308.91919 53.038479
632.58911 310.11737 53.024136
648.85339 312.68652 53.00605
637.52991 313.44656 53.053558
646.2254 313.91034 53.079338
645.16724 314.09326 53.036644
643.87628 314.70215 53.08416
644.50372 286.58203 53.140862
638.15247 297.35782 53.153351
632.82428 303.53827 53.150604
632.64844 303.78275 53.125805
638.10315 303.76163 53.142735
634.99988 308.24686 53.172115
638.05847 297.65231 53.286091
633.63086 302.44025 53.247158
636.10577 306.755 53.246128
637.09857 313.46576 53.288795
637.19641 313.46759 53.293297
639.14081 299.14996 53.332405
635.09943 301.28537 53.370552
638.7854 301.21857 53.315247
649.2384 310.4949 53.366768
636.47095 313.45282 53.310463
640.99585 314.53223 53.301491
643.67297 285.24701 53.476959
639.19586 297.52274 53.471325
637.35492 298.39844 53.400406
638.55835 300.47437 53.497894
637.63007 304.15363 53.406956
646.24463 308.64725 53.426659
633.96832 312.21436 53.480923
645.2511 314.31183 53.481544
642.27612 314.57968 53.414429
647.7251 289.44434 53.587547
643.2832 305.41779 53.580795
645.17969 305.98541 53.561928
648.65784 313.10516 53.597366
637.89032 302.89032 53.68145
634.95068 304.81363 53.610146
637.8703 304.84882 53.648918
643.59448 285.71786 53.761955
648.50629 291.37628 53.782276
635.76501 300.5672 53.772903
637.88745 304.40945 53.779579
640.29822 304.84641 53.725952
648.18152 308.31415 53.710526
646.62726 314.16632 53.732201
645.7312 314.49756 53.798027
643.8385 314.87994 53.785347
638.07703 298.64838 53.89344
638.31696 303.97296 53.876644
634.93665 305.11459 53.829849
641.11609 314.59296 53.801888
647.81061 288.21338 53.936069
642.65063 305.54501 53.953575
642.79413 305.58093 53.958931
645.79907 308.45779 53.901394
639.36157 314.03094 53.936832
647.38269 288.15305 54.055309
635.41205 304.4816 54.092457
645.13708 306.36322 54.035553
648.44958 308.46155 54.008663
637.08191 299.93616 54.177387
636.75488 300.25134 54.158398
635.18896 301.94067 54.194611
639.72186 305.01337 54.129265
636.58759 306.22635 54.12109
631.5274 306.52222 54.110378
633.49231 303.51355 54.241734
635.14917 306.48059 54.292202
645.0874 306.50961 54.23336
635.63416 313.14941 54.276772
647.46124 313.70209 54.223293
649.01892 287.77979 54.37986
644.52557 290.61078 54.363541
634.05701 303.1203 54.306915
637.13672 305.10181 54.3941
642.49506 305.81931 54.361263
644.35986 306.35489 54.361408
649.23102 289.40363 54.474991
644.6192 290.66699 54.407532
637.30029 302.8042 54.412743
637.03003 304.82819 54.46674
640.2251 305.38129 54.475311
636.99213 305.492 54.432953
648.73041 312.46234 54.458473
645.9801 314.59125 54.443527
648.34314 286.93582 54.596275
637.06653 304.05881 54.509327
636.34003 306.70938 54.511032
647.38165 308.88745 54.503956
648.4917 309.26883 54.525768
647.07837 289.15802 54.674576
631.41046 307.55438 54.602009
632.30939 310.29938 54.684582
648.68646 312.36023 54.602737
635.86499 313.09692 54.68692
643.20044 283.90613 54.751869
642.84656 291.13269 54.75404
636.28888 305.18042 54.794926
641.62476 305.93784 54.772842
631.91309 306.12701 54.771538
631.61102 306.64987 54.730938
631.53607 307.25488 54.74094
647.12219 308.95358 54.781738
637.22229 313.71271 54.763916
648.31744 290.19513 54.833298
635.22815 306.1022 54.87994
645.34521 307.09915 54.829716
642.70459 314.78799 54.889416
647.95392 286.44467 54.985939
635.68872 305.44174 55.080345
632.29742 305.52161 55.040619
648.74982 285.47113 55.125866
646.65619 287.70651 55.117973
635.43817 305.98062 55.130112
635.31854 307.15875 55.16391
647.87665 309.24896 55.122532
631.92749 309.99786 55.17363
647.57129 313.7146 55.135963
645.40265 314.63336 55.119514
646.77356 286.87433 55.298595
641.84644 306.33005 55.225548
643.63098 306.8399 55.260742
638.22101 305.71204 55.359928
643.12378 306.72882 55.346123
645.00226 307.4342 55.379265
648.2829 310.01682 55.394947
642.96185 314.58859 55.354912
642.96008 283.38953 55.475838
637.55811 313.49524 55.472198
647.34375 313.73929 55.424515
633.62909 304.85767 55.558186
641.5603 314.2713 55.517677
643.54492 314.23566 55.56498
632.10742 307.69464 55.652763
645.44507 314.47052 55.669064
646.62921 287.27792 55.751358
633.30457 305.28864 55.726524
632.14447 308.32855 55.79216
645.81879 308.80621 55.700294
640.35968 314.12756 55.725765
643.81104 314.19128 55.799973
647.48169 285.67682 55.893356
634.75104 305.54861 55.899269
638.26825 306.08801 55.818245
632.14722 308.77939 55.878326
646.30853 289.69296 55.969212
647.92291 310.09778 55.92786
646.41223 287.6691 56.070869
634.53125 304.88196 56.058079
634.66193 306.17651 56.089592
632.4209 307.15686 56.071884
633.57416 311.45148 56.005226
634.258 311.82404 56.053402
635.75409 312.19296 56.197407
639.42261 313.72809 56.17942
646.61597 287.67639 56.207626
646.82727 286.56564 56.392349
634.1073 305.44321 56.38443
642.55823 313.84354 56.356934
641.99377 313.93024 56.311859
649.00574 286.12811 56.491203
634.03925 305.77216 56.458839
643.01135 282.62622 56.53894
648.96161 288.68152 56.529716
633.94635 305.72568 56.520908
645.53998 314.15161 56.507336
647.03473 286.08075 56.60804
638.06366 306.79614 56.629356
641.73529 307.37222 56.648743
636.0097 312.12003 56.693523
637.50079 312.89423 56.695198
