# .PCD v0.7 - Point Cloud Data file format
VERSION 0.7
FIELDS x y z
SIZE 4 4 4
TYPE F F F
COUNT 1 1 1
WIDTH 948
HEIGHT 1
VIEWPOINT 0 0 0 1 0 0 0
POINTS 948
DATA ascii
5.3310838 4.0050802 0.28030938
5.5513468 4.0050802 0.27668163
5.6669827 4.0050802 0.2800824
5.7227745 4.0050802 0.26496726
5.2444973 4.0050802 0.37003976
5.4494047 4.0050802 0.33579549
5.7405581 4.0050802 0.34646186
5.1885061 4.0050802 0.4886077
5.2485991 4.0050802 0.43114239
5.3373804 4.0050802 0.48364392
5.4879451 4.0050802 0.46633846
5.5609236 4.0050802 0.46132427
5.7460237 4.0050802 0.44307432
5.8586144 4.0050802 0.43148842
5.9720421 4.0050802 0.45400822
6.0172982 4.0050802 0.48167598
5.1623635 4.0050802 0.52320743
5.25247 4.0050802 0.5431211
5.3830142 4.0050802 0.5508759
5.4351959 4.0050802 0.58296978
5.5617976 4.0050802 0.54404938
5.8314586 4.0050802 0.55643868
5.9405823 4.0050802 0.55166072
5.1854706 4.0050802 0.65740466
5.2208257 4.0050802 0.64015907
5.3220487 4.0050802 0.67867899
5.4658055 4.0050802 0.65582561
5.5493965 4.0050802 0.64831209
5.6520085 4.0050802 0.6373719
5.7215099 4.0050802 0.66230196
5.8419127 4.0050802 0.65241027
5.9075012 4.0050802 0.6322009
3.1129608 4.0050802 0.77480674
3.2777603 4.0050802 0.78342843
5.2033916 4.0050802 0.79837406
5.3400459 4.0050802 0.77059007
5.4411697 4.0050802 0.764956
5.5563583 4.0050802 0.73272341
5.6404567 4.0050802 0.73882788
5.8286848 4.0050802 0.73960423
2.8735282 4.0050802 0.8049981
2.907064 4.0050802 0.84308416
3.0619164 4.0050802 0.86514556
3.1657794 4.0050802 0.86010122
3.2553086 4.0050802 0.87077278
3.3212667 4.0050802 0.87834996
3.4478893 4.0050802 0.85477132
3.5291655 4.0050802 0.87051201
3.7574348 4.0050802 0.87274963
3.831491 4.0050802 0.887187
5.1933527 4.0050802 0.8606292
5.207099 4.0050802 0.89232635
5.3519945 4.0050802 0.82261181
5.4943366 4.0050802 0.85545242
5.5252008 4.0050802 0.83061022
5.7397647 4.0050802 0.83544511
5.8202705 4.0050802 0.8519749
3.0667167 4.0050802 0.98805583
3.1872122 4.0050802 0.9936074
3.2164621 4.0050802 0.95201939
3.3452313 4.0050802 0.93516123
3.4771943 4.0050802 0.98697615
3.5261772 4.0050802 0.9544971
3.6344686 4.0050802 0.95080638
3.758688 4.0050802 0.97155994
3.8194752 4.0050802 0.93073165
3.9241366 4.0050802 0.94569635
5.2179337 4.0050802 0.98497355
5.3850589 4.0050802 0.9745667
5.4767313 4.0050802 0.9537183
5.5511789 4.0050802 0.95557153
5.662559 4.0050802 0.94821692
2.9881949 4.0050802 1.0175247
3.0716896 4.0050802 1.0873535
3.1286676 4.0050802 1.067192
3.2067361 4.0050802 1.0204017
3.3601532 4.0050802 1.0492455
3.4254682 4.0050802 1.0832143
3.5421438 4.0050802 1.0440953
3.6381657 4.0050802 1.0870395
3.7734671 4.0050802 1.077981
3.8539555 4.0050802 1.0875332
3.9304519 4.0050802 1.0185753
5.290164 4.0050802 1.0925441
5.3264403 4.0050802 1.0819182
5.4736462 4.0050802 1.0400845
5.5469322 4.0050802 1.0206354
5.6604457 4.0050802 1.0450908
5.7490969 4.0050802 1.0621862
3.0707498 4.0050802 1.1138276
3.123462 4.0050802 1.1092975
3.2411408 4.0050802 1.1188464
3.3612003 4.0050802 1.1465935
3.4705904 4.0050802 1.1423227
3.6678486 4.0050802 1.1571511
3.7406175 4.0050802 1.1233914
3.8481989 4.0050802 1.1465583
5.2693739 4.0050802 1.1580071
5.3671975 4.0050802 1.1383183
5.5559292 4.0050802 1.151225
5.7432179 4.0050802 1.1188627
3.2799847 4.0050802 1.2688919
3.3582108 4.0050802 1.2605662
3.4461415 4.0050802 1.2538509
3.5434067 4.0050802 1.2247573
3.6657002 4.0050802 1.227597
3.7726932 4.0050802 1.2888367
3.8596539 4.0050802 1.2069993
5.3470259 4.0050802 1.2598035
5.4439406 4.0050802 1.2327141
5.566246 4.0050802 1.2285303
5.7325282 4.0050802 1.2718092
3.2695172 4.0050802 1.3533835
3.3164845 4.0050802 1.3449291
3.4878187 4.0050802 1.3440983
3.5774541 4.0050802 1.3282647
3.6333351 4.0050802 1.3263662
3.75737 4.0050802 1.3996838
3.8305187 4.0050802 1.3542833
5.2567 4.0050802 1.3080678
5.3322897 4.0050802 1.3349409
5.4503388 4.0050802 1.3483812
5.5778279 4.0050802 1.3602571
5.6517277 4.0050802 1.3694086
3.351501 4.0050802 1.4396601
3.4813368 4.0050802 1.4478872
3.5286646 4.0050802 1.4225256
3.6324449 4.0050802 1.4715226
3.7558763 4.0050802 1.4653952
3.8268533 4.0050802 1.4294527
5.2206564 4.0050802 1.407896
5.3889294 4.0050802 1.4315972
5.5863862 4.0050802 1.41611
5.6539493 4.0050802 1.4943964
5.7278686 4.0050802 1.477613
3.5592527 4.0050802 1.555299
3.6883099 4.0050802 1.5215061
3.7605114 4.0050802 1.5246103
3.8308597 4.0050802 1.5107858
5.2300005 4.0050802 1.5582197
5.3164434 4.0050802 1.5729749
5.43577 4.0050802 1.5387809
5.6426206 4.0050802 1.549623
5.7424459 4.0050802 1.5365798
3.4486918 4.0050802 1.610678
3.5345116 4.0050802 1.646229
3.7427802 4.0050802 1.6481886
3.8319104 4.0050802 1.6672013
5.1781669 4.0050802 1.682467
5.2276549 4.0050802 1.6449523
5.3460121 4.0050802 1.6362169
5.4780593 4.0050802 1.6425132
5.5887852 4.0050802 1.6894376
5.6364355 4.0050802 1.6370327
5.7025995 4.0050802 1.6653655
3.4529746 4.0050802 1.7605255
3.5487921 4.0050802 1.7141483
3.6472845 4.0050802 1.7911646
3.7414594 4.0050802 1.7316093
5.1860824 4.0050802 1.73792
5.2069874 4.0050802 1.7592767
5.3112102 4.0050802 1.7512759
5.4132371 4.0050802 1.703661
5.5234365 4.0050802 1.7559417
5.6979995 4.0050802 1.7322501
3.5760381 4.0050802 1.8121727
3.6813464 4.0050802 1.8365166
3.7536533 4.0050802 1.8528404
3.8162675 4.0050802 1.847703
3.904166 4.0050802 1.8874037
5.1728306 4.0050802 1.8437707
5.2985592 4.0050802 1.8996542
5.3424664 4.0050802 1.872445
5.4686923 4.0050802 1.8602005
5.5785165 4.0050802 1.8671755
5.6034503 4.0050802 1.8714155
3.5636692 4.0050802 1.9561901
3.6657841 4.0050802 1.9271022
3.8857605 4.0050802 1.9499202
3.9339819 4.0050802 1.9828718
5.159122 4.0050802 1.9822028
5.2642102 4.0050802 1.9423201
5.3306789 4.0050802 1.9137435
5.4843426 4.0050802 1.9424453
5.5467176 4.0050802 1.9450092
5.6867514 4.0050802 1.9803619
3.5601239 4.0050802 2.0876129
3.6039379 4.0050802 2.0948479
3.7480588 4.0050802 2.0495772
3.8297884 4.0050802 2.0503151
3.9335594 4.0050802 2.0429072
5.0701709 4.0050802 2.0643947
5.1309299 4.0050802 2.0197172
5.2750802 4.0050802 2.0955484
5.3502212 4.0050802 2.0350244
5.4092722 4.0050802 2.0623736
5.579124 4.0050802 2.0118735
5.63377 4.0050802 2.0399199
3.6836948 4.0050802 2.1579413
3.7773008 4.0050802 2.1573043
3.8842275 4.0050802 2.1026285
5.05165 4.0050802 2.1982388
5.1563292 4.0050802 2.1593776
5.2445326 4.0050802 2.1956964
5.3795404 4.0050802 2.1793447
5.474195 4.0050802 2.1649816
5.5657854 4.0050802 2.1580322
5.6576667 4.0050802 2.1649785
5.7015038 4.0050802 2.1913805
3.4710402 4.0050802 2.2596726
3.6575699 4.0050802 2.2355194
3.7451749 4.0050802 2.2404675
3.8574467 4.0050802 2.2185342
3.9255667 4.0050802 2.2468493
5.0481553 4.0050802 2.2347267
5.1563559 4.0050802 2.2830477
5.273385 4.0050802 2.2693286
5.3514042 4.0050802 2.252466
5.5774622 4.0050802 2.2690959
5.6150837 4.0050802 2.2853081
3.4016495 4.0050802 2.3607841
3.5577033 4.0050802 2.3500056
3.6679888 4.0050802 2.3791256
3.7700303 4.0050802 2.3573258
3.8242223 4.0050802 2.3487186
3.9202573 4.0050802 2.3799934
4.9944181 4.0050802 2.3299003
5.0190082 4.0050802 2.3713078
5.1613312 4.0050802 2.3501348
5.2299657 4.0050802 2.3417161
5.3309979 4.0050802 2.3378785
5.5575514 4.0050802 2.3442883
5.6664701 4.0050802 2.3779063
3.3878977 4.0050802 2.4053237
3.4507043 4.0050802 2.4732118
3.5517623 4.0050802 2.4737101
3.6543911 4.0050802 2.4376659
3.7294915 4.0050802 2.4086456
3.8387096 4.0050802 2.4447987
3.9171972 4.0050802 2.4812586
4.9724054 4.0050802 2.4021115
5.0799193 4.0050802 2.4591589
5.2770352 4.0050802 2.427387
5.3729191 4.0050802 2.4589286
5.4430513 4.0050802 2.4562378
5.5088634 4.0050802 2.4414244
5.6118741 4.0050802 2.4798508
3.3889384 4.0050802 2.529326
3.4718361 4.0050802 2.5280766
3.6306746 4.0050802 2.5780711
3.7568905 4.0050802 2.564944
3.8588386 4.0050802 2.5402594
3.9159565 4.0050802 2.5478742
5.0559654 4.0050802 2.5460961
5.1515121 4.0050802 2.5538139
5.2126298 4.0050802 2.5833595
5.36584 4.0050802 2.5771132
5.414257 4.0050802 2.5591388
5.5650444 4.0050802 2.5297277
3.3864293 4.0050802 2.606246
3.4380789 4.0050802 2.6748636
3.5550613 4.0050802 2.6686244
3.6532421 4.0050802 2.6281097
3.7714279 4.0050802 2.6678474
3.8353364 4.0050802 2.6720581
3.934304 4.0050802 2.6771121
5.086236 4.0050802 2.657105
5.1705127 4.0050802 2.6677821
5.2175612 4.0050802 2.6883886
5.3841925 4.0050802 2.6100326
5.4723177 4.0050802 2.668308
5.5386233 4.0050802 2.6614459
5.623713 4.0050802 2.6490636
3.4692638 4.0050802 2.7581947
3.5339391 4.0050802 2.7944615
3.8436973 4.0050802 2.7513573
3.9195178 4.0050802 2.7277508
5.1747098 4.0050802 2.718749
5.2166958 4.0050802 2.7757699
5.3390999 4.0050802 2.7374253
5.4673862 4.0050802 2.7059703
5.5255818 4.0050802 2.7228048
3.5070374 4.0050802 2.8625634
3.6793928 4.0050802 2.8805494
3.7353761 4.0050802 2.8657765
3.8453655 4.0050802 2.8424163
4.0766482 4.0050802 2.895401
5.0447359 4.0050802 2.8081865
5.1444778 4.0050802 2.8457227
5.2556281 4.0050802 2.833724
5.3587513 4.0050802 2.8360093
5.5502892 4.0050802 2.8615758
3.5556631 4.0050802 2.9494579
3.615515 4.0050802 2.9262314
3.7515876 4.0050802 2.9421151
3.8133492 4.0050802 2.9389629
3.9399705 4.0050802 2.981673
4.0660825 4.0050802 2.9069338
5.0705338 4.0050802 2.9350071
5.1463432 4.0050802 2.9245002
5.2650404 4.0050802 2.9001353
5.3631921 4.0050802 2.9635944
5.4497271 4.0050802 2.9176862
3.6443186 4.0050802 3.0346439
3.8437035 4.0050802 3.0258741
3.9481089 4.0050802 3.0065999
4.0427704 4.0050802 3.0969458
4.139976 4.0050802 3.0628223
4.9608922 4.0050802 3.075022
5.0262537 4.0050802 3.0510626
5.1423812 4.0050802 3.0611165
5.2215896 4.0050802 3.0473583
5.38974 4.0050802 3.0684249
5.424572 4.0050802 3.0601041
5.5428762 4.0050802 3.0491157
3.6519735 4.0050802 3.1782355
3.7403724 4.0050802 3.159986
3.841948 4.0050802 3.1500115
3.9111378 4.0050802 3.1344428
4.0819283 4.0050802 3.1124175
4.1126657 4.0050802 3.1311641
4.8946586 4.0050802 3.1029186
4.9678373 4.0050802 3.1849432
5.1650004 4.0050802 3.1348953
5.2534347 4.0050802 3.1519554
5.364275 4.0050802 3.1627953
5.4476094 4.0050807 3.1598027
3.6811736 4.0050802 3.2341928
3.7369218 4.0050802 3.2140412
3.8135955 4.0050802 3.2923295
3.9133859 4.0050802 3.2288892
4.0568132 4.0050802 3.265079
4.1747866 4.0050802 3.2485549
4.9220037 4.0050802 3.2952621
5.1433525 4.0050802 3.2670655
5.2688785 4.0050802 3.2705429
5.3888206 4.0050802 3.2627916
5.4541559 4.0050802 3.2650428
5.5009871 4.0050802 3.2163851
3.6360252 4.0050802 3.3480558
3.766573 4.0050802 3.3470531
3.8525484 4.0050802 3.366869
3.9644384 4.0050802 3.3495343
4.0664625 4.0050802 3.3473773
4.1630392 4.0050802 3.3251567
4.2706013 4.0050802 3.3480856
4.8436651 4.0050802 3.3412118
4.9449172 4.0050802 3.3312793
5.0303569 4.0050802 3.3417339
5.1589947 4.0050802 3.3732309
5.219276 4.0050802 3.340838
5.3374515 4.0050802 3.3390272
5.4633241 4.0050802 3.3643012
3.6853461 4.0050802 3.4051027
3.7544913 4.0050802 3.4171579
3.8022919 4.0050802 3.470294
3.9319983 4.0050802 3.4743021
4.0463114 4.0050802 3.4084477
4.1557832 4.0050802 3.4340744
4.2377338 4.0050802 3.4810386
4.7780046 4.0050802 3.4819279
4.8735285 4.0050802 3.4113767
4.9349303 4.0050802 3.4333551
5.0563436 4.0050802 3.4762952
5.1917481 4.0050802 3.4078948
5.270689 4.0050802 3.4468017
5.3525782 4.0050802 3.4466796
5.4483752 4.0050802 3.4597881
5.5117235 4.0050802 3.4900312
3.7130156 4.0050802 3.5468459
3.8169885 4.0050802 3.5385649
4.0467429 4.0050802 3.5495307
4.1503463 4.0050802 3.5404625
4.3250351 4.0050802 3.528374
4.7996092 4.0050802 3.577455
4.8484488 4.0050802 3.5397818
4.953454 4.0050802 3.5162599
5.0678048 4.0050802 3.5227399
5.1518617 4.0050807 3.5475857
5.2331848 4.0050802 3.5936711
5.3328657 4.0050802 3.5476229
5.4780622 4.0050802 3.5491111
7.1266742 4.0050802 3.5993085
7.6899977 4.0050802 3.5914407
3.7401905 4.0050802 3.6500998
3.8765399 4.0050802 3.6833191
3.9199796 4.0050802 3.6590481
4.1349216 4.0050802 3.6694732
4.2647209 4.0050802 3.6260419
4.469039 4.0050802 3.691262
4.7363138 4.0050802 3.6406982
4.8568592 4.0050802 3.6331351
4.9522638 4.0050802 3.6405392
5.0688772 4.0050802 3.6903048
5.1330338 4.0050802 3.6420388
5.2642646 4.0050802 3.6425114
5.3480468 4.0050802 3.6321294
5.4499512 4.0050802 3.6390426
7.1068449 4.0050802 3.6394858
7.4574571 4.0050802 3.6978741
3.7132471 4.0050802 3.7923
3.829473 4.0050802 3.7541792
3.9461589 4.0050802 3.7712359
4.0543013 4.0050802 3.7161825
4.1627951 4.0050802 3.7239292
4.2898703 4.0050802 3.750927
4.3188324 4.0050802 3.7810476
4.4726448 4.0050802 3.750339
4.5447812 4.0050807 3.744673
4.64956 4.0050802 3.7379942
4.7720118 4.0050802 3.7145064
4.8782663 4.0050802 3.7204044
5.0269055 4.0050802 3.7980852
5.2153244 4.0050802 3.7301414
5.3536682 4.0050802 3.7683918
6.9427276 4.0050802 3.7813203
7.2923861 4.0050802 3.7941272
7.3680882 4.0050802 3.750226
7.4588537 4.0050802 3.7123361
7.5143299 4.0050802 3.7100973
3.8490345 4.0050802 3.8349185
3.9388857 4.0050802 3.8543279
4.069313 4.0050802 3.8379352
4.1490526 4.0050802 3.8722553
4.2530723 4.0050802 3.8267739
4.3865881 4.0050802 3.8600118
4.4454937 4.0050802 3.8639653
4.5702219 4.0050802 3.8367548
4.6665792 4.0050802 3.8059516
4.7417531 4.0050802 3.8291619
4.8789434 4.0050802 3.8489308
5.1609616 4.0050802 3.8446701
5.3593402 4.0050802 3.8642409
5.4059877 4.0050802 3.8312635
6.6920991 4.0050802 3.8810778
6.7719669 4.0050802 3.883764
6.8619046 4.0050802 3.8140209
7.1456103 4.0050802 3.8866804
7.3286619 4.0050802 3.8242536
3.8563395 4.0050802 3.9613044
4.06075 4.0050807 3.9616725
4.1695924 4.0050807 3.9330161
4.2730193 4.0050802 3.9422061
4.3487577 4.0050802 3.9573746
4.4093528 4.0050802 3.9547043
4.5936751 4.0050802 3.9728568
4.6924424 4.0050802 3.9660084
4.7695332 4.0050802 3.943296
4.9784431 4.0050802 3.9380717
5.0415964 4.0050802 3.9570055
5.1599679 4.0050802 3.9616337
5.2580428 4.0050802 3.9382944
5.3667998 4.0050802 3.9173307
6.5927181 4.0050802 3.9605057
6.6703415 4.0050802 3.9303563
6.7734833 4.0050802 3.9756713
6.8152227 4.0050802 3.9010358
6.9888878 4.0050802 3.9876158
7.0818367 4.0050802 3.9510303
7.1622338 4.0050802 3.956476
7.3474088 4.0050802 3.9441357
3.8299615 4.0050802 4.0424399
3.9688582 4.0050802 4.0264964
4.0866442 4.0050802 4.0506859
4.1025229 4.0050802 4.0755424
4.2217894 4.0050802 4.0455017
4.3516045 4.0050802 4.0553579
4.4689913 4.0050802 4.0881267
4.5404391 4.0050802 4.0241599
4.6428237 4.0050802 4.048111
4.7902975 4.0050802 4.0094995
4.8770075 4.0050802 4.0316882
4.9654312 4.0050802 4.0453324
5.0810542 4.0050802 4.0361052
5.1333537 4.0050802 4.0405393
5.3559952 4.0050802 4.0166621
6.4467783 4.0050802 4.0635324
6.5496459 4.0050802 4.0422082
6.6770964 4.0050802 4.0629106
6.7334671 4.0050802 4.0538397
6.8567696 4.0050802 4.0270481
6.939353 4.0050802 4.0801306
7.0313616 4.0050802 4.0528913
7.1224031 4.0050802 4.0609012
7.2732053 4.0050802 4.0686517
7.3426518 4.0050802 4.0385194
7.4664412 4.0050802 4.0410719
3.8150167 4.0050802 4.1166406
3.929388 4.0050802 4.1612592
4.0599823 4.0050802 4.148562
4.1868858 4.0050802 4.1582756
4.2497077 4.0050802 4.1544065
4.3619413 4.0050802 4.174221
4.4093895 4.0050802 4.1496549
4.5820942 4.0050802 4.1593122
4.6695428 4.0050802 4.1297045
4.741272 4.0050802 4.1452026
4.9518418 4.0050802 4.1433458
5.0456753 4.0050802 4.1352859
5.1427875 4.0050802 4.1388774
5.2091165 4.0050802 4.1069369
5.7788467 4.0050802 4.1552124
5.8440385 4.0050802 4.1509562
5.9721928 4.0050802 4.1532083
6.0495052 4.0050802 4.1808739
6.2856169 4.0050802 4.1594024
6.3156538 4.0050802 4.152082
6.4354577 4.0050802 4.1374302
6.6243577 4.0050802 4.1492562
6.7716961 4.0050802 4.1538267
6.8492494 4.0050802 4.1331406
6.9444356 4.0050802 4.1877484
7.0315685 4.0050802 4.1359286
7.1314578 4.0050802 4.1497264
4.063674 4.0050802 4.2468119
4.1172485 4.0050802 4.2355752
4.2359295 4.0050802 4.2334619
4.4179335 4.0050802 4.2323041
4.5459919 4.0050802 4.2435803
4.7557702 4.0050802 4.2430964
4.8300848 4.0050802 4.208744
4.9741883 4.0050802 4.2739148
5.081121 4.0050802 4.2543125
5.5719142 4.0050802 4.2941523
5.6488657 4.0050802 4.2520676
5.7081628 4.0050802 4.2542338
5.8868127 4.0050802 4.2810779
5.9755492 4.0050802 4.2392426
6.0671577 4.0050802 4.2796707
6.1750703 4.0050802 4.2342343
6.2605438 4.0050802 4.245779
6.3130188 4.0050802 4.2646723
6.499999 4.0050802 4.2007785
6.588563 4.0050802 4.2886667
6.6445465 4.0050802 4.2410536
6.7131014 4.0050802 4.2737398
6.836422 4.0050802 4.2391148
6.9614139 4.0050802 4.2474689
7.057271 4.0050802 4.2222733
4.0456128 4.0050802 4.3347664
4.1989708 4.0050802 4.336864
4.3523326 4.0050802 4.3661771
4.466074 4.0050802 4.3067493
4.6699362 4.0050802 4.3228216
4.7358375 4.0050802 4.349946
4.8323836 4.0050802 4.3834209
4.9527459 4.0050802 4.3506336
5.027504 4.0050802 4.3173733
5.1455307 4.0050802 4.3647742
5.4645691 4.0050802 4.3749723
5.562583 4.0050802 4.3603549
5.62888 4.0050802 4.346323
5.7567291 4.0050802 4.3354573
5.826417 4.0050802 4.3159499
5.9237542 4.0050802 4.3942256
6.1095138 4.0050802 4.3563962
6.3175788 4.0050802 4.3478913
6.4785538 4.0050802 4.3841777
6.508194 4.0050802 4.3509436
6.6488905 4.0050802 4.3359308
6.7795448 4.0050802 4.322114
6.8141856 4.0050802 4.3582058
6.9007678 4.0050802 4.3025856
4.0164614 4.0050802 4.443449
4.2280393 4.0050802 4.4509554
4.3558292 4.0050802 4.4859257
4.4751382 4.0050802 4.4367309
4.5267582 4.0050802 4.4622369
4.62819 4.0050807 4.4576111
4.8585215 4.0050802 4.4335308
4.9019017 4.0050802 4.4723697
5.4585075 4.0050802 4.4246597
5.7411265 4.0050802 4.4349232
5.8584442 4.0050802 4.4634867
5.942234 4.0050802 4.4633269
6.06459 4.0050802 4.4515419
6.2642107 4.0050802 4.4401832
6.3862267 4.0050802 4.404922
6.4536963 4.0050802 4.4583941
6.6439238 4.0050802 4.4730639
4.0474434 4.0050802 4.5448689
4.1533928 4.0050802 4.5935287
4.3584018 4.0050802 4.5705705
4.4469557 4.0050802 4.5651283
4.5025568 4.0050802 4.5480967
4.638638 4.0050802 4.5171833
4.7140169 4.0050802 4.5196514
4.811903 4.0050802 4.5194731
4.9597039 4.0050802 4.5185742
5.0285525 4.0050802 4.5430474
5.3258042 4.0050802 4.5742655
5.5733447 4.0050802 4.567524
5.6381011 4.0050802 4.5635509
5.7264357 4.0050802 4.5237384
5.9155593 4.0050802 4.5630383
6.029779 4.0050802 4.5726428
6.1409459 4.0050802 4.5568995
6.3584123 4.0050802 4.5124807
6.4345398 4.0050802 4.5448813
6.5277572 4.0050802 4.5232491
4.1176953 4.0050802 4.6095824
4.2503552 4.0050802 4.6469798
4.3110685 4.0050802 4.6673961
4.4672899 4.0050802 4.6990118
4.6993885 4.0050802 4.6302271
4.739645 4.0050802 4.6043906
4.8774977 4.0050802 4.6387062
4.9680738 4.0050802 4.6918335
5.0124741 4.0050802 4.6292491
5.3972034 4.0050802 4.6630173
5.4496183 4.0050802 4.6503358
5.5400972 4.0050802 4.633749
5.6125269 4.0050802 4.6175027
5.7483654 4.0050802 4.647913
5.8344665 4.0050802 4.632659
5.9668217 4.0050802 4.6235456
6.0307369 4.0050802 4.6660185
6.1412048 4.0050802 4.6688614
6.2755151 4.0050802 4.6865911
4.0418501 4.0050802 4.7219872
4.1209602 4.0050802 4.7415357
4.2676053 4.0050802 4.7589798
4.3645892 4.0050802 4.7383714
4.4273305 4.0050802 4.7572331
4.5152359 4.0050802 4.7718878
4.6083965 4.0050802 4.7490721
4.7617164 4.0050802 4.7277083
4.8505545 4.0050802 4.7540417
4.9243841 4.0050802 4.7222257
5.2855 4.0050802 4.7518225
5.3138204 4.0050802 4.7235913
5.5335488 4.0050807 4.759079
5.6411586 4.0050802 4.7286553
5.7323928 4.0050802 4.7797327
5.8790665 4.0050802 4.7694778
5.9609356 4.0050802 4.7572913
6.0743847 4.0050802 4.7206044
6.1344051 4.0050802 4.7979603
3.7761312 4.0050802 4.8971214
3.8043771 4.0050802 4.8896513
4.0796037 4.0050802 4.885818
4.1469269 4.0050802 4.8474689
4.2329879 4.0050802 4.8560286
4.3844862 4.0050802 4.8186808
4.4456596 4.0050802 4.8427901
4.5217719 4.0050802 4.8715243
4.6386452 4.0050802 4.8292775
4.7267575 4.0050802 4.8452024
4.8209429 4.0050802 4.8613291
4.9603276 4.0050802 4.8621554
5.0644379 4.0050802 4.8918266
5.1346273 4.0050802 4.865304
5.2217789 4.0050802 4.8236113
5.3161421 4.0050802 4.845396
5.4370704 4.0050802 4.8645215
5.5352516 4.0050802 4.848093
5.6767459 4.0050802 4.8547974
5.7301717 4.0050802 4.8523169
3.6452096 4.0050802 4.9612541
3.7655993 4.0050802 4.9312344
3.9908397 4.0050802 4.9642096
4.0225754 4.0050802 4.9450269
4.136632 4.0050802 4.9232006
4.2144141 4.0050802 4.9606647
4.3491836 4.0050802 4.9642162
4.4944592 4.0050802 4.9185729
4.5236931 4.0050802 4.9602385
4.7415347 4.0050802 4.928905
4.850306 4.0050802 4.9611382
4.9267616 4.0050802 4.9342537
5.1248021 4.0050802 4.9812593
5.2312484 4.0050802 4.960753
5.3530607 4.0050802 4.9368496
3.3708553 4.0050802 5.0756326
3.4732289 4.0050802 5.0904984
3.5552344 4.0050802 5.0249143
3.6162381 4.0050802 5.0001259
3.7455168 4.0050802 5.0004134
3.8363523 4.0050802 5.0348177
3.9354393 4.0050802 5.0551548
4.0175934 4.0050802 5.005527
4.1913605 4.0050802 5.0955415
4.3829556 4.0050802 5.0507193
4.4721432 4.0050802 5.0558672
4.5604582 4.0050802 5.019424
4.6210098 4.0050802 5.0666475
4.748148 4.0050802 5.0629649
4.873529 4.0050802 5.0588899
4.9686871 4.0050802 5.0414429
5.0152559 4.0050802 5.0553765
5.1446872 4.0050802 5.0572462
5.2415214 4.0050802 5.0617304
5.3199 4.0050802 5.000916
5.4274712 4.0050802 5.0908623
5.5637927 4.0050802 5.0617981
3.318356 4.0050802 5.1047277
3.4606085 4.0050802 5.1547575
3.5472791 4.0050802 5.1011038
3.6688774 4.0050802 5.1553483
3.7878075 4.0050802 5.119668
3.8241937 4.0050802 5.1320019
3.9247036 4.0050802 5.192831
4.0546484 4.0050802 5.1422567
4.1580272 4.0050802 5.1417594
4.2678547 4.0050802 5.1621776
4.3510618 4.0050802 5.162837
4.4568834 4.0050802 5.1684361
4.530592 4.0050802 5.1210508
4.6754122 4.0050802 5.132308
4.7391205 4.0050802 5.1591525
4.8267498 4.0050802 5.1419878
4.9386983 4.0050802 5.1360936
5.0658784 4.0050802 5.1470776
5.169652 4.0050802 5.1672416
5.2690997 4.0050802 5.1477399
5.3350778 4.0050802 5.1231079
5.4495635 4.0050802 5.1382351
5.5333767 4.0050802 5.1580949
3.4484117 4.0050802 5.241322
3.6330547 4.0050807 5.2502284
3.7321663 4.0050802 5.2518811
3.8851116 4.0050802 5.2231293
3.9615574 4.0050802 5.2548261
4.1747379 4.0050802 5.2869377
4.2705989 4.0050802 5.2795801
4.348784 4.0050802 5.2239194
4.4704075 4.0050802 5.2381401
4.5263085 4.0050802 5.2434802
4.6519318 4.0050802 5.2547646
4.8606653 4.0050802 5.2531319
4.964911 4.0050802 5.2101502
5.0398254 4.0050802 5.2732048
5.1620488 4.0050802 5.2518582
5.2337441 4.0050802 5.2582102
5.343791 4.0050802 5.259553
5.4536324 4.0050802 5.2415214
3.3156571 4.0050802 5.3515902
3.5091238 4.0050802 5.3815861
3.6771045 4.0050802 5.3478718
3.7460876 4.0050802 5.3634548
3.8310719 4.0050802 5.3021398
4.0561724 4.0050802 5.3660312
4.1421494 4.0050802 5.3310952
4.2520161 4.0050802 5.3784566
4.4687748 4.0050802 5.3347383
4.5526862 4.0050802 5.3526735
4.6219687 4.0050802 5.3337502
4.7303114 4.0050802 5.3310184
4.8265672 4.0050802 5.3743501
4.9920506 4.0050802 5.3572645
5.0330925 4.0050802 5.3540411
5.1617966 4.0050802 5.353941
5.2363243 4.0050802 5.3547125
5.3508453 4.0050802 5.3436775
5.4398575 4.0050802 5.3502975
5.5583096 4.0050802 5.3656693
3.5941918 4.0050802 5.444066
3.6433668 4.0050802 5.4584875
3.7452438 4.0050802 5.4445825
4.0740128 4.0050802 5.4488564
4.1374907 4.0050802 5.4341216
4.2321134 4.0050802 5.4496002
4.3563571 4.0050802 5.4491601
4.4561238 4.0050802 5.4742765
4.5700827 4.0050802 5.4465775
4.6272078 4.0050802 5.4751592
4.7677941 4.0050802 5.4487557
4.8404326 4.0050802 5.4584632
4.9535098 4.0050802 5.4478531
5.0437236 4.0050802 5.4478307
5.149219 4.0050802 5.4953208
5.2217135 4.0050802 5.4591231
5.351512 4.0050802 5.4728923
5.5499883 4.0050802 5.4530334
5.6091461 4.0050802 5.4840097
3.3770123 4.0050802 5.5205889
3.4183533 4.0050802 5.5845847
3.5346184 4.0050802 5.5651565
3.7771683 4.0050802 5.5242915
3.860117 4.0050802 5.5450368
3.9593117 4.0050802 5.5620484
4.0161552 4.0050802 5.5478086
4.1008525 4.0050802 5.5301003
4.2529774 4.0050802 5.5457854
4.3668809 4.0050802 5.5407014
4.4341793 4.0050802 5.5642371
4.5447068 4.0050802 5.5330577
4.6431007 4.0050802 5.5596008
4.7017927 4.0050802 5.5442886
4.8601317 4.0050802 5.5688205
4.9933076 4.0050802 5.5017776
5.0725412 4.0050802 5.5440474
5.1156845 4.0050802 5.515101
5.2263727 4.0050802 5.5939059
5.3384233 4.0050802 5.537117
5.4175105 4.0050802 5.5724597
5.5405307 4.0050802 5.5662637
5.6021376 4.0050802 5.5036426
3.3613987 4.0050802 5.6714835
3.4321954 4.0050802 5.6516666
3.551996 4.0050802 5.6436386
3.6820285 4.0050802 5.6591506
3.7951117 4.0050802 5.628583
3.822257 4.0050802 5.6876807
3.948838 4.0050802 5.6790471
4.0331502 4.0050802 5.6471033
4.1618662 4.0050802 5.6078653
4.2366977 4.0050802 5.621582
4.3878903 4.0050802 5.6396399
4.463203 4.0050802 5.6310649
4.5398436 4.0050802 5.6421032
4.771019 4.0050802 5.639204
4.868979 4.0050802 5.6404037
4.9156699 4.0050802 5.6742005
5.1425052 4.0050802 5.6707597
5.2558007 4.0050802 5.6174607
5.3585429 4.0050802 5.6768532
5.436552 4.0050802 5.6789641
5.5688467 4.0050802 5.6441803
3.4557743 4.0050802 5.7082133
3.5327291 4.0050802 5.7868257
3.6193147 4.0050802 5.7480307
3.8391457 4.0050802 5.770896
3.9214108 4.0050802 5.7123742
4.0429034 4.0050802 5.7429018
4.1512661 4.0050802 5.7459545
4.2537451 4.0050802 5.7495222
4.3435187 4.0050802 5.7674823
4.4327359 4.0050802 5.7300591
4.5254145 4.0050802 5.7080326
4.6641698 4.0050802 5.7630649
4.7196455 4.0050802 5.7573318
4.8533282 4.0050802 5.7424607
4.9466548 4.0050802 5.7410836
5.0363064 4.0050802 5.7403631
5.1094036 4.0050802 5.7106085
5.3505101 4.0050807 5.7475157
5.4294324 4.0050802 5.7022476
5.5630774 4.0050802 5.7763939
3.4386501 4.0050802 5.82794
3.5545413 4.0050802 5.8394008
3.6597633 4.0050802 5.8538055
3.788595 4.0050802 5.8171415
3.8833101 4.0050802 5.8699694
3.9123273 4.0050802 5.8966522
4.0461364 4.0050802 5.8423495
4.1459103 4.0050802 5.8370218
4.2604489 4.0050802 5.8566718
4.3627253 4.0050802 5.8090706
4.5320501 4.0050802 5.8346586
4.745286 4.0050802 5.8589611
4.9464841 4.0050802 5.8687115
5.0684762 4.0050802 5.8344431
5.1399198 4.0050802 5.8154554
5.2179217 4.0050802 5.8507676
5.3144093 4.0050802 5.8671217
5.4369755 4.0050802 5.8837571
3.6797714 4.0050802 5.9299841
3.7157753 4.0050802 5.9078131
4.0422792 4.0050802 5.9599171
4.1932492 4.0050802 5.9768238
4.2644911 4.0050802 5.9778118
4.3605847 4.0050802 5.9666119
4.4804525 4.0050802 5.9237652
4.5511408 4.0050802 5.9110627
4.6489825 4.0050802 5.9476738
4.8330193 4.0050802 5.9800234
4.9385843 4.0050802 5.9771061
5.0692759 4.0050802 5.9063082
5.1311903 4.0050802 5.9628124
5.3588386 4.0050802 5.918087
5.4621711 4.0050802 5.9261808
4.0742288 4.0050802 6.0836248
4.1749964 4.0050802 6.0705514
4.2682104 4.0050802 6.06147
4.3231845 4.0050802 6.0183983
4.4232206 4.0050802 6.0560665
4.5721836 4.0050802 6.014595
4.6470551 4.0050802 6.0501838
4.7542925 4.0050802 6.045146
4.8286338 4.0050802 6.0452538
4.9793 4.0050802 6.0803123
5.047595 4.0050802 6.0177231
5.1346126 4.0050802 6.0523505
4.0247536 4.0050802 6.1622853
4.1239762 4.0050802 6.1778173
4.3553872 4.0050802 6.1356106
4.4741173 4.0050802 6.1792164
4.5299206 4.0050802 6.1808233
4.6976194 4.0050802 6.1103249
4.7219353 4.0050802 6.1770215
4.8474793 4.0050802 6.126718
5.0562201 4.0050802 6.1495028
4.3921008 4.0050802 6.2438107
4.507308 4.0050802 6.2053699
4.6135416 4.0050802 6.2911129
4.7334085 4.0050802 6.2521877
4.8105021 4.0050802 6.26125
4.9167442 4.0050802 6.2813296
5.0246811 4.0050802 6.2274971
4.2453985 4.0050807 6.3564506
4.3400702 4.0050802 6.335783
4.453835 4.0050802 6.3518262
4.6437302 4.0050802 6.3895316
4.7360625 4.0050802 6.3714509
4.827076 4.0050802 6.3895583
4.9372773 4.0050802 6.3442926
4.1259279 4.0050802 6.4661961
4.2794185 4.0050802 6.4706717
4.3615665 4.0050802 6.4360266
4.4216261 4.0050802 6.4598227
4.6341076 4.0050802 6.4567204
4.783411 4.0050802 6.4623356
4.8526287 4.0050802 6.4688382
4.9508352 4.0050802 6.4955425
4.2743058 4.0050802 6.5428786
4.3465285 4.0050802 6.5519347
4.450058 4.0050802 6.5389376
4.5513897 4.0050802 6.5594139
4.6328783 4.0050802 6.5426545
4.7254677 4.0050802 6.5391903
4.9495907 4.0050802 6.5628381
4.1917877 4.0050802 6.6437855
4.282414 4.0050802 6.6971636
4.4741573 4.0050802 6.6555781
4.5563335 4.0050802 6.6581774
4.6562595 4.0050802 6.6414309
4.8274488 4.0050802 6.6768556
4.9749203 4.0050802 6.6129928
4.1867037 4.0050802 6.7273865
4.2624311 4.0050802 6.7552118
4.3854895 4.0050802 6.7562919
4.4488144 4.0050802 6.7545233
4.6630411 4.0050802 6.7848296
4.8573599 4.0050802 6.7171516
5.0246363 4.0050802 6.7425661
5.1479826 4.0050802 6.7997117
4.3119831 4.0050802 6.8546257
4.6710491 4.0050802 6.8874211
4.7608948 4.0050802 6.8778162
4.8077574 4.0050802 6.8531942
4.9574218 4.0050802 6.8082752
5.0418787 4.0050802 6.8325582
4.2788196 4.0050802 6.9166484
4.5325394 4.0050802 6.991724
4.651679 4.0050802 6.9721594
4.795929 4.0050802 6.9021711
4.9354095 4.0050802 6.9266939
