# .PCD v0.7 - Point Cloud Data file format
VERSION 0.7
FIELDS x y z
SIZE 4 4 4
TYPE F F F
COUNT 1 1 1
WIDTH 279
HEIGHT 1
VIEWPOINT 0 0 0 1 0 0 0
POINTS 279
DATA ascii
-0.37523523 -1.0059447 0.033423971
-0.42488447 -0.94014812 0.023430467
-0.35283327 -0.94455051 0.031282786
-0.42729554 -0.85837984 0.039301042
-0.35378772 -0.85831577 0.03251645
-0.41467735 -0.75472891 0.036818255
-0.37056828 -0.78469342 0.028305983
-0.42909241 -0.82420957 0.1564585
-0.38977671 -0.83259469 0.19098502
-0.43357998 -0.77472067 0.14746881
-0.38412181 -0.76932234 0.11859744
-0.86164284 -0.11162114 0.18678723
-0.86483157 -0.085348293 0.19661453
-0.42379338 -0.82374042 0.25224057
-0.38700175 -0.82753724 0.24975997
-0.43777728 -0.72834253 0.25203398
-0.3749077 -0.74572122 0.25132647
-0.82122183 -0.11252214 0.24660592
-0.79778671 -0.10462523 0.26671147
-0.90636337 -0.075926483 0.22745438
-0.85297054 -0.04946395 0.2543937
-0.77193582 -0.051894087 0.24383123
-0.77206755 0.010461673 0.28365171
-0.80580997 -1.4022628 0.39555198
-0.7567569 -1.4160841 0.39555201
-0.80961126 -1.3995898 0.39651236
-0.74818915 -1.3792293 0.39555204
-0.44209781 -0.81133658 0.33181673
-0.37951738 -0.8182565 0.347031
-0.45801198 -0.75726509 0.34896082
-0.35434294 -0.74562931 0.36596936
-0.42473006 -0.69454545 0.36589289
-0.39785039 -0.6923129 0.37537122
-0.72142082 -0.35479853 0.39037508
-0.69550425 -0.35103962 0.39729634
-0.74342245 -0.24798614 0.37532148
-0.68739653 -0.25022128 0.38815817
-0.73855525 -0.15111171 0.35594174
-0.69342142 -0.13177766 0.39771798
-0.81721032 -0.070557304 0.31467977
-0.75754726 -0.0485874 0.3512668
-0.75437516 0.025346689 0.33664966
-0.79831213 -1.5010091 0.48777184
-0.8447144 -1.4465942 0.45874485
-0.75202 -1.4607345 0.44009978
-0.68751121 -1.4270871 0.45895162
-0.85956198 -1.3630503 0.46034443
-0.75790393 -1.3264527 0.42410573
-0.68018782 -1.3469551 0.48020595
-0.81773639 -1.2881875 0.48747158
-0.75844496 -1.2902673 0.46925792
-0.41626161 -0.82064676 0.46054608
-0.38896197 -0.81623137 0.44071847
-0.45220095 -0.73985887 0.45506403
-0.36247483 -0.7522155 0.45341563
-0.42802379 -0.69512844 0.46265396
-0.39641631 -0.6936965 0.4538331
-0.73045349 -0.51019031 0.47821316
-0.67376864 -0.51953316 0.49018461
-0.7409429 -0.44109717 0.43569687
-0.66491759 -0.44434446 0.45982966
-0.76883954 -0.34816247 0.44360989
-0.67382938 -0.36563456 0.45904064
-0.75988859 -0.24891984 0.46055326
-0.67696595 -0.2587567 0.46641088
-0.7258997 -0.16373615 0.42888951
-0.69667274 -0.14006601 0.41526103
-0.77199447 -1.5021036 0.5206219
-0.843404 -1.447374 0.54906899
-0.74051297 -1.4707466 0.54751027
-0.67870349 -1.4295526 0.52548039
-0.83728445 -1.3232247 0.54944158
-0.72785991 -1.3311151 0.57100207
-0.68382317 -1.3634549 0.541219
-0.81302845 -1.2963345 0.54075253
-0.75905198 -1.2887881 0.53449422
-0.4331724 -0.8029263 0.52790141
-0.38391981 -0.8130548 0.52815157
-0.4588311 -0.75989497 0.55006576
-0.36315507 -0.75683713 0.54813814
-0.45892102 -0.64953691 0.56766474
-0.37987003 -0.66357213 0.55042583
-0.73851866 -0.52697229 0.54938817
-0.65845847 -0.53674275 0.55052966
-0.42345637 -0.58489776 0.59348756
-0.75728059 -0.47814384 0.53599513
-0.64409518 -0.43372369 0.56037182
-0.72475177 -0.36442241 0.52046061
-0.69379014 -0.37962613 0.51922673
-0.808285 -1.4165409 0.60728467
-0.82388127 -1.3982799 0.60003108
-0.78723437 -1.3488853 0.60252792
-0.44051814 -0.75567979 0.65356928
-0.36660048 -0.7363525 0.65183777
-0.64564925 -0.60985702 0.66309249
-0.51050806 -0.64052486 0.66952986
-0.49587348 -0.67139703 0.66067719
-0.33801904 -0.65974325 0.66016084
-0.74571109 -0.53370267 0.64939523
-0.65408766 -0.59002781 0.61578548
-0.56440598 -0.5461027 0.65034008
-0.44776416 -0.55430585 0.63580674
-0.37856802 -0.5608511 0.64063847
-0.73523879 -0.44702956 0.6581381
-0.65933818 -0.40991315 0.64418656
-0.58234012 -0.46434975 0.65774041
-0.45355979 -0.49039808 0.68508559
-0.66280085 -0.39261389 0.66261715
-0.45616695 -0.71650451 0.7343505
-0.37541097 -0.71627069 0.71924841
-0.64699113 -0.62620974 0.74697149
-0.53700507 -0.63658434 0.74223775
-0.47703329 -0.68343145 0.78120917
-0.34939882 -0.65858567 0.75016075
-0.71959496 -0.56672382 0.74623579
-0.53026778 -0.56508833 0.72892696
-0.34630659 -0.54834217 0.75741374
-0.72475106 -0.45783338 0.73048061
-0.66392076 -0.42058077 0.75298297
-0.55089825 -0.44538528 0.75199854
-0.44015011 -0.44032115 0.75096738
-0.36758244 -0.48698217 0.77112889
-0.56287253 -0.39986306 0.79939443
-1.006323 -0.930655 0.88109118
-0.98757452 -0.92782962 0.87262517
-0.99352622 -0.86941808 0.88845396
-0.65262252 -0.62623632 0.86153173
-0.54786795 -0.66713178 0.85780621
-0.45432615 -0.66585863 0.8459056
-0.37601104 -0.62553364 0.84956634
-0.71036661 -0.53813684 0.83529466
-0.69821823 -0.57998425 0.87152892
-0.34846163 -0.54408824 0.84824163
-0.65776098 -0.44353688 0.85147083
-0.41509923 -0.41864043 0.84357893
-0.38101634 -0.45709684 0.84923971
-0.60604769 -0.39869303 0.81896985
-0.54811007 -0.39448053 0.85086954
-0.45982793 -0.39596415 0.83101958
-0.96762729 -0.92881984 0.946715
-1.0009446 -0.86805004 0.90070772
-0.95319837 -0.84629214 0.95154768
-0.92845684 -0.76824653 0.9798317
-0.89715892 -0.74376249 0.97906566
-0.64586723 -0.63130826 0.95598793
-0.53416681 -0.66810125 0.94239855
-0.44940662 -0.65456957 0.95778608
-0.38847652 -0.62322301 0.99022031
-0.70394421 -0.541655 0.94250172
-0.68873358 -0.57642674 0.94838262
-0.36343652 -0.55215991 0.95024276
-0.65207589 -0.45294851 0.93734318
-0.55391586 -0.41507667 0.95373565
-0.44220588 -0.42153892 0.93306106
-0.37963939 -0.48417684 0.96307999
-0.91706622 -0.81346393 1.0044726
-0.89568985 -0.80466759 1.0084963
-0.92078573 -0.73118585 1.0337297
-0.85956943 -0.73614705 1.0455635
-0.85077119 -0.65501004 1.0447131
-0.78057098 -0.62655514 1.0841296
-0.65006119 -0.62895584 1.060184
-0.56775099 -0.67003626 1.0365717
-0.4555127 -0.66077465 1.0397911
-0.38375363 -0.61206359 1.0390859
-0.69088596 -0.52478725 1.065552
-0.3636744 -0.54455549 1.0365157
-0.63952798 -0.45291275 1.0442857
-0.55577493 -0.41835621 1.0445298
-0.44074333 -0.42712122 1.0524743
-0.37930503 -0.47937465 1.0336696
-0.077367425 -0.12799251 1.0830972
-0.043118108 -0.040795811 1.0782331
-0.062684104 0.00017622788 1.0805871
-0.4800604 -0.70431578 1.1978049
-0.8367402 -0.65655047 1.1387404
-0.76091725 -0.64543259 1.150364
-0.65246612 -0.65088862 1.1533459
-0.5536263 -0.68816674 1.1451675
-0.4667531 -0.68136525 1.1539215
-0.37522703 -0.61888146 1.1454322
-0.81073642 -0.57808322 1.1685351
-0.77688628 -0.56169599 1.1579854
-0.68513608 -0.53991419 1.138551
-0.35642967 -0.55559283 1.152107
-0.63704628 -0.46236151 1.1411235
-0.54322571 -0.43294591 1.1589475
-0.44766685 -0.4320856 1.1457076
-0.37771297 -0.48099014 1.1450416
-0.14316115 -0.21470685 1.1951307
-0.12089107 -0.13568667 1.1647989
-0.075164258 -0.12491498 1.1352636
-0.10632941 -0.084798664 1.1713991
-0.056970216 -0.061922494 1.1334237
-0.068679847 0.0020326003 1.1143013
-0.60280079 -0.70803833 1.2727294
-0.53672576 -0.7145009 1.2575876
-0.47242185 -0.71272737 1.2523484
-0.81486309 -0.64378607 1.2324154
-0.74577355 -0.66496414 1.2650449
-0.67333984 -0.65971303 1.2413676
-0.42552298 -0.69545287 1.2379472
-0.36257488 -0.64174426 1.254503
-0.81924844 -0.58958745 1.2405621
-0.74430662 -0.54399306 1.2600763
-0.69360721 -0.55091506 1.2538817
-0.34674475 -0.54598993 1.2716289
-0.64959639 -0.48007494 1.2541275
-0.54575396 -0.45108181 1.2534478
-0.45192352 -0.44565445 1.2339025
-0.3526201 -0.47888157 1.2649432
-0.27470541 -0.43647316 1.2887362
-0.2458692 -0.34524277 1.2820423
-0.19801041 -0.3170101 1.2534392
-0.22851312 -0.25326678 1.266639
-0.14935826 -0.23468317 1.2606485
-0.14486833 -0.19038101 1.239176
-0.60561311 -0.7056787 1.3044752
-0.55086833 -0.70846516 1.3366715
-0.46161401 -0.70473993 1.3422101
-0.74802357 -0.65481955 1.3464743
-0.6612637 -0.68560261 1.3461165
-0.57980108 -0.69528627 1.3837264
-0.43989095 -0.69207799 1.36045
-0.35968766 -0.65895766 1.3502272
-0.28302699 -0.60807705 1.3720405
-0.76082337 -0.54987133 1.3490779
-0.67976999 -0.50829327 1.3527905
-0.34996891 -0.52743036 1.3479589
-0.2736266 -0.55611044 1.3413926
-0.63112903 -0.47988653 1.3321389
-0.53251141 -0.47117487 1.3372885
-0.46143246 -0.47125965 1.3354775
-0.35547295 -0.46418634 1.3432955
-0.24357475 -0.45089209 1.3371543
-0.31922343 -0.39329091 1.3561625
-0.26491961 -0.34065023 1.3396401
-0.19935836 -0.34733868 1.306572
-0.21542674 -0.25695735 1.3256063
-0.17032401 -0.26146349 1.3108031
-0.54574317 -0.73364407 1.4865322
-0.73049867 -0.63988578 1.402714
-0.64320213 -0.64381409 1.4335034
-0.5582155 -0.66709483 1.4625641
-0.45414937 -0.65507263 1.4440882
-0.36510482 -0.63070554 1.4348066
-0.28766239 -0.61004841 1.4076004
-0.72642213 -0.57719058 1.419364
-0.64375198 -0.54712492 1.4405479
-0.54882801 -0.54159307 1.4607342
-0.45721492 -0.55578744 1.464852
-0.36538219 -0.54756862 1.433607
-0.2848734 -0.5655365 1.4261485
-0.56141341 -0.49480677 1.4038955
-0.31962159 -0.46705404 1.4152584
-0.27859497 -0.46928325 1.4110893
-0.60510373 -0.72000074 1.5782926
-0.54618543 -0.74576384 1.5489854
-0.48703584 -0.72521114 1.5556674
-0.60916376 -0.6487509 1.5741668
-0.59280765 -0.66051143 1.5225772
-0.4758085 -0.65793437 1.5526775
-0.5587576 -0.56732327 1.5597042
-0.48848814 -0.56235343 1.5964772
-0.60346043 -0.72195983 1.6398238
-0.54478961 -0.75131226 1.6515049
-0.47624883 -0.71747506 1.6472648
-0.61773872 -0.64869761 1.6476284
-0.45702279 -0.6413697 1.6473538
-0.6080395 -0.58101285 1.6802794
-0.55795389 -0.54444498 1.6472919
-0.47700715 -0.56823671 1.6597815
-0.6018461 -0.70555496 1.7018152
-0.53174943 -0.73859102 1.7118284
-0.49625504 -0.72094107 1.7104287
-0.60731876 -0.65147853 1.7093091
-0.54203266 -0.6594494 1.7306391
-0.48293504 -0.64495802 1.7184725
-0.53738546 -0.58121449 1.7232575
