# .PCD v0.7 - Point Cloud Data file format
VERSION 0.7
FIELDS x y z
SIZE 4 4 4
TYPE F F F
COUNT 1 1 1
WIDTH 271
HEIGHT 1
VIEWPOINT 0 0 0 1 0 0 0
POINTS 271
DATA ascii
-0.31497106 -0.10420968 -0.00020723516
-0.35735252 -0.068875976 -0.0010283299
-0.021954622 -0.030024802 -0.00079464266
0.0027397717 -0.049815711 -0.0011171551
-0.053698171 0.0051615788 -0.00082453032
-0.37454626 -0.21352188 0.028355429
-0.0438798 -0.2098113 0.030190568
-0.41036686 -0.16604814 0.010316315
-0.36307561 -0.13184379 0.042264525
-0.038916569 -0.16164631 0.02554086
0.0033509973 -0.1721666 0.032496966
-0.40613666 -0.088374451 0.0183469
-0.34482422 -0.039344821 0.050835069
-0.28694481 -0.005320529 0.070288405
-0.11592074 -0.031161914 0.086722113
-0.051088914 -0.057006046 0.059520993
0.0042141569 -0.013742046 0.084122874
-0.40820193 0.038544923 0.059333205
-0.34414944 0.056073692 0.030524679
-0.29355139 0.033952869 0.075899333
-0.10919229 0.032421034 0.053974975
-0.047896441 0.061832409 0.053652912
0.005726432 0.030079465 0.064078353
-0.40238157 -0.025254393 0.16052656
-0.35089278 -0.065742865 0.14746734
-0.2848542 -0.042532042 0.16260152
-0.12811494 -0.019517194 0.16516808
-0.049906623 -0.070175201 0.14625548
-0.36527634 0.047570724 0.14307694
-0.28696024 0.036666103 0.15516235
-0.1222548 0.03345919 0.1670174
-0.043558881 0.062284708 0.13517238
0.0037519697 0.02124694 0.14528847
-0.36744726 -0.063873708 0.24283823
-0.27477244 -0.052748963 0.25565585
-0.13319516 -0.041024279 0.24666521
-0.029236507 -0.054512367 0.26453733
-0.40183395 0.0080732889 0.20245016
-0.36618665 0.062441744 0.24043763
-0.2725476 0.033374265 0.27428976
-0.13041891 0.034016665 0.24716961
-0.037913937 0.064903803 0.26775256
0.0061054016 0.0074857511 0.20254235
-0.30949712 -0.11066884 0.36561078
-0.29199016 -0.10743885 0.38523817
-0.11044069 -0.10700957 0.38076547
-0.0935838 -0.11280671 0.39287379
-0.36309326 -0.064429693 0.34764442
-0.26819015 -0.050876457 0.35187301
-0.13336256 -0.04795485 0.34081388
-0.03215576 -0.045512758 0.35108081
-0.35669863 0.054888833 0.34146243
-0.27592087 0.046577878 0.34414017
-0.12721111 0.050965168 0.35941043
-0.041448284 0.057898737 0.35049364
-0.31866631 -0.11460425 0.43915373
-0.28071102 -0.11370351 0.47348461
-0.12469809 -0.10951467 0.44695148
-0.079548299 -0.10958531 0.44803077
-0.37331316 -0.035605572 0.43885893
-0.25249422 -0.046975154 0.46315458
-0.14594604 -0.057062335 0.45191309
-0.038716927 -0.054998852 0.44121912
-0.3521432 0.050981015 0.46256343
-0.27237421 0.058946412 0.44905725
-0.12983094 0.059665203 0.43894783
-0.052151702 0.055577382 0.46068087
-0.32616979 -0.11084172 0.55181187
-0.27268147 -0.12635885 0.56738716
-0.1391868 -0.11664647 0.55415523
-0.075714841 -0.10863666 0.54579335
-0.36905912 -0.043458469 0.55511564
-0.23959711 -0.043497022 0.54752272
-0.16226591 -0.065824039 0.55291706
-0.033330478 -0.045656271 0.56165206
-0.34448087 0.041402794 0.55221474
-0.25433925 0.039665561 0.54264086
-0.15086734 0.040746368 0.56882459
-0.064285457 0.046062093 0.55166715
-0.32998008 -0.11312236 0.65101236
-0.26180789 -0.12147427 0.63701302
-0.13039729 -0.13307473 0.63112152
-0.072258532 -0.11278027 0.64053303
-0.36591572 -0.065731786 0.63658583
-0.21974945 -0.044914216 0.67569953
-0.17830494 -0.056588069 0.64895809
-0.027495861 -0.043783586 0.65109819
-0.34708729 0.042750563 0.64579564
-0.24708168 0.038926676 0.64700806
-0.13970774 0.055098351 0.64313626
-0.039688211 0.02346161 0.64607412
-0.32696468 -0.1244508 0.7419855
-0.25011402 -0.13045734 0.76027787
-0.15271892 -0.13313535 0.74503833
-0.079091251 -0.12783456 0.7736817
-0.37319821 -0.047283381 0.76454252
-0.22401686 -0.081276 0.71277541
-0.18984401 -0.029389083 0.72098756
-0.032246403 -0.065214381 0.76344758
0.22418842 -0.01862297 0.78388005
-0.34288776 0.056133345 0.74391794
-0.25411579 0.070474789 0.75090134
-0.14829838 0.069242425 0.74335045
-0.074408032 0.065633573 0.75110447
0.22364211 0.012926117 0.78234863
-0.33119234 -0.120707 0.86025161
-0.24207576 -0.15276487 0.8459146
-0.14698963 -0.15195216 0.86206245
-0.076885894 -0.12775287 0.84551573
-0.41530776 -0.012228756 0.85287863
-0.36565098 -0.0607966 0.83465052
-0.032578997 -0.052984387 0.8555916
0.18541771 -0.050808627 0.87014085
0.22852993 -0.021326356 0.82345879
-0.40964854 0.042185161 0.87227321
-0.3290154 0.080716163 0.84486264
-0.25011945 0.094944783 0.84677631
-0.15440938 0.09629827 0.85115373
-0.05232738 0.062380314 0.86051583
0.15449186 0.030466063 0.88435096
0.22123894 0.031626575 0.84002489
-0.35543403 0.11546427 0.8542611
-0.24884723 0.13989028 0.85123116
-0.14877036 0.13206905 0.86042762
-0.056050826 0.11358447 0.85956186
-0.31068605 -0.12039902 0.95242554
-0.25172976 -0.14150622 0.93866605
-0.14916909 -0.14566162 0.92463666
-0.078775465 -0.11313683 0.95112056
-0.36957219 -0.057791926 0.95021057
-0.037380893 -0.055751551 0.95524073
0.070188135 -0.0085151549 0.98601615
0.15637168 -0.021417286 0.94689757
-0.40333143 0.02723293 0.94970375
-0.34101954 0.054323711 0.93019378
-0.26759315 0.095325984 0.93952852
-0.15143749 0.097560033 0.924698
-0.054462612 0.06596332 0.94348121
0.077857286 0.026363989 0.95590967
0.15390307 0.040221989 0.94751579
-0.33417711 0.11520322 0.94902706
-0.25792208 0.13907732 0.94631541
-0.15423562 0.14025547 0.95158243
-0.088170215 0.12506849 0.92674959
-0.31778324 -0.10861423 1.0308253
-0.24521589 -0.12912682 1.0428864
-0.1546137 -0.1295477 1.0404567
-0.088067003 -0.10788675 1.0179622
-0.36674839 -0.053429663 1.0617193
-0.039116297 -0.059905101 1.0422673
0.08571744 -0.027771439 1.0252113
0.12797123 -0.022780053 1.0382714
-0.37404829 0.056397159 1.0645224
-0.029825231 0.054580647 1.061116
0.056603301 0.054676391 1.0520809
0.11732081 0.05548922 1.0600748
-0.31297535 0.11934848 1.044013
-0.2405728 0.13864838 1.0425925
-0.15142991 0.13719179 1.0491987
-0.08314459 0.11221342 1.061569
-0.24432571 -0.12503293 1.1541051
-0.160834 -0.12509221 1.1517276
-0.35308188 -0.055600163 1.1550775
-0.11336856 -0.093157887 1.1195233
-0.051608078 -0.054196224 1.164608
0.075996406 -0.029871209 1.1467191
0.10229003 -0.0067468509 1.1538401
-0.3715747 0.057902742 1.1373088
-0.017517542 0.03763013 1.1429195
0.052355703 0.055388823 1.1534077
0.1131362 0.028407115 1.1358764
-0.32818457 0.10809713 1.1544365
-0.24312124 0.1431869 1.1606793
-0.15580644 0.14226288 1.1729544
-0.080329984 0.11029142 1.145575
-0.31767508 -0.1099632 1.23321
-0.23733792 -0.14120921 1.2453107
-0.14811791 -0.14344804 1.2671407
-0.080735333 -0.12378372 1.2729285
-0.40432936 -0.012201586 1.2827053
-0.37042058 -0.059316974 1.2377931
-0.030706158 -0.052250598 1.2484974
0.027646348 -0.058640353 1.273749
-0.36628875 0.049903095 1.2482749
-0.025243662 0.046793148 1.2559991
0.065425865 0.036514051 1.2449924
-0.30768842 0.1130569 1.2361879
-0.25015995 0.13679205 1.2414129
-0.14568071 0.1366694 1.2318155
-0.44877082 -0.10392372 1.3907259
-0.35438907 -0.12329455 1.3397417
-0.24567853 -0.1452193 1.3452561
-0.12417876 -0.14248723 1.3471358
-0.055047285 -0.126764 1.3490661
-0.52114981 -0.027591204 1.3798656
-0.43346679 -0.063586928 1.3536335
-0.017956175 -0.071959928 1.3173569
0.042622142 -0.067134574 1.3591524
-0.43359011 0.027934939 1.365564
-0.36625302 0.058474157 1.3463526
-0.26851985 0.099864155 1.3997331
-0.043512002 0.046873827 1.3362408
0.043726504 0.052522317 1.3465478
-0.24140836 0.11900937 1.3525153
-0.14118968 0.12494973 1.3512272
-0.62095159 -0.13034265 1.4664749
-0.5383054 -0.1271717 1.4515417
-0.48318845 -0.12099248 1.4654334
-0.33379439 -0.12052579 1.4389282
-0.23814586 -0.13289228 1.4472381
-0.15105027 -0.12739536 1.4522365
-0.065522082 -0.12046145 1.4305881
-0.64120007 -0.098426782 1.4678519
-0.56927633 -0.035639517 1.4320208
-0.43679267 -0.02577957 1.4941797
-0.35671881 -0.069757141 1.4863671
-0.25648728 -0.04173236 1.4881028
-0.14562874 -0.052533578 1.4835997
-0.049034052 -0.068919063 1.4867283
0.04160751 -0.035120018 1.4454887
-0.5095647 0.020466538 1.4280992
-0.43672606 0.028955569 1.459191
-0.35781527 0.042233441 1.4708949
-0.28064981 0.064781912 1.477275
-0.16580231 0.077515006 1.4683884
-0.018725628 0.044686642 1.4747127
0.030188136 0.03713638 1.4418323
-0.22480302 0.10514876 1.418389
-0.15137333 0.10675959 1.4188837
-0.23069935 -0.20262212 1.5945768
-0.18413492 -0.21699113 1.5797037
-0.65061319 -0.15469043 1.5524521
-0.55705267 -0.12880094 1.5499551
-0.24894564 -0.14527409 1.5586581
-0.14912012 -0.14447603 1.5603377
-0.62764281 -0.071779668 1.5609392
-0.57538497 -0.06577377 1.5326637
-0.46332243 -0.039881691 1.5063034
-0.25322142 -0.036002465 1.5444155
-0.15261245 -0.035236962 1.5434102
-0.080121353 -0.059842907 1.5073045
-0.24904425 0.025087303 1.5162888
-0.13987182 0.015119853 1.5135267
-0.08792492 0.032746583 1.5072603
-0.63629794 -0.20986003 1.6763349
-0.22949794 -0.21338826 1.6624398
-0.17205603 -0.20678119 1.6231372
-0.66141123 -0.15498027 1.6581305
-0.59137559 -0.14636943 1.6522269
-0.27333176 -0.14195973 1.6721197
-0.13903685 -0.17582236 1.6592512
-0.63793659 -0.08934997 1.6204281
-0.27539659 -0.056689687 1.6529284
-0.13471745 -0.04798184 1.6461368
-0.22086334 0.0045287767 1.6611241
-0.18855107 0.0055917064 1.6718311
-0.6404078 -0.21977025 1.722868
-0.20583802 -0.20203269 1.7227356
-0.1955553 -0.20545197 1.7142537
-0.70504731 -0.15713097 1.7849102
-0.64263839 -0.15420677 1.7404591
-0.23273678 -0.13932967 1.7705204
-0.15615252 -0.16739056 1.7379496
-0.24618222 -0.04981117 1.7539234
-0.14891455 -0.033123415 1.7387497
-0.21622141 0.0022138353 1.716395
-0.69462377 -0.20306151 1.8281355
-0.7176953 -0.17652856 1.8225863
-0.65764141 -0.17514409 1.8390346
-0.59368038 -0.1825158 1.8334934
-0.64842826 -0.18333374 1.9002959
