# .PCD v0.7 - Point Cloud Data file format
VERSION 0.7
FIELDS x y z
SIZE 4 4 4
TYPE F F F
COUNT 1 1 1
WIDTH 1574
HEIGHT 1
VIEWPOINT 0 0 0 1 0 0 0
POINTS 1574
DATA ascii
-20.037474 247.09964 300.46564
-279.72269 196.00165 1408.3114
-148.34433 127.43291 1072.3137
67.843102 146.40608 447.80139
-372.51846 188.19034 872.09619
-24.023703 375.26242 903.51172
-146.86748 339.46838 1511.8429
-119.94788 347.8071 1479.01
-178.30405 280.642 1565.92
-20.654774 85.826401 330.67511
-124.33644 348.05804 1493.8795
-126.58669 344.5397 1064.2607
37.35025 369.94971 1414.7101
38.73772 238.26675 1501.4056
28.963982 274.82504 1491.7915
-213.23329 241.57047 1273.8361
-177.80365 229.20857 1612.3485
-127.5957 347.84525 1330.4331
-79.245186 355.69183 1337.9683
-79.260262 153.13438 334.12363
-188.84016 339.64484 960.32928
-4.1924624 200.92461 1699.9065
-198.27466 311.40488 1157.868
-71.415787 111.09987 1608.9771
-18.411671 368.80807 994.76306
113.56615 285.99567 1425.5625
-15.651613 252.00676 1714.6794
194.99306 347.1973 1070.0232
-296.54779 269.65564 1364.3906
-13.569586 378.8959 1434.6676
-40.117775 144.42877 783.0351
-73.511063 345.00153 784.22644
-156.13148 244.69856 313.18237
-36.201366 243.4079 675.14026
187.175 350.46133 1007.6071
154.59048 201.86066 832.73651
-79.99939 139.85097 1374.8162
-121.79074 302.70047 746.58679
-249.25961 163.20494 1369.6895
26.836634 184.31009 1393.0216
18.917286 137.00224 820.28979
-144.69177 265.84464 1620.8311
137.23642 238.88052 955.0929
65.823273 310.94217 1246.4448
-55.394051 164.1366 1746.631
-25.292604 102.57369 1066.8601
-231.20514 220.0545 749.00012
-224.79616 205.78772 729.69299
-115.53796 98.718613 377.66559
21.653023 174.67368 1577.1364
154.30585 200.6707 837.87891
-139.80542 360.82574 1399.136
31.834126 161.40527 1164.5342
-209.13589 16.346399 469.44986
-51.90123 219.63907 305.23105
38.05632 247.26688 318.11456
-184.32892 260.58392 356.89767
197.57703 293.1814 1104.3657
-229.80945 334.14685 1339.0222
-240.92175 194.13734 934.0105
-33.105633 398.4465 1175.3813
-53.061119 144.24164 756.12207
-106.4269 -26.775888 644.44507
24.550608 128.56798 136.78806
-87.96785 191.9245 127.15585
43.316486 131.72983 369.16223
-193.04315 178.25394 1167.101
-71.678482 76.645119 610.13519
-289.59161 192.89462 1277.281
-303.59091 259.2457 1354.2506
-220.83478 156.50294 486.48892
-105.89935 264.9838 1727.0673
130.86119 285.92755 1391.0013
-30.835234 233.24565 389.28412
8.6324825 150.28346 1536.1526
22.915394 378.25455 1370.5386
-15.147558 118.84058 559.79681
144.323 359.60733 1067.8342
-159.71933 195.79044 1657.0906
109.71951 217.08376 1012.5945
78.509415 129.2131 791.96277
-212.41663 319.76782 1257.9514
-38.282726 145.82315 503.88757
209.66318 277.13889 1059.8438
-90.529999 110.94483 1086.4143
-17.394606 121.37852 1136.1133
-197.26987 332.79877 1290.5378
-160.69572 345.21927 988.26239
-84.602119 -8.0325279 610.22382
-29.811413 240.12459 112.7478
-145.32281 125.67068 1117.9805
115.06705 178.63387 651.56635
-71.021919 382.42139 1343.5902
-43.910461 140.63788 787.26184
-242.79956 249.26437 937.75537
-92.55426 96.569183 978.55957
107.07262 319.26373 922.61401
7.6633921 140.72325 1643.5999
-7.6604643 249.41954 1605.8428
-326.14508 191.06306 807.8739
-6.0474381 93.340179 326.24213
-353.87653 216.9635 875.04236
-265.68842 290.0824 170.26753
-15.129168 98.37114 162.26889
-159.13589 220.05035 672.95038
18.499317 108.42027 720.12274
-18.51199 96.993744 135.39099
-103.57224 332.76764 1665.5529
21.341074 382.10638 1431.8971
137.07564 255.80168 747.68671
-76.128212 194.33723 93.693771
-259.58777 211.56955 825.13153
8.8792591 275.98029 1657.1936
-44.526562 231.88359 1751.0637
-36.019428 391.00519 1227.4237
-182.69724 263.17346 341.05872
-183.57198 328.65244 187.81158
139.41554 210.50534 733.95105
4.2014675 214.75558 1682.3556
100.46381 314.3743 1127.1536
-52.549137 314.25528 1631.2236
-187.56619 166.25618 1197.6583
38.708431 232.66678 1474.3826
222.44327 299.63525 1037.6914
-243.88013 297.87946 1271.5876
-265.51627 369.38766 247.7005
-61.03656 89.067184 157.12646
-222.9435 196.31158 1024.0638
-229.85345 282.14822 53.244995
46.241253 174.69191 101.54775
-92.899803 215.63248 1739.6991
38.407436 144.86359 1062.6355
-201.55167 151.97481 640.37659
-33.42841 188.1255 1741.2881
161.64267 318.19482 1275.3438
30.753799 139.81085 825.89465
-87.037529 360.22968 1287.1776
101.10044 326.13992 828.3938
-17.297504 249.36475 1718.0624
-201.05135 150.67099 993.19727
-353.76651 241.69754 997.09753
11.275948 71.638611 26.974642
-250.41418 204.82507 782.24304
208.00526 315.62036 821.87427
153.12326 301.06494 1066.6454
-263.24286 213.09784 253.43831
35.422592 304.17352 1530.9358
-150.87399 193.75504 1684.9258
60.717667 175.03348 286.54202
12.408898 143.21655 1629.0597
-22.647043 226.98248 1518.9042
-159.29056 167.03514 1541.1549
0.52197975 180.97122 1684.3823
-8.7541199 364.09024 1025.0261
-205.29395 58.89151 544.82715
-205.65291 116.26325 599.27051
-290.27893 291.56769 1286.1477
173.72726 273.78296 1044.6593
-327.33554 189.49934 829.50146
-221.49658 23.56905 550.71393
-100.65388 -51.080063 545.91919
-190.06253 121.0397 523.82123
-215.50833 243.10286 740.38776
24.586624 323.71716 1540.4393
13.075845 118.41761 176.27496
97.317421 327.45734 933.43219
205.97391 297.58136 900.81158
-14.701062 387.72565 1197.9432
-196.4736 188.22168 1152.2249
44.49678 117.30145 973.85205
-216.00687 309.87784 980.91693
56.450745 177.61227 1313.1416
-59.962173 357.38794 1523.2615
9.1430483 380.86478 1364.3406
218.64969 336.38889 939.69165
-269.28204 192.78452 1258.8231
-206.9528 32.493103 435.2114
53.642059 239.66302 1208.1921
-32.900028 214.96471 1723.1969
-344.90723 203.77541 1018.3019
-174.30981 155.22156 1477.9346
-136.04761 363.42258 948.43268
-127.05548 139.8309 330.26233
-156.84702 338.20764 1491.6841
-46.478539 392.43021 1241.6392
61.920929 125.63111 511.3996
23.680759 149.81754 1325.317
-30.72348 282.91556 1720.0194
33.60276 261.32306 1490.6924
-198.80167 176.58215 1219.912
-257.42917 299.52908 1317.2714
-58.657654 343.25513 1434.3405
-30.130314 131.86403 502.02484
-193.8374 325.93384 272.44324
-103.19153 132.56293 97.040161
-223.51453 345.83432 1279.3267
-31.270212 169.879 1735.958
-272.74991 296.76654 1284.5427
125.01717 201.67694 966.10138
30.998322 180.27843 53.447643
-97.998184 265.82889 1729.8176
9.868495 179.05136 1418.0931
-76.476486 172.8649 661.69928
-24.119669 317.7002 1484.9744
1.307829 134.69997 1284.6095
56.181232 136.75624 423.11658
-250.44778 149.30704 831.73102
-138.71391 132.70142 970.77966
86.390106 239.73764 554.336
-49.41301 260.40042 1749.2354
-134.08585 153.75389 1440.9012
-105.9062 274.64932 1450.0835
132.58064 329.79141 1323.0107
-154.80814 159.91632 473.79999
-10.495929 244.50243 210.98645
56.535622 204.45993 1143.2102
-166.61964 137.37987 1102.3052
-49.698647 226.09756 748.02917
-232.20993 45.94191 488.59753
-46.438408 385.95862 1119.0226
-9.0373659 113.08223 604.10022
33.886246 339.46967 1487.4193
79.043076 242.33304 543.56531
-148.00572 135.81717 497.16644
-383.15198 241.18918 998.04456
-121.23499 300.90042 1616.4827
-87.758026 123.32275 920.82703
158.01297 284.65961 1158.9368
-57.520695 155.4126 1410.5725
19.162107 288.28336 1605.0284
-123.45368 142.36977 1632.8145
-190.95738 334.86209 887.94177
-171.5657 -35.037582 499.02393
-243.49127 111.60695 782.33246
-41.93396 258.28629 747.17621
-137.21014 340.28027 1064.9683
-50.843811 369.7533 1211.0133
-112.7076 357.35632 1129.0205
114.7019 247.72284 1269.6387
54.793884 177.48204 1353.3029
-88.063423 116.8027 1589.4991
-46.040283 348.12225 1610.9011
-123.05446 351.31824 1307.6135
-93.277954 363.37936 992.17358
47.800331 117.5945 443.96158
58.400089 255.46741 541.66772
-130.67891 151.7093 1497.4037
30.711334 281.02206 1480.1318
-25.616327 388.46057 1242.0369
-18.464649 145.69058 1707.525
69.112061 353.06073 878.90118
-166.07587 269.5878 304.37234
-288.40021 225.41159 1015.3164
-336.67841 223.68109 939.08875
-154.94116 329.15897 1558.0201
-154.9043 55.667862 792.52881
-245.99196 163.6299 304.44702
70.952255 234.27303 477.31891
-163.96631 364.76874 1352.8429
-135.55124 129.98248 961.03265
-136.1467 342.84872 1526.8987
-249.49655 245.33847 814.78333
-138.17897 207.86852 1691.3497
-61.871529 376.08972 1390.9713
-238.59206 172.026 285.18222
-187.74185 345.49634 1403.0023
128.57188 256.19308 1346.847
113.41267 179.50735 636.08063
-170.46945 202.4693 1609.5624
25.777092 93.772781 482.37189
129.91647 170.39304 814.83679
138.18115 323.54633 1324.4836
-59.828121 389.02649 1127.8258
-61.532913 211.63791 80.611877
-75.362106 389.53394 1281.4738
-282.67932 339.93359 180.28438
139.83768 191.84094 911.45691
-205.48938 277.22644 1494.2162
-138.99234 318.18591 1647.4104
25.868145 256.97473 394.76697
139.37775 254.28737 752.9939
-45.499882 84.63681 130.50412
75.669907 202.25748 1346.3722
-195.40356 183.15262 1093.1385
-84.368645 284.26428 1740.4156
-140.30597 250.0863 1725.3461
190.33185 252.56915 937.16888
-6.0433135 274.36029 1501.4331
21.216068 258.28278 410.04913
-46.894569 145.16058 783.89575
212.53323 255.28372 896.04498
50.872234 251.99348 1183.3395
-174.32172 109.33096 886.8739
-185.90086 228.79761 1567.6643
-64.88871 148.41891 52.209061
-77.029564 210.05815 136.24594
-39.011131 207.53177 422.59103
54.339111 354.30988 1384.9365
36.945335 165.40324 1347.1074
178.95721 278.48639 830.93402
46.062321 149.18581 918.08936
-62.315926 399.68088 1167.1948
-26.759094 358.14264 1081.2728
4.1384997 306.27597 739.0365
-129.8555 121.0937 921.34467
115.81631 242.3689 1354.4315
-28.456944 378.30081 1431.5757
-91.681541 118.03333 173.50577
-64.505264 356.91583 1567.4159
132.2336 244.74042 972.73779
-46.553989 158.37 616.96985
-209.28577 158.08008 968.99597
-119.11866 359.06924 1434.2192
96.493385 360.58746 1179.4285
118.74306 252.24037 1008.1499
44.971016 293.86676 1276.3337
-18.496885 369.77612 982.2384
-59.022491 152.82794 1703.1324
8.8775396 146.0983 1560.1121
125.17973 180.164 699.63251
-348.94504 263.24924 1040.287
11.463602 97.2463 407.70584
-177.81384 294.71741 1467.2776
-229.18845 204.33737 1003.9052
-60.107525 172.76007 726.35132
-235.46997 269.80182 159.41309
61.225437 320.38492 1252.7832
72.202988 140.55836 482.73593
-176.64532 254.54529 1611.6132
-27.295752 138.78226 1331.8225
-67.726425 57.506443 693.8335
-211.40533 315.17612 1412.3505
-174.24164 184.36325 1492.5262
13.127449 68.517281 -1.2318732
-14.436115 219.01274 1717.4563
-48.153893 110.23548 1570.3331
-281.35715 310.70752 1134.9937
-154.89836 195.93942 420.20651
-52.09362 210.94644 666.32812
-150.87903 214.17691 1634.3125
-88.115799 54.583759 756.80603
13.286479 288.76697 1624.1891
40.376331 108.52682 657.78821
-51.012215 86.387863 293.80676
-254.1478 128.81055 439.0097
-113.35838 87.355118 510.47012
-13.766918 388.12274 1170.1736
-205.49045 213.87172 708.0979
-237.81436 303.35526 1339.1914
42.538315 274.98444 600.56555
-80.77951 210.48112 690.69189
-16.657837 243.62123 472.98737
-22.457993 110.45906 477.79166
-82.858116 -7.866766 574.9527
-150.06224 351.63892 1244.3793
-217.68079 265.65683 1034.8842
-252.80463 188.9091 1453.0387
-60.440895 238.21735 1737.1061
-255.3605 226.8997 848.01184
-357.0426 222.91194 1083.3231
-144.80974 168.79796 1521.7584
198.42465 320.61142 1079.4351
-264.07904 252.78384 1094.5599
13.171645 270.09091 1645.0144
-118.45654 34.352989 397.37033
-31.262981 52.69503 10.162605
-134.46384 386.15491 1213.8777
17.2728 100.1312 569.06714
-188.00787 311.90533 172.53732
-79.809151 19.8067 588.90613
-215.57866 243.18343 1186.1398
-47.43354 141.9453 733.39429
-136.586 364.55588 1380.9733
-68.336769 299.16278 1491.6268
65.726364 319.81058 1060.1095
32.419075 226.40552 1465.0078
-146.14124 101.55442 322.51334
-50.339203 249.25516 755.79327
-177.96281 346.06757 1238.4023
-275.02689 192.49736 359.71786
16.002131 5.9792528 3.0335369
-5.5089827 373.18091 861.83331
-36.165497 358.8313 809.19708
-225.55255 205.44772 1020.6208
-97.410477 166.82657 1478.5569
-210.71251 320.31503 869.54468
-189.04108 148.80699 1017.9011
-166.26781 271.24915 1642.8007
-258.26581 240.32306 389.38541
-146.96413 337.95706 1085.3608
-50.507072 194.40735 564.06818
-226.8448 40.24894 466.3707
-269.10168 269.44321 349.44879
-249.06999 338.55838 305.17102
22.240427 219.82019 1610.9165
-334.00458 278.96259 1154.7419
57.37093 335.38687 789.57654
33.124813 252.42635 1553.0913
-97.535675 12.712328 710.8595
-298.52386 212.91904 1357.4329
-214.5202 307.13635 1331.0853
23.781153 202.90451 1605.4653
-328.48987 232.60326 1222.1947
-181.91705 213.46651 1573.0101
4.0315886 135.3661 1300.2614
-10.59026 243.83372 200.93047
-237.64694 363.97815 202.91614
-156.46249 249.50543 1690.9752
-242.07808 105.23738 741.23083
-52.464397 114.33479 959.41809
-20.11338 128.82831 910.53278
-143.35077 318.20157 1630.2378
-87.806404 308.70361 1602.51
-26.670082 131.36328 1625.9359
-66.745796 274.46976 1504.1204
118.79197 307.9642 918.80518
-112.01118 116.52887 1323.2197
-134.53195 249.84186 1526.4802
-44.65435 348.42188 1607.5554
217.06609 338.15347 1013.6842
-264.37479 301.90915 1222.1129
-43.794182 114.39607 801.7243
-198.23312 -15.076015 524.63104
-57.138313 355.61105 1575.3497
-193.08319 266.09137 1524.1946
187.88821 301.01892 1076.9769
12.078723 141.97501 1631.8658
-63.546852 213.87222 92.467255
23.395073 113.58682 13.601461
-65.227188 94.325829 797.93622
9.0942345 371.18036 931.00525
-258.5087 201.21445 1268.0758
-180.51413 346.35461 916.32141
-160.36533 380.04657 1257.7119
39.018219 354.93372 1393.295
-30.612885 79.916931 -4.2063951
-50.542046 256.62772 1751.2913
-39.018402 344.64261 1620.1321
57.624916 169.24171 270.85767
-37.390701 365.57861 836.0011
-35.690468 202.08737 1743.7805
-189.44377 314.16232 1134.662
-102.45587 376.52203 1358.7222
-187.93431 273.13925 1534.3247
-107.36082 353.39438 802.60114
-188.42017 215.16759 1524.1064
-96.529251 320.57385 1693.0642
-356.09302 231.57364 1030.183
-74.060303 197.45441 1738.4062
-110.64796 320.52048 1438.8051
-79.601128 374.37 868.36548
42.757397 358.48547 993.72858
-114.27422 144.7034 1647.1755
-202.65973 104.72797 853.61768
-231.69255 225.48062 425.64581
-15.926296 219.71921 1509.0933
-146.67421 149.05658 1576.9534
-45.845261 120.89656 1243.4026
84.555359 218.25439 1385.1726
4.3301468 102.70433 658.15961
36.275269 226.73724 1512.1694
-157.8094 276.33459 204.16948
-58.945068 191.45245 347.62976
23.075485 317.96918 756.40698
-86.057922 394.0191 1194.3507
-265.87271 188.86166 1285.7052
-368.92401 216.44965 935.83856
-236.95871 262.35696 1469.9611
19.408625 110.79886 362.83969
-197.31006 242.29123 1508.5535
-196.43623 289.97614 774.39587
-65.571793 97.775078 266.83994
-115.41649 -54.062344 564.01196
-163.94702 179.94965 1600.4152
68.599571 341.96143 1240.1411
218.13855 328.38977 846.6889
-146.31415 234.66571 1604.5983
-149.06154 231.63448 1617.1627
103.726 334.67126 1126.4011
-149.74312 240.19235 1627.844
-11.648157 126.07047 929.86243
-168.81375 336.44366 998.78876
14.488613 53.736652 -0.76597214
-48.267784 232.48964 261.21405
-303.38873 305.37924 1143.7007
-48.020508 362.2594 1275.3783
-126.61894 113.18075 539.21082
-147.36133 225.23621 1652.4673
-12.409404 248.81134 298.48563
-39.770626 118.84122 1157.135
-102.35866 134.28329 1705.4254
-276.97766 274.40057 1418.8311
-82.710655 386.24133 1306.5122
0.36163783 144.27785 849.29578
-54.064102 181.31946 647.82031
-104.44443 -46.528419 503.54553
3.9342368 360.75534 1479.1439
-70.11129 214.72858 124.77699
117.40838 318.57828 859.44379
-208.52589 127.14526 315.815
-160.79202 292.8764 755.88159
150.92369 303.81012 1052.7676
-128.38387 295.06949 740.39691
-164.38156 185.8053 1613.2737
-93.349335 174.30927 167.98322
-49.834469 115.37954 49.348694
-25.786343 134.69684 552.02417
104.36024 248.95834 1417.0099
-69.845123 344.00549 1418.7241
-5.4944344 135.74951 1182.5183
-57.939667 144.61548 688.3689
-204.99152 298.05185 1035.3436
76.341736 201.231 389.9317
63.356285 337.26083 1028.7362
-129.56912 112.97088 1323.4594
-255.34454 219.33438 409.75049
-276.99893 355.81915 244.9467
-29.030472 288.8963 1681.1887
-161.35176 306.24423 1602.1552
-221.96426 160.85757 482.27661
48.780739 281.41006 1290.1151
-163.08047 377.8147 1278.4514
-27.198524 121.51818 473.41568
51.888096 239.79442 1189.876
-90.180542 361.51053 1213.8629
-279.65289 236.35005 1439.7164
-283.49686 236.58743 1434.3665
34.478481 249.05136 1550.3507
-102.03009 6.8895731 704.01483
-159.50772 328.06311 1535.5601
-76.548492 91.771645 1007.7802
40.650543 106.72736 635.47736
-158.41843 261.08127 203.01393
-45.988068 113.70802 1589.0631
115.69095 166.78535 908.62311
-35.354679 259.46552 1534.114
-109.74292 109.53799 424.73737
178.64211 257.0123 867.57935
-280.68643 205.94122 307.93616
57.606293 354.0705 1379.3569
-259.78714 172.10001 1378.2136
8.4814301 112.34216 762.42084
39.829235 256.43494 1537.2129
-209.39871 357.13522 254.83765
-149.92188 204.11983 1598.3752
-106.34952 122.85298 898.83014
129.04955 329.79849 1335.2178
-257.67053 197.56013 826.68115
-2.523895 187.42572 1693.8351
194.81125 291.2948 1028.8118
-148.4303 375.35504 1316.4236
-118.39287 46.115723 779.24872
-274.00397 300.05704 327.13663
-87.935112 106.49242 1066.0685
87.328888 341.76782 841.95667
12.785916 221.8432 1656.8434
-46.985252 227.64168 296.42648
-189.45486 161.79114 1432.7734
26.427469 75.962502 11.640571
54.841393 118.97842 472.29486
-144.21631 340.78589 1513.1312
-167.90875 349.97934 1412.0062
-8.1963921 358.85657 1280.355
-181.86258 332.66956 1347.1031
-122.69128 380.24994 1312.9211
136.8414 347.48328 1059.291
-249.74585 110.79362 447.66333
-300.82953 309.50204 222.67749
134.74644 282.73242 909.16284
-18.130917 33.997742 2.5935249
122.38845 193.69713 678.37311
-164.09738 360.42523 1370.4358
6.1073723 166.01196 1384.7375
83.334068 220.48877 469.31982
-318.31223 241.77969 1281.5839
-12.745587 244.38707 209.55936
97.021469 245.39156 600.47144
-104.62335 113.56099 1289.1199
44.74704 108.62547 478.15192
39.998405 156.4769 1108.1616
-67.717926 312.45837 1694.6313
-8.7027206 237.11815 113.1608
5.5865283 166.63974 1667.3635
-46.858009 397.68768 1212.4835
-138.79025 272.47452 1714.4659
-157.25806 -8.4818516 668.11798
-3.153723 311.87445 1642.3386
-44.77293 229.32056 1751.5505
-25.565151 156.51787 1385.2034
127.9639 239.95053 985.10352
-13.489429 381.61353 1390.9941
-111.45571 341.56931 1594.6975
-243.11072 233.80345 915.27167
88.197342 325.39334 1178.802
-232.64856 70.561852 666.07983
-190.47955 367.69934 1302.0338
-317.5307 207.79013 992.34387
-23.292255 292.89764 1631.3281
82.845711 209.87093 454.54294
-156.36636 161.54338 1617.4335
-252.15396 254.229 1166.5393
189.8577 327.47498 982.15741
-289.07562 228.86856 1425.7363
34.265961 315.89679 1288.3685
45.011902 356.6145 824.24329
-88.141083 147.96182 1734.7314
-56.3465 136.22476 1662.6797
-72.8526 100.35892 1042.9346
-226.39709 51.338547 664.8042
-287.49567 306.71741 1097.7183
-5.9775233 270.2681 1692.5697
-269.94638 213.41168 1201.3777
32.764877 358.24878 1467.6943
-114.29392 100.45406 473.26166
-88.074989 314.85184 1692.3862
66.902267 201.70383 299.30991
50.965919 160.55898 207.2359
-19.282328 166.3924 1676.9448
129.14966 233.02808 695.23553
-111.58952 344.9314 1371.9655
-9.2625256 139.32884 856.26282
20.618111 199.864 1617.7383
-52.323227 313.89362 1668.9747
-333.71579 163.72949 831.45886
-98.128159 158.56155 58.627422
-9.1024303 84.37088 50.595413
-14.093657 245.1682 496.1369
-355.50165 190.91403 1007.4081
44.08186 370.21411 1260.9016
-63.702339 118.53775 636.03717
63.975559 160.42482 1043.9919
-129.13814 156.38239 1579.9628
-226.52417 217.59573 432.50012
-266.74814 173.1779 401.6691
-89.238922 21.096861 485.20135
135.64029 352.80063 1242.7668
33.303276 343.9353 1249.5327
-93.501122 45.562759 465.69919
-6.4772139 197.01202 1507.4117
3.4099693 323.23132 1605.401
16.119432 207.80905 1643.0658
-198.69586 330.30582 1430.6162
-26.196894 267.99207 1589.8682
-278.16315 194.7478 333.00436
-97.930573 356.2135 1546.6212
140.03827 277.89203 877.61023
7.8486843 187.17029 1666.791
-309.48117 304.47983 1105.5448
227.95308 281.48383 855.48364
-114.6053 370.60782 942.56226
102.90309 349.61865 1137.8621
11.400399 353.69836 1347.1475
-86.88253 230.32655 695.02759
-180.89922 374.02469 1251.7494
-43.460445 287.23969 1489.0278
-182.00362 17.176697 698.66016
-38.088982 360.27209 1118.5972
-307.68347 301.39905 1165.3953
-373.28809 269.08289 1021.5835
-50.06599 211.69716 630.9165
-259.80902 302.2858 1220.2405
-129.72755 128.3028 1373.2327
-137.79912 137.54616 1402.4288
13.944389 296.58188 699.58966
-176.6228 140.95215 1022.4545
-187.0062 228.64024 1487.0166
-43.329937 391.34662 1249.842
-138.77397 348.97794 1292.7635
6.7409916 330.67255 1575.322
102.57823 305.80154 1450.0066
14.422031 345.40027 1497.0813
-132.29984 168.91347 1449.2156
-209.84158 196.95555 448.13696
-212.04193 -8.5067196 513.95221
-118.22562 129.47667 1619.0144
-126.01114 126.56384 459.13782
-171.21802 121.61683 1247.9303
-239.74255 329.91592 114.14979
-179.1853 208.32747 1464.0625
-60.019951 392.44379 1252.9929
-95.764679 185.71011 633.93243
-291.3226 180.66362 844.52319
85.533791 331.03366 809.86755
-273.05328 304.87274 1112.037
-18.681515 118.52202 1125.1852
117.23915 250.25917 683.09253
15.830965 168.17741 1620.7767
21.360636 91.911926 464.39203
-21.572395 389.45248 1205.4187
-135.47719 223.83453 1731.5436
-185.65108 -29.267694 513.96924
-120.76286 371.23486 1366.6465
-75.997055 143.51772 355.31091
-171.34612 300.45105 1570.6421
-26.456224 385.53195 1310.5887
-59.999023 89.187637 120.94595
-81.641891 168.9935 1746.5062
-54.372986 127.28537 882.65637
134.6225 285.6293 901.34216
-303.04181 306.78275 1111.7336
-349.66748 252.41098 1125.146
47.282513 365.2074 847.54736
-215.14464 229.24216 1200.3608
-186.46909 282.87036 1474.0492
-40.671402 372.3739 1198.354
61.614235 116.69454 678.71521
-214.95256 230.133 1236.0581
-148.30447 -4.5779395 412.64755
-167.57587 143.88521 1475.8604
-74.312576 177.34166 289.97739
-45.473022 149.50482 1382.1893
147.99741 305.11871 1335.1189
-86.342728 374.38492 895.81024
-127.12868 166.83488 1718.434
-58.861946 108.04561 359.98401
-131.58554 307.44418 1687.0651
-113.11137 205.83762 1747.7679
45.855385 254.0782 400.75101
-40.605804 240.0826 136.84914
-69.477448 194.44583 267.42944
-89.827705 49.416706 506.26788
228.21201 310.07321 961.33105
-0.11967695 135.26326 1250.2672
-113.1709 42.074268 407.55484
-232.50473 86.035919 401.3584
-67.686279 109.54015 1093.3243
76.368164 329.69269 1217.2672
94.876282 175.43187 521.24994
-83.827721 73.998199 545.26788
-33.755428 267.40741 1733.9258
-203.83984 321.30383 1230.2505
-53.66679 147.91162 708.25854
-166.13441 292.45862 186.77472
-78.163101 337.62048 1663.4032
-43.615723 137.47661 716.17517
-16.06053 165.8846 1716.2599
-96.525223 157.34103 1461.1086
-241.98703 362.60126 272.40781
109.29384 303.68466 790.82471
-180.5629 255.43292 171.7767
-239.73936 196.05054 1299.1511
-168.22305 315.57001 1535.7057
-241.06784 236.89175 407.54398
-230.93614 68.992165 583.49585
61.683372 341.71399 805.8291
28.686298 151.33267 1222.6154
-216.55502 137.13356 659.10114
-94.773094 268.39499 1729.8408
-65.118294 159.73456 424.70157
-322.33047 223.05223 1184.5835
97.569626 359.19086 1189.666
-33.772224 384.59595 1336.9927
-125.52646 121.86935 1066.9088
-204.54187 -11.824861 574.57477
-5.4139271 351.93018 1423.7852
-73.698326 159.80743 1490.7089
-73.747452 194.26303 238.22528
42.807678 125.78424 1021.1332
50.706211 231.51796 1459.9915
-238.29593 341.789 294.1998
107.03155 354.90189 1232.1433
-182.29944 49.444595 387.48334
-151.67429 247.57806 299.82996
-178.73814 330.66074 815.20166
-236.00864 177.38766 935.83618
-111.60887 389.60583 1170.0262
-219.25323 151.85083 1299.3413
-214.33023 122.65166 881.25378
-71.87117 116.09669 955.71765
-58.74688 93.736176 188.17007
-128.40839 196.81439 1730.7942
26.935612 188.4592 1417.7915
-43.578873 230.27319 304.67371
-153.39578 144.16641 1482.7389
-261.31448 298.89532 82.991714
109.28818 315.6871 930.29572
-40.484444 123.05644 791.07843
106.17361 166.01678 625.2926
-181.63132 -35.208195 546.9563
125.88637 272.64886 1177.6996
111.77184 342.03992 1354.1511
-227.22893 92.551399 621.42432
-121.88039 121.56171 1343.8015
9.735816 240.40601 194.72455
59.880432 175.77402 268.14081
-9.4023943 280.12479 1692.8201
-14.712043 249.73097 321.189
-6.2569318 101.00171 485.34338
-86.143204 285.97748 1440.3905
-179.26279 245.9547 1490.0826
-35.543823 251.02675 726.59094
136.24969 323.76962 1330.4274
-61.345036 216.42404 253.34892
143.76097 262.21979 1275.1543
31.56765 346.62222 1302.0015
-272.58545 365.86359 269.4389
-200.27798 225.8797 192.33105
60.66996 124.40564 486.37601
-23.914417 388.258 1259.6387
28.259401 331.16901 1514.8491
104.6066 352.50381 1279.4235
-232.37869 95.865578 654.28021
-45.90456 135.87285 1645.3064
3.2624078 238.14513 1641.2338
-92.316559 42.365795 469.99893
21.247252 335.56293 1105.1936
-38.739174 99.298752 1051.0269
194.6272 317.25916 962.88495
28.801374 127.49545 259.93817
82.287796 145.3528 878.36334
-354.3421 248.08527 1106.498
-54.708717 357.77011 1526.5913
-237.29601 284.73047 358.82715
-191.51767 178.8075 663.23419
-127.14141 295.53214 1683.4015
-47.019939 193.59335 771.67828
-181.24748 148.5507 1075.2317
57.17363 337.14886 1041.3385
-242.48192 284.13626 57.986023
-211.93295 295.55118 332.8447
-83.269287 127.91233 263.68512
-21.979916 323.85779 1656.1183
-63.294838 389.9389 1130.7192
-288.18347 300.55823 184.78429
-192.37842 -20.532309 607.00824
142.92665 259.78452 919.69867
39.668213 281.97653 1479.3043
59.22998 250.73581 529.62378
-200.41177 6.3348017 473.95752
-91.578987 353.52222 1497.4436
-219.75499 120.96647 864.91565
-48.291187 356.4534 1529.1868
-112.24648 389.44995 1170.3119
-173.71642 286.8822 1579.1443
-175.68239 28.108498 399.746
-147.25906 137.04868 494.59396
-183.86108 208.58743 431.58276
-120.94971 344.3775 1364.4045
-41.232353 154.65053 521.74683
-129.37123 271.44376 1502.7817
-265.50644 299.00067 1160.613
-95.210197 375.94009 1368.9922
-80.132637 123.32207 1209.226
202.12357 334.43967 976.72705
-320.32529 234.3907 1271.944
10.711493 259.77939 438.54126
2.8020427 113.97757 580.93939
-272.09915 288.81723 1095.0833
-217.99786 308.63528 1284.0125
137.07919 281.11694 1104.9943
-343.69107 207.46254 863.61749
10.693804 116.87779 136.81912
-2.6335795 178.18066 1406.8113
29.94714 194.25568 1452.6512
30.044182 283.1694 631.74316
71.739647 151.71715 954.22278
-101.36282 349.42645 1046.4642
161.59824 276.98706 1202.5781
-88.198257 146.08096 1732.8704
61.215805 302.10309 1255.5028
-284.44324 191.35825 1273.1071
-14.58941 386.54227 1277.6282
-50.48634 203.77968 759.93488
134.01543 271.20309 934.81567
103.46094 267.13245 1032.0713
-119.31322 127.08448 439.71481
-239.8429 100.08267 394.37549
81.951096 350.55328 1244.9451
46.410599 109.17282 506.63922
7.8876619 99.822304 397.11746
-129.19865 169.32211 1525.3303
147.3665 239.94112 917.33862
17.099594 68.960167 23.146395
51.8396 166.79066 1107.9117
-289.61002 337.5997 274.49515
-136.79022 235.93639 1519.7354
99.510368 235.14719 1388.3314
-25.661526 388.44177 1235.6334
49.197449 240.91023 326.66666
-234.14847 182.06721 1300.0697
-81.352127 290.53903 1735.207
-6.7866173 116.40326 1084.7007
-54.47366 376.92963 902.61389
-34.950481 239.84392 237.36746
53.696152 227.58685 1142.4165
-232.58374 98.483688 504.82623
20.937859 100.67061 569.29138
26.594833 349.62192 1442.67
-47.228943 169.38449 581.6377
-99.382957 115.39882 89.511993
109.95656 150.41235 762.92267
-129.52321 325.93381 1409.4348
12.072647 166.69405 1380.6938
224.49359 335.70352 916.69788
92.86142 253.26103 1059.6729
129.34016 257.58792 1345.3232
-286.8277 286.59296 1059.1748
-110.67471 382.91614 1151.96
19.029003 136.73714 35.606159
145.85286 288.38879 1044.9335
-83.935471 256.7262 721.68311
-52.0112 185.86444 407.0134
148.5174 336.38889 1278.9202
-235.33202 208.0177 436.39066
-114.41614 179.5289 1508.6724
142.1201 317.88074 1033.8621
-186.37801 261.67621 1551.1006
-253.28073 186.50186 1311.9237
-245.17607 158.17822 460.4375
-186.26968 135.40906 947.52771
15.478331 122.53674 63.12442
-195.09189 243.84053 1518.137
-326.98755 230.11707 1214.155
-50.973633 89.997635 228.05042
-267.79218 204.54712 270.54877
-76.721344 56.817699 578.75391
-46.624363 185.17636 775.51312
-44.157108 199.88486 535.39984
-121.99347 356.87579 1444.4337
-258.7916 190.9557 795.09406
-78.688026 393.78348 1203.6633
-26.750734 119.76752 1.7534734
-138.98596 351.42273 997.7644
-278.51868 207.14163 298.21213
-172.96143 281.69482 1590.3389
-114.07042 241.08168 1750.4176
-283.9183 193.76617 1383.0511
-138.96727 322.99164 1624.3005
-160.67682 267.65259 288.60931
178.62471 293.30341 1184.2162
-20.941576 249.15692 1723.1959
74.421555 292.8287 711.73279
36.84296 241.6738 1477.4255
-349.63977 200.58755 807.4928
-202.56235 317.81146 986.69189
-230.75777 225.11603 1013.6127
-90.78553 45.66618 492.05377
-141.01826 170.15234 419.86627
-191.49103 280.62378 1508.7583
-204.77692 -7.2858658 607.25049
-46.58152 195.93791 409.797
-299.9483 300.56555 277.233
-203.3391 326.3548 285.15179
-303.84567 232.33359 1025.7456
-82.604614 394.05225 1189.6438
56.477291 268.80573 1281.7822
-48.348228 228.60266 282.45612
-183.36259 107.96085 882.27319
-80.922974 324.00366 1691.1733
102.9908 167.58759 953.64252
-60.423782 237.4888 1737.286
-277.50531 180.92419 842.72351
25.946976 200.11414 1490.3188
34.287846 198.21042 1456.9298
-44.513229 296.69376 1720.875
143.73935 299.90817 1349.2391
-262.74295 300.66125 1172.7654
-159.29434 80.803223 336.97333
5.3401365 231.377 1679.4603
-127.50951 202.82138 1527.4019
17.659195 305.5647 1588.5568
-216.46861 252.23946 748.57715
124.13223 303.48904 1087.6936
-134.08894 124.07497 314.47906
-109.56934 284.13525 1496.1123
-44.45533 389.5932 1274.3384
58.928211 186.53215 1367.6003
-51.096466 392.33179 1254.3269
106.86219 314.22552 1441.8696
-58.174454 356.84708 1503.728
-115.61429 116.98557 1083.8522
-82.115135 41.481323 739.58264
54.331497 263.90314 1483.9978
-341.37561 276.82434 1115.7076
-86.285019 130.26035 1349.1787
107.773 262.22919 687.93646
-27.098146 226.99396 1717.0378
-143.51122 215.25897 1669.3807
-90.026382 118.85748 191.00447
73.367851 181.76248 344.0683
92.023285 194.08566 1049.6844
-129.57558 120.32757 1103.5688
-68.196808 294.16589 1731.4014
-242.6516 280.24463 1237.3691
-371.47021 185.34451 860.63153
60.546387 324.92587 1468.2793
10.190429 318.93091 1589.6919
-180.85217 332.64578 235.31137
179.34534 349.73645 1158.6293
-209.8381 192.45253 1220.178
-250.17996 178.43466 1316.0343
-232.91846 65.265511 437.64621
-102.57443 127.3287 1189.8339
151.5723 258.10568 825.89441
-147.70352 205.86926 386.62439
-146.18018 -51.313599 531.1001
28.757694 377.02695 1352.7397
-107.25284 243.69907 680.95703
-48.95562 160.1741 621.1272
-255.81877 256.1134 1131.8943
-35.920761 135.31247 828.58289
48.169029 140.37167 358.41638
-28.137602 181.9194 37.127426
-177.62741 140.37567 1393.7869
-124.63971 373.41464 1352.1853
-152.86952 234.19977 337.43198
-43.158951 139.01428 694.07111
14.283305 319.46399 1571.3843
-123.55468 341.71628 797.58777
-203.41293 5.4694967 641.3338
-229.29294 305.45428 945.73157
70.679504 344.62531 819.55334
-161.95789 292.42877 216.01808
-153.73665 152.3392 1575.2212
-33.568798 123.91947 1596.0498
58.111458 267.1467 572.17639
-232.21213 280.00388 63.422829
-32.739651 370.38519 985.43243
-44.412319 129.03453 424.53833
-35.988049 225.60098 546.63129
-36.004517 373.33008 1447.8589
-220.04704 221.48787 1052.4368
-320.92084 296.09592 1085.9047
153.93008 206.99423 865.93744
-49.959377 355.9176 1491.0026
65.360909 231.57758 367.51651
-338.66333 194.2587 849.49841
-68.432533 361.35193 1017.355
8.3784227 193.11575 1424.4575
-31.632093 137.08905 514.4422
-40.478756 153.34912 608.14636
181.88737 308.03741 831.57996
-33.424328 241.03979 615.42163
-25.440964 145.9431 1352.5166
-13.452328 237.66895 1496.7781
-64.415497 142.6272 1416.9617
-222.38438 221.46559 429.9548
-108.38185 145.08667 1677.9808
13.541413 232.16745 1485.2783
-143.96866 129.15451 943.63745
-177.74442 170.37943 630.28064
-189.39896 370.22107 1231.9629
-23.15321 131.64464 565.89929
-182.2881 246.49951 1581.7483
-225.04144 21.191456 514.92432
-269.58994 364.8168 224.90706
-119.38574 236.45074 1533.7853
-146.63307 260.16092 1652.3112
-222.86086 95.589539 371.92325
-78.176888 343.43021 1637.6646
-176.31277 -3.5946631 663.89563
-157.63312 163.44511 257.98578
-18.215996 246.5128 386.77191
106.67354 185.20343 582.24475
-281.19318 326.05908 122.45572
-143.97427 143.29144 1646.0618
-360.35284 224.77707 971.87207
-182.26637 74.190697 817.80194
-104.83376 391.66052 1213.2062
59.385513 351.92432 823.81049
-135.04535 201.10229 1723.5793
-107.68469 113.90888 1088.9784
135.89006 225.11044 713.6712
-211.82547 95.323471 527.80762
-116.42127 180.1501 1514.1201
-240.68675 104.0778 391.28125
-165.84369 289.15921 1614.8862
33.322323 258.48169 440.23328
177.36064 290.62195 1190.3291
-154.9431 67.180161 817.01465
-198.33798 166.91174 252.97186
34.054417 262.5647 1549.8242
-198.11067 184.79472 237.60991
23.463684 380.32443 1330.5385
-124.24973 198.62297 1711.564
-236.6528 264.95529 965.44611
-148.87456 195.88574 1691.7073
5.5510979 91.871658 443.05267
-73.002869 142.70476 1421.3392
-44.7356 91.274811 1013.0128
183.88091 352.29871 1050.662
-43.173729 330.85397 792.14734
19.944227 135.6633 27.648167
-334.88116 222.80699 927.30188
-199.62793 4.223465 476.73291
-6.9249349 91.764854 331.75443
-206.41037 150.29637 951.70197
-174.90099 304.6618 1541.6818
76.520828 235.09459 1286.4011
135.31195 320.9743 1343.0178
-21.381062 387.76505 1238.8262
-139.76552 83.810989 847.71039
-238.11636 198.90048 752.46606
-8.7109556 355.94308 1491.3798
-198.80502 -10.467829 534.96405
-235.70157 62.016232 459.2049
-188.50839 348.27225 1384.9834
-206.14363 111.34798 593.48853
-23.845814 122.46915 1283.5728
-84.486885 124.28327 880.3689
-41.482937 168.91818 1480.949
-307.5459 284.54266 1004.8884
217.94241 288.78265 978.8736
120.36462 178.14722 679.58984
-55.913506 185.36647 607.33685
-126.31013 -49.519802 607.14923
-35.302208 84.133469 351.76169
-230.46373 200.48842 995.06378
-79.310661 157.11763 1711.4053
-2.4558818 187.09602 1422.937
-126.16161 196.57925 1495.5986
80.416931 132.35979 825.94977
-268.18909 351.64664 193.66702
-22.511986 201.36575 1728.9552
-179.53648 227.40524 1594.3779
-282.70236 336.8508 145.17549
17.508705 217.03548 1460.327
-217.28386 83.265587 525.51349
-47.200035 362.49478 1105.0928
201.95554 277.51901 972.28021
-166.00949 208.80899 1644.3938
121.39349 183.40237 679.87323
-70.134529 98.535866 1035.5463
45.080906 118.01861 747.55798
60.043777 332.16031 1253.7817
2.3899474 110.69495 131.83542
37.872101 377.05069 1288.1545
-7.1447315 249.00984 1509.3247
-190.73001 210.96312 1489.5341
-325.2861 187.60432 1009.3325
-107.10832 91.941711 416.86523
-272.50726 272.78638 1434.7725
-91.971581 362.29364 1156.5457
-45.169918 89.778122 1007.1376
-157.61378 230.25607 366.50116
-10.869107 386.30817 1280.0061
-274.14001 392.80414 213.48679
90.532158 198.77003 486.15057
-150.29836 351.34811 828.2879
-302.6976 218.31082 1348.6685
-84.271049 164.4158 1532.2277
-147.04416 329.08517 1585.8695
24.37653 117.44604 338.83374
6.5952282 259.91107 421.95938
40.491463 264.38193 1532.9248
-72.959084 353.91638 1048.9766
-201.91704 183.24852 467.94397
-53.856468 183.0719 763.10461
-37.29908 286.75952 1596.5829
-225.2621 49.279675 620.96448
17.243305 170.47136 1611.0168
-296.61804 308.00677 195.74321
-286.75949 317.67734 294.83563
-206.37018 150.24258 962.0874
147.29706 212.8353 903.64258
-166.23273 155.32932 1423.8286
-225.03694 304.96405 843.65674
-106.68617 251.81204 1728.4875
-20.213913 322.17194 1656.5499
-93.800949 108.80363 974.59204
-65.546448 343.81229 781.40308
1.3749009 245.30925 1603.6455
-262.88208 154.15382 404.42267
-41.163643 204.57825 527.3645
152.89235 330.11365 1285.9347
-81.094772 134.95058 1667.7394
-15.445421 253.0921 361.14459
-10.536837 243.10037 189.88058
-42.306477 255.92664 1721.7582
-39.215317 89.729919 354.767
-193.59514 233.07491 185.25966
-4.7615666 360.83328 1042.9265
32.995155 344.45282 1483.1484
-134.35335 124.71949 1059.4115
-141.82274 291.13348 1691.7233
-38.552223 68.293747 15.891582
-54.944477 192.98151 1732.9304
-52.714611 273.24033 1723.3552
143.88963 261.60367 906.2149
-39.649197 202.46246 1746.9556
-81.78698 279.82892 1480.5687
-217.15318 296.88782 1322.4058
60.509033 245.61357 453.84467
-5.2201967 382.25821 1419.5476
-0.59036422 209.25922 1613.3401
-21.034727 130.53006 1227.3632
6.71276 125.20343 954.69849
-337.01559 225.50015 927.24719
83.352936 131.70799 691.3761
-62.307098 384.5228 1117.3954
40.013004 152.15085 1289.2695
-210.36349 121.98145 514.60095
-257.83063 303.60361 1194.3485
84.991196 228.03993 1408.1547
-14.453751 347.48395 1155.5692
-76.358734 141.31633 1384.8896
114.53877 240.16534 1346.9475
9.4647083 68.353668 -1.4870125
-215.06512 273.24777 1034.9565
-60.565861 123.96283 1196.5991
-204.9032 178.57233 1448.3678
111.14964 184.48987 615.63428
28.886396 144.55786 850.53064
40.845711 127.80963 372.42114
-229.72955 192.55685 979.03101
175.04782 307.94229 1226.5657
-181.96921 291.33701 1529.9495
-86.730698 333.23874 766.89734
1.4771694 173.56311 1413.0796
-185.71794 6.492424 435.40576
232.78523 276.15799 871.15796
-279.9585 288.34357 1074.6631
224.0145 258.68732 901.48206
-144.85091 317.23907 1627.6863
-56.237583 227.9917 89.901581
-259.2644 208.36093 255.90999
107.04993 247.41219 1314.7526
-167.24939 265.56781 1487.8165
-366.58139 205.20125 1013.9703
-91.989845 -12.99687 493.65121
-339.68756 201.58087 1069.7903
-21.602884 238.55637 467.1846
26.874115 191.68027 1540.4268
18.912695 235.88156 182.16125
-209.68979 290.94385 1024.5203
78.777855 351.87988 1329.9685
191.01495 364.93375 1034.7429
-159.00308 126.60079 522.19751
-15.215395 103.23164 1051.984
-287.66333 164.19807 885.60547
-121.34805 149.09483 366.41077
-179.32489 102.05714 538.95111
-60.160099 372.49567 1410.0557
-71.533501 201.26978 707.13123
206.31128 327.73099 1043.4949
-32.237583 382.40158 1355.756
-244.513 245.5159 923.68219
-123.40886 114.14102 473.11447
-242.31265 106.09354 735.43079
-186.29309 326.03485 1393.1794
-164.3551 100.58532 873.80792
-34.242813 213.39981 500.34375
-138.81589 247.61908 1727.9338
75.767853 173.25996 378.32751
-122.6599 388.6759 1203.7296
-185.76088 220.25917 417.99188
-24.53385 247.57346 318.00317
-258.67947 229.34409 831.81592
178.37427 318.97226 1214.0509
-320.05154 205.71533 976.61365
-153.89241 265.57812 1691.6812
-127.90186 355.94147 1225.5344
-38.655285 131.44196 783.76257
-179.83397 200.08534 440.02448
-31.527391 376.1022 898.75891
27.40197 263.21167 1575.5588
67.412193 141.77547 876.81171
66.264427 305.71063 1086.0532
-117.89015 354.47278 1274.7598
-99.901665 147.33102 1730.9662
-235.66321 62.174416 450.1424
-182.83986 149.44185 1079.0046
3.4776611 273.68616 1672.1709
-44.745502 122.01746 1239.5236
-76.907616 41.877129 582.40936
-64.294487 342.24609 1645.8345
-304.32513 296.61984 243.47079
-223.06955 270.47449 1474.8289
18.027828 219.28189 1500.0068
-242.96747 216.73901 1269.1973
-6.1598458 378.39172 1442.7953
-306.08917 217.39767 1046.7719
-131.16119 274.74258 1596.9979
-59.17223 340.43112 1442.5809
56.943672 177.18944 232.41153
-226.55545 215.49338 1286.405
-189.74812 220.99611 1542.7418
-117.21406 366.50854 874.97192
-184.81976 359.12402 1354.2344
-126.06065 260.64969 1477.3351
-312.14474 301.99219 1118.8114
37.089279 369.8176 1224.8158
222.0273 294.9621 845.00867
-25.550812 172.29541 1451.1819
-367.03592 196.48819 923.64252
-79.87561 364.5072 1161.2019
56.186378 267.7999 1222.267
-66.042412 108.38611 1615.6628
13.121439 206.86101 1654.922
-143.15578 222.1283 1594.8958
87.198975 346.80536 1354.9194
-143.13611 131.39676 956.96741
-77.774391 227.53317 1742.3774
-13.701379 205.72406 46.901432
-164.92549 174.88269 1567.3711
229.79285 275.82312 922.4975
-318.65121 234.3618 1280.5612
-134.90814 212.65826 1562.8013
-114.21448 137.7066 1704.4618
220.81189 297.16016 1041.905
-310.66901 278.26691 1278.4191
107.13358 228.75818 1037.8671
-163.60144 368.18561 1337.0845
-248.12027 373.20828 260.27386
-46.778938 188.87537 437.2254
-94.110481 311.95737 1471.0361
12.734345 1.1702399 9.2648487
-40.450813 152.79965 1732.9893
-202.91136 302.9917 1149.9583
229.67535 311.15103 846.14185
112.343 241.75975 1026.8245
-147.94885 274.93195 1696.1687
22.309448 171.48409 1526.4637
-134.86031 246.21053 1492.5999
-221.11011 288.83829 64.417572
9.6460981 383.98511 1391.6411
-149.30634 47.153965 778.05273
-195.37973 360.97937 1327.9346
-60.538086 168.69559 711.87915
-163.67262 213.47455 1497.7625
202.14853 281.40756 1069.8247
-134.61275 117.17249 1338.7156
-146.38008 139.325 287.67401
110.58273 320.39395 1423.1075
-14.697337 336.78214 1608.9448
-47.613098 123.11813 1202.5087
51.658241 207.38441 1413.5779
35.136597 171.18245 53.758633
47.697777 142.35439 1039.3442
-19.115908 369.7655 963.69104
-284.84323 310.51276 1135.3201
-54.30022 191.24887 586.27637
-196.62679 -20.735634 501.80518
-281.21622 309.24167 1119.4935
-108.09744 337.39838 1629.1387
-39.492466 92.322044 17.130779
-232.519 78.430115 615.84796
-87.058067 252.37814 709.69641
-267.3494 224.47449 1458.5271
-323.86523 272.5181 1226.2106
-72.956192 181.112 287.08426
-73.003555 49.374332 650.35254
53.851471 254.45882 1214.8647
-159.52386 138.06337 1189.652
-117.04817 140.89925 385.85263
-45.102589 363.66461 1167.5256
219.33733 296.50751 1053.4835
-69.033424 363.81863 1009.1283
-219.50443 349.16531 1278.208
-25.166592 352.04871 1555.6761
24.224609 285.90381 1492.134
-245.31799 259.99344 1215.8728
-92.728531 338.73267 776.87866
-4.1974802 141.59204 854.44977
-231.75159 46.45591 468.07721
-148.22803 111.37174 522.75031
3.1141462 262.21887 1679.5581
-223.89114 209.42389 1471.4932
-325.05072 227.56656 1217.0762
-31.931406 289.66455 754.60754
-73.488121 362.39465 1452.0952
18.059032 383.72495 1307.2754
-323.35236 168.45348 932.16492
-92.565773 370.14966 1401.9915
-221.36214 213.1037 1042.1229
118.09151 251.67854 687.33459
138.7668 272.77148 791.02051
-218.33412 4.8268237 523.92999
-227.28313 287.06259 975.15283
4.7199774 351.71271 1427.3282
2.4228497 344.3187 1453.6912
-64.169746 98.275604 973.30371
-188.66922 129.20111 1262.1742
-158.21887 365.78751 1353.5946
-66.274628 313.97394 1608.517
12.288028 99.055206 547.60492
-107.74022 349.68561 1482.6805
-245.03177 91.920197 445.38928
66.4701 217.89804 338.58594
-208.12198 86.575439 548.83118
-87.390228 189.83778 160.27063
89.929817 351.41202 1238.6807
-326.11407 203.39525 952.88776
-201.13544 169.29977 484.37668
191.75566 282.66299 967.34979
23.428858 223.01425 103.73648
-91.20665 130.26683 1642.6432
82.125343 138.11668 560.8396
-204.77649 333.62939 162.3521
15.747849 189.49788 51.754795
-11.663665 113.45262 778.45007
9.9910612 117.22382 108.94147
52.81921 117.54592 719.09338
-203.46518 -13.447111 574.83734
-49.765091 365.62775 1159.6293
-112.28963 319.93582 1686.5593
221.91968 336.99887 1047.6976
51.006344 267.61859 1189.6271
100.97454 330.17398 888.43994
-171.30786 312.36975 1453.0775
-305.84375 284.78867 1277.6029
179.08713 273.44849 1053.116
-61.515797 362.36731 1289.4298
-70.131943 133.00203 376.7525
-64.803711 170.80937 693.36432
-40.382534 315.32028 1489.1993
-226.24481 305.33405 1422.137
-11.691736 265.24985 1505.2194
-114.17441 134.63818 1483.9393
-50.66964 216.00705 660.14612
-76.495819 364.01514 1441.5845
171.64729 287.62082 826.37512
-229.7766 284.27893 970.06976
56.231499 303.44241 1266.7668
-117.32637 48.263805 394.06842
-32.06163 243.12663 618.87476
81.141472 220.91827 443.83008
210.59303 316.40778 826.34442
-13.151978 255.56851 558.27734
-148.16014 219.80963 667.18506
-156.2787 338.3378 1123.9857
176.72577 294.1304 1029.7295
-302.15271 290.15817 1267.8962
-93.937462 267.11465 1730.2898
57.171391 186.42349 1248.8088
88.005402 339.67606 890.3147
-111.17429 117.17387 411.30994
-194.94037 191.69875 230.70891
-237.75929 280.06583 1450.7228
-134.67082 183.27252 1581.3887
-101.76379 388.06317 1276.1669
141.05469 212.47569 939.19647
-100.42953 203.86998 1751.9896
-87.266632 394.19885 1183.0988
68.016296 205.12253 1114.5446
-137.74261 362.7944 1389.5371
-133.51726 207.01291 1549.6591
-97.977318 131.31032 1359.3557
-13.201072 382.96323 1373.8265
96.528801 257.0332 1253.4257
-48.99559 206.6922 735.79175
-118.02346 111.18153 1257.3588
226.91156 308.57983 965.50403
-192.55673 102.27013 552.90033
-227.74171 54.171825 575.91058
130.4873 172.89566 775.9129
-146.90701 234.59657 291.14407
195.76222 303.26263 1066.8201
-12.78906 292.22803 728.52429
-322.81396 212.84193 1145.2631
-93.651604 115.8912 1585.9133
-17.030912 389.15192 1192.9655
-19.85309 156.78548 1380.55
-186.35997 276.81448 153.6629
130.08531 274.00745 1380.6733
-170.83217 377.98355 1258.5505
76.487267 158.35954 938.14404
-55.030617 186.85956 762.14185
-54.225113 160.66788 642.87787
-179.63696 275.66223 1566.6824
-57.468887 368.36865 1195.9761
-208.26364 277.02869 359.96774
-317.88748 244.95842 1010.615
-75.95237 361.64166 1111.5569
-258.2319 142.86653 426.50131
-267.01196 251.7567 203.8284
-169.68282 234.05547 1652.7153
1.0092995 140.35428 1322.8101
-309.43991 204.26935 1140.8403
-48.822361 118.76156 1288.309
-140.96271 281.08017 1705.4941
-138.8918 362.48297 1390.0342
-134.81125 349.03607 1464.0342
27.041012 144.88988 835.34711
-176.48247 16.087086 700.75983
-23.789318 296.97781 1638.7686
-16.217953 366.93497 1005.567
-84.239136 387.5141 1294.6658
50.007328 119.47705 749.66541
35.386551 144.74139 126.7047
-177.81381 115.61739 1326.2622
-55.171036 381.58554 1357.8285
-66.018822 118.47562 55.215797
84.61731 245.79895 571.26898
-227.07718 157.95834 1407.6094
-6.3317499 242.96246 187.22461
-144.92508 125.80969 924.19196
90.663696 321.069 1004.5114
21.925247 126.04237 25.203876
-62.109306 359.73636 818.21039
-47.489643 85.074463 319.27087
63.030163 300.9855 736.27582
0.46877381 108.62644 219.42891
-84.626785 322.28366 1665.9001
-63.557991 366.04712 1257.9744
-241.25301 207.79366 923.87958
-266.14291 206.7673 1455.7594
30.243097 146.95587 1289.1321
34.106926 277.04651 1548.0931
63.506111 322.88336 1058.2585
33.76828 259.41257 489.98975
37.356407 257.99554 426.05417
-234.76801 130.83353 338.56009
-59.239735 139.31076 1360.1285
60.715763 275.88416 1274.3132
-91.863556 189.02554 86.655975
-45.534698 214.06459 361.68954
4.7649522 328.32257 1590.7764
43.447411 240.96143 307.66309
82.115097 155.90994 954.32928
-170.28223 378.11389 1218.7092
50.45694 233.6427 1173.3221
62.094349 225.97694 1244.9978
-3.4247174 372.25085 858.57349
7.5853796 139.25037 911.43066
-8.8670225 19.56702 7.3686743
3.8030519 86.635307 -2.1934295
135.9684 196.35355 937.44775
76.841026 133.25952 592.47363
-60.275562 156.21773 750.09711
52.022427 233.00099 1463.4186
-232.00644 72.960976 423.76782
201.93181 330.81128 948.04688
47.321045 163.4594 1266.0892
-234.32593 304.43164 1329.3296
28.637413 133.24197 149.8521
-334.75293 278.49139 1151.4075
-142.40306 360.79321 870.0932
113.38651 257.15768 1241.0387
138.09689 363.23373 1202.6178
71.504631 126.03625 760.75769
38.768154 345.75867 1324.3359
-202.74358 324.68756 869.62891
31.255594 205.21422 1519.5326
204.92841 278.68561 971.62207
-129.03717 174.37103 1720.2466
-139.72229 254.39871 1470.1377
117.14766 160.33986 876.62878
-167.27243 327.76501 1494.403
-118.67558 168.18018 1693.9187
-261.94324 203.09875 265.93674
-1.0822406 212.89923 1479.4146
-141.69717 245.45523 1596.2529
102.36996 144.35614 819.6593
-111.27014 351.77112 1497.9463
-257.58307 167.91341 806.79004
-75.439613 289.12054 1511.5206
-92.288513 288.8952 1735.553
-13.95374 352.74847 1177.879
29.724907 237.21068 1562.6094
-199.00632 211.80484 1477.8754
-167.4668 187.23897 1584.4148
-160.73907 286.01276 232.11131
-322.21198 162.72226 890.46674
-172.85719 196.32048 1487.4042
176.91776 337.53558 1017.7076
-171.14145 181.48784 459.82166
-136.83842 216.67563 1727.6045
-59.992935 276.89175 1539.7271
-200.405 8.3597288 656.00928
-226.1387 306.80661 1417.5308
-299.17572 235.26642 800.51282
-94.11142 25.162373 471.78088
75.493378 304.20746 1064.1252
151.58937 255.00595 853.91028
-153.21742 130.52449 1130.0554
67.278694 238.82227 504.64459
-211.28438 140.05028 640.73218
-138.04636 332.55499 794.47778
-46.799595 103.88143 777.79492
-14.368519 256.07343 566.17706
57.069054 281.5546 637.42694
-56.887482 193.02066 693.23315
-204.74179 146.16653 637.93909
