# .PCD v0.7 - Point Cloud Data file format
VERSION 0.7
FIELDS x y z
SIZE 4 4 4
TYPE F F F
COUNT 1 1 1
WIDTH 1612
HEIGHT 1
VIEWPOINT 0 0 0 1 0 0 0
POINTS 1612
DATA ascii
26.294201 14.089216 3.8283451
26.569941 17.260296 3.8364625
24.782913 14.193535 3.9183738
26.460386 14.726015 3.9233024
29.6698 15.345774 3.9461365
25.342602 17.476543 3.917721
23.611298 17.572954 3.9821441
11.783391 0.96502888 4.0077181
25.585064 18.34285 4.0078874
9.6308584 0.61304748 4.1340256
24.021479 14.441615 4.1169515
26.035854 14.569429 4.1702166
23.533392 14.937674 4.1928592
22.452711 15.335933 4.1761303
25.519127 17.348858 4.1267033
12.331041 2.7773457 4.2347035
23.537991 14.529808 4.2106485
23.678776 14.556 4.2298307
26.43791 14.731247 4.2060313
22.385609 15.16504 4.2873349
11.996284 1.0675002 4.3526683
13.513179 1.856882 4.3345909
13.593066 4.7059975 4.3310356
12.785105 5.148376 4.3429074
22.301945 14.530606 4.3002629
24.295506 15.63046 4.3749619
25.795393 18.288694 4.3986578
8.4775915 5.0795979 4.4468832
10.788922 1.5474821 4.5082817
8.3040514 2.4251678 4.5761456
9.1216393 3.845351 4.5481629
10.758396 4.3701868 4.571547
9.833642 1.2156094 4.6203127
7.2585554 5.2531939 4.6533575
12.660123 1.4044235 4.7013459
8.833786 1.6935222 4.7484198
8.1398525 2.5733688 4.704412
9.7320042 4.5295391 4.7417326
28.234642 17.406153 4.7386703
10.249062 4.2353363 4.8657045
7.5519867 4.7136059 4.8905277
27.183102 13.222599 4.8883696
23.838291 18.277681 4.827229
14.316945 2.5214543 4.9714093
14.313889 3.5327153 4.9917035
10.039513 3.8687768 4.9329433
10.081904 4.15275 4.9938278
23.116909 17.785883 4.9811168
7.3465624 5.2210717 5.053484
26.110283 13.118502 5.0913191
23.425459 18.165482 5.0900702
9.186965 4.2477379 5.1170964
23.56916 13.724026 5.1243844
21.95911 14.399342 5.1318913
8.170063 1.1613579 5.206749
7.6411896 3.1621463 5.2779408
8.6113129 3.2145305 5.2513227
9.7000771 5.6021442 5.2652535
22.071354 15.752665 5.2222843
28.53698 17.169497 5.2366033
12.842146 1.4825803 5.3913946
7.5720291 3.5354648 5.3919678
13.556107 4.984736 5.3977098
10.72817 5.7472353 5.3977561
21.92885 14.135196 5.3681684
25.498896 18.166727 5.4131575
8.952034 2.1421752 5.504693
8.5937386 2.8750741 5.5292025
9.0976524 3.5270414 5.5426211
14.31682 4.6145577 5.5988894
23.857498 13.504143 5.5810151
9.4851589 1.7979026 5.6827803
14.463779 2.9042935 5.6095467
7.3786278 4.5561061 5.6153026
14.02823 4.7855682 5.6354666
7.9530802 5.3479795 5.636816
25.929226 18.062737 5.6022334
8.8755608 3.2459593 5.8142939
14.517916 3.3807573 5.8558593
7.5615001 3.9997303 5.8798323
9.8112469 1.3202263 5.918087
12.154335 5.77631 5.9778023
23.708206 18.136444 5.9648123
7.9488435 5.2527747 6.0767503
26.887432 13.280766 6.0388002
28.399702 14.435289 6.0473967
8.0135231 2.4665902 6.1286368
28.537996 16.968849 6.1553593
23.19455 17.996447 6.1507893
25.16593 13.137013 6.2847643
21.533127 15.077564 6.3218246
28.430737 16.974686 6.3673429
11.41875 0.80983406 6.4590502
26.898195 13.392096 6.4518299
22.40789 17.423855 6.4422302
14.603709 4.2580547 6.5809174
27.022749 13.503187 6.5109181
28.575281 14.668282 6.5794945
28.74972 15.212547 6.5872917
28.659182 15.694063 6.5980382
23.214329 17.957102 6.5784264
28.471897 14.631768 6.7564044
11.689583 0.89215338 6.9307566
13.492323 1.8071976 6.9163122
28.549273 15.682514 6.9113469
8.3415737 1.9403521 7.0032859
7.7813635 4.0592527 7.0457287
7.7058163 4.3937497 7.0582576
12.450188 5.7987123 7.026473
21.616821 16.426886 7.0426207
26.291653 17.675592 7.0695262
14.814505 3.0508227 7.1084738
11.582527 5.8915796 7.1184678
21.997589 13.580394 7.1770325
13.658402 1.9357309 7.2328787
14.727194 4.3442006 7.2235708
24.962929 13.119133 7.27948
26.365139 13.176822 7.2422071
26.776958 17.486088 7.3220267
25.520914 17.789206 7.3148346
8.0004196 3.5092962 7.4982061
22.521385 17.681608 7.5289106
26.035706 17.633541 7.5293427
10.228408 5.7111592 7.6676159
24.792336 13.117428 7.665556
13.31608 5.6126022 7.7287874
21.487135 16.607462 7.7417374
11.479607 5.8875475 7.8161149
13.721462 1.9773662 7.9310923
9.1467428 5.3417444 7.9899635
21.145746 13.588554 7.9985704
20.847935 14.367239 7.9894824
22.705961 17.687132 7.9294209
12.920047 1.4593552 8.0548048
20.809238 14.732644 8.0434141
8.3810101 2.7162893 8.1727209
10.949423 0.84430766 8.284235
25.004875 13.087311 8.2732611
20.755268 14.472522 8.2143679
9.4546051 5.3967495 8.3303642
26.853065 13.827099 8.3924351
11.080434 0.88313425 8.4975843
14.681101 2.7360265 8.4728422
12.107712 5.9843192 8.447854
12.486384 5.9524488 8.5748119
25.994707 13.219574 8.562748
24.047047 17.797501 8.5811119
10.341688 5.6911287 8.6715117
25.383583 13.055233 8.6271896
8.4871626 2.7974205 8.775156
8.3773842 3.1678791 8.7994146
26.744375 13.827806 8.7688065
12.629705 5.9363999 8.8298292
21.785797 17.347502 8.9391975
26.328409 17.243366 9.0819521
15.152164 3.1026437 9.2057056
21.058809 16.694641 9.2256927
20.505869 13.364968 9.3930197
15.05448 5.0975456 9.4088535
10.367037 5.5432987 9.4167767
11.663422 5.9370279 9.4345856
26.57889 17.112041 9.4499254
9.9086294 0.96532452 9.5114088
23.573593 13.130326 9.5769854
20.330557 13.371466 9.5457916
11.563507 1.0479969 9.6079912
11.424145 5.9076319 9.6999712
12.221264 6.0171914 9.6038694
22.391737 13.190429 9.8233528
11.563257 1.0685123 9.9147692
13.955316 5.6516938 9.9070215
25.375721 17.270908 9.9205503
14.240999 5.5758867 10.003272
23.670212 13.108023 10.144047
10.455744 5.4081793 10.225553
10.321629 5.3220387 10.369978
12.700539 6.0729852 10.314974
19.875158 14.266689 10.351077
26.854153 14.237272 10.385983
27.453777 14.9477 10.346269
9.1418648 4.8195958 10.438514
14.777763 5.4592538 10.426746
14.603546 5.5132847 10.441422
14.056633 5.6827888 10.486429
25.495583 17.105808 10.581588
9.8985758 5.0959988 10.610481
15.130461 5.3857179 10.734175
25.441435 13.336843 10.848539
19.932987 15.869143 10.888077
13.957722 5.7642431 10.972301
19.606838 13.693118 10.910533
19.72397 15.620119 11.026798
8.5671692 4.4345498 11.132339
11.479603 5.6262035 11.192421
13.618191 5.881855 11.116687
21.903341 13.121774 11.1105
10.825898 1.0405506 11.287066
13.923121 5.8019023 11.269093
19.735624 15.82723 11.222643
10.519656 5.2008853 11.325828
22.793785 13.057013 11.408591
25.324085 13.423587 11.47501
23.763363 17.292006 11.49031
26.93099 14.521101 11.504417
25.440655 16.920185 11.523081
9.3525391 2.0697262 11.659571
15.602165 4.3013639 11.774739
25.54649 13.685186 11.759485
26.983755 14.741677 11.753427
10.711229 5.1670122 11.858236
23.807364 17.214878 11.830302
11.706912 5.5347695 12.147788
10.805783 5.1132846 12.295241
11.701205 5.5311699 12.352818
14.281816 5.697473 12.360374
20.184889 13.039555 12.429641
18.804869 13.318354 12.464651
22.821232 17.33029 12.407434
12.397074 1.3843197 12.507563
23.554523 17.136782 12.50062
12.703915 6.0315166 12.684808
23.36047 12.899679 12.662654
18.66283 14.155103 12.659106
24.823792 16.839962 12.603174
15.067554 5.44207 12.718594
10.232613 4.7901363 12.881598
24.316116 13.438495 13.08084
25.71073 15.889198 13.03445
10.568217 1.503426 13.159548
19.570751 12.984567 13.117125
18.755247 15.889174 13.170858
14.004448 2.0048792 13.22874
19.539452 12.966889 13.288181
25.417763 14.293684 13.27176
9.1446638 4.2404203 13.484694
18.58795 12.980344 13.451216
18.193794 14.525936 13.486252
18.203583 14.767485 13.436829
25.290108 16.011448 13.526892
22.545139 17.145338 13.672016
15.05308 5.460485 13.757605
21.52586 12.848607 13.7397
24.571672 13.903861 13.745574
12.891329 1.4703058 13.847246
20.620495 17.18586 13.878305
22.300859 17.177475 13.857172
21.786076 12.821291 13.903724
9.43857 3.1978235 14.041435
15.877495 3.4054291 14.209904
12.558723 5.9457326 14.298463
9.6099386 2.8147674 14.341951
20.919018 17.296715 14.300407
24.740261 14.477896 14.430449
17.749317 15.290335 14.642561
23.283909 16.769577 14.645693
19.278172 16.94478 14.664813
20.646551 17.274256 14.746575
17.477312 14.617712 14.811003
9.6049232 4.4668684 14.949761
19.066935 12.804326 14.91683
17.510164 13.167886 14.933594
24.101139 16.12928 14.9802
24.372311 14.654333 15.021438
18.424675 16.793077 15.08144
20.918676 17.323332 15.076352
12.318001 1.3837893 15.223208
15.163577 2.7098413 15.371692
17.175371 14.667173 15.367893
15.846631 3.284775 15.40976
24.065172 14.56923 15.424475
17.718119 16.131485 15.466108
23.143356 16.644686 15.428438
15.636223 3.087667 15.651939
11.101774 5.2174139 15.746852
11.693215 5.5113955 15.754746
10.07411 4.6998577 15.838237
17.553106 16.181517 15.841682
23.073084 16.563148 15.915915
14.678375 2.2557349 16.028429
17.918751 12.716039 16.069376
23.338436 14.347437 16.02467
10.503857 2.1489768 16.176857
9.885355 4.6036468 16.178776
20.991014 12.605925 16.141712
16.855934 13.26002 16.14534
22.476257 13.748348 16.19058
16.929007 15.106694 16.118401
20.488403 17.229237 16.121214
17.55999 16.613659 16.226091
18.013046 16.786753 16.202827
14.626007 5.6669397 16.345922
21.749268 13.265226 16.365067
16.695223 14.000828 16.349573
23.150549 15.561861 16.310186
11.384391 1.3751113 16.485308
10.580183 4.9524322 16.439861
19.933001 12.611288 16.421711
22.08202 13.615274 16.487602
16.70274 13.056179 16.589355
16.591782 14.437904 16.545048
9.7022409 3.8030961 16.623739
22.10631 13.718796 16.618959
22.725176 14.213125 16.60083
17.972036 16.817142 16.626692
19.194851 17.117321 16.730152
20.448149 17.091747 16.832705
19.848631 12.556348 16.961548
22.122972 16.556578 17.064865
18.2579 16.904934 17.010571
16.462578 14.374866 17.146358
17.668716 12.59912 17.203611
22.561655 15.053339 17.249916
19.432524 17.199738 17.207788
10.062403 3.023026 17.301102
16.789394 15.565394 17.333576
12.889423 1.4912941 17.49052
16.132471 3.3553562 17.583418
18.248848 12.526201 17.581434
17.661964 16.742643 17.513361
15.468611 5.3968329 17.694616
12.030056 5.6573744 17.631275
18.337883 12.514175 17.637682
9.728549 4.5190544 17.775007
14.095763 5.9211211 17.764645
9.986661 3.5842829 17.863083
19.562008 12.436763 17.887268
16.668859 12.916053 17.891304
16.632687 13.202738 17.849333
10.090404 3.2953205 17.94434
16.024841 4.6099744 17.9995
17.308363 12.484369 17.993065
14.747672 5.6849189 18.048622
17.951515 16.771254 18.097004
14.405484 1.8524985 18.112911
20.416859 12.369523 18.19405
22.405781 15.942895 18.198296
20.36731 17.049702 18.136848
16.213369 3.5133822 18.205696
16.748798 12.455352 18.262569
16.687956 13.158994 18.262232
16.165487 4.6508932 18.3358
13.420061 6.200542 18.374573
9.9632921 4.0530734 18.560823
22.501673 15.960217 18.544821
22.481134 16.089214 18.583363
11.598507 1.5913944 18.694025
12.392284 5.8234391 18.686684
19.540394 12.310575 18.642576
21.325716 12.829234 18.634422
19.035517 12.288163 18.863289
16.914019 12.353262 18.84207
14.965976 2.2281599 18.990166
15.362165 2.5390713 18.944378
20.464251 17.062511 18.914701
13.012865 1.5237838 19.062492
22.798439 15.35317 19.055923
16.840845 4.069489 19.151918
22.030991 16.575848 19.195601
18.916988 16.932047 19.131756
10.152618 3.8256078 19.241016
13.553881 6.3267555 19.278566
16.712933 14.049175 19.253725
13.832007 6.2758546 19.308937
20.154524 12.192086 19.33568
10.464658 2.9277844 19.434559
16.825558 12.255262 19.441046
17.891483 12.226967 19.425425
11.446063 1.8988814 19.525703
18.918304 12.176574 19.548168
22.351543 13.476204 19.549603
17.851772 16.599533 19.547792
15.680656 6.0805044 19.659079
14.320129 6.3834405 19.698685
20.719658 17.023613 19.676937
12.210421 1.4052241 19.738804
10.188574 3.9712071 19.705063
21.750511 16.694736 19.708111
18.834297 16.856579 19.754005
11.807487 1.6161854 19.879147
22.222935 13.242142 19.812502
22.738289 16.361549 19.978281
22.56155 16.426041 19.943699
23.263786 14.583306 20.012005
23.046471 15.542774 20.075272
18.084145 16.616274 20.04278
18.136417 12.093838 20.176025
17.558636 16.378443 20.100933
21.974066 16.645605 20.108025
16.959688 12.878482 20.278587
22.771172 13.556453 20.379255
23.077797 15.887425 20.36949
14.606026 1.8813148 20.435658
15.092321 6.6198769 20.424482
23.292866 14.955417 20.428797
17.142313 6.2785101 20.57568
16.122515 6.4976702 20.590878
11.556218 2.1428757 20.684113
17.849363 3.9517236 20.663584
18.796116 12.001391 20.612665
18.085938 4.1558571 20.729725
18.138401 5.1695328 20.925404
19.727589 11.932446 20.990746
19.297428 16.877142 20.902142
11.775879 5.492836 21.029064
17.252234 15.163758 21.026787
18.035872 16.479593 21.09383
23.437206 13.880096 21.211498
17.264967 15.081686 21.283627
23.405445 15.607787 21.264612
22.48156 16.527218 21.218935
12.049537 2.1504557 21.347916
17.192806 3.268492 21.331076
14.976297 6.9920382 21.319624
18.317589 11.88742 21.374153
16.95746 14.283085 21.330677
18.010424 16.445877 21.315796
10.987956 3.5165691 21.425501
12.026678 5.5959802 21.445332
17.868832 11.880379 21.493628
11.04483 3.629729 21.548677
11.777779 5.4748435 21.547394
18.583397 5.4930172 21.526745
12.936014 6.0211468 21.549931
17.344398 11.884971 21.556868
17.437237 3.3627441 21.657375
11.632629 5.3987451 21.756638
23.227234 16.274654 21.715027
17.068901 13.694426 21.848347
18.248217 16.462065 21.830524
17.799582 3.5493939 21.972607
18.980675 4.653429 21.919262
11.174012 5.2238226 21.969545
17.04949 12.565941 22.010376
13.143253 1.7669723 22.106905
12.560516 5.8223467 22.144287
18.942465 6.5294533 22.101889
18.067717 6.9067769 22.12574
15.329796 2.1922698 22.218727
19.995205 16.942448 22.236506
17.986359 11.732743 22.352634
13.741369 6.3665595 22.496967
11.683479 4.2439814 22.665617
12.582928 5.8338823 22.627934
11.447971 5.3602715 22.798344
11.479164 5.4132233 22.726315
19.621323 6.00176 22.866032
21.005644 11.735523 22.821281
22.619251 12.526421 22.855621
12.566236 2.9155717 23.099556
19.642109 4.6471081 23.04208
14.391258 6.6519103 23.079641
16.757463 7.7017221 23.03767
21.179844 17.063837 23.004757
17.210644 12.804736 23.171318
16.845898 2.5016108 23.2225
18.803802 3.963608 23.216305
11.758739 5.4440842 23.254618
14.770539 6.8233118 23.28611
17.066008 11.602257 23.28882
24.030392 15.839941 23.212126
22.390255 16.673256 23.222382
12.758209 5.9695921 23.351271
17.947021 7.6395802 23.374504
17.990299 16.009876 23.393951
20.040445 6.6332583 23.419756
21.50272 11.665308 23.488827
18.086895 16.227877 23.414871
16.07605 7.4291878 23.560404
18.772234 11.510612 23.585705
23.372988 12.930155 23.541206
14.538559 2.1850333 23.65033
18.202536 7.7127647 23.60541
17.330055 13.312137 23.643925
12.670353 3.251276 23.716763
17.847288 7.8471251 23.717007
20.876757 11.586357 23.813923
12.410055 5.0787859 23.991484
17.469223 14.440616 23.929842
17.700741 2.8047848 24.044683
24.579861 13.946017 24.024464
21.909546 16.886408 24.007801
13.540826 2.8031399 24.139061
23.526215 16.300537 24.19393
19.630951 16.638678 24.109056
20.28653 7.3714619 24.273464
17.460455 2.7141154 24.395645
17.667719 8.151886 24.333382
18.783649 8.039217 24.423754
20.968586 6.5487795 24.591385
19.928905 7.695343 24.546661
17.971951 15.448515 24.533302
19.142395 16.43528 24.525383
22.346756 16.765125 24.576633
15.420712 7.1284757 24.660034
17.076834 2.7040777 24.741879
13.423695 3.3552647 24.798168
12.901251 5.2098775 24.712101
20.632547 11.435002 24.780405
17.443928 13.497044 24.737877
17.601612 2.788681 24.891661
12.877441 5.5819874 24.830669
21.223047 6.143086 24.898523
17.901438 15.140579 24.829332
24.644581 15.209547 24.856741
20.498821 16.830868 24.834587
14.847637 2.3701973 24.932074
19.215719 3.6954608 25.033268
12.97607 5.882309 25.086491
24.783014 14.450137 25.033741
18.875416 8.4436417 25.199558
18.985226 11.294972 25.16411
15.609489 2.5438232 25.219969
15.364723 7.1647062 25.282383
24.542707 13.345798 25.275652
24.917782 13.725884 25.218624
20.507257 4.6173859 25.387127
18.528873 11.242781 25.363745
24.872324 14.654062 25.365625
22.051805 16.918205 25.379604
18.469646 2.96578 25.457802
21.640987 5.9974203 25.422146
17.92091 11.218474 25.426945
17.486549 13.078683 25.48735
13.313701 4.3714175 25.518074
17.44223 12.868738 25.519325
19.217419 8.5970354 25.610207
19.47526 8.5624561 25.644535
17.187315 2.8292441 25.717739
18.874273 3.1661909 25.798235
13.91756 3.6104665 25.779352
20.662792 8.1779318 25.767851
17.683697 14.133314 25.872309
17.573902 13.614115 25.903372
25.141338 14.343242 26.075083
20.02799 3.9865725 26.123848
21.681036 5.2938395 26.194035
17.241699 11.115425 26.158051
14.203741 3.6666274 26.214405
14.472235 6.9072042 26.248156
17.798279 14.241006 26.288746
23.159607 16.550665 26.208675
19.680056 8.8870487 26.316887
19.221706 16.234234 26.485403
21.241135 16.880285 26.451054
21.402613 16.934858 26.423065
20.11961 3.9344325 26.502354
13.988622 4.1084347 26.591955
21.469728 8.3543854 26.560516
18.804373 16.098063 26.515524
23.899725 16.299255 26.687984
14.67231 7.0330343 26.762007
18.367439 8.4664984 26.702896
19.683353 11.104452 26.741791
23.063816 16.61516 26.719669
22.223551 5.5141091 26.844753
19.826355 11.096069 26.851536
18.797358 16.061399 26.813789
15.599786 7.4157877 26.993332
24.97024 15.911693 26.95232
17.659149 13.199814 27.058512
17.668465 13.241923 27.0567
17.728527 13.492191 27.096773
25.468821 14.389988 27.051582
22.92165 5.901752 27.188492
18.433023 8.535079 27.164469
24.741058 12.8808 27.104752
14.434651 6.823328 27.450104
18.439295 15.371206 27.41234
14.462323 5.4313006 27.558306
17.694687 13.155265 27.551165
25.788313 13.39611 27.592115
14.493876 5.451395 27.61631
22.123953 5.1173172 27.746269
22.909107 5.6752648 27.794752
23.58536 8.2196217 27.881384
25.774199 14.569556 27.863682
16.708088 7.9339213 27.921328
19.101963 8.8661814 27.921589
21.813318 9.105443 28.05512
17.319656 11.274914 28.074408
19.618359 16.179342 28.087763
23.969566 8.2364731 28.199499
25.876003 12.957018 28.193592
25.745949 15.750829 28.116915
25.117577 16.0263 28.149422
20.523579 10.93375 28.239609
23.730865 11.268192 28.206221
18.318171 14.572824 28.244848
19.881863 16.247232 28.24646
23.844257 6.0837655 28.368935
23.871445 6.1148443 28.332283
18.179401 8.5503788 28.38773
25.106657 16.054785 28.310261
21.121115 9.5445814 28.479065
17.45504 11.640774 28.423412
25.8846 15.558273 28.4105
23.314905 16.728867 28.532965
15.937772 7.7005072 28.635189
22.079025 9.5268373 28.688755
17.750614 8.4173679 28.751369
19.017656 8.914856 28.789373
23.118057 16.808455 28.795261
22.167324 4.7496581 28.883774
15.297283 6.9058962 28.888649
25.038839 16.155924 28.812014
22.659222 9.4613514 28.999893
26.168663 14.910722 28.942631
25.39217 16.054094 28.987598
15.150441 4.9523106 29.022217
22.369709 10.918398 29.025028
23.979712 11.003942 29.01165
20.239029 3.5720279 29.147655
15.481027 7.4967489 29.145069
19.493649 10.737217 29.24789
20.845549 10.804457 29.270348
18.620739 14.44249 29.297161
15.562295 7.1004696 29.370214
18.027557 13.08532 29.314873
17.681257 3.3109403 29.40205
18.579992 14.27173 29.450344
18.912231 15.006204 29.490295
18.403625 3.4028032 29.566414
19.093054 3.4770851 29.548763
25.251869 7.2746716 29.581509
18.13525 13.27247 29.50309
23.902344 9.350934 29.695871
25.062439 6.3939371 29.733522
23.441689 9.724577 29.764568
22.760975 9.9733982 29.748142
21.612705 10.781034 29.717024
26.50972 15.047906 29.758793
19.544651 15.987091 29.727974
26.450867 15.702103 29.86454
23.645912 9.8229418 29.993267
23.226902 10.092491 29.997864
27.067999 13.060503 29.957611
25.203114 16.253658 29.907644
26.882332 14.617352 30.035419
15.862888 5.9003472 30.172049
18.961454 9.018177 30.119488
22.468712 10.760708 30.174435
18.100258 12.62753 30.132555
18.209927 12.95673 30.160328
25.068237 9.2399788 30.341351
25.405481 10.914715 30.340658
20.099321 16.097837 30.374693
16.916237 4.1140814 30.408085
22.285061 4.3024821 30.413029
20.446373 10.609417 30.450569
23.615719 10.785566 30.419628
27.65134 13.419272 30.495523
20.810673 9.5196877 30.511673
22.751339 10.715216 30.590351
18.21722 12.674189 30.522125
18.894997 14.324194 30.506447
24.427593 16.538988 30.55995
25.597675 6.4110756 30.630203
24.428699 10.796611 30.639816
18.026291 11.98036 30.616472
21.714321 3.8595171 30.784853
25.024158 6.0739999 30.717113
17.862577 8.6446304 30.701666
21.921337 9.7968369 30.834711
19.447004 15.213499 30.88525
26.789658 11.731455 30.923613
19.674019 15.671102 30.957405
17.986935 11.472769 31.066959
21.926914 16.719429 31.008728
16.537729 6.2874718 31.199924
19.241087 14.651098 31.169733
21.051197 16.372097 31.127148
20.547424 3.7971818 31.256464
27.52496 12.51387 31.252983
23.588978 4.8864036 31.380482
23.874554 5.1069117 31.31389
19.780985 9.291852 31.387537
25.730692 9.6029272 31.377975
23.032648 10.078053 31.315701
22.674429 10.577224 31.483162
28.234898 13.474801 31.448793
28.193819 13.556301 31.477947
16.653517 5.3952017 31.572906
26.679897 15.931706 31.5275
19.88587 3.8029125 31.651463
17.69643 4.4797974 31.683731
16.861073 6.5740843 31.670856
19.439486 10.373712 31.654266
23.948446 10.30806 31.641985
24.988943 16.455982 31.640484
24.221243 16.691113 31.661423
25.646217 10.703251 31.732651
19.424524 14.677628 31.792162
26.289169 16.072124 31.755827
26.663155 6.9399514 31.868582
16.937651 8.3853884 31.864052
17.919966 10.268224 31.800671
26.893044 10.969778 31.8922
19.135189 14.087299 31.82288
18.084776 4.3704286 31.904736
18.153242 11.271072 31.937782
20.979481 9.5975704 32.004784
26.983006 15.891207 32.068317
24.391254 5.2859836 32.1036
17.125587 7.4502516 32.160423
26.535553 9.0542221 32.178108
20.189396 9.4103537 32.176201
17.918682 10.272727 32.118027
17.104366 5.9239602 32.209812
17.398142 8.6067419 32.222176
27.293945 15.81043 32.211517
22.921061 4.1684213 32.37336
22.949469 10.224824 32.315331
23.060619 10.472163 32.326134
18.230556 11.212172 32.301395
20.443274 16.088511 32.325535
24.050144 4.9517956 32.476189
17.24926 8.3269873 32.442291
25.62059 10.471522 32.485779
25.539768 5.7648497 32.533424
22.661293 10.24238 32.523327
20.805134 10.321115 32.506531
26.20887 16.172178 32.549702
18.321018 8.9684267 32.613911
21.908272 16.681807 32.680569
17.484316 6.3087759 32.76358
19.16721 10.192138 32.76627
21.537451 10.316881 32.743397
22.734386 10.327612 32.797646
25.918465 10.536925 32.775108
20.051605 3.9909678 32.896805
28.280106 13.675068 32.829796
23.613281 10.383173 32.95018
26.270634 10.437746 32.913891
20.269648 4.016633 33.072796
27.290648 6.6432552 33.009922
23.502811 10.324347 33.062164
17.900494 5.5003815 33.120037
17.67157 6.3839431 33.117477
27.357042 8.5707855 33.158363
17.700733 7.3793745 33.229847
27.206699 10.518986 33.249794
26.823051 6.1779294 33.373119
17.773285 6.3137364 33.303253
23.326651 10.302369 33.311981
24.107861 16.796839 33.361568
19.808018 4.1541753 33.431648
18.534481 11.934755 33.406555
19.404303 14.254281 33.420212
18.692394 9.2406483 33.510239
27.008377 9.8599167 33.505634
26.911289 10.293532 33.548946
19.991137 15.366793 33.564396
27.661236 15.825788 33.542862
24.829544 10.309511 33.711014
27.033745 10.376659 33.714973
28.559137 13.021025 33.709438
19.129883 13.702496 33.742428
20.22303 15.772663 33.8699
19.333015 9.9000826 33.945747
26.392668 10.33039 33.903812
19.144135 13.702522 33.986599
20.107624 9.9056606 34.006496
28.02471 10.868689 34.032871
28.422194 13.805779 34.083282
18.368792 11.065962 34.12674
18.722811 12.593752 34.138451
28.217159 11.289865 34.257023
26.080471 16.301727 34.241592
21.863449 16.631357 34.243816
18.440876 5.8268676 34.375763
27.09972 10.301538 34.363258
28.026382 15.717753 34.331802
27.392624 15.962122 34.350864
18.450781 5.8507109 34.440132
18.172192 6.86444 34.490532
27.530914 15.925248 34.44128
18.502708 5.87609 34.581326
18.215904 6.6985044 34.543343
18.479124 9.6889143 34.55151
19.474529 5.0974212 34.695126
18.145506 7.4827137 34.634907
19.843822 14.898703 34.61071
21.027164 16.2288 34.665363
21.55798 4.1904345 34.796097
18.583458 9.586483 34.868477
23.434593 4.2193241 34.968079
18.418354 10.990409 34.930164
20.387625 4.5304737 35.028141
27.733925 8.6999626 35.081245
28.492268 13.353161 35.182465
27.054743 15.99033 35.115845
23.671438 16.948061 35.185703
27.091921 6.5160999 35.28698
18.909529 12.562948 35.259315
21.720228 16.483734 35.214523
27.267658 7.3052197 35.307598
28.221075 14.319758 35.326385
21.244514 4.2573719 35.432659
24.848354 4.7095528 35.431633
18.553749 11.064999 35.401276
27.665554 15.805072 35.435616
19.545807 14.05207 35.56739
25.470762 16.36515 35.516201
20.808382 16.04813 35.605309
23.022474 4.296175 35.707531
21.151062 4.3122907 35.742485
18.367901 10.044907 35.72728
22.857473 4.307991 35.827667
18.44907 9.1086063 35.83707
27.576641 9.2864103 35.976517
26.305695 16.10442 36.0406
22.731581 16.838755 36.01503
23.230389 17.505165 36.076805
27.316467 7.8647642 36.12175
25.834946 16.214853 36.170773
21.687313 4.3916922 36.322998
21.777868 4.3931894 36.349823
19.872322 14.415016 36.353035
20.177597 14.995951 36.302986
24.167898 17.289675 36.315483
27.259441 7.9456711 36.406189
25.618797 16.242699 36.496719
19.979061 5.6623411 36.509575
18.898129 8.0979109 36.509869
26.321014 16.0488 36.642178
18.532646 9.6914339 36.771355
27.635355 14.89858 36.799759
23.990561 4.44135 36.993683
27.130743 8.273139 37.055653
19.080317 11.787501 37.00843
19.176945 12.43089 37.028141
20.257069 5.8525782 37.277374
27.071016 9.6429234 37.33532
27.475401 14.800365 37.350479
27.049911 8.9761934 37.414639
24.943588 16.620132 37.40464
23.294834 16.907385 37.519871
21.65395 4.9433966 37.726803
23.254152 4.5941133 37.842354
23.025871 4.6063976 37.870708
22.768354 16.664391 37.813396
26.838032 8.5024405 37.979187
19.11528 8.9168606 37.922161
24.170462 17.215204 37.968742
23.312931 4.6332221 38.087734
19.810688 13.834033 38.161385
26.724585 10.428429 38.256687
19.138529 10.845591 38.214489
19.166903 11.004268 38.24744
24.530603 16.704521 38.290321
23.829905 4.6557622 38.324551
24.69906 4.6359382 38.37767
22.17544 4.8302269 38.318523
27.002615 5.3607192 38.399776
26.653139 10.269366 38.39061
19.173515 10.913818 38.369591
26.631462 4.6705313 38.479855
20.027817 6.7972555 38.529839
27.21059 12.498274 38.552628
20.013735 14.078738 38.593315
27.656502 14.512675 38.599693
20.398447 14.771282 38.524933
21.179178 15.950325 38.501766
22.200787 5.00809 38.686668
19.491966 12.842839 38.606464
27.086611 15.97501 38.655315
24.643818 4.124876 38.772667
24.804724 4.1125789 38.719238
25.101236 4.7764926 38.770958
27.466881 6.6161675 38.781952
27.026474 7.9182158 38.705933
26.810131 15.020402 38.725033
26.771019 15.769932 38.721928
26.911995 7.8080492 38.883568
27.4741 9.938098 38.897259
25.900064 16.354851 38.867496
24.434944 16.763056 38.879745
25.293053 4.1005578 38.988773
25.650352 4.718977 38.970501
26.528515 7.5340562 38.964432
27.527304 8.1573305 38.96571
27.478432 9.9716024 38.921146
19.305483 11.137558 38.984814
26.815031 7.214416 39.08696
19.477917 8.7959805 39.02977
19.270868 10.795959 39.077568
27.266731 12.337967 39.098915
27.725204 14.886662 39.082104
24.724522 4.2338667 39.1334
19.134279 9.7288036 39.191315
27.361851 13.772206 39.124588
26.884216 15.135718 39.194649
26.84432 9.9781952 39.28054
26.714668 11.328863 39.258743
27.113144 14.624364 39.248135
26.068251 16.026518 39.253014
26.870659 16.221064 39.209442
23.921291 5.0568576 39.314014
26.813789 5.2948008 39.334282
27.709124 11.287284 39.389709
26.675995 12.26675 39.338356
26.514782 5.5723209 39.464073
27.515078 7.0365005 39.472431
22.855091 16.493704 39.453121
27.480728 5.1353507 39.55835
27.481377 6.1837392 39.571106
27.931843 13.155782 39.551353
23.113461 16.58983 39.502262
24.931442 16.549658 39.543571
23.32933 5.1688728 39.623661
26.728725 8.6302204 39.613785
26.9573 12.778933 39.669403
26.781584 13.472693 39.68932
23.876047 17.386539 39.63332
23.08532 4.8499851 39.739243
26.545513 5.5511179 39.700832
18.952614 11.384439 39.777748
18.84222 11.801973 39.740597
19.383226 13.839415 39.740295
19.675697 14.050342 39.785
26.124443 16.000368 39.738113
21.662767 4.2265825 39.824635
24.207405 4.3903055 39.832687
26.861656 4.9707789 39.860367
27.717495 8.2536926 39.873173
19.721336 8.4968395 39.868309
27.841114 11.567633 39.807331
18.774654 14.134807 39.856045
24.04707 4.4279299 39.991211
22.248718 6.1915359 39.964424
18.741287 8.8606949 39.982826
18.018784 10.828841 39.950001
20.660944 14.16082 39.94017
22.706503 17.266603 39.912388
22.575008 5.3394547 40.033024
21.399014 5.8892946 40.094166
19.932972 7.0671501 40.008232
26.193249 16.401392 40.077503
18.318129 12.505311 40.152313
24.861946 16.932199 40.148449
27.788197 10.147453 40.236942
18.13018 10.542554 40.254246
28.046318 12.752983 40.245613
19.716894 6.2350583 40.383545
19.005789 8.0348282 40.381474
28.083162 13.341278 40.394489
24.605736 4.1910911 40.455616
28.071419 12.676174 40.400356
26.19614 16.357086 40.477276
28.117512 13.38913 40.587852
19.089109 14.917967 40.549454
27.882011 8.9727068 40.679188
23.435362 17.284935 40.600151
23.289209 4.6080232 40.725731
19.607494 6.4646702 40.775467
27.918407 9.9383135 40.799713
18.243202 10.539026 40.706844
27.931856 9.4817696 40.873451
19.807478 6.0368342 40.906651
19.424683 15.546973 40.966522
27.67288 15.714064 40.901169
21.690592 4.692121 41.073456
20.275185 4.9710093 41.055042
18.564655 13.097604 41.012691
19.238234 14.981663 41.023293
21.231995 4.6968656 41.192726
27.355709 5.0920081 41.114975
20.250355 4.9666748 41.290035
28.023645 7.9322548 41.285042
28.222488 12.524357 41.214306
27.042469 5.0370898 41.334908
20.080097 5.4330378 41.344349
20.124302 16.277216 41.349068
22.650442 4.7384415 41.485012
18.584759 12.694199 41.48035
27.900743 15.357721 41.40451
27.573139 5.8837185 41.503696
19.676758 15.805559 41.565742
28.117821 9.9715424 41.648865
23.09119 4.5255275 41.767311
20.616852 4.8427453 41.728901
19.475838 15.070787 41.794792
24.067223 4.3954711 41.882538
28.180183 10.411043 41.834759
24.92029 4.6453462 41.914646
27.113132 5.0636749 41.942188
19.558342 6.5886288 42.029366
19.508718 6.696023 42.081219
19.311758 7.1193104 42.083271
28.345432 11.880987 42.073219
26.881065 15.87553 42.011295
22.897884 4.5341721 42.19923
27.135319 5.0720696 42.135056
27.120955 15.76276 42.165562
24.894836 16.483829 42.158585
21.539982 5.0541668 42.221272
18.626747 11.684545 42.263626
20.667896 5.079772 42.356171
27.391699 5.1260281 42.371899
24.379803 16.610973 42.330696
23.434614 4.2912455 42.435745
23.271036 4.3459568 42.49041
22.69722 16.644615 42.520153
19.083256 8.3833313 42.610474
19.088511 13.743094 42.67252
25.575853 16.132576 42.732742
28.303158 8.337204 42.868553
21.106344 16.150719 42.899681
25.032127 16.257942 42.953228
25.181305 16.221336 42.902412
20.819437 5.2018161 43.074249
22.798222 4.4243126 43.171658
26.009998 4.8476567 43.118599
18.888437 12.199224 43.213776
19.058107 13.425846 43.229603
19.74337 14.898463 43.258259
23.265095 4.3602071 43.310818
19.797098 5.599751 43.344322
18.930063 12.113524 43.394981
28.391178 13.798843 43.3689
25.912392 15.99383 43.36805
19.744499 5.716764 43.446037
28.613989 10.140429 43.408741
21.254818 16.052864 43.459618
19.003405 12.723565 43.577694
28.550289 13.129938 43.580795
22.547178 4.4975281 43.6106
22.35133 4.5684214 43.609497
18.983404 12.071609 43.614994
21.177803 15.993864 43.647724
19.029118 7.6500072 43.756821
24.585413 16.375938 43.7402
22.8305 4.4101582 43.822662
25.499044 4.7161412 43.826416
25.84701 4.7903981 43.815018
27.322416 5.1070542 43.959454
20.374407 5.3070493 43.917255
19.356682 6.7788763 43.914745
21.174654 15.957565 43.989456
25.066998 4.6295753 44.019695
19.259996 7.0986247 44.073711
28.707645 9.3807945 44.022346
25.331715 16.186796 44.054001
27.65873 5.16363 44.172394
19.65794 6.0060244 44.111362
28.267084 6.8091874 44.130997
19.174561 7.3510237 44.120834
28.789867 11.285104 44.133125
20.768644 15.827768 44.196175
18.911333 8.1200151 44.206097
28.750282 12.297107 44.214622
18.969574 10.213805 44.302254
22.708126 16.341736 44.307571
19.354122 13.578767 44.44907
21.885191 16.089064 44.549625
24.413155 4.481391 44.642502
20.585388 5.3078547 44.657627
29.128086 10.264682 44.694157
26.549633 4.9153786 44.741898
23.17156 4.3614788 44.860802
19.092054 12.310709 44.894337
28.854305 13.97386 44.88784
27.175797 15.738268 44.860458
27.271412 15.721886 44.955448
21.445244 15.928458 44.965973
19.02854 8.7152309 45.099258
28.596918 15.381882 45.099476
23.615444 16.545918 45.090263
25.402927 4.6659813 45.180763
21.341661 5.0760665 45.150719
19.259623 13.241656 45.160995
26.067385 16.061584 45.131695
19.034885 9.2542372 45.241501
29.031593 13.072507 45.244438
24.792841 16.423027 45.247284
23.764988 16.578314 45.236
29.184261 8.673089 45.377377
29.101501 12.651626 45.375313
27.652887 15.661978 45.391151
20.551228 5.4081397 45.449215
19.008743 10.100532 45.483597
29.44243 10.440359 45.415028
27.586245 15.682691 45.421509
25.309999 16.299736 45.48143
20.77346 5.3331718 45.531982
29.001154 7.8463693 45.53051
20.157568 14.791332 45.675674
21.00741 15.745493 45.672737
26.561554 15.97566 45.623192
19.95591 6.1068392 45.714134
29.63343 10.130739 45.767815
26.564146 15.987877 45.75732
24.75375 16.472639 45.714172
19.125109 11.497345 45.997955
19.282059 12.926789 45.91082
22.467575 16.12187 45.93499
20.180105 3.3662155 46.061817
19.667664 3.4666958 46.080349
19.21088 7.967587 46.031673
29.493349 11.84916 46.090187
20.032055 2.4754405 46.136345
29.110729 7.6500688 46.172905
22.638296 16.146706 46.109047
19.412849 3.2688951 46.235115
21.38168 1.9714068 46.382099
19.689346 2.014415 46.372482
29.637207 11.403207 46.353382
19.256905 11.987276 46.398987
29.282024 14.373772 46.325871
22.282373 16.008566 46.392189
19.38793 2.2420862 46.444897
18.848099 3.2150576 46.473389
28.445038 5.1703296 46.410004
29.3377 13.980892 46.414703
17.597031 4.538538 46.595387
26.287138 16.156281 46.514202
19.620193 7.4269533 46.692043
19.235287 9.698348 46.633629
29.363298 14.765667 46.673534
26.098198 16.2225 46.647919
20.385662 3.6424975 46.747219
20.075447 6.486156 46.760628
19.247963 10.956848 46.773346
19.313431 1.224107 46.890461
18.058125 2.9087031 46.870682
17.672619 4.7722034 46.865952
16.678234 5.1333694 46.819401
20.638142 5.5532722 46.806732
19.318962 9.1561527 46.881336
24.660252 16.618973 46.839142
19.197104 1.2394638 46.942795
18.173187 2.5223436 46.937279
28.925882 6.4292612 46.983994
19.451662 0.94947332 47.034805
18.321108 2.1314232 47.011578
21.549957 3.3762617 47.023071
21.001236 3.5806732 47.041092
24.251566 4.2382054 47.058266
20.899675 0.48650092 47.170639
25.686821 4.4837346 47.184158
28.836567 5.8617191 47.191269
29.229847 7.2379642 47.18848
30.001842 10.052773 47.125957
21.834875 15.783145 47.135223
25.648907 16.408337 47.174919
23.597095 1.0335499 47.276657
18.408569 1.6140275 47.232746
18.015316 1.8799845 47.271416
24.125957 3.1104362 47.256508
18.776232 4.5096169 47.255722
23.413254 3.5693221 47.314102
20.518864 3.9155111 47.378235
29.628006 13.601241 47.399487
18.337311 4.7746782 47.435242
19.747046 13.408809 47.479683
21.477245 15.644065 47.421799
20.822697 3.869391 47.526257
24.7747 16.565683 47.571583
23.651705 0.92381275 47.629993
19.237127 4.5421381 47.688793
20.479675 14.569653 47.611752
26.985603 4.6561303 47.794418
22.41132 5.032198 47.77977
29.077827 15.603576 47.779343
26.717588 16.215569 47.797607
26.029369 4.4541407 47.889931
15.848007 5.9233065 47.812561
29.68779 8.2627201 47.832153
26.96875 16.155443 47.833702
20.482441 4.0704784 47.911026
29.515862 7.5592937 47.970604
19.538742 9.528863 47.910851
29.760899 14.634034 47.981514
24.923695 4.2254081 48.032692
15.090824 4.310647 48.042953
14.817511 4.7992568 48.042793
14.157702 5.8398581 48.089794
21.381113 0.51014435 48.121998
21.795202 3.8125057 48.111969
28.11393 4.8321147 48.179398
23.520401 0.63221407 48.245506
23.512888 2.1683178 48.290112
25.438972 4.2937903 48.233353
19.530285 8.254303 48.282539
22.987953 16.178555 48.226028
23.347988 0.49336341 48.310188
23.463757 3.4890747 48.379467
29.199553 6.0025153 48.347534
29.876711 14.218029 48.370926
22.230377 3.8191996 48.462009
23.873146 4.6077676 48.460796
30.082199 11.665099 48.458054
19.760201 13.096077 48.427166
13.558896 5.4684181 48.5755
13.492 7.1492181 48.571095
30.094685 11.794434 48.556885
29.884491 15.308386 48.533512
16.983337 2.4992955 48.624271
23.051439 4.871665 48.649933
18.220982 5.2626982 48.698929
13.516267 5.0877986 48.733704
12.668839 6.6088524 48.712482
22.950857 4.5705447 48.8703
21.995144 5.2125225 48.867123
14.403619 6.9664583 48.885689
16.982306 2.4941406 48.910915
25.433315 4.1359129 48.947399
19.88982 11.795212 48.96661
20.602236 14.099747 48.93745
22.833599 0.18722223 49.006165
19.295773 1.3021206 49.056938
19.943768 11.931522 49.091465
25.725506 16.674706 49.060879
18.574928 1.8965621 49.178711
23.066303 4.1085682 49.158962
23.547369 4.672081 49.181629
18.540163 5.188189 49.119228
18.112656 5.3831444 49.111889
29.687109 7.1940432 49.106461
20.295639 13.51569 49.180302
21.980909 15.825471 49.158951
26.929684 16.476671 49.157684
18.507576 2.0413401 49.27956
25.632729 4.097559 49.238144
21.118027 4.3787675 49.269821
20.343472 7.2464476 49.285469
11.585678 8.1773415 49.233368
19.880386 8.6938705 49.281101
20.046211 12.967493 49.249577
29.158665 15.890392 49.229721
27.447662 16.386223 49.28849
24.769957 16.438522 49.202629
19.54694 1.4285125 49.351215
25.879105 2.2541542 49.384247
25.928646 2.5544372 49.389153
16.113344 3.0830684 49.31992
25.88232 3.2866952 49.330685
25.951147 4.2073345 49.300079
23.146309 4.7953382 49.362816
22.086412 5.1518087 49.34922
11.388871 7.5911398 49.331429
28.640917 16.084846 49.300644
26.877991 16.545845 49.331623
23.780537 4.4866848 49.447208
12.915328 5.3730912 49.400738
11.65925 6.3968525 49.468628
19.996397 9.858901 49.447025
30.199352 12.525778 49.466187
22.902676 0.44564012 49.527309
19.715025 1.5193652 49.554394
24.414984 4.2246275 49.53381
20.034693 9.5069695 49.585297
20.160765 13.094213 49.53125
21.439911 15.597458 49.549088
25.889366 1.4600962 49.657021
19.401503 1.8672984 49.684097
18.794485 3.0015426 49.611736
24.365952 4.3018532 49.622429
10.958126 7.138875 49.68919
12.661856 7.9079437 49.607624
30.479963 10.085485 49.611359
20.697153 1.2083187 49.762455
25.307209 3.9709282 49.799267
26.251171 4.1534805 49.728455
12.536701 5.617569 49.777733
16.802246 6.1133738 49.747978
22.168556 5.0930862 49.848465
27.273561 16.598429 49.809757
26.35569 16.835293 49.816078
25.314964 3.9714952 49.92067
17.007122 4.7618532 49.980053
20.162859 9.2176533 49.948006
30.245579 13.004262 49.994865
26.00441 1.3795533 50.014458
24.290827 4.5904937 50.058552
23.153175 4.6627445 50.025719
23.974749 16.306931 50.010075
24.77313 16.521444 50.073982
22.627581 0.57692862 50.193188
16.532082 4.4300466 50.101479
16.37488 4.8587441 50.127068
9.4139462 7.8494511 50.170979
9.5014305 8.8835526 50.161369
20.366299 12.398693 50.130527
21.240345 14.905543 50.188271
15.854592 4.6837034 50.247902
13.169703 5.3219919 50.287254
11.733419 8.3602543 50.291477
30.348339 12.551953 50.245419
30.291128 12.966598 50.205223
20.691845 13.506453 50.295109
26.029266 3.827502 50.317406
14.799976 4.7686009 50.303268
13.803756 5.061646 50.334549
9.1311016 8.9549255 50.324978
7.7051635 10.201588 50.349422
22.128031 0.89300245 50.419903
12.046925 6.003396 50.446144
12.071337 8.1766233 50.49844
10.307897 8.8647785 50.474319
25.482841 0.9409048 50.511246
11.109557 6.5851336 50.511242
20.51742 11.79529 50.582142
21.095507 14.429732 50.563713
23.571886 0.41282246 50.642536
21.437302 3.7514341 50.643982
25.910027 4.1141133 50.678356
13.901364 6.5560546 50.692528
7.2950835 10.95943 50.630466
27.295612 16.829552 50.626339
26.366203 16.988739 50.618187
22.866516 1.2989869 50.773247
22.294708 1.3468925 50.70232
13.890753 5.673964 50.778122
12.001595 6.2744236 50.72435
6.9596834 10.440897 50.740723
25.094549 3.9072809 50.805637
13.287551 5.7903748 50.837841
13.764091 5.9101944 50.800278
11.350819 6.6649647 50.817429
13.090672 7.1028967 50.881889
9.7860546 9.0547152 50.821983
8.3433609 9.9951982 50.893585
30.356308 13.843319 50.815411
29.370161 15.934446 50.826962
25.466314 16.773027 50.815891
28.31823 4.5213842 50.941483
13.343937 5.8838468 50.922173
5.0408835 9.6271229 50.944145
8.8361111 10.01017 50.928204
29.792879 15.040496 50.909393
27.24222 4.0348334 51.004097
7.8967218 9.3297625 51.016708
20.562899 9.5205212 51.006996
21.77227 3.8588939 51.179901
28.162357 4.3707652 51.139069
30.282661 7.6496778 51.192226
30.443344 8.5034065 51.138752
7.165935 10.128564 51.167744
20.601408 15.084923 51.162342
24.767017 16.663523 51.117172
22.280087 1.6909645 51.231174
21.13895 2.2759926 51.277805
30.006376 6.4190178 51.276093
10.920383 8.2396622 51.272293
6.9099536 11.400006 51.285816
21.77634 1.8827281 51.30571
6.9926643 8.6609802 51.384525
5.943799 10.530432 51.325943
18.976162 15.110031 51.347992
21.316849 15.233803 51.399193
22.104202 16.339312 51.32267
20.424807 16.97797 51.332176
18.213659 15.204452 51.410206
20.002178 15.387253 51.443104
22.56061 1.2644167 51.543236
27.552414 3.4296513 51.598419
25.196789 3.8637183 51.550842
20.327469 15.758673 51.527359
18.975491 15.942406 51.592697
19.441925 15.936846 51.52491
23.665182 16.47752 51.529686
21.441145 17.231068 51.561951
21.180611 2.5698683 51.635078
4.7992477 9.2289648 51.634125
20.995314 15.269315 51.688438
22.236347 15.42313 51.615448
19.429777 16.194208 51.62685
27.45927 1.7165531 51.700211
21.599442 1.8558902 51.706528
21.263485 2.5536556 51.743488
20.990187 5.9913855 51.796532
10.493896 8.1547613 51.793945
6.5433078 9.5505638 51.766911
7.3036089 10.029242 51.788609
4.7868366 10.476241 51.73217
7.4237952 11.11264 51.752598
13.078383 13.25195 51.701786
23.451523 15.808954 51.727116
17.52301 16.184862 51.789829
25.177473 16.477245 51.788448
29.961594 5.7788801 51.856815
20.855743 6.4493032 51.897072
20.798363 9.3505878 51.841438
11.536543 12.270132 51.889462
30.590008 12.365025 51.839359
12.200168 13.072328 51.875492
12.776192 13.438845 51.897865
30.342762 14.471869 51.862724
15.107616 14.59461 51.825935
15.070204 14.702666 51.890194
17.133232 16.044342 51.874413
23.358141 16.465214 51.827255
19.713255 16.84383 51.885948
28.376101 4.4793482 51.906448
26.392052 4.6360331 51.995548
6.198554 10.256383 51.974396
12.424431 13.345974 51.95813
24.587938 16.053255 51.942257
25.296164 16.854141 51.962608
27.088108 4.4582953 52.066723
23.075356 5.270854 52.028385
30.564894 8.3429203 52.088535
13.786026 14.336716 52.078884
13.865965 14.330607 52.049927
27.929993 2.6477137 52.134537
28.032906 4.0830889 52.186554
30.283424 6.9417181 52.144005
8.9664993 10.678363 52.160511
17.738567 14.052942 52.127235
21.078621 14.17985 52.121555
23.46801 16.569633 52.182873
24.15341 17.628843 52.122154
22.854507 1.5023996 52.289841
9.8865032 8.9967642 52.244606
5.6770816 10.171923 52.276295
9.2243242 10.381283 52.216694
8.0947418 12.368224 52.259991
14.432868 12.820223 52.22229
27.762955 16.148846 52.200729
26.554533 16.311142 52.299065
25.276279 4.2984719 52.38868
25.804995 4.2950101 52.31562
4.2226009 9.7294798 52.356781
13.9424 14.710312 52.327278
17.004875 16.471893 52.346161
26.08543 17.444038 52.383621
25.395557 0.68522012 52.499664
21.899565 4.6481686 52.486145
20.942852 8.9934568 52.400814
21.011971 9.9623013 52.472149
6.1093168 10.057315 52.477386
30.673153 10.484772 52.471367
8.199502 11.238068 52.427464
8.4256058 11.556484 52.454937
15.035746 12.825365 52.408691
18.00288 13.873638 52.47665
25.694004 17.784374 52.418251
20.230513 17.813122 52.47768
25.16168 18.036118 52.428562
28.28429 3.379704 52.549011
28.428352 4.2098446 52.588875
28.734791 4.2621222 52.569725
22.821356 5.1771531 52.534153
7.3681378 9.4740458 52.546989
6.5892215 9.7167349 52.596642
24.947754 15.655039 52.533272
21.755051 16.129484 52.569874
20.118 17.663771 52.505371
29.304062 4.5909586 52.603943
21.692167 4.6988306 52.648113
30.0846 6.0046263 52.658909
9.2136278 9.28543 52.606277
7.1582012 10.445431 52.657288
14.956221 12.615769 52.607384
18.112555 13.800764 52.620644
14.255884 15.202591 52.616631
29.705141 15.980749 52.611206
28.839333 16.704622 52.670643
24.171539 1.0744928 52.792469
9.148551 7.8511543 52.7062
7.1342711 9.4232683 52.771378
4.3824348 10.543747 52.799213
6.3562546 10.831559 52.743149
29.847336 15.752523 52.741043
28.909874 16.732405 52.76609
5.4533396 10.672453 52.895111
14.12477 12.176389 52.883175
21.783768 14.063591 52.824142
16.757454 16.756386 52.823421
17.21332 16.968323 52.8876
8.5298576 8.1213589 52.944931
6.3454285 9.3621044 52.975544
29.449261 16.692636 52.943756
18.143246 17.201874 52.918777
26.127407 18.317204 52.962807
8.0385828 9.1040516 53.039593
6.1484718 9.2216015 53.072636
4.128058 9.5145779 53.074844
30.675243 9.8953686 53.03923
6.8917146 10.292316 53.082092
30.61544 10.240093 53.06469
7.8755674 11.296082 53.065464
9.324276 12.958778 53.042778
17.013115 12.946459 53.067581
21.281063 13.103859 53.006783
18.550358 13.615052 53.057964
23.77457 16.55703 53.056591
23.15831 18.324924 53.017136
27.66148 1.6127937 53.19397
28.772572 3.1521344 53.193382
7.7891202 8.8130283 53.121506
6.0830231 9.167305 53.157928
4.8835945 9.7771311 53.144634
6.4944673 10.787233 53.115482
21.296625 12.514287 53.126595
10.225676 13.382524 53.188622
23.206869 16.547012 53.121033
4.5300026 8.1904049 53.264507
30.766476 8.7707014 53.211479
4.3041911 9.608573 53.272572
7.0214362 10.313963 53.269215
10.644281 10.93891 53.212799
16.336079 12.642021 53.214966
30.09137 15.904898 53.217331
17.627485 16.995909 53.218887
18.705847 17.199177 53.290955
28.71542 17.325674 53.273106
21.962132 18.318726 53.212097
23.571447 18.461815 53.271317
7.2219472 8.7041225 53.362057
5.2970934 8.8883791 53.374512
4.9129906 9.4284439 53.393089
5.552269 9.7773933 53.389992
7.6319413 9.8591995 53.385445
8.7556248 12.554463 53.372463
9.8013849 13.152379 53.301579
10.241601 13.340293 53.384087
21.164511 14.124888 53.355473
21.672012 15.389585 53.323273
4.8330188 9.1236773 53.496639
30.75853 9.1099873 53.484341
4.6748872 9.3831463 53.458649
7.8030581 9.3768425 53.488358
4.7036791 9.562007 53.443829
4.6883359 9.7626286 53.444649
4.5321832 10.395699 53.480789
17.276585 12.855653 53.417259
30.752136 9.0953016 53.552124
1.6234376 9.6671991 53.575581
6.2975173 9.6296549 53.510323
10.960425 10.889809 53.506577
11.126125 13.722145 53.589478
24.042912 14.542987 53.538727
15.908434 16.093637 53.544113
20.676043 17.881498 53.50489
4.6051245 9.2055359 53.658119
20.172222 13.69449 53.680668
23.211975 16.389978 53.691292
21.491064 5.7586603 53.754047
4.9918742 8.6857491 53.712029
5.6642547 9.0110073 53.796825
4.9583616 10.239024 53.77248
8.9303894 10.340539 53.71677
19.531364 13.413638 53.760719
18.792868 16.973049 53.796455
19.533932 17.134298 53.791336
25.129299 18.775038 53.756466
21.582363 5.8946929 53.884834
7.1956129 9.5550671 53.848789
7.0691309 10.687537 53.889881
20.067043 13.516117 53.867344
29.763941 16.558146 53.84433
21.564188 6.8117108 53.958511
6.9342089 9.9744787 53.962048
30.447918 10.749503 53.97456
21.641418 11.828157 53.939857
20.989468 13.213605 53.94326
30.282936 15.674707 53.975159
30.194263 15.85349 53.967461
20.449406 17.35601 53.972618
29.496994 3.3489566 54.034912
0.47545418 9.5534153 54.024948
4.7617435 9.6144218 54.001801
5.6601582 9.8518639 54.064613
8.3858662 11.015033 54.091
11.662473 11.255316 54.096302
7.7880039 9.0240955 54.19722
0.37741452 9.2829914 54.152988
6.3558702 10.074715 54.104515
24.192886 1.7981197 54.243225
21.745625 9.2101316 54.220222
25.440872 15.370937 54.257317
22.411455 18.467089 54.248337
26.372967 1.1103626 54.31617
22.513573 4.7541904 54.376179
30.565945 6.7763915 54.329979
7.8364525 11.476334 54.308083
10.213422 12.893158 54.322941
21.129446 13.13617 54.357338
2.1384392 9.6442137 54.4757
10.227293 11.506397 54.428951
11.892462 11.834953 54.423218
18.042479 12.859048 54.456455
20.305368 13.190283 54.485233
25.261894 14.820827 54.427151
21.966917 18.1971 54.468185
13.861762 12.235003 54.529476
16.545643 12.704731 54.535599
17.093555 12.856024 54.566734
17.601879 12.882506 54.518616
12.193558 13.710583 54.509438
27.044174 1.3283631 54.629128
14.195764 12.472406 54.636681
16.349884 12.914598 54.671127
21.703768 12.921166 54.617149
22.049 14.925226 54.647507
20.677368 17.580448 54.665009
23.572607 18.559586 54.647392
25.044361 19.004749 54.632362
11.239237 12.676256 54.794308
22.021725 13.642885 54.795628
22.167063 14.760689 54.767643
25.14551 15.259897 54.759121
29.649033 16.625078 54.714291
29.420712 3.2439175 54.821899
30.49263 6.6349258 54.850586
18.239906 13.65662 54.897903
28.433407 2.2206597 54.924217
30.381557 5.7789392 54.90416
22.289625 9.1206074 54.960239
3.6801238 9.577879 54.938812
