# .PCD v0.7 - Point Cloud Data file format
VERSION 0.7
FIELDS x y z
SIZE 4 4 4
TYPE F F F
COUNT 1 1 1
WIDTH 1516
HEIGHT 1
VIEWPOINT 0 0 0 1 0 0 0
POINTS 1516
DATA ascii
-114.77827 -383.76688 1209.8339
-100.29184 -388.6048 1628.5896
-161.20386 -368.26071 1416.9351
-173.84164 -364.03986 923.078
27.412003 -431.25757 877.45258
-2.4228115 -421.29312 531.87549
-52.323154 -404.62677 61.723305
-96.32914 -389.92892 292.79044
-25.581154 -413.55829 344.66745
-129.06499 -378.99515 1440.3627
33.529915 -433.30072 857.31201
10.95763 -425.76178 874.82532
-204.88159 -353.67224 363.23761
-126.09126 -379.98853 1174.9114
-36.21888 -410.00504 1428.2666
-76.255341 -396.63324 764.33801
-82.336823 -394.60193 188.41837
-58.083145 -402.70279 590.18329
7.4927568 -424.60486 1422.9182
-129.33241 -378.90552 1268.4606
-122.91242 -381.04956 1487.0605
42.147442 -436.17935 1564.8427
4.9860096 -423.76761 917.20752
-85.720795 -393.47144 626.36798
-89.440308 -392.22928 1459.835
-23.783972 -414.15817 938.52563
-38.729881 -409.16623 1627.361
-116.84776 -383.07516 1225.9119
-345.81378 -306.6012 143.00342
-39.331459 -408.96539 946.14703
-26.954369 -413.09912 82.106766
-0.65691948 -421.88245 550.24524
-0.013909817 -422.09763 1403.8519
-116.19765 -383.29224 1407.8002
-62.858017 -401.10803 1493.84
-29.104137 -412.38129 131.75774
-173.80208 -364.05292 1366.9535
10.188676 -425.50467 1028.4204
-60.566486 -401.87305 145.32085
-131.32906 -378.23865 970.24841
-140.82454 -375.0672 1352.7902
-129.93552 -378.70413 1241.0089
-17.967941 -416.10083 1601.6558
-75.766403 -396.79608 982.12091
75.577049 -447.34473 780.61072
-43.208805 -407.67035 132.1478
-46.431049 -406.59454 1373.052
6.2231965 -424.18088 477.92621
-174.60796 -363.78357 403.52054
-4.8870163 -420.46954 1168.1047
-160.77258 -368.40466 1203.5662
-55.652699 -403.5144 344.23123
-110.36352 -385.24127 917.57239
-205.68355 -353.40442 823.91089
-129.20657 -378.94751 459.7261
-6.0429592 -420.08344 1190.7015
-103.80045 -387.43344 1054.9009
55.862701 -440.76022 807.48657
-350.35971 -305.08286 145.94028
41.767254 -436.05225 771.98157
-84.002937 -394.04532 201.57266
-47.187046 -406.34189 456.36444
-10.309792 -418.65839 109.34918
-67.311844 -399.61993 869.55713
-191.02246 -358.30151 900.36212
-85.713547 -393.47418 1322.3872
-49.68869 -405.50629 1218.2045
-60.298122 -401.96289 390.76556
-154.86893 -370.37692 1054.2522
-31.763559 -411.49286 511.7912
22.032675 -429.46078 1612.3104
-103.07539 -387.67535 1161.3438
-108.61475 -385.82507 844.80493
-190.96889 -358.31946 833.16003
-29.531967 -412.23865 490.87427
-72.56192 -397.86676 605.28333
-19.739513 -415.50928 1083.5979
53.977917 -440.13031 741.72656
-157.70154 -369.43057 1009.5128
-98.236206 -389.29132 1023.2102
-165.47792 -366.8331 378.02316
-350.51575 -305.03088 310.00888
-20.566362 -415.23282 979.13269
-332.6156 -311.00931 315.48059
-217.46274 -349.47 353.9762
-335.18356 -310.15164 168.97043
54.901268 -440.43869 830.18109
-93.361359 -390.91974 275.96075
-108.33022 -385.92038 854.58813
-96.664009 -389.81689 917.36536
-91.670715 -391.48407 1065.42
-97.703369 -389.46918 74.080208
-85.819687 -393.43839 1475.6582
-62.882812 -401.09906 361.92212
19.169304 -428.50452 914.99146
-111.06735 -385.0061 769.9801
-88.390442 -392.58017 1525.4845
-59.128086 -402.35309 805.29993
-83.675583 -394.15469 1634.4287
-48.256905 -405.98438 1364.3828
-67.806763 -399.45459 1168.9686
-73.987617 -397.39047 1064.4344
-185.74657 -360.06296 797.07654
-34.019669 -410.73959 921.53876
-26.700706 -413.18433 818.39221
-133.38599 -377.5513 810.17767
-119.20467 -382.28851 1206.879
-2.8003159 -421.16699 568.58667
-18.703175 -415.85522 452.1152
-189.57811 -358.78397 453.00717
-118.82559 -382.41476 1418.2632
20.694889 -429.01416 861.95398
-34.785023 -410.48383 59.780647
-298.43866 -322.42474 298.94336
-98.281662 -389.27631 1507.1443
-5.5571518 -420.24591 628.48834
-9.77106 -418.83832 1092.204
43.05687 -436.48288 768.02411
-63.941685 -400.74591 910.21838
-66.196907 -399.99249 1656.1207
-57.344006 -402.94971 295.01724
2.2451572 -422.85184 1485.1411
-93.103088 -391.0058 1569.6062
-69.047897 -399.04016 991.65155
-44.284401 -407.31116 1570.0253
-70.791214 -398.45795 937.37231
-17.222439 -416.34952 951.6156
-150.94855 -371.68561 874.88281
16.007557 -427.44882 1217.0511
-313.26813 -317.47131 330.40277
-12.70513 -417.85831 791.65796
-206.35715 -353.17969 848.40411
-83.993408 -394.04871 1416.6108
-36.033638 -410.06711 470.79391
-86.794121 -393.11316 1365.8896
-55.053688 -403.71454 906.61658
79.935287 -448.79987 752.41199
-47.301208 -406.30331 636.99646
-27.831387 -412.80643 1570.0441
-74.694786 -397.15445 1082.8214
-35.418549 -410.2724 1671.1104
-91.554405 -391.52359 533.39795
-49.689285 -405.50632 596.9361
-60.019363 -402.05582 1579.5533
-153.85406 -370.71545 852.2276
-164.57809 -367.13373 854.98181
-62.031662 -401.38385 91.603294
-83.793495 -394.11542 1237.4482
-14.544987 -417.24429 574.60767
-145.96298 -373.35098 1427.2013
7.4705887 -424.59735 613.11707
-150.94081 -371.68814 1045.1311
-105.04585 -387.01697 1564.4062
-196.32693 -356.52979 413.34729
-115.42384 -383.55078 1540.1636
54.535095 -440.31638 23.445925
-176.89163 -363.02115 918.75562
-104.93422 -387.05426 1284.098
10.212864 -425.51349 1014.7142
-202.44872 -354.48465 814.49243
-15.434452 -416.9472 998.52856
-174.95708 -363.66696 837.23651
-6.2172856 -420.02539 944.48889
-117.4011 -382.89087 1177.2681
13.491817 -426.60831 787.32062
-7.4800248 -419.6037 770.64893
-16.713234 -416.52026 601.13269
-77.30661 -396.28171 866.81653
-61.982754 -401.40021 576.07281
-92.292496 -391.27673 783.56012
-88.79435 -392.44534 915.5365
-26.385616 -413.28937 454.61417
-24.639219 -413.8728 1227.6348
-86.815125 -393.10605 1608.5712
9.5243034 -425.2829 671.62213
49.989468 -438.79846 785.5874
-56.093941 -403.36694 613.66089
-270.15671 -331.8703 328.17313
-64.583916 -400.53134 1615.1179
-182.61674 -361.10858 432.35333
-70.458244 -398.56921 1514.5833
-114.87573 -383.73438 1053.9415
-187.95895 -359.32462 853.06635
-101.26537 -388.27988 1332.8085
-59.468819 -402.2399 574.91919
-96.827911 -389.76169 501.02905
-4.6564674 -420.54688 1259.0045
-40.031029 -408.73166 1623.9554
-208.2153 -352.55914 831.71979
-11.751042 -418.17752 1421.4218
-205.04399 -353.61777 864.21735
-65.52066 -400.21823 1141.1115
-222.85864 -347.66772 343.93915
-77.436157 -396.2388 471.12238
-18.236292 -416.01129 1251.3607
9.4226398 -425.24905 705.14026
-257.29974 -336.16473 384.46384
-73.223114 -397.64618 1051.6881
-57.927898 -402.75439 477.40833
-49.618294 -405.52994 602.79883
-21.003645 -415.08722 436.33032
-40.720325 -408.50168 935.05151
-174.35089 -363.86942 883.99878
-85.875076 -393.42014 1411.1843
11.009861 -425.77939 899.44324
-38.916752 -409.10416 999.15747
-58.397457 -402.59741 978.98376
-118.17361 -382.63263 1162.795
-15.766237 -416.83649 553.57623
-135.85103 -376.72815 1199.6458
-80.978439 -395.05579 923.28162
-137.76363 -376.08957 476.04871
-110.55806 -385.17596 1033.3352
-63.663258 -400.8389 255.08592
-74.021484 -397.37927 1561.0967
38.195007 -434.85907 1598.7637
-5.4700766 -420.27505 493.25763
-56.215824 -403.32623 756.77002
-127.64652 -379.46835 1092.1804
-29.263145 -412.32831 1637.2852
-339.48904 -308.71381 310.63736
-154.30057 -370.56598 1044.5624
-15.624125 -416.88394 1351.2892
-91.864815 -391.41959 494.74982
-102.18623 -387.97229 1528.3055
-31.991604 -411.41681 630.51074
-77.28537 -396.28891 622.06836
-104.16962 -387.3096 1408.2399
-162.16837 -367.93817 1230.1631
-34.967781 -410.42288 550.16669
-65.605331 -400.19025 993.30652
-88.201653 -392.64301 1363.7604
-40.654266 -408.52344 1338.0433
-48.747841 -405.82065 222.86874
-61.757561 -401.47482 654.7041
-60.664322 -401.84021 358.02374
-254.49719 -337.10065 400.3616
-47.456909 -406.25128 1347.1577
-106.77016 -386.44107 616.21411
46.421158 -437.60669 842.47614
-11.856504 -418.14215 536.45374
5.4820375 -423.93298 501.96182
-145.48349 -373.51117 1080.0897
-266.65933 -333.0387 359.63809
12.532977 -426.28802 1251.9222
52.543819 -439.6517 810.25305
-1.1972346 -421.7023 1654.9796
-80.618256 -395.17603 1007.6876
-127.68031 -379.45734 1216.3263
4.3249216 -423.5466 62.002697
-19.614407 -415.55084 1516.6545
-24.357315 -413.96695 443.65259
-336.49432 -309.71402 153.10901
-80.287125 -395.28656 206.1752
-120.94392 -381.70721 1195.0736
-35.700951 -410.17813 1218.9309
-91.172401 -391.65076 948.42175
-57.869247 -402.77386 490.18823
-103.62506 -387.49188 1432.8741
75.642036 -447.36636 748.52112
-154.33238 -370.556 1437.5938
-27.731806 -412.84018 298.61542
-15.75289 -416.84073 54.356838
-117.96214 -382.70337 910.43982
-10.644032 -418.54669 1189.8413
-163.80765 -367.39099 380.08139
-107.23515 -386.28595 1216.743
-121.40108 -381.55435 1395.675
-98.970764 -389.04596 955.51819
-62.783829 -401.13245 1315.502
-142.75703 -374.42151 973.44397
40.576691 -435.65475 1522.5697
34.43317 -433.60294 1504.1343
-80.482437 -395.22089 682.84851
-118.53827 -382.5108 1000.296
-65.014847 -400.38742 745.01843
-151.3723 -371.54431 396.59341
-111.15544 -384.97638 1022.6595
-24.748592 -413.83612 448.62363
-17.842707 -416.14264 1282.3008
-78.513062 -395.87872 1033.4554
-111.31599 -384.9231 405.22745
-20.371197 -415.29852 1464.9142
-32.764259 -411.15903 1604.5039
23.489763 -429.94785 1586.9402
-35.729176 -410.16852 1556.5693
-65.180557 -400.33234 1051.7805
-56.296074 -403.29953 70.283348
-280.37347 -328.45792 322.65021
-150.73888 -371.75598 1501.4829
-188.31396 -359.20618 890.86475
-246.24741 -339.85583 335.33316
23.343428 -429.89902 1477.1683
-41.121033 -408.3678 1636.4624
-341.89383 -307.91046 145.05241
21.962372 -429.43744 1483.1901
-187.58902 -359.44806 444.76788
-27.830963 -412.80646 145.12924
-83.437393 -394.23395 635.31885
-80.316734 -395.27667 933.41193
-78.826118 -395.77448 1611.6029
-144.23674 -373.92755 427.28131
-60.017189 -402.05621 116.11467
-161.23088 -368.25146 1411.5369
-153.51414 -370.8288 436.23148
-87.53849 -392.86472 905.55701
-31.818226 -411.47495 425.55176
-83.546326 -394.19794 887.1488
-16.480236 -416.59747 78.932556
-327.7197 -312.64447 123.05751
-95.833511 -390.09357 658.27649
-74.022537 -397.37842 1585.7656
-114.02591 -384.0181 387.48303
-73.318771 -397.61423 1492.7511
-42.814285 -407.80255 339.30426
-122.71708 -381.11499 1418.9578
-68.733871 -399.14493 1484.3619
-105.1244 -386.99069 869.67859
-34.223892 -410.67154 1343.7203
-57.802135 -402.7966 733.51343
-67.562744 -399.53638 883.48608
-11.362335 -418.30682 1470.129
-11.281414 -418.33405 1624.4374
-14.061915 -417.40536 1611.1871
3.4337397 -423.24899 905.05878
-12.590471 -417.89713 562.88647
-134.976 -377.0209 1177.0438
-63.855915 -400.77444 422.37952
-99.996323 -388.70334 1095.9723
-125.57711 -380.15991 962.67676
-62.574951 -401.20178 648.89795
-70.081329 -398.69498 1075.5847
-0.34614563 -421.98648 1481.874
-149.7336 -372.09125 1480.5753
11.338255 -425.8891 1617.4788
-67.88253 -399.42987 854.38318
-92.149185 -391.32422 1454.8815
-375.3125 -296.74884 264.4689
-58.494839 -402.56485 1687.7107
-6.2529345 -420.01349 735.73511
-157.56264 -369.47629 952.12341
-49.277603 -405.64374 772.62305
-60.348328 -401.94604 1616.4154
-88.658958 -392.49017 809.08185
-56.951969 -403.08026 1632.6169
-79.486771 -395.55402 709.57257
-73.830833 -397.44315 1649.891
-70.038055 -398.70941 354.9472
-20.186701 -415.36014 957.00391
4.805397 -423.70718 1523.9578
-34.847919 -410.46274 376.28476
-53.074821 -404.37482 646.94006
-334.1322 -310.50281 250.7153
-371.50092 -298.02222 189.62128
-16.507322 -416.58826 1273.0336
-35.691113 -410.18146 323.2507
-64.920494 -400.41895 283.51398
-20.435659 -415.27673 1640.5585
-71.930885 -398.07715 1487.1488
-191.11243 -358.27106 821.29028
-57.563538 -402.87585 137.12941
-61.958351 -401.4079 79.06044
-22.819368 -414.48041 39.951553
-47.527321 -406.22815 1225.6155
-49.558334 -405.54987 698.35626
-158.62434 -369.12213 406.02448
-170.05014 -365.30603 1261.9241
-123.42378 -380.879 428.24783
-16.384657 -416.62952 704.02307
-81.576668 -394.85605 1476.77
-314.67767 -317.00049 245.43338
-145.55144 -373.48813 975.44672
29.52507 -431.96356 1508.0475
-129.86742 -378.72693 752.54395
1.0382831 -422.44873 1188.8854
-49.914455 -405.4306 1627.9342
-100.72263 -388.46091 500.60196
-55.768074 -403.47525 660.55383
-77.752647 -396.133 1376.9348
-95.693909 -390.14099 1171.7915
-160.13437 -368.61758 876.19501
-117.80811 -382.75415 643.8479
-107.44835 -386.21509 1603.0883
-103.44385 -387.55203 875.44464
-18.733849 -415.84494 1288.2626
-6.127471 -420.05545 1162.2842
-48.475128 -405.91183 461.83759
-179.31606 -362.21106 881.11938
-52.25235 -404.65009 251.1911
-69.860107 -398.76923 1374.9539
-66.893021 -399.7601 887.15369
-144.49524 -373.84143 1178.0605
-61.740185 -401.48096 1474.8689
-91.79631 -391.44244 1117.4449
-91.829735 -391.43146 433.42334
0.032194138 -422.11273 1537.6326
-66.655022 -399.83969 851.02545
18.696512 -428.34692 558.08484
-97.549561 -389.52081 789.22894
-172.7377 -364.40826 430.11911
-148.68753 -372.44049 951.19556
-154.59512 -370.46777 835.43164
9.2107363 -425.17822 982.29694
-148.33867 -372.55734 1047.5359
-315.03302 -316.8822 296.66995
-146.43314 -373.19406 1561.2162
-90.096817 -392.01022 253.41882
-27.338306 -412.97092 1627.1494
-95.437134 -390.22638 947.20776
-140.3324 -375.2316 1268.7037
-53.84341 -404.11835 720.70831
-99.623199 -388.82779 949.96326
-131.93127 -378.03769 1526.3289
14.018305 -426.78418 1598.7357
4.9059944 -423.74091 1545.2097
-103.51814 -387.52701 1452.6177
-107.62881 -386.15427 1283.9139
-6.0846329 -420.07001 18.563002
-37.367989 -409.62115 1100.7747
-255.67903 -336.70596 349.38589
-45.186615 -407.00952 642.71277
-13.21854 -417.68704 1134.1157
-111.29852 -384.92917 316.93994
-159.29532 -368.89807 847.19031
-75.136757 -397.00674 749.67175
-240.34586 -341.82721 351.05157
-191.37303 -358.18445 892.02032
-23.865299 -414.13126 1353.3004
-0.94597054 -421.78625 1509.772
53.64175 -440.01813 812.12512
-86.587929 -393.18204 274.80276
-95.093338 -390.34131 773.15167
-4.8445072 -420.48395 1182.1765
-155.9809 -370.00507 1197.8645
-59.708904 -402.15964 253.36172
-2.9993019 -421.10046 1220.7716
-153.77368 -370.74274 1053.6298
-88.649223 -392.49365 1085.1584
-33.946735 -410.76395 1659.7229
-160.28508 -368.5676 1322.1986
-60.354805 -401.94376 926.71796
-44.214828 -407.33429 1483.1238
-24.165432 -414.03049 661.50671
-43.371178 -407.6163 1254.787
-338.43121 -309.06744 203.57767
-85.090729 -393.68237 1638.077
-197.61517 -356.09949 852.95679
26.521677 -430.9603 889.65137
-70.060921 -398.70193 1119.4241
-40.695183 -408.51016 1232.3723
-19.07749 -415.73035 57.218025
-34.619038 -410.53961 1001.2576
-45.760597 -406.8183 536.89099
-89.130379 -392.33292 521.09387
-83.928894 -394.07037 101.47417
-23.482269 -414.25912 1376.0476
-146.39586 -373.2063 458.91574
-82.965187 -394.39172 708.95624
-56.778168 -403.13861 594.3822
-142.31087 -374.57104 1445.4634
-162.32841 -367.88492 989.81921
-10.345558 -418.64691 848.43335
-341.32666 -308.10019 179.0834
-350.20349 -305.13565 140.82309
-55.469559 -403.57544 450.77924
18.228437 -428.19055 1479.149
15.31283 -427.21652 1597.6306
-110.19093 -385.29822 688.03546
6.4860835 -424.26804 1027.7059
-379.6626 -295.29636 195.995
-133.42896 -377.53699 954.854
50.758789 -439.05505 1554.3862
-30.760851 -411.82761 651.20581
15.641015 -427.32578 1513.4135
-47.646862 -406.18842 1299.6057
-141.48514 -374.84659 1521.9663
-41.945198 -408.0925 1341.847
-369.49948 -298.69049 181.92583
-44.53088 -407.22858 799.14209
-50.515644 -405.23032 1305.6921
-17.604046 -416.22253 611.13794
-146.4727 -373.18057 1073.6829
-157.13411 -369.61957 969.25195
-55.861267 -403.44485 560.85364
-60.146606 -402.01331 260.94037
-91.994606 -391.37604 255.88083
-98.884758 -389.07468 514.0553
31.576275 -432.64886 1203.6666
-36.64061 -409.86435 224.95706
-28.539375 -412.5701 888.72607
-74.306992 -397.28381 1449.385
-10.19157 -418.69824 1474.0022
-145.26241 -373.58463 1273.8475
0.13833332 -422.14825 72.777786
-3.304636 -420.99826 519.58887
-84.004005 -394.04468 1273.2543
-122.23017 -381.27759 1563.1572
-69.845886 -398.7738 757.33374
-55.845734 -403.44949 636.25879
-257.46545 -336.10901 327.17847
-14.509073 -417.2562 1527.4453
21.731281 -429.3606 1463.5171
-109.40052 -385.56299 323.83017
-146.56369 -373.14996 1403.7584
-44.181236 -407.34549 108.34026
1.3642769 -422.55765 702.12006
-132.94615 -377.69867 1597.7847
-63.726669 -400.81738 1419.9843
-164.86365 -367.03821 428.32126
-105.10225 -386.99817 1388.6821
-334.32199 -310.43939 241.52681
-13.363897 -417.63892 1239.647
-332.45444 -311.06329 147.54765
-51.11834 -405.02887 246.85794
-117.92889 -382.71442 864.59406
-134.03308 -377.33585 456.73434
-187.32944 -359.535 905.55243
-128.41769 -379.21121 1009.2871
-54.936054 -403.75366 616.47406
-98.162071 -389.31631 1511.4659
-79.147499 -395.66708 926.79517
-151.33997 -371.55515 824.7644
-90.644264 -391.8273 774.83948
-24.900135 -413.78571 565.745
-239.22391 -342.20166 337.271
-71.403328 -398.25378 437.71198
-202.83615 -354.35526 815.52551
-8.5219212 -419.25568 858.00269
-150.06082 -371.98242 1518.356
-32.868195 -411.12415 1623.3202
-197.98392 -355.97607 364.79654
-55.460411 -403.57867 323.3815
17.08757 -427.80896 841.00757
-43.01424 -407.73553 523.07104
-73.931747 -397.40903 937.10229
-99.759544 -388.78259 617.90082
-133.68808 -377.4505 1398.6508
-307.71625 -319.32562 330.5943
-34.744576 -410.4975 1178.7876
-61.743774 -401.48004 253.28523
-50.165764 -405.34702 249.7941
-98.435684 -389.22498 1239.1499
-103.2923 -387.60294 313.76831
-377.88788 -295.88852 229.29596
-87.006302 -393.04236 1581.1582
-99.589348 -388.83984 916.55347
19.102594 -428.48215 1473.0374
-182.03995 -361.30139 373.38977
-295.35312 -323.45496 271.90149
-129.09108 -378.98624 1433.4152
23.274681 -429.87558 832.51086
8.3313475 -424.88458 486.54178
13.248606 -426.52728 1520.3014
-156.61522 -369.79297 787.24786
40.065834 -435.4838 867.79272
-261.79919 -334.66193 344.19174
-30.16716 -412.02603 1028.3411
-25.975838 -413.4259 640.42963
-17.963514 -416.10211 1195.6461
-74.801048 -397.11884 1511.5763
-30.95071 -411.76501 1327.1387
-179.49731 -362.15082 829.64484
46.236847 -437.5448 833.27545
-29.846863 -412.13348 821.25684
18.354347 -428.23251 1559.7502
-69.957726 -398.7366 1521.3297
-79.878899 -395.42273 1380.8254
-60.351662 -401.94495 492.53989
-162.60745 -367.79175 1508.6255
-61.009361 -401.72473 671.81055
-320.5278 -315.04651 219.76756
-93.199348 -390.97424 98.823135
-92.317047 -391.2684 360.99097
4.0556159 -423.45624 1018.9467
-96.762787 -389.78378 757.45276
-138.9151 -375.70505 420.61359
12.833284 -426.38794 1024.2715
-71.839668 -398.10794 816.57391
-73.949883 -397.40329 1295.6467
-10.39237 -418.63123 127.63509
-74.533646 -397.2081 1261.9949
-28.600594 -412.5495 1533.9371
-6.8991375 -419.79828 34.862808
-146.13437 -373.29382 749.50092
-89.286049 -392.28043 639.25439
-48.962734 -405.74884 608.00079
-154.15784 -370.61359 865.7525
-119.07243 -382.33255 859.94092
-79.488632 -395.55286 1029.1805
-91.276299 -391.61584 1088.4454
-92.998093 -391.0412 901.81354
-42.92469 -407.76526 85.881439
38.308998 -434.89722 1560.8376
-41.367237 -408.28546 1340.4685
-132.89673 -377.71457 670.20331
-93.443375 -390.89218 839.53638
-64.575775 -400.53397 348.76437
-159.6024 -368.79556 763.2171
-149.11292 -372.29871 786.96838
-112.53587 -384.51587 99.924484
-34.576981 -410.55331 1629.0436
-27.622332 -412.87607 413.43597
-81.093521 -395.0174 1246.1167
-12.244362 -418.01257 1541.5284
-139.88945 -375.37939 882.38239
-128.63368 -379.1387 874.49316
-114.02854 -384.0166 1345.4921
-87.677826 -392.81802 967.22339
-133.11279 -377.64267 1089.9502
-42.275471 -407.9823 542.03943
14.367463 -426.90088 773.63776
0.4791646 -422.26245 1443.3252
-69.89183 -398.75815 952.41284
55.588772 -440.66867 752.13556
-96.796967 -389.77209 1143.8608
-42.243149 -407.99326 55.022835
26.760647 -431.03989 869.20404
-25.544693 -413.57022 1565.5896
-286.01245 -326.57489 313.14008
-99.106621 -389.00037 659.35498
-18.192261 -416.02579 157.52216
-152.1629 -371.2803 1306.0288
-104.99399 -387.03445 1195.864
-160.50739 -368.49292 868.00397
-96.377411 -389.91217 1335.7373
-64.027679 -400.71732 962.57227
-95.323723 -390.26413 1147.8304
-99.887199 -388.74014 1118.228
-164.16225 -367.27267 1253.2004
14.120569 -426.81848 996.2218
-181.07181 -361.62445 1390.5134
7.6130543 -424.64511 1649.514
-4.6056037 -420.56372 1131.1619
-193.20537 -357.5722 407.98926
-83.649918 -394.16339 1523.4138
-6.7970533 -419.83212 1422.2513
-156.71716 -369.75919 382.0943
4.2895193 -423.5347 878.11377
-79.832359 -395.43817 870.96973
-163.69971 -367.42715 1214.2327
-74.492752 -397.22186 1491.754
-87.209732 -392.97446 1254.2676
-17.743694 -416.17609 1241.6257
54.620022 -440.34479 745.70465
-143.9101 -374.03653 1523.3809
-72.378845 -397.92816 1494.2183
-42.19141 -408.01031 910.27197
-15.563457 -416.90399 747.17297
-259.86353 -335.30838 341.79025
-93.890572 -390.74304 1255.9207
-72.051796 -398.03732 1443.6223
-104.03721 -387.354 703.61133
-323.75928 -313.96759 335.46667
-83.565025 -394.19138 126.0003
-39.279114 -408.9827 1033.6116
-95.03582 -390.3605 1523.1431
-345.91656 -306.56732 299.38226
-91.16909 -391.65149 650.64661
-220.6293 -348.41248 433.32272
-92.173851 -391.31604 1621.3384
-237.15416 -342.89313 343.33118
-34.15744 -410.69354 1122.5845
27.377457 -431.24585 26.171978
15.634525 -427.32394 1570.6072
-36.071144 -410.05447 18.436758
-37.750587 -409.49335 1555.9972
-39.12849 -409.03317 1163.4794
-120.89405 -381.72342 678.47668
-134.30759 -377.24393 1416.8467
-311.20386 -318.16092 240.98203
-64.341156 -400.61212 954.65131
-172.96471 -364.33246 441.82965
-127.99504 -379.35217 1371.2571
-14.98069 -417.09857 1621.4602
-79.252579 -395.63196 1667.6111
-10.447603 -418.61252 1665.1371
39.436764 -435.27417 850.78143
-3.3440094 -420.98486 1513.4128
-135.39008 -376.88202 1277.4998
-141.60747 -374.80545 1390.9779
-168.82996 -365.71371 1251.6752
-123.21175 -380.94952 868.3653
-30.461708 -411.92822 459.3765
-21.603691 -414.88666 444.4165
-58.581608 -402.53625 932.30127
-8.628273 -419.22015 1188.6185
-45.492149 -406.90775 1146.1859
-13.185982 -417.69803 908.39862
55.959698 -440.79254 810.2594
-133.13535 -377.63556 1131.3273
-316.77878 -316.29922 228.50055
-132.00603 -378.01282 920.48987
-108.30305 -385.92938 1307.6973
-143.1013 -374.30673 402.6918
-49.393532 -405.60498 165.55577
11.087366 -425.80481 1022.187
-92.941315 -391.05978 813.47699
-59.031963 -402.38541 719.63
-143.97519 -374.01489 1128.2434
-186.35991 -359.85858 843.27271
-119.44331 -382.20831 1606.2838
-19.462818 -415.60196 1205.6123
-56.971077 -403.0741 438.20557
-42.468681 -407.91797 1245.611
-112.53577 -384.51508 661.23389
-43.665352 -407.51764 510.51169
-21.558056 -414.90195 469.24945
30.001301 -432.12231 1531.6691
-102.89588 -387.73535 998.6366
-109.65545 -385.47745 1039.559
-161.03178 -368.31833 1250.8811
-75.901054 -396.75156 250.57629
6.6437907 -424.32108 1394.6437
-134.93776 -377.03339 979.76874
-41.713673 -408.16992 444.29245
-19.707363 -415.51984 831.64343
-92.831421 -391.0965 125.04163
-96.20079 -389.97134 1508.8466
-250.34943 -338.48624 363.72119
-44.993996 -407.07434 1591.7595
17.105186 -427.81506 2.6138227
-158.34979 -369.21399 450.04251
-134.70146 -377.11227 1316.8115
-76.340012 -396.60452 1378.8403
-73.385132 -397.59183 1015.5408
-137.37659 -376.21835 1308.6453
-173.86591 -364.03137 932.22693
-150.94576 -371.6868 1319.6787
-52.822479 -404.45911 805.18713
-10.791277 -418.49811 1496.4543
-75.039162 -397.03934 934.54865
-109.12624 -385.65433 494.99911
-129.13437 -378.9718 1196.2847
-118.86934 -382.40027 760.03088
-114.86432 -383.73761 1281.3484
-17.714024 -416.18573 1618.6494
-131.90356 -378.04694 1433.4791
-44.442707 -407.25803 1338.7394
-17.368362 -416.30133 1003.3337
-107.29659 -386.26495 675.74261
-59.624603 -402.18799 1244.0865
-336.48688 -309.71661 127.87173
-84.527794 -393.87018 1426.6685
-45.798313 -406.80563 967.03656
-165.60385 -366.79126 911.32562
-14.381253 -417.29913 31.296429
-131.14432 -378.30014 873.10144
-337.01001 -309.54144 246.75081
-51.457191 -404.91537 869.22791
-89.788979 -392.11276 1350.4844
-55.111786 -403.69489 383.77808
-40.680527 -408.51508 231.88576
-342.24597 -307.79321 133.4617
-107.31139 -386.26062 1179.9042
-46.22628 -406.66245 797.33307
-153.43575 -370.85492 959.15387
-80.209564 -395.31244 145.64047
15.572361 -427.30304 980.83337
-102.5564 -387.84857 1421.5244
-10.652142 -418.5444 1641.8527
-72.11702 -398.01532 819.02942
-10.208492 -418.69229 1352.631
-123.57527 -380.82819 815.61951
-43.351761 -407.62274 1575.9102
-340.73544 -308.29736 276.09158
-99.658173 -388.81653 948.97357
-36.368546 -409.95496 1555.7837
6.5800705 -424.29965 871.54095
-97.100708 -389.67044 1276.0844
-54.308105 -403.96356 857.6825
-13.511552 -417.58893 1022.91
-63.638428 -400.8472 250.93289
-368.49652 -299.02512 221.3661
-119.53694 -382.17682 626.24866
-22.440655 -414.60733 852.55774
-288.1326 -325.86676 282.26443
-79.660355 -395.49609 234.8172
-32.033356 -411.40302 182.03624
-272.00815 -331.2525 310.40558
-51.21627 -404.99597 1647.583
-118.15607 -382.63812 1636.5581
-60.910599 -401.75793 627.58545
-30.461542 -411.92798 1257.7258
-53.824421 -404.12521 467.19153
-0.40839767 -421.96588 488.98688
-15.661594 -416.87076 660.70862
-335.45612 -310.06064 213.81219
-32.245975 -411.33246 828.41968
-99.162056 -388.9826 290.23141
-9.7573547 -418.84283 83.332008
-115.24782 -383.60968 1165.7462
-57.119087 -403.02454 1179.1818
-8.5182486 -419.2569 131.58304
-48.234764 -405.99173 131.53935
-52.031509 -404.72348 837.10797
38.925426 -435.10324 736.4978
-9.9585896 -418.77621 607.01337
-14.422378 -417.28516 71.280937
-48.229733 -405.99359 45.916847
-283.41882 -327.44098 356.19037
-143.58319 -374.14584 1359.658
-301.20084 -321.50201 285.06815
-13.12324 -417.71912 1668.1379
-32.136402 -411.36859 936.12341
-80.372948 -395.25757 509.11444
-8.9825726 -419.10205 489.96796
-32.560703 -411.22723 1649.501
-149.2897 -372.23975 780.64832
-159.83772 -368.71692 1489.5309
-11.300646 -418.32779 1430.0159
-118.49004 -382.52637 665.16455
-111.91416 -384.72293 1569.2196
-8.565012 -419.24167 554.93988
-371.08646 -298.16074 193.22359
-345.03137 -306.86273 336.61987
-49.256973 -405.65048 1429.4161
-12.302543 -417.99277 1092.9264
-113.37065 -384.23694 921.1499
-144.6674 -373.78339 1450.7606
-36.199226 -410.01172 1290.6654
-51.297649 -404.9686 1626.2117
-69.201904 -398.98895 1217.2783
-47.066086 -406.38248 591.8949
-57.578503 -402.87131 234.98633
-125.14567 -380.30365 697.38586
46.447617 -437.61563 845.41943
-164.38837 -367.19714 1257.3008
-36.76585 -409.82281 1204.2288
-112.67402 -384.4693 729.90479
-147.715 -372.76538 953.1322
-181.70033 -361.4151 906.37433
-50.457829 -405.24939 498.71283
-97.18869 -389.6416 1286.5793
-88.049652 -392.69403 1373.1892
-427.90002 -279.18469 247.59467
-138.32918 -375.90033 806.00574
-32.776104 -411.15475 694.03156
-164.60506 -367.12418 798.24011
-283.42685 -327.43854 287.11786
-250.09474 -338.57089 335.5907
-157.57141 -369.47375 938.83105
42.123493 -436.17114 1637.4165
-76.814217 -396.44617 136.23961
-21.100121 -415.05484 395.02249
-383.60345 -293.97974 181.89075
-32.378098 -411.28781 1128.5605
-223.33032 -347.51047 428.49976
-159.47853 -368.8367 432.48761
-164.60332 -367.12509 481.97061
-75.526276 -396.87659 422.29767
-313.17026 -317.50415 119.88758
-75.347656 -396.9361 496.36316
-68.311096 -399.28641 1212.7451
55.495468 -440.63782 34.563103
-129.28625 -378.9209 1427.6244
-175.21997 -363.57916 1333.9033
-117.57539 -382.83224 973.05975
39.309593 -435.2312 1624.2643
-117.76501 -382.76892 1352.9939
-336.40488 -309.74393 147.3349
-50.88076 -405.10791 486.07715
-20.459972 -415.26868 469.81787
-46.94912 -406.4212 484.94501
-104.49286 -387.20187 375.06909
-369.57111 -298.66675 155.75681
16.017282 -427.45178 1484.2183
-337.49142 -309.3808 217.76776
-11.224702 -418.35284 114.82884
-25.57423 -413.56012 504.50616
16.732498 -427.69058 1184.3931
-80.908928 -395.07889 1162.2722
-109.53675 -385.51706 1137.7163
-72.47094 -397.89667 681.2182
-69.240364 -398.97607 1596.7498
-101.6645 -388.14651 1269.449
-60.292812 -401.96478 93.728104
-65.772087 -400.13446 1460.4235
-148.96069 -372.34961 1033.5181
29.755697 -432.04047 886.00031
-109.9133 -385.39178 1177.2346
37.901215 -434.7608 1605.0994
-237.15015 -342.89453 346.85431
-96.319946 -389.93176 904.86725
-39.935184 -408.76352 1022.1722
-94.380135 -390.57928 796.16162
-156.31493 -369.89355 1305.3256
-190.13771 -358.59689 1357.6761
-10.792674 -418.49731 484.75079
-51.165661 -405.01248 654.96423
-119.94846 -382.03967 445.38974
-105.75302 -386.78107 1383.1565
11.877832 -426.0694 1509.9094
-163.42493 -367.5188 1363.4423
-66.078407 -400.03198 1189.6932
-24.950359 -413.76898 760.37274
-157.43997 -369.51749 1235.7332
-148.18939 -372.60712 1390.3989
-78.076065 -396.02478 1195.4143
-123.3841 -380.89206 788.36115
-393.22009 -290.76788 273.05951
-105.70232 -386.79797 997.02472
3.8246458 -423.37936 1114.5995
-58.406242 -402.59418 362.35049
-79.93763 -395.40289 700.19861
-32.760185 -411.16046 1295.9592
-63.018223 -401.05444 1081.105
12.281816 -426.20416 1172.811
-337.42877 -309.40201 186.4173
-272.15991 -331.20157 316.13089
22.271626 -429.54074 861.56549
-33.77354 -410.82144 1377.8052
-116.71613 -383.11914 442.88068
-165.0067 -366.99054 759.05945
-191.6028 -358.1076 1348.5441
-119.33061 -382.24646 1056.2869
-144.94701 -373.69006 1188.9557
-97.44162 -389.55646 660.59351
-30.453438 -411.93088 536.08203
-44.832401 -407.1282 1284.0105
-27.19466 -413.01929 900.10468
-25.657021 -413.53247 751.40588
-50.071556 -405.3783 880.59607
-65.502174 -400.22482 1605.3662
-120.488 -381.85925 1486.2852
-29.899889 -412.116 1207.3065
-48.976295 -405.74429 96.778854
66.22438 -444.22089 725.55554
-121.02673 -381.6796 1127.222
-148.84042 -372.38965 1399.0358
-50.733898 -405.15698 842.93292
-61.837402 -401.44815 646.0531
-36.567093 -409.88885 320.12708
-86.275497 -393.28647 1619.4556
-77.855118 -396.09891 1359.9878
-55.54792 -403.54926 913.58173
-170.83887 -365.0426 397.66223
-48.075951 -406.04456 1094.8741
2.165472 -422.82553 1507.5996
-133.73422 -377.4353 941.28009
-8.9238577 -419.12134 95.567215
-25.886513 -413.45609 1181.0957
-46.763016 -406.48328 1528.2578
-47.505642 -406.23569 399.34549
2.0368767 -422.78235 877.01709
-5.7421837 -420.18402 1584.2797
-17.856672 -416.13831 711.40686
36.531158 -434.30344 748.13782
-68.103249 -399.35577 85.738174
-99.015373 -389.03128 1049.6542
-256.58817 -336.40237 320.04794
-38.811054 -409.13904 1419.5193
-108.96785 -385.70718 942.17078
-60.513275 -401.89084 815.17358
-70.778198 -398.46265 540.88708
-148.90936 -372.36697 1293.4061
-381.92023 -294.54233 315.39514
-133.11868 -377.64044 1337.427
-140.94878 -375.02582 1197.3618
-105.08737 -387.00336 751.8197
-23.101196 -414.38605 1566.8387
-219.41673 -348.81766 366.85153
-252.90332 -337.63324 363.85327
-37.51239 -409.57324 1474.0188
-126.54742 -379.83588 1253.7722
-78.928955 -395.74045 326.92111
-62.352867 -401.27661 563.67242
-33.184258 -411.01852 836.79297
64.950287 -443.79559 759.86108
-71.062805 -398.36768 1232.0874
-177.76744 -362.72818 781.27081
-79.294579 -395.61835 225.05276
6.959693 -424.42642 1519.3076
-97.71991 -389.46408 288.44919
47.711437 -438.03754 780.89874
-265.75232 -333.34201 304.3432
-13.164038 -417.70529 1255.9166
-58.109268 -402.69391 175.05142
-82.254135 -394.62982 400.09006
-240.07286 -341.91849 359.5112
-94.702591 -390.47168 1572.3844
-63.952774 -400.74207 1225.7898
-75.896881 -396.75275 970.04742
30.647139 -432.33826 804.40466
-34.71505 -410.50705 1266.135
-271.44073 -331.44159 384.70477
-71.821747 -398.11407 538.00378
-105.16054 -386.97861 514.13867
-52.484482 -404.57266 218.06694
-20.726732 -415.17908 1039.9316
-26.114902 -413.38016 404.19373
-11.76538 -418.17249 936.10193
-24.222961 -414.01208 1204.6204
-210.47565 -351.80408 423.03305
-41.058121 -408.38852 1028.678
8.7137499 -425.01242 1251.9202
-71.456932 -398.23605 221.18771
-128.31009 -379.24707 1561.1519
-86.314911 -393.27325 138.49179
-30.135021 -412.03674 1021.7386
-220.21237 -348.55185 364.31818
-183.34029 -360.867 367.10239
-146.22202 -373.26428 1543.9034
-114.27921 -383.93365 1603.9265
-68.574577 -399.19818 122.34175
-11.758185 -418.17462 720.25305
-40.092552 -408.71124 1584.3848
-19.285223 -415.66098 1223.3378
-56.528957 -403.22144 1379.7124
-22.960224 -414.43365 576.53033
-152.01839 -371.32855 1363.7502
-12.722466 -417.85284 1541.2759
-121.06134 -381.66809 761.15735
-163.64523 -367.4454 926.06165
-22.552544 -414.5697 1672.7251
-42.637398 -407.86139 786.19019
-82.222084 -394.64014 477.92471
-96.216805 -389.96606 716.46686
-73.170708 -397.66364 97.66922
-87.487503 -392.88159 782.1601
-25.877439 -413.45898 173.16022
-89.123283 -392.33484 686.27295
5.1626711 -423.8262 1580.5443
-82.149284 -394.6647 1298.4337
-6.0090904 -420.09491 516.43787
-105.48563 -386.87033 744.64209
-30.497547 -411.91608 215.42065
-38.314125 -409.30511 1661.9973
-97.323288 -389.59662 901.37573
-160.84224 -368.38104 1341.8939
-1.8107088 -421.49701 989.84729
-46.977821 -406.4115 872.67407
-157.25775 -369.5787 1423.4279
5.4578829 -423.92532 1018.1057
-85.014648 -393.70715 357.70825
-38.830578 -409.13287 1547.1428
-9.6976242 -418.86322 1640.7024
-30.14381 -412.03412 942.89697
-122.61369 -381.14908 674.80005
-128.9821 -379.02264 1372.7336
-69.766731 -398.80023 1163.4573
-154.07184 -370.64243 1089.4213
-144.53027 -373.82974 909.65979
-23.926964 -414.11057 1613.7019
-156.16058 -369.94498 999.5697
-22.621441 -414.54657 1383.099
-58.185886 -402.66782 363.24207
-99.464584 -388.88129 886.80151
-95.562233 -390.18481 588.02496
47.869061 -438.08997 1625.392
-75.834076 -396.77408 1440.6538
-139.25887 -375.59027 464.34088
-180.62601 -361.7738 1349.6141
-61.887901 -401.43179 1215.4249
-13.997307 -417.42691 1580.8396
-159.80109 -368.72928 1502.6053
3.7960014 -423.37006 1643.095
-149.41171 -372.19897 457.96899
-13.464972 -417.60489 524.03351
-115.21114 -383.62195 478.96994
-45.276657 -406.98004 287.51257
12.161364 -426.164 898.72546
14.54709 -426.96097 1445.881
-61.278465 -401.63531 422.28519
-343.39374 -307.40967 264.45993
-29.692734 -412.18488 1058.975
-20.068888 -415.39896 1114.1375
3.7651634 -423.35971 1250.1079
-83.789841 -394.11658 1610.2313
-80.031082 -395.37173 791.22217
-158.79861 -369.064 379.4324
56.244591 -440.88788 1588.7103
-10.686898 -418.53262 1663.2903
-69.623093 -398.84799 869.71802
-7.8611012 -419.47647 39.062119
-44.232765 -407.32855 1544.6072
-146.58907 -373.14221 1057.6107
-111.20847 -384.95911 1415.7534
-286.84122 -326.29773 321.12936
-9.4277611 -418.95303 837.72028
28.181973 -431.5144 1586.0873
-131.91803 -378.04175 1037.6428
-49.900124 -405.43549 1660.5576
-109.58907 -385.49976 964.90167
-106.50002 -386.53143 703.42474
-84.130379 -394.00256 1067.8723
-85.417564 -393.57315 588.41174
-39.014465 -409.07101 1277.3367
-71.481064 -398.22739 1066.1078
-112.33154 -384.58386 1323.6062
-126.3865 -379.88974 1414.1797
25.988037 -430.78183 1487.9056
-55.721672 -403.49149 223.7467
-18.123541 -416.0488 1131.6151
-52.853554 -404.44922 1460.2478
18.69993 -428.3476 1625.9922
-106.92494 -386.38922 1588.7603
-5.2074051 -420.36258 1567.6278
-28.788834 -412.48639 985.96082
-3.7257719 -420.85773 1396.6855
17.57021 -427.97028 494.56641
-132.12006 -377.97437 1573.5991
10.489167 -425.60562 1446.0074
-176.89053 -363.02103 872.94019
-7.6362066 -419.55161 1383.5122
-107.84928 -386.08032 671.63727
-120.72079 -381.78128 681.01056
-26.778215 -413.15826 1620.5206
-66.666183 -399.836 336.79599
-327.39136 -312.7547 157.91046
36.390934 -434.25641 1573.4607
-8.7686872 -419.17334 1481.6798
-293.73157 -323.99664 278.61182
-356.78741 -302.93597 221.93587
-82.956146 -394.39517 572.0625
-32.372982 -411.28979 395.32208
-100.16965 -388.64578 782.43134
-81.713982 -394.80975 500.44913
-36.45248 -409.92715 1601.6263
-66.3433 -399.94385 460.93826
-170.90875 -365.01926 1357.2896
-112.75151 -384.44345 1489.0564
-120.04253 -382.00787 986.3678
-77.075325 -396.35895 738.97852
-71.386856 -398.25894 1368.8793
-33.144108 -411.03223 457.6702
-43.464462 -407.58545 1493.5978
87.866493 -451.44916 739.30402
-47.9534 -406.08551 1022.9152
-353.98578 -303.87216 319.14905
-77.801376 -396.11639 1484.239
-356.88226 -302.9046 169.92662
60.316002 -442.2475 783.51154
-112.31171 -384.59055 1470.3335
-119.15475 -382.30496 1300.1206
-136.33847 -376.5654 880.58594
-74.844086 -397.10455 1371.5161
-111.69125 -384.79736 1078.4396
-47.371792 -406.27979 508.37769
-93.078224 -391.0144 1286.9585
-52.097111 -404.70203 1001.1647
-377.23145 -296.10791 174.31854
-355.94916 -303.21606 226.41394
-159.24168 -368.91632 1534.1548
-244.62166 -340.39929 367.22675
-90.480743 -391.88168 1039.0851
-96.984779 -389.70959 596.64569
-128.69272 -379.11908 1594.3807
-41.666451 -408.18549 1312.6104
5.3415518 -423.88629 1174.3296
-182.77699 -361.0553 826.57715
-114.8821 -383.73169 1397.7441
-27.535084 -412.90546 196.54492
-48.221413 -405.99622 878.61597
-136.95758 -376.35895 896.79303
-276.53259 -329.74069 330.0481
-95.398323 -390.23907 1657.7175
-73.197365 -397.65436 1546.877
-40.808426 -408.47235 1293.6984
-3.5730495 -420.9086 1127.7957
-35.692726 -410.18076 624.19525
-162.91582 -367.68903 903.68677
-126.17746 -379.9588 664.35962
-188.16519 -359.25558 390.42932
-78.477325 -395.89062 1396.6938
-102.53629 -387.85562 930.70605
57.865639 -441.42899 815.06
-135.90945 -376.70877 1595.13
-103.66522 -387.47842 1252.3086
-71.439514 -398.24115 677.03589
-35.32275 -410.30408 27.608971
-123.15107 -380.96997 782.60974
-146.39117 -373.20795 1042.5242
-88.111839 -392.67279 1091.8715
-127.44263 -379.5368 721.5462
-57.534058 -402.88586 1219.2393
-51.536274 -404.8891 1557.9436
-92.335541 -391.2619 650.9104
-87.54557 -392.86206 706.19849
-82.172318 -394.65674 1124.149
-18.596476 -415.89117 439.24725
-13.667578 -417.53754 591.99854
-0.10690784 -422.06665 1424.2759
-193.03809 -357.62808 425.19064
-36.432888 -409.9335 1570.0215
-112.52381 -384.51932 1232.9006
-25.061251 -413.73184 1228.3683
12.678648 -426.33667 485.22247
23.146992 -429.83334 1223.2797
10.51372 -425.61343 868.67859
-193.46597 -357.4852 1330.2357
-40.561081 -408.5549 934.35217
-38.49971 -409.24329 1512.9829
-377.10696 -296.14984 191.35513
-112.10014 -384.66098 844.09436
-33.948593 -410.76306 120.79266
-71.314095 -398.28302 675.26001
-36.334911 -409.96637 1182.1052
-30.292034 -411.98434 81.637238
-181.49017 -361.48468 1400.2467
-100.56634 -388.51331 1428.3806
-28.998838 -412.41672 1430.3962
81.059708 -449.17548 770.13556
-73.843613 -397.43884 1328.2427
-45.878151 -406.77881 626.67255
-90.929375 -391.73169 1456.6179
-185.18652 -360.25037 836.14972
18.976521 -428.44043 1498.4055
-155.0826 -370.30539 456.47864
-70.125862 -398.68063 215.129
-76.065422 -396.6965 381.70935
-130.19844 -378.61615 1571.7725
-114.82215 -383.75195 1429.329
-43.822548 -407.46582 1492.3328
-132.30345 -377.91324 1006.705
-28.705027 -412.51498 1372.4257
-152.62346 -371.12634 1510.9333
-175.70581 -363.41687 1285.0803
-113.72893 -384.11707 928.20215
-88.1138 -392.67273 1670.9248
10.202877 -425.50989 888.87585
4.4719009 -423.59561 540.99963
-96.954323 -389.71967 819.13403
-2.2871485 -421.33795 1194.6855
54.736816 -440.38391 737.77753
23.280952 -429.87781 1637.7638
-102.3856 -387.90552 1042.2561
-112.83927 -384.41428 1158.2533
-2.2656598 -421.34528 1180.3684
6.0299788 -424.11609 1147.2195
-157.33907 -369.55118 1027.9609
-66.241699 -399.97742 624.29749
-50.780975 -405.14136 1185.7081
85.774239 -450.75018 787.61969
-255.84702 -336.64981 339.74097
-11.37538 -418.30313 599.36481
-64.338623 -400.61359 1206.0664
-38.912048 -409.10571 226.26062
-374.12231 -297.14594 244.47256
-123.0993 -380.98746 1473.4962
-14.23617 -417.34705 1066.7288
-120.19286 -381.95822 1584.0148
-84.96019 -393.72571 966.5072
20.100424 -428.81573 497.32089
-103.93635 -387.38779 1014.2983
-87.379517 -392.91742 360.3324
-47.794399 -406.13907 1371.5732
-80.378464 -395.25592 1184.4899
-60.820076 -401.78827 877.54114
-141.21274 -374.93719 1587.6904
-3.0672169 -421.07782 1257.3311
-86.075607 -393.35309 1642.6122
-45.12978 -407.02896 388.47488
-78.670425 -395.8262 122.69798
-331.32098 -311.44183 162.75662
-114.00521 -384.02441 805.67816
-121.01126 -381.68488 1324.1737
-251.20064 -338.20175 349.96957
-129.39908 -378.88351 1468.9154
-28.210768 -412.68011 1241.937
-30.750044 -411.83188 1268.7104
-153.87463 -370.70859 964.88495
-128.40471 -379.21545 425.91925
-91.124252 -391.66666 1590.6155
-16.624989 -416.54974 581.84924
-26.422333 -413.27719 537.51208
-117.79793 -382.758 1315.9462
-121.02702 -381.67981 100.32278
-61.86586 -401.43933 1173.4319
-94.075363 -390.68109 359.44437
-62.477524 -401.23477 264.6171
21.787998 -429.37961 582.39447
40.063 -435.48273 754.99268
-181.431 -361.50479 1320.7349
-43.683891 -407.51172 419.3251
-157.4371 -369.51874 1263.9341
-327.16687 -312.82922 213.584
-82.505714 -394.54538 1155.8705
-105.72087 -386.79141 1517.6984
-17.756645 -416.17169 1644.5808
-158.31918 -369.22406 1332.5375
-75.928909 -396.74237 1605.0051
-57.718307 -402.82391 653.2782
-42.665413 -407.85184 417.19525
-52.264694 -404.64539 658.27576
-99.031044 -389.02588 1149.061
-79.403244 -395.58142 1279.5354
-120.23103 -381.94559 1082.0375
-80.619804 -395.17496 639.54596
-39.234116 -408.99805 1060.2015
-54.052643 -404.04861 972.21558
-109.59509 -385.49789 1304.2578
-14.723505 -417.18457 491.59262
15.57185 -427.30316 1245.0262
81.268394 -449.24579 730.32428
-371.8714 -297.8985 291.68594
13.334366 -426.55548 638.86548
-48.181934 -406.00967 47.817177
-64.817711 -400.45276 360.14813
6.0805626 -424.13293 1636.4896
-149.67604 -372.11108 910.99152
-26.850204 -413.1344 50.150688
-64.432632 -400.5816 766.55518
-379.69818 -295.28387 277.88599
-86.879425 -393.08478 1375.4725
-105.53654 -386.85303 620.31342
-5.0545001 -420.41382 1417.8822
-151.21996 -371.59552 1439.1235
-316.13651 -316.51373 131.78351
-19.736107 -415.51007 23.775749
-131.62695 -378.1394 907.75439
8.6421547 -424.98853 895.97925
-12.74577 -417.84497 1621.3334
-93.531929 -390.86304 457.31097
-17.037682 -416.41168 933.53662
-162.24341 -367.91302 1456.8452
-115.95532 -383.37305 71.291687
-108.77784 -385.77081 1252.9833
-367.94748 -299.20859 279.25861
-32.416531 -411.27505 77.169434
-69.368256 -398.93353 711.88507
-90.62365 -391.83368 1585.2974
-116.67897 -383.13177 1240.8625
-111.54377 -384.8468 356.43304
-58.54343 -402.54892 899.85693
-58.131752 -402.68631 454.33157
-86.502487 -393.21024 802.39441
-7.6154952 -419.55838 806.30121
9.7247896 -425.34991 504.64185
-359.46765 -302.04086 311.43292
-33.493378 -410.9155 1676.8723
-159.89426 -368.69797 404.77997
10.269688 -425.53235 66.59581
-66.534531 -399.87988 776.94312
-195.23807 -356.89304 872.79108
-136.82901 -376.40189 454.31488
-55.806915 -403.46265 1360.8845
4.8147454 -423.70984 1034.2825
-40.030121 -408.7323 165.58226
-188.93013 -358.99982 812.21606
-124.96075 -380.36542 1035.8367
-40.685272 -408.51364 404.254
-120.227 -381.94635 1066.3099
-14.132439 -417.38174 1582.7719
-135.3515 -376.89508 820.15326
-19.290392 -415.659 978.72754
-26.532135 -413.24014 1456.2383
71.697121 -446.04895 821.64886
-82.901321 -394.41315 198.36386
-134.91823 -377.03967 1346.2725
-282.04663 -327.8996 292.71637
-79.383034 -395.58829 1186.8323
-150.62981 -371.79208 1522.7446
-71.970818 -398.06403 1271.8
-69.904556 -398.75409 620.90216
-94.255783 -390.62057 986.63
-77.278839 -396.29132 1324.0042
29.896961 -432.08774 1480.3854
43.335152 -436.57593 1570.8064
-69.639534 -398.84247 1190.8859
2.4306488 -422.91394 491.43222
8.7697182 -425.03119 1059.4093
-143.17599 -374.2818 413.78784
-78.514175 -395.87875 1416.5773
-76.416962 -396.57913 453.37085
-116.49844 -383.19186 1046.4115
-46.518349 -406.56482 725.52722
85.875847 -450.78406 792.1853
-156.77773 -369.73901 764.71765
-150.25851 -371.91632 750.07568
-76.756493 -396.4657 1260.9257
-109.03924 -385.68311 797.0976
-70.217522 -398.64957 623.7489
-167.41502 -366.18622 386.64905
37.086166 -434.48853 1557.2847
-93.767258 -390.784 728.37793
-119.09357 -382.32513 1540.4999
-99.012711 -389.03198 1077.5303
-19.005104 -415.75403 1585.187
-37.12468 -409.70285 1494.5094
-34.121223 -410.70569 184.31119
-94.587753 -390.51013 1610.0524
-140.93661 -375.02969 413.03577
-45.498028 -406.90594 1653.9951
46.585125 -437.66104 1584.2866
-51.725498 -404.8259 1529.1902
-70.853317 -398.43698 801.05817
-105.79588 -386.76654 1607.8074
-118.67683 -382.46445 417.55371
-27.536289 -412.90527 1234.8895
-77.61367 -396.17899 640.47388
5.6302724 -423.98276 1402.5713
-17.972502 -416.09909 694.22156
-7.4829578 -419.60269 1517.583
-51.555824 -404.88239 359.50754
-55.866367 -403.44281 1148.329
-85.84465 -393.43027 377.37933
-20.502901 -415.25433 1247.3933
-65.005814 -400.39026 369.70816
-38.309258 -409.30676 980.98425
79.540787 -448.66846 775.73413
-86.821175 -393.10413 946.25208
19.059441 -428.46826 825.91748
-13.414391 -417.62195 778.76788
-106.78677 -386.43567 1049.2312
7.8719101 -424.73111 1486.749
7.1398745 -424.48697 708.92133
-201.61813 -354.76202 1350.0286
86.181351 -450.88617 787.15363
-30.523882 -411.90723 540.45923
-1.455245 -421.61591 803.8692
-131.05975 -378.32858 1357.1238
-46.8447 -406.45624 993.60358
-12.651978 -417.87628 832.10388
-110.88677 -385.06638 404.13065
9.1443214 -425.15628 897.16553
-312.33856 -317.7818 329.8363
-117.87711 -382.73172 897.46295
-53.802761 -404.13202 625.98077
39.433582 -435.27274 1533.2456
-79.693832 -395.48444 1075.0988
-53.33469 -404.28839 794.91724
-44.917267 -407.10019 1327.925
-20.701042 -415.18799 1657.5222
-68.178696 -399.33057 349.44727
-54.991493 -403.73547 1206.5955
-29.898714 -412.11624 607.62543
-17.132965 -416.37976 1251.5498
7.5678091 -424.62997 551.30676
35.92065 -434.09967 1490.7848
-102.6741 -387.80902 1344.8761
-35.465584 -410.25635 406.88351
-120.48368 -381.86053 109.66273
-145.43376 -373.52768 1334.2842
-84.43502 -393.9007 680.2561
-16.056114 -416.73914 1468.4414
48.030663 -438.14401 752.40277
-168.77496 -365.73209 413.50046
-127.19888 -379.61804 732.28253
-107.2085 -386.29492 589.64789
-82.03492 -394.70316 528.6676
-138.04488 -375.99548 1542.3582
-110.3161 -385.25699 1582.0747
-24.599396 -413.88571 1091.6194
-64.815338 -400.45386 487.54013
-103.36112 -387.57944 987.83466
-40.865566 -408.45294 359.5415
-260.65311 -335.0448 361.43604
-330.32117 -311.77591 320.31879
-75.939163 -396.73877 602.70496
-77.536125 -396.20526 943.55615
12.491144 -426.27405 864.52881
-31.000172 -411.74826 992.69824
12.808792 -426.3801 1186.2413
-26.522682 -413.24356 1571.0248
42.944622 -436.4451 838.52393
-30.308336 -411.97925 1323.5358
-34.171383 -410.68851 800.46667
-105.10886 -386.99603 1195.6416
-132.94025 -377.70026 694.29059
-41.104134 -408.37366 1295.5131
-117.884 -382.729 799.7677
-42.097366 -408.04163 355.85162
-283.48926 -327.41751 344.03241
8.4880314 -424.93683 671.24512
-260.93658 -334.95032 313.07275
3.0445576 -423.11917 569.57007
-75.404327 -396.91748 571.66132
6.4654646 -424.26132 636.20819
-123.06777 -380.99789 1520.6171
-198.65807 -355.75079 1336.0735
-242.02512 -341.26608 336.38324
-38.700008 -409.17645 162.1655
-135.80809 -376.74246 874.57678
-107.09443 -386.33295 82.876312
-68.195435 -399.32498 1356.5603
-25.132683 -413.70807 1421.4359
-333.42188 -310.74011 195.02887
-197.09839 -356.27158 867.03223
-77.026283 -396.37561 758.3479
-351.9176 -304.56293 268.20117
-37.796597 -409.47833 147.38724
-17.13681 -416.37823 1286.0195
-64.892044 -400.42865 225.89786
-169.32074 -365.5495 936.77942
-99.096947 -389.00427 1250.0835
-62.561874 -401.20679 908.11853
-183.99547 -360.6481 880.87384
-259.72418 -335.35486 396.93106
58.739147 -441.72101 804.04517
-32.40374 -411.27972 1680.3452
-137.52907 -376.16809 899.59204
-116.06122 -383.33813 1108.6332
-1.8073964 -421.49854 614.83392
-124.2105 -380.61615 883.61414
-131.88026 -378.05438 1019.1564
-14.581421 -417.23187 1537.6438
-103.85655 -387.41415 409.82584
3.3958616 -423.23639 614.85327
89.775482 -452.08685 774.02246
-158.65564 -369.11154 432.4639
-74.636971 -397.17346 1146.9496
-83.647415 -394.16409 264.86606
-101.51804 -388.19525 837.7818
-11.908691 -418.12476 481.43457
-127.81403 -379.41287 926.88782
-25.447144 -413.60303 534.22418
-35.193287 -410.34738 809.79932
-335.16437 -310.15845 231.90488
-32.789146 -411.15063 1636.8042
-144.8188 -373.73303 936.22375
-100.69279 -388.47122 1300.8755
-100.04147 -388.68842 1189.3052
-60.490189 -401.8988 170.19612
-25.0481 -413.73599 1368.6171
-53.962708 -404.07864 1392.5251
-154.87029 -370.37607 1302.3024
