# .PCD v0.7 - Point Cloud Data file format
VERSION 0.7
FIELDS x y z
SIZE 4 4 4
TYPE F F F
COUNT 1 1 1
WIDTH 263
HEIGHT 1
VIEWPOINT 0 0 0 1 0 0 0
POINTS 263
DATA ascii
40.696426 -10.711819 -8.8031235
40.685646 -10.647079 -8.8223438
40.74818 -10.654376 -8.8170681
40.743488 -10.813643 -8.7188692
40.696537 -10.702066 -8.7735243
40.732822 -10.742543 -8.7557001
40.698715 -10.694719 -8.7591782
40.743099 -10.644444 -8.7574654
40.729637 -10.807459 -8.6580534
40.696976 -10.743961 -8.6495705
40.732407 -10.767157 -8.6576462
40.24345 -10.618553 -8.6072378
40.737194 -10.687312 -8.6782417
40.269379 -10.596962 -8.6017265
40.668495 -10.835922 -8.5163012
40.736523 -10.83525 -8.5308437
40.67979 -10.765734 -8.5582047
40.744434 -10.755768 -8.5688171
40.188171 -10.627542 -8.5537472
40.260902 -10.657219 -8.5497589
40.14761 -10.555631 -8.5401068
40.219543 -10.551779 -8.5558853
40.66893 -10.860757 -8.4554358
40.754017 -10.842969 -8.4424162
40.274605 -10.708049 -8.4433088
40.304482 -10.703785 -8.4154015
40.675011 -10.764911 -8.4562969
40.740337 -10.762095 -8.4519882
40.185287 -10.629775 -8.4870653
40.238419 -10.660152 -8.449626
40.305584 -10.674335 -8.4214077
40.096199 -10.531631 -8.4816179
40.144527 -10.543591 -8.4667559
40.240452 -10.590115 -8.4915781
40.150173 -10.487162 -8.4704351
40.690788 -10.901595 -8.3103914
40.662876 -10.856773 -8.3549547
40.746513 -10.837916 -8.3581171
40.238529 -10.740658 -8.349473
40.320435 -10.735408 -8.3504019
40.665569 -10.779661 -8.3487949
40.717079 -10.780936 -8.3439751
40.23661 -10.672112 -8.3402987
40.318165 -10.683084 -8.3380518
40.655815 -10.923759 -8.2440939
40.706329 -10.926122 -8.2355013
40.62616 -10.848342 -8.2433367
40.725246 -10.835431 -8.2371387
40.239311 -10.771254 -8.2493896
40.320766 -10.748143 -8.2464867
40.674179 -10.781803 -8.2392578
40.712227 -10.792494 -8.2789278
40.261417 -10.667467 -8.2718821
40.31142 -10.684758 -8.2866602
40.407959 -11.005597 -8.1006403
40.669147 -11.028548 -8.1359434
40.716595 -11.010818 -8.1239119
40.363251 -10.935695 -8.1203957
40.430077 -10.949864 -8.1140652
40.589993 -10.925972 -8.1334829
40.637367 -10.976256 -8.1627483
40.724884 -10.95262 -8.1353045
40.265114 -10.824278 -8.143034
40.347572 -10.867614 -8.1382666
40.423569 -10.894354 -8.1182537
40.589958 -10.890352 -8.146594
40.637444 -10.8351 -8.1297817
40.720783 -10.858357 -8.1417236
40.236031 -10.744331 -8.1437273
40.339947 -10.763517 -8.1578579
40.258602 -10.693951 -8.1797361
40.460529 -11.113676 -8.0339174
40.548317 -11.127829 -8.0186825
40.647202 -11.118707 -8.0305796
40.36935 -11.023086 -8.0573568
40.46645 -11.037308 -8.0796709
40.559151 -11.04563 -8.0522308
40.646198 -11.071165 -8.0758705
40.730282 -11.027932 -8.0311422
40.291847 -10.945019 -8.0388165
40.329575 -10.963833 -8.0753517
40.486832 -10.938824 -8.0481195
40.560814 -10.940783 -8.0592451
40.742908 -10.943092 -8.0307922
40.268211 -10.851072 -8.0663843
40.398121 -10.825561 -8.0885191
40.438976 -10.867139 -8.039629
40.586655 -10.878214 -8.0756044
40.64608 -10.850194 -8.0600624
40.7262 -10.880192 -8.0592175
40.266991 -10.751936 -8.0732994
40.338497 -10.778705 -8.0420732
40.393948 -11.113323 -7.9458284
40.456322 -11.167747 -7.9438472
40.552525 -11.185421 -7.94207
40.65081 -11.156378 -7.9533572
40.708763 -11.101747 -7.9615264
40.362694 -11.052092 -7.9270606
40.73214 -11.03988 -7.953598
40.291668 -10.91695 -7.9840183
40.335781 -10.932474 -7.9311848
40.419575 -10.907749 -7.9055681
40.541393 -10.914786 -7.9319944
40.678116 -10.902146 -7.9611635
40.730728 -10.967375 -7.951673
40.350796 -10.845617 -7.9678407
40.438175 -10.87203 -7.9587178
40.578201 -10.896593 -7.9429913
40.634285 -10.883772 -7.9707565
40.711143 -10.894367 -7.9933653
40.336525 -10.797641 -7.9979334
40.390289 -11.110044 -7.8350067
40.456158 -11.175454 -7.8523865
40.562702 -11.189397 -7.8555417
40.646278 -11.167119 -7.8501945
40.703934 -11.108297 -7.8476715
40.375957 -11.051305 -7.8742609
40.405384 -11.000441 -7.8206224
40.72226 -11.032264 -7.8541603
40.453781 -10.947522 -7.8561549
40.546116 -10.926289 -7.8518291
40.638577 -10.935191 -7.8605008
40.712921 -10.990691 -7.8650217
40.494221 -11.206551 -7.7572799
40.548832 -11.212085 -7.7268257
40.607414 -11.200513 -7.706749
40.387672 -11.111937 -7.7660966
40.435104 -11.171839 -7.7524428
40.554569 -11.193521 -7.7767487
40.648033 -11.15779 -7.7626348
40.700867 -11.109815 -7.7332711
40.390003 -11.050362 -7.7651529
40.408089 -11.017778 -7.7271271
40.692326 -11.002002 -7.7720995
40.707741 -11.077787 -7.761107
40.442822 -10.975303 -7.7483163
40.564423 -10.938763 -7.755816
40.658249 -10.965326 -7.75107
40.474876 -11.219126 -7.6334653
40.550858 -11.236691 -7.6497278
40.61871 -11.20619 -7.64994
40.396389 -11.114685 -7.699192
40.423622 -11.160303 -7.6648583
40.668114 -11.159048 -7.656743
40.704311 -11.135656 -7.6201267
40.397827 -11.082303 -7.6914449
40.434071 -11.042298 -7.6504579
40.718506 -11.050566 -7.6594005
40.476978 -10.990952 -7.6389704
40.542408 -10.954982 -7.6490273
40.653511 -10.957936 -7.6531134
40.708305 -10.991964 -7.6270227
40.472523 -11.216695 -7.5594277
40.546436 -11.239412 -7.5506659
40.635979 -11.214849 -7.5720248
40.434444 -11.146918 -7.5522308
40.680393 -11.179749 -7.5421996
40.735962 -11.13613 -7.5365195
40.453434 -11.045503 -7.5503955
40.756489 -11.047906 -7.5719352
40.830536 -11.009171 -7.5238724
40.489849 -10.989116 -7.5949755
40.545551 -10.963819 -7.5488968
40.654747 -10.93704 -7.5352001
40.73637 -10.955018 -7.5393257
40.859879 -10.955032 -7.522892
40.950844 -10.946177 -7.531734
41.054676 -10.927292 -7.5200334
41.103428 -10.911336 -7.5068178
40.889484 -10.899519 -7.5253444
40.962051 -10.876822 -7.5114384
41.048916 -10.868045 -7.526525
41.12587 -10.861813 -7.5114822
40.488861 -11.210652 -7.4654021
40.531181 -11.214523 -7.4537926
40.622868 -11.204841 -7.4669042
40.463516 -11.149301 -7.4468417
40.579704 -11.196384 -7.4071107
40.682812 -11.167422 -7.4539576
40.736111 -11.13478 -7.4595242
40.451149 -11.027326 -7.4206934
40.779079 -11.085297 -7.4207945
40.83276 -11.026891 -7.4594879
40.913948 -11.003712 -7.480175
40.492012 -10.988002 -7.4561033
40.535622 -10.962469 -7.4419489
40.652916 -10.932094 -7.4535418
40.760582 -10.937033 -7.441174
40.847733 -10.951202 -7.4293985
40.961884 -10.960381 -7.4504604
41.047672 -10.920646 -7.4615936
41.10746 -10.912228 -7.4939728
40.880798 -10.889549 -7.4697208
40.939167 -10.883296 -7.4646039
41.060623 -10.857554 -7.4596939
41.145485 -10.84272 -7.4384055
41.238571 -10.81196 -7.418849
41.155655 -10.799468 -7.4062052
41.233078 -10.779368 -7.4144473
40.373646 -11.110856 -7.3263783
40.461681 -11.126268 -7.3585167
40.557919 -11.165237 -7.3543215
40.638988 -11.127777 -7.3424649
40.718761 -11.118612 -7.3860703
40.388168 -11.0308 -7.3237691
40.44257 -11.043542 -7.355752
40.540024 -11.013832 -7.3098898
40.666325 -11.078485 -7.3112478
40.73962 -11.040748 -7.3512149
40.465401 -10.998864 -7.3554296
40.574223 -10.972396 -7.3492208
40.648796 -10.956218 -7.3454657
40.758209 -10.969832 -7.3753219
40.851044 -10.95648 -7.3987575
41.156349 -10.821159 -7.3919249
41.233177 -10.815667 -7.382257
41.173576 -10.796486 -7.383852
41.255489 -10.76134 -7.3533478
41.340851 -10.732931 -7.3364763
41.37101 -10.686138 -7.3267627
40.374298 -11.115337 -7.2959256
40.435123 -11.111331 -7.2629485
40.608524 -11.100261 -7.2976489
40.738644 -11.1127 -7.2282243
40.34166 -11.033539 -7.2588496
40.466034 -11.05891 -7.2654166
40.552303 -11.053225 -7.2860475
40.641636 -11.047489 -7.2592435
40.760387 -11.052081 -7.2753806
40.831245 -11.052553 -7.2232008
40.365925 -10.985975 -7.2512326
40.411026 -10.984337 -7.2163758
40.647648 -10.934663 -7.2449255
40.751312 -10.959766 -7.2488194
40.803787 -10.982121 -7.2177887
41.331894 -10.72271 -7.2930527
41.351711 -10.678593 -7.2787285
40.755775 -11.124199 -7.1679173
40.351753 -11.038239 -7.1599264
40.42342 -11.049985 -7.1786499
40.666843 -11.038123 -7.1603303
40.793697 -11.077812 -7.1036615
40.834068 -11.050385 -7.151845
40.352474 -10.962535 -7.1584859
40.671528 -10.952972 -7.1480455
40.742016 -10.924119 -7.1590033
40.819382 -10.970222 -7.129384
40.294941 -11.005553 -7.0763168
40.328381 -11.00886 -7.0602636
40.747852 -11.036963 -7.0813293
40.809502 -11.025618 -7.0996265
40.279911 -10.96848 -7.0389299
40.348267 -10.956711 -7.0550609
40.692554 -10.984343 -7.0935864
40.754383 -10.976651 -7.0774899
40.27721 -10.942772 -6.9410529
40.332211 -10.964205 -6.9591265
40.269249 -10.942396 -6.8424077
40.310772 -10.935245 -6.8457789
40.198189 -10.906469 -6.7540932
40.242947 -10.940697 -6.7587185
40.321613 -10.941051 -6.7774653
40.223637 -10.887635 -6.7274718
