# .PCD v0.7 - Point Cloud Data file format
VERSION 0.7
FIELDS x y z
SIZE 4 4 4
TYPE F F F
COUNT 1 1 1
WIDTH 1612
HEIGHT 1
VIEWPOINT 0 0 0 1 0 0 0
POINTS 1612
DATA ascii
6.4844346 15.453722 14.674313
12.604542 19.349056 14.602765
4.5966845 8.2308311 14.770397
7.5910034 15.42823 14.700054
8.604435 3.9568191 14.883545
5.6373563 18.042641 14.909813
5.6616387 18.101936 14.908562
6.8024125 19.78371 14.914626
4.3962259 5.2490816 15.006555
11.223366 5.0428023 15.173484
5.9361687 8.4258423 15.112982
6.9642057 15.384772 15.187828
5.5550108 16.295597 15.259897
9.8047237 8.0035076 15.399592
4.664887 8.3317432 15.414211
11.105746 15.781694 15.499624
3.7743256 7.3936357 15.543325
9.3940792 15.292345 15.526879
11.922803 16.487099 15.592379
7.5905247 8.6859798 15.692984
7.3139763 19.897509 15.674767
11.230071 6.6673203 15.772928
3.7478225 6.037159 15.89699
5.6602201 18.386765 15.862371
10.908616 5.2340579 16.025578
9.8772469 7.8167467 16.065298
8.2397346 15.260077 16.016916
5.3740082 4.1551161 16.199945
11.061266 6.488905 16.12991
5.9259968 8.5761433 16.155313
8.7406454 8.6527147 16.195356
12.284903 18.873629 16.182209
11.024075 15.79677 16.303059
6.3548851 19.613678 16.308624
10.157312 4.7234607 16.428152
12.48812 17.731873 16.431358
4.402472 4.578577 16.57666
3.4688373 6.8600149 16.599983
6.4813614 15.230808 16.528902
12.142984 19.073256 16.552847
7.7779002 19.992777 16.594852
8.3500471 20.150185 16.578323
10.826326 6.174839 16.60268
12.169969 18.85199 16.629938
7.7300067 3.9772677 16.754408
3.4569767 8.2706289 16.751112
11.919357 19.457138 16.722763
6.8523407 19.733999 16.756041
6.5613127 3.9646797 16.8193
10.632025 7.1443005 16.85923
7.8614879 15.163428 16.913223
10.462955 5.1637716 17.091963
10.536378 5.5139084 17.055355
9.1343861 15.120588 17.043154
5.219533 16.496628 17.02512
6.4129486 8.7716465 17.172474
6.4772801 15.152192 17.183331
5.1095719 17.273777 17.112057
12.017193 16.829323 17.201283
5.3952751 18.131367 17.221889
7.2898555 19.837879 17.206026
9.5950518 19.935682 17.203552
7.2245154 3.9285965 17.445721
3.2211838 6.5651984 17.468695
5.8737993 8.7701035 17.559645
11.72739 19.398088 17.519722
7.8802576 8.986269 17.616701
10.373013 15.381653 17.624779
8.1675024 20.061588 17.690351
10.225145 5.4227495 17.782787
6.5416183 15.088812 17.702913
6.144115 8.8372345 17.83791
6.8024998 15.051476 17.982574
11.091707 16.076279 17.984482
5.1982508 17.850763 17.958309
9.0334015 4.6366215 18.042778
10.115756 5.934319 18.26178
5.9524593 19.436871 18.257309
5.3414941 18.337269 18.341742
5.4697404 18.671574 18.355654
10.990644 19.454998 18.346159
5.393683 8.8509092 18.489452
5.8792772 8.8951302 18.445637
7.7868481 14.981018 18.452
5.7660089 15.005085 18.491268
9.8985786 5.2424302 18.51128
5.0386672 15.875524 18.546328
2.9117479 7.625433 18.668591
2.9209728 7.8815393 18.654099
3.5175042 5.2907515 18.728008
11.799562 17.962303 18.868385
3.4940312 8.7200365 18.961458
3.5465302 8.7173328 18.903652
9.0098343 19.896124 18.943829
9.6512241 5.1253119 19.071064
3.6912825 8.7560139 19.07115
11.739809 16.856714 19.038586
11.542515 18.802177 19.019213
5.1158366 8.9223843 19.203461
11.62278 16.779528 19.251842
2.7745633 6.4084115 19.345091
9.6471367 14.945943 19.355791
11.607411 18.216803 19.355909
9.208128 4.9990077 19.498974
9.4545031 5.2355986 19.599833
10.912519 16.149498 19.522926
11.550802 18.197922 19.594559
7.0543184 19.694187 19.515688
5.448256 9.0138159 19.608841
5.8106146 9.0611811 19.678417
2.7733557 8.7517223 19.718483
4.8950334 15.38835 19.749983
9.4450979 6.0869837 19.9727
5.9274058 19.372196 19.939075
6.78508 4.2186122 20.077341
4.5908175 4.3922825 20.132166
3.2205114 5.2241197 20.140575
7.3364611 14.769903 20.261456
11.164627 19.072716 20.216225
4.4859824 4.416522 20.360653
9.3445253 6.6899424 20.492195
3.831214 8.9712677 20.490789
7.001482 9.1075392 20.482201
6.3388762 9.2216558 20.433493
10.402517 15.808516 20.423037
7.307394 8.8616276 20.521278
4.8964448 4.3539968 20.638157
3.745369 4.5573359 20.657722
3.0158455 5.4273772 20.617699
9.2810993 6.6800876 20.664125
4.5840368 16.565092 20.710276
9.0048132 5.4347773 20.962986
5.8064756 19.303555 21.005957
6.405817 19.466232 21.054064
7.6025715 19.792789 21.08242
2.4452035 6.5131793 21.187788
9.2341633 7.4790521 21.298504
7.4181213 8.9737759 21.289631
6.5681934 9.4082747 21.560705
4.5091252 16.151798 21.524857
6.1338234 14.618181 21.650749
11.028291 16.369223 21.833389
10.074347 19.303963 21.869236
6.4107509 4.2613134 21.992121
4.3938546 9.2328701 21.910702
9.3013296 6.025054 22.000654
4.1455541 9.228137 22.059452
5.7780004 14.564774 22.067287
6.7671294 19.519241 22.070669
9.4530973 6.5571756 22.199577
11.362883 16.63199 22.141039
8.5211134 5.0816588 22.360443
9.6249514 7.2204251 22.352436
8.876256 19.631853 22.366503
9.3571482 7.7718492 22.446938
6.28965 9.5046139 22.450468
8.1973953 14.480108 22.431574
11.359587 16.568924 22.457006
4.3930912 16.661087 22.440235
4.659658 17.58411 22.533791
5.8798308 4.3549881 22.654024
2.4954457 8.5306978 22.670368
5.6769028 14.471569 22.742628
7.9150538 19.80624 22.862259
2.5139186 8.6680079 22.910774
7.5350966 9.4502811 22.943077
6.8021822 4.4443455 23.073364
9.799098 7.4244976 23.072445
7.4803152 9.5179796 23.007711
6.2299919 4.3178449 23.119997
3.6654649 9.330431 23.130898
3.3655617 5.0364375 23.274328
2.5592318 9.2661514 23.233139
7.0568027 9.6960773 23.248499
9.5110083 14.642856 23.211348
10.328966 19.204187 23.290609
6.8649569 19.503464 23.243759
9.1103992 8.3048248 23.395857
2.5454755 8.8648729 23.35836
7.162837 9.7237415 23.367336
2.5086966 6.8221707 23.413424
5.6454477 19.160709 23.404221
7.6574154 14.326666 23.580454
10.704704 15.734375 23.538368
8.3441839 9.0396242 23.688086
8.3451786 14.312769 23.655231
11.269855 18.318451 23.628077
7.8299065 4.8712287 23.752806
2.9238372 6.0745945 23.86721
7.6165414 9.7414751 23.977268
9.9120274 14.890509 23.970097
8.3449154 19.749765 23.914993
7.6523166 14.263841 24.029415
11.520121 17.527697 24.028212
5.0424409 14.279079 24.179619
11.324893 18.251875 24.158161
8.4587269 19.711836 24.204174
6.9366722 4.5145588 24.376207
2.6080689 9.1268711 24.371851
4.7783527 14.259613 24.344784
7.2922688 4.6737041 24.452141
7.3186283 4.6851139 24.408602
6.7830009 19.438122 24.419725
8.0531588 4.986165 24.542484
6.4717627 4.4025445 24.667782
9.9431362 6.7897053 24.613468
2.5976353 8.6338673 24.642551
9.8919783 6.4256253 24.766687
2.5954742 8.4698906 24.759151
8.257369 9.4879198 24.774157
7.3098478 4.6848021 24.866528
11.811572 16.689003 24.832811
6.199996 4.5024271 25.03307
2.8654842 6.421031 25.012341
10.202211 7.6630373 25.013264
10.188437 7.4753127 25.156002
5.8187432 4.6194992 25.296801
4.3708329 14.141034 25.271421
8.5867825 5.2253332 25.491753
8.0948801 5.0392008 25.522705
4.2048664 16.570494 25.558187
3.5183859 5.1255674 25.686142
8.9948177 5.386972 25.657137
9.2233009 19.466953 25.660427
10.095619 6.5615664 25.722925
4.3641992 17.0292 25.784416
8.4395313 19.685064 25.780287
4.2888908 15.514228 25.801977
9.2918873 19.443399 25.868885
4.6007309 17.679699 25.935772
4.2879057 15.322729 26.137686
6.7992239 13.959441 26.286919
7.0893259 4.5983429 26.374699
3.6994114 5.1448145 26.370256
2.8457003 6.7353907 26.386845
10.268469 6.833127 26.348343
10.387705 7.3990879 26.3414
4.4765935 13.968923 26.449717
8.7394381 13.963232 26.451969
2.604249 7.9698224 26.580141
3.3349953 9.8834133 26.758402
4.9853959 13.926136 26.704643
10.498683 14.909163 26.787743
4.7004042 13.908189 26.861036
10.411161 14.799402 26.885641
4.894762 18.516668 26.90667
9.3808479 19.39645 26.942492
10.310238 8.4304876 27.019581
9.5759163 9.186348 27.116814
6.548398 10.185141 27.100054
8.3465958 10.25909 27.211393
4.0935435 16.228706 27.285019
9.6643982 5.7077231 27.393093
10.050528 8.8031387 27.358854
7.4168782 10.312433 27.367271
10.171062 19.13158 27.311378
10.220892 8.6689568 27.455498
10.074146 19.162849 27.405548
2.7840736 9.5615082 27.51721
4.8724632 18.505529 27.547853
9.6987019 5.7287321 27.602789
6.4721022 10.253595 27.642937
9.5789213 13.821209 27.658897
11.004924 15.226381 27.74057
8.9892149 9.948267 27.847372
4.0488439 16.248161 27.86668
11.490904 15.661798 27.908167
8.8478413 19.525219 27.982058
12.08429 16.53355 28.178017
10.089869 19.124784 28.255922
4.1080608 16.497208 28.37224
9.0242586 5.4773469 28.444855
10.886605 8.3580685 28.450987
2.7408938 8.7276096 28.492012
11.37571 18.654102 28.471367
5.7498407 4.9389758 28.563423
7.8401403 4.9499922 28.521397
8.4566422 13.672659 28.713482
11.215281 15.223711 28.798445
9.3651962 13.666628 28.855423
8.3222351 5.1691465 29.055929
3.8109403 5.4106183 29.071693
4.205204 16.816193 29.075119
11.269959 18.669495 29.065428
5.6517057 18.86673 29.050911
5.2697067 5.1118002 29.169508
9.839613 19.180294 29.161003
4.6380424 18.021051 29.270647
10.677259 6.2226639 29.321304
10.266242 9.2787857 29.349909
5.7409158 18.88302 29.308355
11.449372 15.32362 29.468967
6.9579663 19.282305 29.443861
11.127381 8.4972105 29.53931
10.747034 14.564283 29.669773
4.0067711 14.904953 29.620953
4.9284711 5.2440434 29.701847
4.4786263 17.620584 29.710924
6.2624102 13.50482 29.808773
3.9671459 13.771118 29.813297
4.4536467 5.3804197 29.928564
7.1768341 13.492993 29.997011
11.072149 7.4745102 30.020393
2.8795648 9.5480213 30.085035
3.8686724 10.440292 30.01487
7.9844847 10.752954 30.083099
8.9982176 5.4794359 30.186295
3.1252112 10.413401 30.186111
5.8261914 13.454562 30.159683
8.8767834 13.493806 30.167221
3.9597244 14.777235 30.130733
2.8491688 9.287077 30.283833
10.203565 9.6537762 30.256945
3.9412904 14.377289 30.249664
11.064433 14.775412 30.214649
8.9561825 19.447002 30.32029
9.4043303 10.502764 30.438942
12.081517 15.755716 30.407837
5.240088 18.657936 30.411701
6.6070328 4.9167962 30.571379
10.177866 9.7750092 30.534714
10.741901 14.37014 30.579187
3.0344608 7.1610532 30.691523
7.8400102 10.829368 30.64303
12.323449 16.277935 30.620241
8.1275463 19.582973 30.603598
11.309566 7.9615755 30.759972
7.1424341 4.816855 30.896618
3.8327794 10.566186 30.822714
5.5089793 10.697745 30.882536
3.9801638 5.5745325 30.910002
9.8488674 5.8648944 30.972391
11.293381 7.7459264 30.921951
3.8621264 15.937771 30.955357
6.7441077 4.9289455 31.061842
2.9299083 9.7903175 31.038651
4.1889677 13.334354 31.007906
6.6646843 4.9604902 31.193998
11.125791 6.7322478 31.179724
10.116728 13.618182 31.124046
9.9547558 13.432785 31.219849
4.5101323 17.814533 31.239191
5.1747899 10.750056 31.36434
2.9436495 9.8411388 31.402393
6.222518 10.84165 31.460579
2.7678902 7.9396601 31.631969
2.8962302 9.4497538 31.606443
6.3134551 10.870508 31.600372
7.5560379 10.9636 31.61684
11.021717 14.422005 31.705942
11.397153 18.521149 31.757374
9.921958 13.295475 31.839458
3.792043 14.039856 31.882502
2.2515492 5.3591666 31.996429
10.081127 10.346584 31.913834
7.4804187 2.7341805 32.015888
5.1979089 5.3916411 32.000862
11.467129 7.617353 32.02784
2.8843036 7.7642846 32.089951
4.1049547 16.745167 32.059174
10.745214 1.5246264 32.100155
10.850019 1.5260825 32.100037
6.7091103 3.9737198 32.15221
0.93708897 6.7884226 32.184002
2.7811828 8.498107 32.115635
4.6272039 10.840182 32.181541
6.1363258 18.866526 32.141087
7.5871463 19.347773 32.202148
7.2991228 4.9109149 32.322353
3.3433869 10.777729 32.376549
3.762635 14.482707 32.321869
2.8054986 8.6305237 32.472267
11.951289 1.372715 32.561352
5.5232983 5.365871 32.575851
1.8688785 6.4336119 32.515488
11.056954 9.6148777 32.558723
12.265616 17.269773 32.553818
7.3467398 2.8532124 32.675167
8.012888 5.0594635 32.661285
3.0104084 7.5893202 32.670048
7.8886948 3.4254375 32.714291
11.743473 8.1581488 32.726555
10.617604 13.791008 32.755886
8.1992626 3.2794895 32.842033
8.1050959 3.324697 32.815437
4.2011471 17.069809 32.881332
6.3445253 18.900902 32.811378
10.341427 1.3724625 32.973927
11.690992 1.5357919 32.972126
8.9240885 2.0819659 32.942921
8.8641758 2.1133015 32.958691
3.2417588 4.9336863 32.910206
9.6144342 1.7425892 33.036835
11.798718 7.8786039 33.081207
8.4445152 11.242556 33.021637
3.577848 10.899676 33.105591
12.579728 16.068035 33.221546
9.5028067 13.116186 33.310146
5.052104 11.06127 33.488842
5.8166947 11.107862 33.424141
3.024581 9.4001951 33.598476
2.2037499 5.5130486 33.646679
4.600481 11.05514 33.678513
12.509792 16.399336 33.625607
4.0598207 16.417185 33.676613
3.4999058 4.8702345 33.751606
8.0039406 5.0435758 33.732002
6.6732774 5.1498346 33.727966
7.2692823 11.261612 33.76305
3.6927357 11.006392 33.801842
3.7258804 15.375666 33.889771
7.8157516 3.5628133 33.994274
1.9295769 6.5128088 33.909203
9.6250763 1.8146982 34.021004
12.13422 8.0069437 34.01429
3.7502828 12.94761 34.050056
6.3220234 13.016471 34.050003
2.6129844 6.185463 34.11171
3.0707688 9.3199863 34.117207
3.4384952 11.036673 34.147419
8.0584126 11.366615 34.139717
3.9609528 6.1562843 34.270061
11.974191 7.1933446 34.282898
12.248759 8.2276325 34.2146
10.780261 10.577459 34.21759
4.3001299 16.891264 34.275314
3.0518126 9.0265331 34.304897
6.97367 11.316559 34.304611
2.0030439 6.5169783 34.431091
3.1828587 9.9989414 34.448059
7.6196866 11.372622 34.400963
12.553695 15.851675 34.458111
4.0885768 16.3316 34.416065
12.814451 1.097558 34.574303
3.8929646 6.3888259 34.52776
8.7015076 3.1715307 34.675884
6.7044673 11.351306 34.689552
8.4736814 11.459916 34.650719
11.03907 2.0050249 34.773445
2.1645048 6.4630013 34.775772
1.6080528 6.7426109 34.777012
6.4992604 5.2517414 34.886662
10.458889 6.0870295 34.883743
12.61664 8.9472103 34.850754
6.6938534 11.368435 34.823101
9.0286694 11.5226 34.858631
8.5566139 18.889267 34.858444
8.6599703 18.858765 34.866211
8.6779785 3.2044482 34.94397
8.5915394 5.2920146 34.929516
7.8590298 11.453812 34.905502
2.7792711 5.3362684 35.073757
9.7906666 5.8132601 35.045219
0.89271909 6.9273891 35.07909
6.9531755 12.935797 35.022549
3.6061702 13.286304 35.009998
3.6378429 14.418821 35.009277
12.397865 16.410299 35.00631
10.401009 18.225124 35.136883
10.105186 18.322123 35.147995
9.2206516 2.1151435 35.257301
3.7380221 4.868679 35.251602
9.4537334 11.604622 35.2784
9.0305347 2.2195272 35.370213
3.224647 9.9922981 35.377312
6.097352 12.869998 35.350044
3.707525 14.790748 35.378368
12.858574 15.109129 35.308002
8.3550615 18.761044 35.320618
10.287057 11.673888 35.400192
6.6316028 12.87767 35.430122
11.833813 17.638493 35.421448
5.2995119 5.6451054 35.512146
3.2561767 8.0931549 35.531197
4.0043979 12.780485 35.542759
7.3225613 3.0987854 35.641197
6.1269865 3.5268304 35.67992
6.4770765 4.3680243 35.681427
4.4189401 12.784025 35.62545
7.6520443 3.7805581 35.716164
12.039405 9.9644299 35.735336
3.9803557 15.914392 35.79628
6.5365195 18.830002 35.787388
7.7771392 4.9917984 35.884933
10.562614 2.3354514 35.930969
10.841652 6.1914783 35.9487
3.561686 12.936469 35.902298
12.762323 15.301747 35.967709
4.5303378 5.9421916 36.090935
10.863626 6.1967239 36.02644
3.2452185 11.143905 36.07378
9.377326 2.1033614 36.107574
6.1676784 18.697319 36.17617
11.649977 1.8114268 36.212666
3.2587047 10.440188 36.228458
12.366441 16.06605 36.272301
7.2857757 3.5762146 36.359619
7.9030094 3.9649234 36.395916
9.2826958 5.5497885 36.391518
7.8404131 11.637423 36.321152
9.4563713 12.849522 36.358753
6.2516723 18.66643 36.311119
7.6908007 3.8199999 36.464691
8.1345282 3.9664991 36.483028
2.9562435 5.3558197 36.451641
12.923364 14.948675 36.426155
7.9993534 2.9997988 36.546509
8.8822203 3.1967497 36.581314
3.2868369 8.975502 36.551796
7.4305487 11.6423 36.559586
6.9600816 12.759567 36.525517
7.2997375 12.762524 36.592796
12.523857 14.053066 36.589359
11.001662 17.521461 36.582043
7.3360891 18.452488 36.550537
12.163063 1.5845205 36.604317
7.6184721 3.9213505 36.691372
4.3504887 6.4912195 36.652943
10.877619 11.873949 36.643005
3.8359981 15.296075 36.646339
10.55077 17.668802 36.600437
5.1855731 18.349319 36.671803
11.042072 1.3200371 36.77964
7.6597862 2.186888 36.774345
6.3478661 5.4608707 36.748001
3.4382436 5.9797034 36.764511
12.69625 7.7269812 36.725964
7.8218727 18.316753 36.764275
9.3703194 2.1679957 36.884132
8.2473612 3.4183171 36.858173
7.7343302 3.5187883 36.826694
6.2805185 3.716424 36.838314
5.6681252 4.0220699 36.813282
3.3010645 9.1240997 36.899395
9.223855 11.793569 36.838581
8.4015322 2.7192969 36.996201
8.9169874 5.3768239 36.99123
10.838106 12.810711 36.978088
7.2325912 12.703181 37.079979
8.3739662 2.4107316 37.1404
1.5472113 6.9563432 37.104446
8.5490189 11.792251 37.159561
11.380535 12.801998 37.146484
8.6960316 2.7992887 37.253418
7.1634064 3.3071382 37.272812
13.032165 9.7356491 37.257854
9.4074287 11.854342 37.214066
5.9834938 12.639129 37.285549
6.488585 3.6856613 37.311016
5.5062332 4.1472368 37.370365
8.0313292 5.0226192 37.302238
3.5338638 8.2148342 37.333332
13.14194 8.4358463 37.309029
7.1966505 11.733982 37.376663
5.8933344 18.320051 37.345295
7.986186 1.6640414 37.497856
3.5470903 5.9787593 37.447239
4.8178468 11.591175 37.449722
4.1746645 12.567441 37.403767
5.5324526 12.605329 37.450665
12.484402 13.590939 37.458904
4.5462689 12.567169 37.50724
4.8978906 12.574541 37.540169
3.5498354 13.026506 37.547672
12.82534 14.019377 37.531075
4.262311 16.282368 37.579384
8.5667562 11.853451 37.619675
8.7300673 12.67974 37.687275
9.2209988 5.51683 37.716896
5.0189743 5.9247952 37.74308
3.5038941 12.854137 37.757065
5.918098 18.17761 37.717934
12.779123 1.369903 37.809341
8.594882 1.6378874 37.839359
3.5459361 6.0080299 37.811798
3.3731 8.47367 37.846176
3.2638283 11.577311 37.842606
11.893423 11.817003 37.83992
9.4596758 12.679395 37.888832
12.851017 14.950672 37.82402
8.2980595 3.6290095 37.913757
3.1435716 6.2221208 37.963997
3.2075911 11.20495 37.991962
5.241468 11.759459 37.991745
7.9125514 3.8301847 38.009449
5.7279 4.9269676 38.001919
10.890649 12.702229 38.083866
12.22381 16.12582 38.086231
7.5336695 2.544107 38.157799
7.9984579 3.7823849 38.191788
7.5268064 4.0336833 38.133129
11.595818 6.4169245 38.174484
9.1384964 12.01783 38.12236
4.2488775 16.256802 38.105743
6.1737957 3.1380911 38.286694
6.7381263 3.6238797 38.204243
6.7814527 5.4010267 38.214577
8.6927528 12.023137 38.216496
6.0708599 12.39617 38.281387
12.976837 14.668949 38.242329
7.4818926 17.816959 38.202347
5.1896696 11.861856 38.377029
9.7352161 12.10891 38.303558
5.5638618 2.7667198 38.459213
8.8392506 12.115534 38.480114
6.3108644 18.010128 38.497261
11.517056 6.3591962 38.609432
3.2658026 8.6128397 38.664024
3.07727 11.769844 38.693703
8.580307 12.420206 38.609081
11.953249 16.48205 38.653229
13.453793 8.5538635 38.760017
8.2824497 5.1886902 38.800972
4.9909801 5.9634299 38.896435
7.7796392 12.261978 38.831032
8.635561 12.299247 38.886242
12.513445 15.495549 38.862263
8.5033398 17.351904 38.803711
8.5909233 18.142881 38.891037
7.6527882 2.6221361 38.914314
5.8604202 12.065531 38.992123
8.9346972 17.911858 38.985336
5.3546357 12.180298 39.076687
11.219551 12.488035 39.021072
8.958951 18.953709 39.000069
13.578163 8.856144 39.122742
5.8426371 12.166433 39.129681
10.032664 12.361698 39.113815
6.4203939 1.5540094 39.212986
5.3696542 2.5059893 39.20166
5.1949358 5.9110494 39.26619
2.9889874 10.72826 39.213749
8.5759764 1.5963683 39.341385
4.323101 16.435417 39.374252
10.272924 16.849075 39.328896
10.264989 18.176338 39.317036
3.0223846 12.521996 39.465168
13.215525 14.098433 39.405254
7.2622733 17.751833 39.440304
7.4152703 2.8174188 39.588619
9.3899374 12.194117 39.551163
12.987521 13.197757 39.514442
12.703876 15.099046 39.57
6.8373957 3.4155779 39.644051
13.098143 7.2195549 39.641762
12.80166 12.688053 39.687389
4.2812481 16.348701 39.624447
5.326438 2.2231219 39.785454
5.3163695 2.6769118 39.792171
10.95553 6.096148 39.748703
3.2429681 12.040279 39.722275
6.4161377 3.7763634 39.882534
13.20349 10.061188 39.85836
4.8444514 17.158596 39.857868
9.7763424 19.063326 39.805855
5.7904768 5.7046638 39.987411
11.354492 6.2033014 39.992447
12.74745 12.388352 39.925713
12.26591 16.245588 39.906738
4.8999429 17.187134 39.982407
8.6127882 17.874336 39.9916
8.5121508 17.902847 39.943451
8.352375 18.709913 39.971142
10.626368 5.9691529 40.057255
13.536609 9.5629492 40.086231
9.281744 19.163683 40.094692
12.297492 6.4907455 40.117264
13.218753 10.461786 40.178596
13.636253 8.6709852 40.27227
12.764012 15.050242 40.228111
4.7195058 16.647783 40.200768
8.4428501 2.6756911 40.336594
5.6628428 3.6765809 40.388313
4.1885805 7.0423822 40.352512
3.0255008 9.8454008 40.39325
13.346614 10.44435 40.438988
8.3600416 19.209274 40.425892
8.4994211 19.326498 40.488792
4.5892696 6.387598 40.588516
4.0519323 16.092533 40.670311
4.7274556 16.969717 40.601711
5.8817782 17.623587 40.661846
7.221797 17.851061 40.674213
5.4555411 2.7136312 40.71627
5.4203548 5.8555202 40.717484
4.7371268 6.1710362 40.840477
11.980912 6.3448343 40.856342
4.4585142 6.6273446 40.853447
2.9668496 13.220658 40.821903
13.256866 7.3323956 40.902073
2.8785658 12.831492 40.976757
12.963745 14.729248 40.946766
8.869051 17.443254 40.979378
3.2973342 8.5996265 41.077145
11.483614 16.737406 41.041042
7.1132526 5.2716622 41.129013
2.9636307 13.399227 41.217407
13.458055 13.445219 41.368618
7.5865135 3.5022435 41.442589
4.8453946 16.455811 41.492828
4.5247164 16.808735 41.481602
10.402495 17.093626 41.429058
7.7656584 1.6120518 41.570953
13.55058 9.5848398 41.510601
9.9140406 17.230148 41.592903
6.0698862 18.32593 41.529602
9.1671028 19.081415 41.539238
9.3193378 19.03874 41.597557
4.8001561 6.1425891 41.616146
7.712584 18.026554 41.663631
6.0619903 18.363064 41.607903
6.0641108 17.15213 41.769981
3.6230664 8.1157942 41.897961
12.697081 16.16663 41.817749
4.1257486 16.720285 41.805542
9.8673086 17.260849 41.823925
8.0288296 3.4386075 41.961319
13.463833 13.095255 41.986031
5.2294664 16.344934 41.989525
4.607687 6.4952402 42.028404
4.4602733 17.022844 42.009281
6.0928979 18.485117 42.010391
8.9024487 2.5649433 42.122139
13.120975 10.97605 42.190674
5.6776505 17.234335 42.173832
7.9546762 5.0568557 42.299034
7.3004904 5.2479978 42.261887
12.881198 7.2966647 42.296158
4.6133308 16.291695 42.28643
4.2135801 16.741373 42.253841
7.2931323 17.934385 42.221176
7.1704712 18.315567 42.23423
8.3248539 19.232548 42.279297
8.1912289 3.4325349 42.304237
13.369394 14.077197 42.354553
3.6495705 15.667562 42.349812
10.409045 18.249195 42.361015
12.969831 7.7368894 42.473091
13.312597 8.7958889 42.403526
13.134348 10.010188 42.515881
2.8885558 10.987022 42.544571
8.9037476 17.596807 42.512604
7.5522318 3.6469288 42.637707
2.6027553 12.192322 42.626797
4.7978206 17.480141 42.620506
9.0265522 3.0809588 42.700569
10.661667 5.8878174 42.760033
13.182398 8.6493378 42.729519
9.5248709 18.506454 42.740349
7.6042233 18.807076 42.762043
12.625999 6.2731986 42.895794
4.4973469 6.7531023 42.847439
12.953909 11.044367 42.837009
4.3600388 17.095821 42.806286
13.208565 12.434373 42.938362
9.6795149 17.27508 42.955288
9.4338093 18.906824 42.960159
8.8675108 1.8955061 43.197067
12.581842 6.2669649 43.109722
12.616326 6.6519899 43.113136
10.331884 17.653214 43.172592
7.6935 5.1459055 43.24651
8.7194328 5.2705669 43.289818
7.6582499 17.86215 43.227604
12.935493 9.3427963 43.323013
12.852847 10.846842 43.351418
12.064243 16.685757 43.447071
8.8776989 5.3129025 43.572243
10.008304 5.6658878 43.522518
5.9416327 18.439693 43.505692
8.1832209 19.172483 43.520218
8.4403429 3.5956445 43.619106
5.5673699 16.455572 43.636932
6.9245787 3.028127 43.723892
12.517378 6.9923539 43.751431
2.6330118 12.810048 43.745441
4.3370962 16.645733 43.79406
12.7251 10.403508 43.883091
3.2176483 14.818543 43.836571
3.3107901 15.137001 43.826611
5.211153 16.607372 43.954948
10.011682 2.8953354 44.028168
3.9008331 7.836585 44.025948
10.121252 5.5851479 44.165367
5.4773722 16.713711 44.132496
8.015296 18.747149 44.104988
6.3446307 5.6516099 44.21175
9.3025589 17.242458 44.256145
9.133728 3.4611535 44.364456
9.326333 5.4207292 44.348358
4.2321653 7.3319006 44.387661
12.683902 8.4261847 44.371323
6.2237797 16.483252 44.315262
6.8270974 19.159979 44.384884
10.219113 2.9651518 44.431778
3.9926188 7.7237997 44.40889
12.974702 12.250984 44.461899
10.341393 5.549428 44.563347
5.2065763 6.0567245 44.531441
12.383145 7.3707757 44.579967
5.467041 16.59483 44.59478
10.99858 16.780327 44.565125
5.4085627 17.074024 44.524986
4.6566825 17.349821 44.550655
11.128016 5.6632419 44.652206
12.567967 10.07338 44.6688
3.1552112 14.657578 44.685875
4.1024771 16.377964 44.666882
5.9147105 16.67927 44.634907
9.7570763 18.699888 44.621712
2.9306521 13.890026 44.713608
2.9920049 14.103737 44.770313
5.5240564 16.798519 44.706764
8.1513519 17.804214 44.788887
7.4984093 3.8394768 44.871151
7.9137278 17.917126 44.867599
12.256965 6.7047625 44.900616
12.490219 9.7289648 44.946712
7.2894197 1.8278859 45.107479
5.3897028 6.0183306 45.187767
6.6228576 17.109455 45.188725
2.9826503 10.170391 45.201385
6.3459225 17.123165 45.295929
7.4828696 17.787071 45.269489
7.66996 18.062622 45.25309
7.4171286 3.1591969 45.391083
7.6584029 3.9450912 45.35265
6.5731201 5.6503658 45.370586
5.3541322 6.0968275 45.376175
6.5191479 17.766325 45.344692
3.072603 10.37559 45.461372
5.7611313 18.272976 45.43766
8.2795944 19.183712 45.405666
10.559143 16.810942 45.540794
10.190668 5.0504684 45.765724
6.3237448 5.8592987 45.709869
4.119029 8.4730644 45.71344
13.464576 11.341992 45.764927
13.503405 11.740237 45.765633
2.8909676 13.05934 45.745075
8.4118919 17.78315 45.757954
6.3565807 18.775599 45.710594
7.3449726 1.9389664 45.890888
10.614504 2.8071847 45.886505
12.918366 10.274546 45.832996
13.535044 12.327642 45.851589
13.143703 12.77873 45.884026
6.373827 17.726202 45.892132
10.29234 2.265485 46.06424
8.2334375 5.0872841 46.041534
4.1806116 5.9536996 46.007915
10.439793 2.4272604 46.15527
2.8077319 8.3637333 46.157364
9.2815695 17.431793 46.105629
7.1434608 18.061087 46.178253
5.5278802 17.385742 46.296791
7.7538667 18.122622 46.251205
12.367707 13.087769 46.342995
13.519085 12.083996 46.48394
8.8148289 3.9162035 46.57502
2.1890326 13.409948 46.51976
13.641701 14.462202 46.504208
12.897606 15.585489 46.524178
2.3757982 15.619738 46.600399
2.4009767 15.709642 46.626488
12.912674 16.526287 46.617611
11.347544 17.134247 46.695354
8.0408354 20.2164 46.613037
2.2037234 10.526133 46.705772
7.0467453 19.988823 46.738297
9.0315247 19.917828 46.759056
10.529236 2.1335826 46.867245
10.889647 2.6491914 46.888275
6.8314581 4.843576 46.862099
12.497973 14.107367 46.879883
3.4559619 5.5126877 46.933022
2.391171 8.4909611 46.993454
2.1633112 11.901464 46.960621
6.2679386 17.721249 46.923019
6.6178236 19.412626 46.98827
8.8073959 1.1045918 47.084114
13.117556 7.2092896 47.002281
2.7313781 15.597446 47.089317
12.213729 16.4135 47.06171
9.0682526 17.938812 47.072723
6.7891388 19.918785 47.024696
7.9571028 20.741732 47.053429
5.6303082 17.406818 47.124886
9.1415796 17.558336 47.193077
8.6774607 17.776108 47.121593
9.6680918 17.862141 47.106339
7.4608841 18.21076 47.166325
6.1892886 18.072191 47.291771
8.0826731 20.86426 47.216675
8.8708801 1.0851264 47.349842
10.497149 1.8172637 47.315273
3.4957271 5.5774841 47.326241
13.595806 13.520848 47.317574
5.6900206 17.376127 47.366348
9.7138748 17.277151 47.436626
6.2867684 17.925745 47.596455
10.255762 1.2798638 47.613243
7.887785 4.5507731 47.605122
4.070519 17.785679 47.661957
8.3299789 1.3221347 47.788162
11.055265 2.4381347 47.718071
9.7154951 4.8342414 47.729538
4.5869145 16.501068 47.765884
8.3572807 17.868168 47.786873
7.0019884 18.066986 47.70211
10.947599 5.0551634 47.849098
2.3517315 11.912335 47.816135
8.5163155 21.309278 47.800224
9.5887394 1.0344863 47.904938
3.4247348 5.874228 47.952293
2.42624 11.223061 47.933765
2.4562206 13.519062 47.924202
13.458149 15.208941 47.938156
6.303503 5.1470156 48.050308
13.501798 11.932761 48.058186
2.714242 15.328307 48.077595
3.283607 17.569157 48.076859
6.8363528 17.69828 48.0839
9.9550152 20.458004 48.092453
2.4561646 12.787199 48.126106
10.83701 16.849424 48.127922
10.175738 20.7339 48.189381
9.8603563 20.287039 48.28289
7.5701075 4.6883869 48.319595
10.787012 1.5561959 48.449829
7.115921 4.8597679 48.462769
3.9961491 17.699293 48.480846
6.7837601 18.326717 48.491341
6.9234858 19.728836 48.413414
2.6226382 13.925144 48.584335
8.3908997 4.723217 48.695496
10.701064 5.1154909 48.63166
3.4438696 17.470976 48.678558
3.9393799 5.7532277 48.746601
8.0886631 18.499474 48.75071
13.297165 7.9217219 48.82122
11.059738 1.6709142 48.922855
3.5904362 17.076557 48.967484
11.823037 5.3801827 49.032578
2.6553459 9.553339 49.077927
13.566269 12.745626 49.057175
8.1556845 4.7328887 49.138103
6.5352135 5.094285 49.178879
10.849382 5.2093434 49.117176
4.6883759 5.6794949 49.136086
13.512255 12.107515 49.186455
2.7509181 14.209065 49.1031
5.013402 17.856697 49.242149
8.4972115 18.880505 49.219131
7.374258 20.572138 49.272972
13.441856 9.1917009 49.474964
13.415008 15.892295 49.453644
3.5798194 6.3175125 49.500397
3.3367553 7.0064673 49.51083
3.2822704 7.1940212 49.571495
2.830934 13.792995 49.590778
11.921432 3.2783101 49.650604
7.0553217 18.326948 49.606655
2.7807956 11.799716 49.720577
3.954603 17.031475 49.762363
13.457042 10.774388 49.890274
5.337791 17.850447 49.851898
7.6103377 20.960995 49.812946
7.7084503 21.211376 49.838554
10.166263 0.85716367 49.915321
10.5945 0.84181398 49.945717
8.9929495 4.373672 49.989132
7.2366223 4.8576565 49.928669
3.2246413 7.5883102 49.980663
2.8190062 10.599308 49.952808
13.539349 12.10206 49.904369
2.8920715 13.380915 49.942318
11.061155 0.986601 50.020866
11.538668 1.6822897 50.065155
8.3410206 2.7343159 50.090282
11.093062 3.7372551 50.056644
5.3526592 5.5560875 50.091179
3.4022453 7.1316957 50.05545
13.087123 7.2365217 50.048546
5.3242188 17.81452 50.061668
8.3622065 2.7733288 50.189041
11.329951 5.443953 50.179737
11.255001 17.649979 50.197762
10.079831 23.177816 50.13245
12.307938 3.0829806 50.273045
3.6040297 6.6772566 50.253731
11.695692 3.5022972 50.300358
3.952034 6.0423527 50.327538
13.435434 9.3447266 50.3092
13.37307 16.041704 50.367973
11.472686 21.989164 50.384262
9.6538134 23.429754 50.369034
13.428215 8.9373627 50.469193
3.3783612 15.369666 50.470066
5.6169038 17.83292 50.462437
9.2770891 23.200634 50.46965
3.7103558 16.061947 50.522594
12.86401 6.5537639 50.685764
8.9407196 4.5003381 50.780449
2.9231925 11.377322 50.719505
12.065212 17.434643 50.786633
10.2994 17.907188 50.751518
11.9976 1.8692182 50.89946
13.607391 11.127213 50.855991
12.879551 17.216946 50.89032
8.4657001 2.7342894 50.920647
13.437312 9.7933445 50.96067
2.9126854 10.987968 50.987865
2.9486794 12.853749 51.014431
6.0396581 17.921333 51.016563
9.8785133 18.055759 51.056656
6.9954133 5.0101261 51.146713
3.8428371 6.3792067 51.25856
2.8939254 10.334142 51.279839
9.349 20.191484 51.273987
8.9719067 1.2887633 51.332008
8.4536514 2.5310597 51.342438
9.0105867 4.5724669 51.371506
5.5033631 17.759537 51.341415
12.535984 5.7847843 51.484352
4.0213547 16.529352 51.436867
13.175733 16.829708 51.404438
11.719459 22.11202 51.487701
12.34578 2.231184 51.519447
2.8781061 12.28302 51.544357
13.473554 15.352426 51.521355
3.0784099 8.42729 51.607784
4.0329075 16.504551 51.65332
12.653155 17.326265 51.693672
10.863128 17.842098 51.68441
9.5168295 20.358166 51.605865
8.5075264 22.513325 51.673691
8.4634733 5.0033445 51.849243
11.140507 4.0654397 51.900219
13.651424 10.000286 51.961464
3.0703101 14.481947 51.969711
11.902462 1.0102674 52.056778
10.692228 4.2460942 52.079262
7.5694056 4.8745031 52.038292
4.4351196 6.0467811 52.059921
12.250443 24.201908 52.058327
6.8031168 5.1685371 52.17786
3.9290056 16.246773 52.222816
13.65773 9.4864912 52.355385
12.496533 24.352654 52.324371
11.184517 25.207743 52.329697
4.7860322 5.9525399 52.440453
13.676271 9.470005 52.459839
2.8654852 10.017393 52.454784
10.300387 18.083712 52.407764
8.5691986 22.159607 52.441074
12.517895 1.6105036 52.582352
8.6247473 22.445837 52.525665
2.8599989 9.8087091 52.648945
13.601531 16.648636 52.61454
10.519489 18.049438 52.674709
9.4149303 21.579788 52.679443
13.8881 12.502881 52.777946
3.0664706 14.402951 52.702412
5.3377705 17.680109 52.748245
8.843709 22.860378 52.848743
8.5301161 5.0980091 53.051376
3.8793354 16.180355 53.086578
13.68957 16.668339 53.089912
11.145815 0.58259213 53.101738
9.5386238 0.90776962 53.174473
2.8471463 10.111483 53.132458
14.060017 11.846607 53.151642
13.846063 13.464308 53.178535
5.0295444 17.578411 53.182587
12.431229 17.549742 53.134098
9.782424 18.315607 53.161743
12.870728 1.714676 53.227558
11.440864 4.2172089 53.340954
4.7049379 6.0828538 53.338436
12.660238 17.512486 53.355209
12.220341 22.45376 53.318085
11.261039 25.918793 53.366222
8.9636812 5.2192068 53.456264
10.582516 5.5942907 53.458038
2.8795533 9.5728855 53.473171
2.8488288 10.790874 53.458324
13.301235 3.3789468 53.515133
9.9085579 5.4404593 53.50264
11.210394 25.960766 53.547836
2.8907762 9.8082523 53.628654
13.242752 17.393372 53.666088
9.2303247 22.924492 53.640926
12.733444 1.2066696 53.794525
8.9996443 5.2427406 53.752724
3.8885536 6.9591069 53.728973
13.474644 8.7007523 53.719933
14.147099 10.84949 53.844242
14.015396 13.243116 53.807793
3.5526433 15.644335 53.84404
13.762171 25.069172 53.860767
13.625889 9.1759224 53.929989
2.870682 12.582132 53.996872
13.857959 14.473235 53.91964
13.23486 25.694754 53.971725
11.059467 5.7009287 54.047302
3.5521319 15.659401 54.002739
13.29244 8.0988941 54.107327
3.3583882 15.307362 54.113708
12.929838 23.231915 54.188416
9.3597193 23.463964 54.170605
10.727221 25.84893 54.113747
10.915092 4.519784 54.207466
6.2531261 17.962433 54.278885
12.568823 22.853949 54.230965
10.181756 0.57713741 54.395565
8.7452002 1.7149062 54.342819
13.140633 1.7606186 54.376152
13.230434 2.2532141 54.317257
9.6345634 5.374866 54.332062
5.2382584 6.0293756 54.389393
3.7792673 16.09454 54.302063
11.344436 5.7497301 54.413532
3.0613222 8.8306446 54.467922
13.862225 16.613689 54.493572
13.860233 16.745146 54.496887
13.829691 17.336729 54.407478
9.8034277 24.598125 54.411499
6.1718788 5.6805234 54.510818
4.6170344 17.281876 54.526817
7.0898309 18.297668 54.526306
8.833251 18.779312 54.549538
10.509463 22.689203 54.524567
13.727407 24.205763 54.584183
10.008171 0.66324198 54.691971
9.0381823 1.5391377 54.675716
5.8506494 17.834461 54.683334
12.691248 23.012783 54.631775
2.928612 12.820168 54.702118
6.3547206 18.037607 54.759911
11.005259 0.65169281 54.850845
13.395229 3.4883566 54.873421
10.888781 4.6426773 54.841537
10.155934 23.582951 54.854031
10.340682 5.5084586 54.912827
4.8420272 17.500019 54.900227
11.939878 17.948359 54.920212
12.131924 22.542818 54.989532
4.1218095 6.7639327 55.002377
9.4702435 5.302804 55.253654
3.8122582 7.4138746 55.217812
6.5983791 5.6833687 55.438591
6.1527433 5.8515468 55.432751
11.445721 0.7355541 55.558685
8.966711 3.5104632 55.512375
11.12945 4.6534405 55.577003
10.099498 4.988399 55.572834
13.275773 7.5868297 55.559582
14.157311 13.404704 55.51334
14.682964 25.315281 55.519978
10.725691 26.449396 55.519581
12.22732 0.70282978 55.680576
14.026746 14.967594 55.608078
13.228165 27.18676 55.610039
11.722782 0.75639015 55.794037
13.40061 3.4938855 55.736618
14.409948 12.024609 55.704086
10.914948 0.81738961 55.829037
11.084501 0.81395447 55.877182
14.311219 10.964951 55.863747
13.846953 24.365984 55.889435
13.168715 2.6260016 55.969059
13.304008 2.9393725 55.994011
8.8781576 5.1433878 55.989113
10.536412 24.581123 55.973816
12.256844 22.907944 56.07914
15.012415 25.589483 56.046646
10.749382 26.493477 56.026817
13.366999 3.8296118 56.163727
12.436291 4.240859 56.199806
2.8884895 9.4167652 56.124611
14.66971 26.151108 56.116394
13.68993 24.134605 56.254963
10.652515 0.97006828 56.358047
13.336544 4.6201372 56.307373
9.2696247 4.7771463 56.352146
3.7629502 7.8342533 56.327736
7.7052879 18.549847 56.360035
14.880301 25.858692 56.360901
11.637257 27.092155 56.308113
13.994368 3.2836809 56.427448
10.807877 24.420132 56.428749
13.170601 4.7533374 56.501266
10.634833 5.6627369 56.514557
13.324802 23.681581 56.569756
14.524245 26.293453 56.561283
13.843659 2.550951 56.605873
10.38026 24.791668 56.686848
14.135989 3.0520794 56.777813
12.331265 5.2771955 56.798214
11.920264 5.4400063 56.734753
2.9953237 9.4354038 56.732864
12.034984 0.9084515 56.820896
12.466175 5.1943588 56.865932
6.3026028 5.8477755 56.865353
4.7838259 17.689476 56.800282
6.0938044 5.9146962 56.907242
3.7861688 7.9258828 56.929745
11.112683 5.1035786 57.018749
13.097343 17.994511 57.075306
12.7083 1.3469498 57.108391
14.007218 9.5182352 57.174839
14.056406 9.6995611 57.19043
13.108517 2.81305 57.220932
9.0091133 4.9711843 57.253784
7.9951963 5.1744752 57.215096
4.043304 6.9200459 57.286625
3.2130947 11.436071 57.266281
14.547548 11.769836 57.209549
5.5295548 18.158693 57.294861
11.077258 1.1460414 57.315147
12.610113 1.4401398 57.320312
9.1633129 2.1043355 57.357048
10.424786 5.3860664 57.394215
11.107948 23.12409 57.300419
11.645057 1.0422947 57.456219
12.693956 1.913954 57.446636
12.600529 2.2030678 57.447586
8.1879215 5.0754867 57.498959
14.360751 13.413216 57.472824
14.184359 14.782731 57.404621
9.3976965 18.967855 57.449463
10.011048 24.28933 57.476871
9.7245636 1.4982195 57.598289
8.8480024 5.1548963 57.571892
13.539846 7.5881844 57.526688
3.1471848 9.6010408 57.550697
14.025198 16.692602 57.597961
11.882449 21.380678 57.599957
12.067377 21.789644 57.540081
11.36861 22.449305 57.561882
14.19034 26.393167 57.540947
14.082108 26.543207 57.550377
12.330206 1.6723124 57.656776
12.955373 4.8618689 57.612198
7.2685552 5.3627901 57.640644
9.4776745 6.0481925 57.648689
12.206929 18.442554 57.684277
12.034028 20.901024 57.679764
3.2679839 10.722301 57.794571
12.382006 1.6506259 57.889912
9.3679781 4.9588528 57.846527
4.7849498 6.3110414 57.893986
4.4399986 6.424757 57.864403
3.2784686 10.825946 57.811882
12.179261 26.77025 57.835804
13.605516 7.612668 57.901913
13.234428 22.028904 57.936295
11.942654 0.64373785 58.068611
10.58972 22.4942 58.016464
10.352077 1.185325 58.149155
3.5019407 13.374229 58.112175
13.347395 18.145899 58.196999
9.2124996 19.026005 58.195393
12.76827 21.908577 58.109657
9.7456188 23.799273 58.172588
10.256201 1.2469063 58.230839
14.019707 3.3092909 58.255989
3.3507795 9.2159595 58.269176
13.916067 22.344143 58.240292
9.6407137 1.5928979 58.301579
8.9264326 2.3174767 58.313072
3.5306301 13.056393 58.353565
5.6735644 18.255314 58.361282
14.194878 22.57357 58.358856
9.2472973 6.0750399 58.455997
3.4288609 8.843523 58.481277
4.100143 16.367146 58.432053
12.846474 21.370068 58.420914
13.035981 22.605665 58.425766
12.124168 26.567076 58.421944
11.778067 20.487507 58.592705
9.6524916 23.481434 58.538151
10.993502 25.527437 58.543419
11.797643 5.5470042 58.605377
10.550009 21.658482 58.615551
14.127169 23.082844 58.673271
11.146666 5.7943306 58.798508
9.570116 6.0181241 58.769554
3.7790227 7.4449096 58.760628
12.145998 20.785744 58.756046
15.491785 25.163494 58.724369
8.4627991 4.0691223 58.897839
9.7448959 22.472866 58.884033
10.005337 24.152391 58.883621
7.4452133 5.0734072 58.980972
9.7767897 4.7464209 59.002014
4.7393284 6.0294123 59.080078
14.287794 10.074401 59.042542
7.428206 18.792774 59.082253
12.400812 26.309689 59.033997
8.3798618 4.771234 59.162937
4.5517116 6.0845184 59.164822
4.0429931 6.3012352 59.179413
14.103501 9.185379 59.162144
4.5093579 17.585096 59.180935
4.6189413 17.836258 59.135223
14.915677 24.324017 59.183372
12.677765 26.06418 59.145512
14.653888 26.689003 59.139549
14.538107 10.990273 59.277046
10.430594 19.747459 59.226059
9.7870483 24.050426 59.272015
11.567446 25.697124 59.230835
5.7711 5.5328379 59.367718
5.2307472 5.7659688 59.321968
13.344655 21.762039 59.327579
10.013664 24.035698 59.386875
12.309155 26.107944 59.384521
8.2380009 3.4183636 59.48629
10.536759 5.0507684 59.457321
12.514011 5.1388998 59.440498
14.059563 13.608278 59.46524
4.7363844 18.212502 59.437813
12.235991 20.939802 59.475502
13.55847 26.76602 59.411766
5.4940281 5.5899849 59.587257
12.473579 25.936937 59.54501
13.691168 26.527935 59.597153
8.0980501 2.7533545 59.639748
9.9905872 5.8972626 59.690266
4.6423411 5.9337783 59.607277
13.651086 15.197034 59.693542
13.86138 22.058046 59.699059
10.845664 24.720726 59.624756
8.5803585 4.6604953 59.748974
9.9306164 4.6375542 59.765625
3.5280547 8.6617231 59.749748
14.185719 9.2696419 59.735611
11.297589 20.186111 59.709438
12.497382 20.957489 59.703682
11.686024 25.71471 59.783451
13.683771 3.8710351 59.895714
3.754806 12.626163 59.857727
7.7332325 19.04657 59.838654
13.015949 1.7571601 59.930779
13.815018 18.121052 59.921349
8.8456678 22.197796 59.926666
10.447539 4.7923832 60.079903
6.8573632 5.081089 60.091331
14.62326 11.06726 60.079998
3.7472246 11.90134 60.09613
15.104186 24.786503 60.004505
13.985246 8.1644049 60.118179
3.6737146 10.765116 60.135757
4.4404287 17.71814 60.165337
5.5157084 18.665667 60.101524
12.145983 20.378263 60.156036
9.4722567 23.604633 60.144409
11.94846 26.222233 60.128731
8.162508 3.9705021 60.315269
13.777592 18.334774 60.379955
13.184604 25.713663 60.367516
13.618862 2.3665209 60.427887
11.105259 5.0212569 60.420483
7.7284713 6.009387 60.427708
11.53587 19.229469 60.471275
10.742903 5.0522747 60.598282
12.200374 5.6872907 60.520309
14.522039 10.442311 60.590336
4.9756632 18.666351 60.533295
11.446816 19.724688 60.504639
11.932833 5.5602031 60.668037
7.3434277 5.9045033 60.642754
14.668693 11.696183 60.644058
11.964133 26.237566 60.632538
7.47299 4.5946445 60.794891
14.650684 11.078705 60.718044
3.7646353 10.510618 60.81118
14.155033 12.827543 60.898376
8.1426697 19.009773 60.819565
10.870979 19.259287 60.848213
11.778784 26.046183 60.889336
7.9523449 4.3554468 60.991451
11.90471 5.5901146 60.990532
8.8017864 5.9756351 60.901028
4.4117789 17.425615 60.918331
13.91716 21.990536 60.923672
8.7345753 22.488588 60.932217
12.872993 25.835915 60.930439
10.176079 5.2053823 61.014393
4.3974285 17.21456 61.063995
6.8389893 18.914455 61.067566
11.017003 19.302555 61.00882
12.504791 20.224218 61.072838
14.081509 25.194778 61.057594
5.1923885 5.4402432 61.125374
10.721678 19.175575 61.153366
14.025654 25.132854 61.155315
9.0182285 5.684123 61.244026
4.0488195 13.72363 61.279697
11.252449 19.345242 61.216793
8.7126245 2.3035352 61.321178
6.2116871 18.830227 61.363075
7.7865686 3.0389404 61.42778
6.7928414 18.786777 61.490715
12.714461 18.939043 61.404213
8.664587 19.860579 61.456547
7.4742174 4.5572619 61.581203
4.1423779 14.670197 61.540264
13.050276 2.1907189 61.662231
4.397439 5.667511 61.641598
10.665937 18.963419 61.658848
10.773881 19.005819 61.683765
12.759314 25.09708 61.61425
6.2283955 5.9043164 61.786686
8.3016977 21.807079 61.850655
14.033988 22.654585 61.832478
11.254423 5.6912432 61.931801
4.0214839 7.8683081 61.901073
14.07052 8.4262934 61.978027
4.061408 10.00836 61.970623
12.651991 1.9079038 62.023987
7.0779238 4.5106916 62.078686
9.4089069 23.364227 62.016121
4.2041221 10.249051 62.178791
8.4111929 19.645178 62.103195
6.8485489 4.8589983 62.207932
13.715675 14.824221 62.203621
13.42191 3.1721847 62.357063
6.1720886 18.268599 62.345608
13.618101 21.685148 62.335217
7.5665841 3.2681983 62.480225
13.504289 21.519043 62.404297
10.078287 23.850338 62.419479
7.3598266 3.5130754 62.558891
14.013538 11.506822 62.540005
13.848936 14.414855 62.576996
13.094473 4.5183568 62.613701
14.13575 10.952579 62.644234
4.6683393 15.308911 62.610821
13.286995 16.219868 62.738953
7.9681368 21.148121 62.750977
14.144483 9.1794472 62.849693
4.7489953 13.103725 62.825424
8.0561752 21.254286 62.894356
13.945727 6.8918486 62.966576
4.7254958 7.1790161 62.954147
4.68051 7.5379276 62.90509
7.0976129 18.786249 62.914276
8.4183102 21.825817 62.908329
10.950569 24.005739 62.996777
11.97512 1.5183282 63.071262
4.7017884 8.6358128 63.024403
14.115989 8.8795824 63.018509
4.8077698 11.058778 63.081833
11.443765 1.5873166 63.152271
4.8963895 15.558318 63.117626
4.9312563 5.9816761 63.256577
4.9555454 11.975731 63.294304
8.2473001 21.477106 63.238312
6.7078204 3.9828391 63.31868
5.0659151 14.930729 63.469658
8.5650616 21.024731 63.454586
12.797918 21.946693 63.429611
12.956285 3.1076639 63.58062
5.0654702 10.793558 63.533276
7.8320794 18.964916 63.589073
12.916812 22.685524 63.502953
13.605322 11.708089 63.62875
8.7372227 21.280573 63.664207
6.7812691 4.5926819 63.752205
12.998629 4.9654741 63.735992
14.098823 9.0170393 63.774582
6.5002823 17.657906 63.756493
5.3171406 12.634143 63.860992
13.691053 13.672745 63.889908
5.1268206 7.181385 63.966553
5.3871965 13.031408 63.937824
13.626741 13.324657 63.978043
5.2760763 15.679445 63.93412
8.9433489 21.462784 63.98526
12.8112 3.2018805 64.000046
5.1238723 7.0099158 64.036354
5.345016 9.4531517 64.093651
13.444304 15.405815 64.05674
5.4416924 12.043827 64.142479
13.581533 13.311058 64.136353
13.331441 15.914372 64.182755
13.060825 17.38446 64.118248
8.5880184 21.670332 64.1651
9.4894543 22.285467 64.178612
13.091705 16.914463 64.266068
12.588051 21.174204 64.275406
9.069232 21.430763 64.262253
7.9666791 3.199486 64.347595
6.7634697 4.4520121 64.399323
6.9516888 17.863842 64.30883
9.5376749 22.034912 64.390343
5.3966165 7.6001863 64.45919
5.6077824 11.320261 64.432831
13.478896 11.743155 64.47998
7.467042 19.017052 64.400772
5.4858198 7.8381681 64.57724
12.180452 20.953125 64.592636
12.444632 3.1391814 64.685814
13.495481 11.579775 64.664261
5.7852182 16.635544 64.679695
9.2559052 21.197142 64.778122
5.8185124 10.136658 64.839714
6.6782517 17.480045 64.817589
7.2287674 19.076197 64.841057
8.6718121 19.63866 65.132339
5.8385878 6.7138472 65.266472
13.413548 7.243679 65.243744
13.376335 7.9060249 65.233711
7.4239454 19.178579 65.26889
6.1196461 11.227593 65.33326
9.5956268 20.706219 65.392952
5.9811821 14.604446 65.463348
6.7511234 17.300514 65.407669
11.141584 21.327312 65.478539
6.2109141 11.843292 65.571983
6.9428415 18.006733 65.571503
11.561794 20.881828 65.52478
11.206464 3.4052303 65.662941
12.900758 15.377198 65.646378
8.472414 19.183098 65.796402
9.4024649 19.780983 65.879257
10.925748 3.7342765 65.984756
6.5560255 5.3240876 65.931213
6.2413278 13.312191 65.928871
9.1849346 19.291222 65.978271
10.551001 20.305819 65.97464
6.271493 14.585829 66.098297
12.612129 6.7049952 66.111023
12.673582 14.948512 66.10405
12.662006 9.4637518 66.289177
6.4126029 11.908004 66.232254
12.912106 13.67675 66.287888
12.662135 14.744853 66.206406
11.897083 18.695112 66.224716
12.429236 6.5191059 66.390076
6.5776997 8.339797 66.385872
6.3689675 15.658404 66.344284
7.0859938 6.3912849 66.45211
12.600715 8.8682613 66.461311
12.501502 14.625153 66.462372
11.760998 16.683228 66.49427
10.231688 4.4972429 66.520714
7.317584 7.0506201 66.58844
7.9280109 8.7891312 66.538574
6.9856339 14.266695 66.527756
9.9628448 18.722969 66.559547
11.821908 5.4497061 66.6474
8.4529886 6.3146029 66.610443
12.312466 14.930799 66.64019
8.7132196 15.229905 66.638458
11.149281 15.234241 66.62114
6.5754309 15.528737 66.615677
7.9929543 16.787102 66.684937
10.071476 5.8210974 66.78624
9.0643024 8.445385 66.733681
6.8679714 12.589828 66.781769
10.577908 14.523928 66.797211
7.6752534 14.879681 66.796837
9.9200315 15.276976 66.740082
8.4398108 17.022938 66.723022
11.888092 6.1277285 66.88916
12.141376 6.700942 66.872192
10.306812 14.461076 66.858521
8.1164179 14.899076 66.833588
9.638072 6.4863458 66.989952
7.6457119 14.337667 66.9375
10.252913 16.292212 66.958633
10.703156 7.1182528 67.055679
7.8117566 9.4637785 67.095329
10.861089 8.3670368 67.166451
7.3096414 13.469472 67.184181
8.6189346 14.033509 67.199341
7.456748 14.127615 67.180862
11.588268 10.088046 67.32103
12.867161 12.004415 67.326416
8.9351664 13.959867 67.34314
12.820717 12.002643 67.414429
12.399647 13.066862 67.460739
9.2260294 13.999427 67.470619
9.143115 9.8880882 67.655838
9.119277 13.986954 67.603477
8.757616 9.7990055 67.753616
10.360635 10.347389 67.856064
8.7157564 13.940416 68.159195
6.8549271 11.68757 68.342377
5.8280129 10.915745 68.425903
9.5201311 10.120601 68.504028
12.163572 11.885449 68.652451
7.2675471 10.214898 68.758514
11.166109 10.822994 68.776863
4.9026952 11.960114 68.796448
11.484097 10.981461 69.001755
6.6659951 13.078002 69.058777
6.5747666 9.5167322 69.153107
6.3464718 12.839093 69.205673
5.2274461 12.547583 69.33918
6.0073338 9.4255733 69.518166
10.767378 10.887851 69.84166
11.650622 11.339317 70.311775
11.447513 12.495531 70.39888
8.4032412 14.094972 71.101692
5.2379599 13.822975 71.594383
8.3728142 8.556179 71.666031
8.7922344 14.831268 72.095093
