# .PCD v0.7 - Point Cloud Data file format
VERSION 0.7
FIELDS x y z
SIZE 4 4 4
TYPE F F F
COUNT 1 1 1
WIDTH 1613
HEIGHT 1
VIEWPOINT 0 0 0 1 0 0 0
POINTS 1613
DATA ascii
89.175987 24.533621 11.584505
96.167549 26.421932 11.50364
91.763756 25.232523 11.610535
95.169144 26.152279 11.664467
87.28492 24.022884 11.704629
87.864929 24.179531 11.748462
95.619141 26.273813 11.721638
89.068489 24.504591 11.817973
94.453369 25.95896 11.852158
87.66613 24.125839 11.914921
91.364868 25.124794 11.940686
93.606598 25.730255 11.963641
95.485657 26.237762 11.950922
86.716881 23.869469 12.099538
93.743622 25.767265 12.046007
94.840027 26.063387 12.028131
90.067978 24.774532 12.116708
91.974716 25.289505 12.14126
95.208954 26.163029 12.167534
96.626961 26.546009 12.141767
87.858978 24.177929 12.214802
89.92717 24.736509 12.238804
91.5159 25.165588 12.261834
93.02047 25.571951 12.210583
94.771469 26.044872 12.278904
95.433273 26.223612 12.252234
89.767273 24.693321 12.335284
89.914047 24.732964 12.349344
90.009903 24.75885 12.358412
90.332359 24.84594 12.351146
90.969559 25.018036 12.300274
91.547585 25.174145 12.3935
95.974869 26.369884 12.391647
87.096786 23.972082 12.497602
92.50898 25.433805 12.406883
95.13575 26.143257 12.401957
87.925751 24.195961 12.5499
94.962906 26.096571 12.511852
90.04631 24.768684 12.614719
91.612358 25.191645 12.687201
93.843643 25.794277 12.678921
88.008438 24.218298 12.717329
87.630646 24.116266 12.844885
91.081795 25.048347 12.895815
93.837654 25.79266 12.852807
95.245132 26.172796 12.893703
96.585197 26.534725 12.86614
90.467239 24.882374 12.935427
95.387894 26.211353 12.988661
87.056053 23.961081 13.054398
90.345169 24.849403 13.199129
92.267899 25.368694 13.220642
95.136383 26.143423 13.270725
90.306198 24.838879 13.329652
93.979919 25.831081 13.38044
94.246735 25.903145 13.333889
89.049652 24.499512 13.437883
89.902336 24.729805 13.482082
90.820404 24.977757 13.444652
93.421768 25.680336 13.439175
96.189011 26.427721 13.448979
89.110458 24.515936 13.595112
88.074287 24.236092 13.693769
88.601562 24.378494 13.622237
88.881554 24.454113 13.623547
90.377914 24.858253 13.663407
93.321449 25.653238 13.613174
88.993126 24.484249 13.771093
94.216087 25.894855 13.741559
97.642647 26.820307 13.737419
92.665794 25.476147 13.890627
93.717072 25.760075 13.886588
95.135071 26.143055 13.825481
86.763947 23.882193 13.905026
88.96743 24.47731 13.954979
92.411919 25.407585 13.925526
94.696838 26.024689 13.927715
88.768471 24.423574 14.049319
86.877441 23.912846 14.116232
90.986511 25.022617 14.143709
91.047325 25.039042 14.100172
89.963516 24.746332 14.235171
90.977478 25.020182 14.242177
93.039429 25.577061 14.22582
91.411354 25.137325 14.35051
91.680603 25.210056 14.37076
95.187576 26.157207 14.347216
96.753708 26.580191 14.340271
89.610283 24.650934 14.485016
92.847183 25.525126 14.446169
96.386116 26.480906 14.446644
88.656235 24.393265 14.57547
89.415588 24.598351 14.681864
93.745605 25.767765 14.610507
96.553482 26.526098 14.648195
88.791397 24.42977 14.767906
94.137894 25.873714 14.753743
95.916489 26.354052 14.719065
91.112274 25.056574 14.811687
95.350197 26.201111 14.870389
95.643311 26.280277 14.813594
93.982361 25.831734 14.948628
88.119873 24.248407 15.063314
88.442062 24.335426 15.02023
90.480774 24.886015 15.038102
91.551178 25.175117 15.088388
93.9142 25.813324 15.099339
92.801254 25.512756 15.116151
94.375282 25.937845 15.117422
95.78363 26.318184 15.12208
88.260117 24.286285 15.284719
97.523865 26.788151 15.24258
89.314285 24.570993 15.394209
90.520966 24.896885 15.471032
93.508354 25.703718 15.486998
89.60479 24.649448 15.616241
96.604752 26.539948 15.603532
88.218491 24.275047 15.764017
89.207634 24.542183 15.778052
91.763809 25.232536 15.754209
95.446594 26.22718 15.787085
88.845642 24.444408 15.837976
89.345078 24.579308 15.845984
92.609451 25.460955 15.842445
90.909416 25.001787 15.902098
93.680038 25.750099 15.924936
94.439568 25.955229 15.962918
94.580772 25.993362 15.974532
95.748169 26.308636 16.057098
89.592346 24.646086 16.113218
91.510071 25.164005 16.142721
94.506302 25.973255 16.183527
91.241844 25.091562 16.226645
91.508156 25.163486 16.239872
95.524048 26.248123 16.28421
87.272491 24.019554 16.38044
87.80732 24.163992 16.465561
89.426842 24.601383 16.476419
89.896065 24.728109 16.471722
90.21051 24.813028 16.448063
91.902466 25.269989 16.426901
95.567978 26.259983 16.494804
96.372574 26.477285 16.432783
97.005974 26.648344 16.448442
94.642998 26.010159 16.547934
94.899429 26.079414 16.587234
90.829742 24.980278 16.650757
94.87706 26.073372 16.626419
95.01358 26.110247 16.609371
97.195976 26.699673 16.658989
97.296082 26.726707 16.647848
87.366493 24.044939 16.719984
87.651276 24.121853 16.722403
88.258255 24.28578 16.705446
90.279205 24.831596 16.798769
90.674118 24.938251 16.729771
91.480865 25.156137 16.72443
93.512619 25.704861 16.833698
94.257812 25.906122 16.832047
95.24675 26.173222 16.891485
86.959969 23.935152 16.955778
90.652031 24.932299 16.977028
95.950195 26.36322 16.99659
96.766205 26.583603 16.988495
94.554611 25.986305 17.099564
94.79332 26.050776 17.052505
96.53196 26.520338 17.012478
97.862259 26.879618 17.043806
91.94735 25.28215 17.276386
94.672539 26.018158 17.22233
96.804321 26.593895 17.277969
92.03688 25.306332 17.490389
93.529991 25.709583 17.465281
87.768867 24.153625 17.564939
97.656998 26.824173 17.515205
87.309998 24.029692 17.620857
88.730179 24.413261 17.676502
91.215332 25.08445 17.645638
95.130875 26.141933 17.604788
95.575729 26.262077 17.686958
90.647858 24.931189 17.793995
88.661911 24.394821 17.805037
93.558716 25.717337 17.802902
89.070618 24.505207 17.92437
89.141769 24.524426 17.930984
93.581406 25.723461 17.964436
94.065552 25.854218 17.997797
94.999641 26.106489 17.927446
89.146561 24.525721 18.003719
89.455299 24.609106 18.062916
89.845161 24.714397 18.076788
91.186821 25.07674 18.096514
93.345078 25.659637 18.05163
93.823631 25.788881 18.081347
91.202347 25.080933 18.238785
91.441238 25.145454 18.29804
94.244667 25.902588 18.252266
90.153046 24.797543 18.336765
94.067673 25.854786 18.362751
95.017838 26.111399 18.310976
95.768143 26.314035 18.362808
96.057419 26.392162 18.332739
97.455765 26.769817 18.38728
91.44854 25.147423 18.441772
95.379822 26.20916 18.473261
91.063339 25.043388 18.681612
87.61084 24.110952 18.782909
93.162308 25.610264 18.770164
93.317322 25.652126 18.786394
94.923546 26.085928 18.794504
89.399406 24.594 18.833551
95.023323 26.112875 18.815422
96.959778 26.635855 18.894112
97.508621 26.784088 18.834385
97.763443 26.852909 18.827744
91.528763 25.169083 18.917953
94.6101 26.001272 18.992577
92.37915 25.39875 19.002008
90.470688 24.88332 19.192574
91.963692 25.286543 19.117805
97.798889 26.862478 19.116848
87.495407 24.079765 19.283854
95.628845 26.276403 19.270967
96.596146 26.537645 19.246037
96.889099 26.616762 19.255592
87.758904 24.150925 19.410299
90.939606 25.009956 19.409126
89.616226 24.65254 19.579212
91.279816 25.101839 19.557137
97.134544 26.683052 19.593973
98.348984 27.011036 19.581791
88.301865 24.297556 19.76898
91.746002 25.227745 19.702332
97.900848 26.890005 19.792355
87.3069 24.028837 19.834709
89.422729 24.600275 19.868944
90.051147 24.769995 19.87908
93.25489 25.635254 19.845387
87.047234 23.958702 19.944048
94.897552 26.07889 19.957705
97.526596 26.788927 19.97998
90.10762 24.785244 20.000568
90.338135 24.847498 20.031723
94.591461 25.99622 20.065517
95.636581 26.278481 20.073729
87.549957 24.094469 20.183569
89.494781 24.619726 20.145052
90.914459 25.003151 20.105724
91.400024 25.134291 20.126083
94.7509 26.039284 20.158646
89.856018 24.717281 20.265354
97.988617 26.913704 20.288204
87.556717 24.096291 20.363152
91.542397 25.172737 20.318115
92.358353 25.39311 20.318274
94.600105 25.998554 20.356184
98.271515 26.990105 20.39064
88.001968 24.216541 20.439936
92.185822 25.346508 20.415207
87.141487 23.984148 20.534424
89.709198 24.677624 20.571556
97.656387 26.823973 20.517227
98.092354 26.941715 20.620441
89.440582 24.605074 20.757103
87.100906 23.973188 20.801834
92.540588 25.44231 20.87681
94.69426 26.023972 20.805378
96.191574 26.428358 20.889984
98.121483 26.949579 20.861328
96.109879 26.406296 20.916912
87.092514 23.970921 21.085194
87.133957 23.982111 21.023046
96.606544 26.54043 21.000086
97.110802 26.676617 21.090096
93.601479 25.728828 21.18716
95.466644 26.232565 21.164139
95.985443 26.372679 21.149302
88.57431 24.371115 21.22073
89.226707 24.547312 21.273346
97.562996 26.798738 21.271202
97.990944 26.91432 21.233019
88.632675 24.386875 21.304535
90.277679 24.83115 21.39698
95.123863 26.139988 21.306036
90.569252 24.909901 21.492146
91.373886 25.127209 21.57468
93.597412 25.72773 21.545254
87.627411 24.115376 21.68845
94.176971 25.884253 21.603676
96.073837 26.396549 21.601713
96.200096 26.430651 21.628483
91.353363 25.121666 21.770706
92.035576 25.305914 21.712982
92.109619 25.325912 21.784876
94.271866 25.909882 21.775419
96.553223 26.526024 21.712208
97.421295 26.760475 21.741251
93.131821 25.601984 21.834042
94.343155 25.929134 21.820202
96.829117 26.600542 21.835384
98.569481 27.07058 21.810942
86.978836 23.94021 21.995737
87.25 24.013447 21.91177
89.944061 24.741047 21.959005
90.311089 24.840172 21.935162
93.179642 25.614899 21.979759
96.13092 26.411976 21.913321
98.413628 27.028488 21.902157
86.961021 23.9354 22.093555
88.481003 24.345911 22.044731
90.018959 24.761272 22.052288
96.578804 26.532948 22.089794
96.119675 26.408947 22.132647
97.26709 26.718842 22.106173
87.690514 24.13242 22.209938
90.975639 25.019653 22.201887
92.178444 25.344505 22.260483
93.677704 25.749428 22.277367
94.22155 25.896309 22.291353
97.320053 26.733147 22.202932
91.718468 25.220278 22.315605
92.558907 25.447264 22.346874
94.485634 25.967636 22.387342
87.966682 24.207005 22.420391
92.618103 25.463253 22.434555
97.234344 26.710011 22.493975
98.497314 27.051109 22.463827
86.797852 23.891329 22.553154
87.181435 23.994925 22.527905
87.46048 24.07029 22.508615
94.486145 25.967777 22.507425
95.826187 26.329697 22.569189
90.058891 24.772074 22.615047
90.256866 24.825546 22.658741
90.308044 24.839365 22.672497
98.198059 26.970303 22.679415
98.83136 27.141335 22.675745
87.997231 24.21526 22.764687
91.656097 25.203449 22.761604
98.280739 26.99263 22.74963
86.755882 23.879992 22.864805
87.14621 23.985415 22.826828
88.723427 24.41139 22.89572
92.3311 25.385754 22.800503
94.655533 26.013536 22.968769
97.603012 26.809597 22.960611
97.719833 26.841145 22.970488
91.546005 25.173714 23.072308
92.51416 25.435192 23.006924
95.009178 26.109051 23.071226
102.11382 28.027817 23.075378
102.23321 28.060049 23.024025
94.200546 25.890654 23.192402
95.190292 26.157967 23.196924
96.77935 26.587143 23.115639
98.399216 27.024635 23.127491
98.905693 27.161427 23.121286
90.87159 24.991564 23.298426
93.200111 25.620453 23.233093
84.608437 23.300022 23.376011
101.13326 27.763086 23.360418
86.70388 23.86594 23.477928
87.854469 24.176693 23.499702
88.767632 24.423321 23.485973
92.430801 25.412678 23.476084
101.77537 27.936411 23.446722
102.46387 28.122425 23.436398
84.564934 23.28828 23.502111
90.559196 24.90719 23.506218
92.892319 25.537317 23.663774
85.481827 23.535919 23.701466
90.56266 24.908123 23.710102
91.637329 25.198368 23.76284
92.312759 25.380791 23.722355
101.36436 27.825499 23.71722
102.71663 28.190613 23.742105
85.281212 23.481739 23.813728
89.178497 24.534285 23.888281
89.934547 24.73848 23.803656
90.179436 24.804619 23.844151
97.918411 26.89476 23.861538
88.887039 24.455563 23.96637
94.225319 25.897327 23.930597
98.50737 27.053823 23.913101
91.634155 25.197504 24.043427
92.087852 25.320038 24.036158
95.268448 26.179054 24.031174
95.741615 26.306847 24.047207
98.481308 27.046783 24.06234
99.082458 27.209141 24.008648
102.97166 28.259563 24.026434
87.144012 23.984812 24.154613
94.085098 25.859451 24.116657
95.227745 26.168053 24.194023
96.388107 26.481445 24.187847
96.703217 26.566555 24.169306
102.88909 28.237141 24.148594
84.434898 23.253181 24.211517
84.637985 23.308037 24.267767
85.158379 23.448574 24.277649
86.958115 23.93461 24.240072
95.148155 26.146557 24.265604
95.397766 26.213976 24.206409
95.42112 26.22028 24.298492
95.815796 26.326874 24.250511
101.65536 27.903969 24.25671
83.611908 23.030926 24.357868
86.923782 23.925339 24.342455
88.665359 24.395693 24.329052
94.127571 25.870918 24.311378
96.949905 26.633175 24.343981
98.125504 26.950676 24.35524
102.67387 28.179049 24.356991
87.286079 24.02319 24.492208
89.301155 24.56741 24.44812
98.438522 27.035217 24.40871
88.113701 24.24671 24.554901
90.064056 24.773451 24.515265
93.939041 25.819996 24.507484
103.08971 28.291325 24.596144
84.681953 23.319931 24.66024
94.649071 26.011751 24.688232
90.704521 24.94643 24.77816
100.1994 27.510908 24.748207
102.07675 28.017868 24.767784
83.960732 23.125153 24.826622
88.194397 24.268509 24.843811
89.19664 24.539188 24.858475
93.28978 25.644642 24.859436
96.84729 26.605446 24.829803
98.525833 27.058788 24.823875
103.40598 28.376728 24.850119
84.121315 23.16853 24.904316
86.154953 23.717726 24.989635
87.240509 24.010881 24.933794
88.13855 24.253428 24.927425
88.949997 24.472578 24.994091
89.367958 24.585461 24.972618
90.56517 24.908796 24.924095
93.250244 25.633965 24.959301
93.337288 25.657475 24.974598
93.833069 25.79137 24.986351
97.653435 26.823168 24.959122
97.927467 26.897177 24.947794
100.33083 27.546282 24.901894
85.02713 23.413099 25.048052
87.080711 23.96771 25.036976
91.642197 25.199677 25.071903
93.323807 25.653835 25.064095
96.269775 26.449467 25.04055
89.566513 24.639069 25.165588
91.633377 25.197277 25.173893
97.693436 26.833965 25.159389
98.682762 27.101162 25.137598
83.617752 23.032518 25.290873
84.247711 23.202663 25.243942
86.277435 23.750805 25.256088
87.217583 24.0047 25.262135
91.660278 25.204548 25.246222
95.801086 26.322887 25.21344
97.256409 26.715933 25.236996
98.379623 27.019287 25.258839
100.56131 27.608585 25.252457
103.70937 28.458729 25.275078
86.276436 23.750542 25.336481
86.378326 23.778051 25.318012
87.204582 24.0012 25.367752
88.344185 24.308977 25.378128
89.609482 24.650692 25.312023
88.756577 24.420357 25.472343
91.837814 25.252518 25.462185
94.061111 25.852972 25.427727
97.827324 26.870121 25.400986
100.70944 27.6485 25.406435
100.87731 27.693806 25.451319
86.769951 23.88382 25.567114
87.241867 24.011272 25.580118
88.752426 24.419233 25.568367
89.575516 24.641529 25.50478
98.242233 26.982182 25.509808
85.449493 23.527195 25.634274
87.496346 24.080002 25.607443
91.127869 25.06078 25.65181
98.294556 26.996319 25.729465
100.42119 27.570776 25.796444
100.53469 27.601402 25.799786
88.47171 24.343418 25.861124
88.974007 24.47908 25.940855
94.332336 25.926228 25.911533
88.081116 24.237934 26.009407
91.559578 25.177376 26.025364
94.013855 25.840214 26.07933
85.238319 23.470152 26.143026
86.650291 23.851517 26.136301
90.456551 24.879482 26.107332
102.82959 28.221127 26.112259
83.315292 22.950832 26.2589
83.542862 23.012287 26.23844
85.543159 23.552494 26.251507
87.057434 23.961485 26.284702
90.62822 24.925846 26.22254
92.938599 25.54982 26.292925
94.330025 25.925608 26.265823
94.58683 25.994965 26.293388
96.762634 26.582592 26.269863
101.86311 27.960192 26.218349
88.627602 24.38554 26.341839
90.958061 25.014925 26.386442
91.675117 25.208586 26.345409
95.157631 26.149124 26.373068
97.104744 26.674988 26.313658
89.061531 24.502735 26.407143
94.753227 26.039906 26.464449
94.851044 26.066326 26.448635
101.59177 27.886803 26.469479
83.603706 23.028713 26.582264
91.621033 25.193985 26.523329
96.438362 26.49502 26.533922
99.656799 27.364239 26.574825
101.23335 27.789953 26.562531
88.334038 24.306278 26.608313
91.456177 25.149475 26.681366
102.38222 28.100239 26.641979
83.634483 23.037037 26.735155
84.996567 23.404905 26.748695
87.367401 24.045212 26.754421
89.407509 24.596189 26.700859
92.461441 25.420973 26.756374
92.547867 25.444311 26.763237
95.539825 26.25235 26.706524
102.09509 28.022675 26.733219
96.33152 26.466169 26.882824
101.23621 27.790781 26.825745
84.981033 23.400703 26.973286
88.407639 24.326149 26.925442
92.899567 25.539301 26.960003
93.162331 25.610268 26.958887
94.985176 26.102568 26.983154
95.396019 26.213526 26.997707
96.0056 26.378147 26.920202
101.41434 27.838915 26.998119
93.426033 25.681484 27.096638
95.583054 26.26404 27.070818
97.764862 26.853281 27.071669
101.25447 27.795689 27.078556
83.743065 23.066345 27.105534
83.845123 23.093904 27.184757
93.969673 25.828304 27.18499
94.426666 25.951733 27.124882
94.593819 25.996872 27.164062
97.641609 26.819998 27.111549
98.994789 27.185453 27.119675
99.929901 27.438004 27.195744
93.77121 25.7747 27.225105
94.346016 25.929941 27.222721
94.900673 26.079742 27.207439
85.114693 23.436779 27.308369
86.028091 23.683468 27.350512
87.421989 24.059925 27.352837
88.88887 24.456087 27.338518
89.570923 24.640297 27.360451
93.645523 25.740746 27.389532
94.274902 25.910728 27.321678
98.152611 26.958002 27.305311
103.43106 28.383461 27.307224
83.170784 22.911768 27.455036
85.558662 23.556694 27.494122
92.149864 25.336803 27.409184
94.43988 25.95528 27.437706
94.541161 25.982635 27.450909
94.96096 26.096008 27.490465
98.345642 27.010126 27.485598
100.96271 27.716862 27.448698
101.65576 27.904026 27.415981
96.161163 26.420151 27.590652
102.31552 28.082201 27.550703
84.871216 23.371044 27.617579
84.920456 23.38434 27.623325
93.597466 25.727757 27.639591
93.710808 25.758369 27.604973
97.436836 26.764679 27.612175
99.781677 27.397961 27.664892
83.575485 23.021074 27.769169
85.779778 23.616434 27.775761
95.413048 26.218098 27.744122
98.152161 26.957867 27.781328
99.409859 27.297539 27.743572
99.934677 27.43928 27.747593
86.204636 23.73118 27.838604
88.915359 24.463236 27.827154
90.966133 25.01709 27.863123
96.696274 26.564661 27.899025
96.879318 26.6141 27.822657
97.921822 26.895653 27.854168
99.336792 27.2778 27.877258
86.596031 23.836885 27.906073
87.223145 24.006247 27.998146
90.247971 24.823132 27.967813
95.531792 26.25016 27.982445
96.010422 26.379429 27.987896
96.454369 26.499329 27.905281
97.797745 26.862141 27.991756
99.222534 27.246937 27.982853
102.001 27.997368 27.933556
86.172585 23.722494 28.074221
88.808838 24.434481 28.005833
89.406204 24.595806 28.030296
89.488419 24.61801 28.044342
91.096245 25.052227 28.035683
93.589371 25.725561 28
96.768135 26.584063 28.090645
89.876221 24.722746 28.143026
91.163704 25.070442 28.140617
93.735504 25.765022 28.136177
96.161171 26.420134 28.178314
102.06704 28.015255 28.183167
88.94136 24.470276 28.23135
92.580315 25.45303 28.235455
99.816544 27.407356 28.215736
101.61603 27.893425 28.25919
83.922989 23.114914 28.353718
85.212334 23.463123 28.308321
87.317886 24.031784 28.370783
98.83934 27.143435 28.386997
85.759941 23.611031 28.460707
86.276726 23.750589 28.553999
89.148857 24.526281 28.512482
89.540733 24.632114 28.559708
92.539062 25.441895 28.506916
103.07521 28.287506 28.560804
84.685165 23.320763 28.633068
85.921234 23.654583 28.680164
87.855774 24.177046 28.636679
88.860092 24.448282 28.650814
90.637474 24.92831 28.682961
94.544426 25.983477 28.666122
94.996597 26.105593 28.690123
97.109848 26.676329 28.684156
97.953705 26.90424 28.601559
88.633545 24.3871 28.776087
90.528137 24.898777 28.717278
99.797791 27.402279 28.731792
83.605438 23.029158 28.84297
90.645309 24.930418 28.85693
94.695999 26.024418 28.851612
88.348106 24.310013 28.926649
90.014992 24.760193 28.967236
92.768364 25.503796 28.944275
97.588829 26.805683 28.954107
98.03933 26.927351 28.970837
99.480904 27.316687 28.960058
83.798279 23.081236 29.024698
84.370605 23.235813 29.087496
84.926964 23.386089 29.030708
91.189133 25.077291 29.017759
98.253609 26.985216 29.089207
98.523941 27.058228 29.054384
83.802711 23.082439 29.165718
84.252357 23.203867 29.173126
95.221962 26.166445 29.154743
97.518784 26.786758 29.197393
98.446022 27.037184 29.149775
103.3831 28.370672 29.137079
97.66922 26.827389 29.274624
99.895081 27.428534 29.242287
86.88974 23.916159 29.383072
96.229088 26.43844 29.337746
101.929 27.977962 29.360056
83.430801 22.982018 29.451033
89.276772 24.560829 29.4517
92.953384 25.553772 29.423138
96.885689 26.61577 29.412941
97.978783 26.910986 29.446894
89.653809 24.662663 29.518953
90.264374 24.82756 29.571354
90.321678 24.843039 29.572105
92.36879 25.395899 29.590195
95.143478 26.145256 29.574327
95.821632 26.328405 29.561895
96.94841 26.63271 29.54726
102.89496 28.238758 29.554611
103.04073 28.278141 29.50388
90.004456 24.757372 29.634499
91.417595 25.139019 29.656347
92.152176 25.337412 29.693977
88.877449 24.453012 29.720459
90.784943 24.968166 29.735149
93.484581 25.697256 29.734886
94.217094 25.895096 29.78751
99.886139 27.426144 29.791775
87.629822 24.116074 29.804939
90.010239 24.75897 29.886459
90.330582 24.845486 29.878284
99.218002 27.245712 29.853733
100.14285 27.49548 29.815844
83.702896 23.055513 29.99235
99.349854 27.281338 29.911831
99.656494 27.364151 29.907181
87.186356 23.996307 30.07906
90.703674 24.946266 30.049147
83.49688 22.999866 30.113972
93.793472 25.78075 30.127726
96.529938 26.519815 30.134644
102.86974 28.231867 30.173189
93.673088 25.748232 30.214741
100.03532 27.466541 30.213192
86.246841 23.742542 30.345718
98.950829 27.173641 30.313213
83.460503 22.990034 30.407917
95.89077 26.347176 30.473932
97.34848 26.740875 30.406876
99.623199 27.355234 30.483341
101.97491 27.990366 30.429993
103.4583 28.3908 30.492065
88.115906 24.247314 30.561024
89.12384 24.519547 30.561106
90.09388 24.781544 30.534128
96.326088 26.464748 30.556774
98.767822 27.124216 30.523869
96.457954 26.500357 30.66827
96.811378 26.59581 30.67
99.876694 27.423704 30.687151
100.15552 27.49901 30.671371
103.22062 28.326639 30.635921
93.791649 25.78022 30.712687
93.965591 25.82719 30.83437
94.784958 26.048489 30.815487
94.829712 26.060574 30.869675
95.915855 26.353922 30.893425
86.951859 23.932959 30.93227
89.919197 24.73436 30.920242
94.073738 25.856394 30.979248
94.953491 26.094002 30.948574
85.504623 23.542084 31.021833
93.532204 25.710144 31.068539
83.74807 23.067675 31.126886
86.958183 23.934656 31.118214
87.583488 24.103535 31.155916
91.945572 25.281631 31.157547
102.27379 28.071007 31.135344
88.11467 24.24699 31.211636
95.190445 26.157986 31.24964
97.970238 26.908739 31.222286
98.370018 27.016708 31.224756
99.915146 27.43399 31.241016
102.70541 28.187571 31.250504
85.102325 23.43342 31.368839
85.5019 23.541342 31.306345
88.034569 24.225378 31.393044
90.813408 24.975845 31.303886
91.660454 25.204613 31.306049
99.199051 27.240589 31.370306
84.879738 23.373314 31.448088
89.678986 24.669466 31.433132
92.00914 25.298771 31.419064
94.549751 25.9849 31.430317
95.801056 26.322853 31.498796
87.345932 24.039368 31.542608
89.695709 24.673969 31.581493
102.51276 28.135548 31.503353
86.858063 23.907602 31.624155
90.112465 24.786531 31.65143
91.266647 25.09824 31.685837
85.391068 23.511408 31.759384
94.917511 26.084248 31.705086
95.453568 26.229023 31.722803
93.542542 25.712889 31.895452
98.837029 27.142809 31.835817
102.53217 28.140789 31.853153
87.237114 24.009949 31.969263
88.615837 24.382305 31.953636
89.333237 24.576059 31.930429
96.290115 26.454948 31.977451
102.48178 28.127178 31.927818
84.258759 23.205624 32.088734
90.467987 24.882524 32.010448
92.189468 25.347458 32.043262
87.208961 24.002338 32.132717
88.121803 24.248878 32.139721
100.04984 27.470383 32.193653
102.18066 28.045855 32.144249
95.475952 26.235077 32.210136
96.708473 26.567955 32.227859
101.28401 27.803692 32.28709
84.503906 23.271839 32.385033
91.819641 25.247599 32.396996
96.222343 26.436668 32.34124
100.27083 27.530075 32.330242
103.15787 28.309818 32.387829
84.804237 23.35294 32.460865
93.184708 25.616276 32.476574
94.734879 26.034939 32.432217
99.277863 27.261906 32.467701
102.38974 28.102329 32.476337
83.38974 22.970947 32.587933
88.198463 24.269596 32.526104
101.13863 27.764423 32.519226
89.79538 24.700893 32.617928
90.260628 24.826548 32.684624
94.608299 26.000763 32.632168
100.88518 27.695972 32.68084
84.063377 23.15288 32.730358
84.818558 23.3568 32.790955
86.48497 23.80681 32.797234
99.801987 27.403477 32.789635
86.558228 23.826609 32.877827
95.323189 26.193848 32.861839
95.617599 26.273355 32.832108
96.688416 26.562561 32.81662
99.218842 27.245983 32.833015
84.642029 23.309135 32.90786
93.307419 25.649429 32.913696
95.818848 26.327719 32.98151
91.163116 25.070309 33.005013
92.345139 25.389561 33.061157
92.479126 25.425755 33.082596
98.351433 27.011732 33.088783
85.040543 23.416765 33.122673
90.149467 24.796581 33.190342
83.608139 23.029943 33.294327
83.770844 23.073879 33.282867
85.783203 23.617311 33.254711
86.717705 23.869743 33.258121
101.71788 27.920902 33.227486
102.1991 28.050896 33.207249
83.902802 23.109512 33.398727
89.888382 24.726068 33.393085
99.760689 27.392372 33.389637
103.31487 28.35232 33.39106
89.679253 24.669588 33.428638
90.95282 25.013548 33.400318
91.560928 25.177784 33.407719
99.120865 27.219578 33.449745
103.03948 28.277935 33.485527
85.346909 23.499479 33.535599
90.025314 24.763069 33.588028
91.397446 25.133644 33.52142
95.559631 26.257767 33.501675
86.659515 23.854017 33.682201
90.27108 24.829453 33.688988
93.278709 25.641766 33.682014
93.668312 25.746994 33.673412
96.039818 26.387489 33.67104
99.168564 27.232504 33.669586
99.393089 27.293146 33.694
85.384766 23.509697 33.734173
86.081558 23.697876 33.786083
87.578049 24.102095 33.767857
87.644966 24.120174 33.753792
102.96948 28.259037 33.778969
85.397598 23.513157 33.823704
85.532799 23.549667 33.87772
87.601921 24.108543 33.88081
90.457901 24.879902 33.846119
90.661156 24.934797 33.84977
92.428154 25.412041 33.823883
93.43663 25.684414 33.811535
84.294434 23.215252 33.998165
91.953873 25.283936 33.965904
92.854431 25.527163 33.987862
96.540131 26.522617 33.932098
91.284325 25.103096 34.098843
92.488945 25.42845 34.006435
93.807434 25.784548 34.092567
97.543983 26.793743 34.003189
98.158318 26.95966 34.069775
83.850998 23.095501 34.103836
86.046234 23.688347 34.108322
86.541046 23.822006 34.192028
95.196533 26.159718 34.192596
98.456039 27.040066 34.116615
98.532707 27.060768 34.195892
100.00735 27.459049 34.170223
90.132812 24.79208 34.214485
98.113846 26.947636 34.232944
99.098267 27.213512 34.265812
86.168816 23.721466 34.357872
88.30777 24.299152 34.386356
89.972626 24.74881 34.345428
91.846558 25.254932 34.321533
94.852104 26.066683 34.354675
99.286171 27.264257 34.362087
101.52052 27.867661 34.32658
98.456657 27.040215 34.414528
99.241631 27.252224 34.407104
86.519203 23.816109 34.585846
91.279968 25.101891 34.56337
101.93157 27.978638 34.591431
84.562569 23.287638 34.668179
86.62751 23.845364 34.666954
90.323677 24.843607 34.620434
90.707626 24.947302 34.646259
93.494598 25.700016 34.697491
97.655281 26.823761 34.656395
98.759995 27.122128 34.626831
99.483826 27.317627 34.606083
101.77164 27.93544 34.669819
86.053467 23.690327 34.710125
87.967682 24.207302 34.701477
96.759781 26.58189 34.795158
96.914139 26.623581 34.769386
100.02496 27.463764 34.789165
85.435425 23.523397 34.878487
87.207291 24.001947 34.874718
89.082336 24.508341 34.875397
89.746643 24.687754 34.885445
92.271843 25.369759 34.884163
92.342781 25.388924 34.848362
92.788948 25.509426 34.842495
95.388184 26.211443 34.801273
83.928513 23.116402 34.969147
84.843018 23.36339 34.915054
87.469002 24.072628 34.996143
91.148674 25.06641 34.933182
92.315636 25.381584 34.903305
84.082214 23.157906 35.074776
92.88224 25.534613 35.006165
96.082466 26.398937 35.096165
98.893982 27.158295 35.011742
93.879387 25.803915 35.196472
100.0465 27.469566 35.117836
103.28708 28.344633 35.173241
84.174911 23.182949 35.299038
93.547653 25.714315 35.257431
97.333786 26.736897 35.215809
97.58506 26.804764 35.204784
97.654907 26.823627 35.202492
98.007599 26.91888 35.248894
86.262978 23.746902 35.390152
87.400002 24.053993 35.30666
89.049133 24.499382 35.309887
90.357399 24.852707 35.374142
91.025604 25.033169 35.317886
92.534698 25.440731 35.316265
94.506302 25.973225 35.375885
95.79847 26.322218 35.364414
95.991928 26.374474 35.330219
98.348221 27.010876 35.30983
99.430916 27.303291 35.340374
100.78313 27.668468 35.365372
101.90554 27.971542 35.398483
93.430527 25.682669 35.412331
102.49471 28.13063 35.488129
85.141876 23.444103 35.525681
88.736183 24.41486 35.546555
102.33888 28.088547 35.515526
89.284035 24.562822 35.671539
91.108597 25.055582 35.66127
93.989182 25.833549 35.654327
94.664192 26.015852 35.664169
95.593277 26.266781 35.697445
99.891937 27.427792 35.625305
100.22646 27.518127 35.694046
84.787384 23.348351 35.7103
89.274551 24.560257 35.721073
91.058907 25.042168 35.705723
93.072083 25.585865 35.79834
96.464363 26.502045 35.7486
99.977905 27.451 35.795578
102.86041 28.229355 35.766022
103.30785 28.350178 35.720173
84.402512 23.244408 35.808754
94.981659 26.101589 35.847553
98.233871 26.979961 35.812656
100.94657 27.712564 35.837029
89.798805 24.701849 35.978668
100.8531 27.687315 35.99625
83.733871 23.063837 36.061981
91.155838 25.068344 36.053051
97.527893 26.789272 36.004307
89.057022 24.501511 36.10276
92.787453 25.509001 36.124458
99.284454 27.263687 36.179585
99.91819 27.434847 36.184166
86.334015 23.766071 36.251919
87.04969 23.959393 36.210232
91.174545 25.073399 36.240921
95.732056 26.304253 36.252335
97.186234 26.696987 36.226994
98.601257 27.079161 36.212482
102.01303 28.000538 36.23624
93.019272 25.571609 36.311272
100.79143 27.670631 36.37146
102.90669 28.241924 36.356937
89.291962 24.564968 36.49107
94.904823 26.080845 36.412117
96.666214 26.556545 36.410812
98.823486 27.139162 36.458412
91.869263 25.261024 36.538586
92.037018 25.306332 36.527733
93.010986 25.569372 36.551018
94.386948 25.940979 36.508537
94.700409 26.025639 36.510239
97.19973 26.700636 36.509323
99.545341 27.334122 36.526306
101.59444 27.887527 36.524429
101.80461 27.944286 36.50679
84.157379 23.178238 36.670254
85.171638 23.452171 36.65139
87.462471 24.070873 36.629337
99.30159 27.26829 36.654175
100.50323 27.592817 36.619209
84.512077 23.274042 36.73431
85.766281 23.612783 36.777401
88.353912 24.311628 36.772964
101.83802 27.953342 36.747017
85.756378 23.610111 36.825626
93.974045 25.829472 36.820992
93.737473 25.765581 36.924606
95.580124 26.263231 36.99585
101.8275 27.950504 36.960007
103.13647 28.30405 36.945175
103.20919 28.323694 36.957138
88.396255 24.323069 37.071953
103.23347 28.330261 37.045914
85.309669 23.489485 37.149601
88.60038 24.378199 37.117664
92.313461 25.381006 37.145889
97.541344 26.79291 37.146999
87.948181 24.202057 37.297417
89.503235 24.62204 37.294472
92.996452 25.565464 37.243286
93.573738 25.721373 37.289268
101.37828 27.829185 37.209358
102.19264 28.049135 37.204201
90.626419 24.925385 37.374298
94.267471 25.908733 37.329933
102.53544 28.141737 37.354439
84.496872 23.26997 37.440086
95.170227 26.152544 37.423515
95.469612 26.233402 37.46735
97.521484 26.787556 37.432961
102.29754 28.07748 37.429276
95.161888 26.150295 37.514648
101.59547 27.887856 37.528641
87.944664 24.201105 37.674137
84.240501 23.200722 37.707466
84.876114 23.372383 37.763184
84.922394 23.38488 37.798393
86.244209 23.741873 37.702793
93.8964 25.808525 37.715809
94.704124 26.026672 37.707325
99.880791 27.424749 37.745888
87.430862 24.06234 37.883598
90.606133 24.919905 37.817471
94.2845 25.913343 37.82589
98.662804 27.095802 37.823093
99.532349 27.330643 37.886463
93.952888 25.823784 37.976875
92.851608 25.526356 38.006466
90.478363 24.885395 38.184414
91.922157 25.27533 38.197014
85.527 23.548153 38.220097
89.586761 24.644596 38.235291
100.80236 27.673632 38.255199
88.214577 24.274002 38.318893
90.322685 24.843351 38.385426
91.644592 25.200367 38.306652
84.523712 23.27718 38.463619
88.855972 24.447227 38.416462
92.823074 25.51865 38.448547
89.677917 24.669216 38.583038
93.320236 25.652922 38.591064
87.031662 23.954525 38.666557
87.153801 23.987511 38.621037
91.615623 25.192547 38.642685
91.958878 25.285252 38.659523
93.069016 25.585072 38.675179
93.165199 25.61105 38.624413
94.623871 26.005001 38.698677
89.780792 24.697002 38.721428
89.877411 24.723095 38.760803
92.250168 25.363918 38.76429
99.084106 27.209606 38.705757
84.398224 23.243277 38.823715
95.029198 26.11447 38.860928
98.650391 27.092466 38.86948
100.70671 27.647837 38.826462
101.44543 27.847355 38.878803
96.567093 26.529819 38.96146
96.720749 26.571318 38.974258
88.443504 24.335831 39.012482
91.088501 25.050182 39.073582
92.829498 25.520382 39.068012
92.907547 25.541464 39.037155
93.20649 25.6222 39.038452
97.957382 26.905296 39.087139
86.212143 23.733177 39.127087
89.658722 24.664032 39.104309
91.789673 25.23955 39.193222
93.067551 25.584677 39.117043
95.680389 26.290342 39.246574
100.33986 27.548731 39.267067
102.17004 28.04295 39.201492
102.72681 28.19342 39.291477
85.602547 23.568531 39.39616
88.166733 24.26108 39.318832
88.350044 24.310589 39.373837
98.337906 27.008049 39.331596
99.99704 27.456141 39.315765
90.525497 24.898129 39.413231
92.074692 25.316528 39.403679
92.894012 25.537807 39.464119
94.017159 25.841141 39.415863
100.52812 27.599554 39.448551
102.18747 28.047813 39.495323
102.54485 28.144344 39.444923
87.752045 24.149084 39.531757
90.834961 24.981709 39.504868
92.305588 25.378887 39.593758
94.850601 26.066235 39.552391
98.118607 26.948811 39.592888
85.788628 23.618792 39.650066
89.570084 24.640093 39.649715
92.775757 25.505867 39.622215
92.96386 25.556671 39.632744
96.74498 26.577837 39.683754
97.314636 26.73168 39.686302
100.64911 27.632277 39.65723
84.808342 23.354038 39.77943
88.369484 24.315842 39.763634
91.832611 25.251148 39.797043
94.790192 26.049911 39.766838
89.093689 24.511429 39.818783
90.512482 24.894613 39.851398
96.76239 26.582531 39.872749
101.26955 27.799868 39.891052
88.408516 24.326382 39.904659
90.479668 24.88575 39.994984
93.816025 25.786812 39.93026
94.679718 26.020065 39.989674
95.726639 26.302805 39.944294
96.224129 26.437157 39.995468
98.165977 26.961594 39.951046
99.994797 27.455536 39.98341
84.772141 23.344265 40.093407
86.642097 23.849295 40.05864
92.063553 25.31352 40.081505
94.98262 26.10186 40.193192
98.506721 27.053619 40.116882
84.002129 23.136303 40.273289
87.333076 24.035931 40.202969
88.907822 24.461231 40.254326
94.428795 25.952291 40.203327
87.308571 24.02931 40.373756
93.955414 25.824438 40.380333
94.359192 25.933487 40.368389
98.406128 27.026445 40.383526
100.14648 27.496492 40.346088
86.681328 23.859884 40.400089
90.392059 24.862089 40.480606
97.788315 26.859598 40.40897
99.598 27.348345 40.486683
87.312157 24.030281 40.557957
88.19043 24.267481 40.592857
90.072861 24.775883 40.54311
90.537071 24.901253 40.528236
93.883865 25.805117 40.584705
94.431313 25.952961 40.540646
94.74411 26.037443 40.599487
95.57283 26.261255 40.553154
87.261597 24.016626 40.656258
89.881279 24.724138 40.600685
94.150223 25.877048 40.607899
95.665283 26.286224 40.642761
96.245148 26.442829 40.6264
100.21858 27.515957 40.647961
100.59607 27.617916 40.684517
102.41939 28.110384 40.685749
85.817955 23.626711 40.700226
86.365677 23.774633 40.713783
96.992935 26.644783 40.79443
98.617355 27.08349 40.757442
101.26976 27.799881 40.708637
86.473099 23.803646 40.821178
88.221985 24.276003 40.897545
88.448822 24.337265 40.805569
101.09502 27.752676 40.891731
85.716293 23.599253 40.945274
89.698181 24.674677 40.976925
90.349983 24.850712 40.954052
94.170509 25.882526 40.90876
98.21003 26.97348 40.997692
90.614639 24.922188 41.077789
92.221741 25.35622 41.020195
95.837952 26.332848 41.061714
99.294449 27.26635 41.043854
102.64152 28.17038 41.088142
85.968895 23.667477 41.11694
86.384613 23.779747 41.124058
87.115807 23.977251 41.108658
87.428024 24.061575 41.112831
89.590355 24.645554 41.1008
94.688049 26.022293 41.134762
96.266663 26.448635 41.102158
97.690369 26.83313 41.169254
100.75433 27.660656 41.160667
85.390327 23.511229 41.274681
86.450745 23.79759 41.252346
86.807076 23.893852 41.210922
94.572617 25.991117 41.20293
101.43408 27.844254 41.285782
102.2659 28.068928 41.251717
84.559105 23.286745 41.325558
94.238541 25.900875 41.496262
94.656357 26.013712 41.438416
84.777969 23.345837 41.537628
86.463577 23.801071 41.591679
89.480606 24.615871 41.575439
94.536369 25.981314 41.528862
94.614365 26.00238 41.544106
94.871155 26.071739 41.584892
98.892593 27.157833 41.570358
89.923256 24.735447 41.699013
90.383644 24.859766 41.63847
92.532013 25.439995 41.643726
93.206512 25.622164 41.647285
93.805374 25.783901 41.661125
95.223251 26.166832 41.600899
95.911163 26.352627 41.698051
101.70829 27.918335 41.635887
101.83401 27.952291 41.671177
89.520195 24.626602 41.736263
91.307999 25.10944 41.766991
98.064392 26.934174 41.767147
100.93552 27.709618 41.707512
87.338531 24.037367 41.877834
91.202759 25.081028 41.851814
98.833023 27.141766 41.801025
100.26129 27.527527 41.896606
101.63309 27.898037 41.845741
96.584801 26.534584 41.963223
97.285141 26.72373 41.97541
87.963173 24.206085 42.005226
88.319008 24.302185 42.033859
89.978012 24.750248 42.073799
91.39856 25.133904 42.093029
92.778076 25.506483 42.055786
96.125343 26.410505 42.089195
96.773315 26.585508 42.08934
100.95831 27.715794 42.027763
85.721527 23.600655 42.14764
90.434555 24.873547 42.117229
92.888481 25.536297 42.177479
93.546875 25.714115 42.189674
86.014122 23.679668 42.355782
90.831696 24.980782 42.362572
94.59713 25.997734 42.363319
97.55365 26.796227 42.333263
98.707817 27.107922 42.39492
94.14682 25.876219 42.486797
97.261208 26.717363 42.465244
84.30674 23.218563 42.515591
86.2332 23.738871 42.511955
88.362122 24.313877 42.576157
99.110809 27.216805 42.53756
100.05373 27.471485 42.573662
100.66479 27.63649 42.525497
89.285278 24.5632 42.676338
94.870575 26.071671 42.673553
85.880898 23.643709 42.761978
90.439194 24.874851 42.715321
91.201004 25.08057 42.758877
92.44455 25.416428 42.758331
84.972969 23.398462 42.843487
91.989204 25.293388 42.820309
92.467438 25.422523 42.850639
83.938408 23.119091 42.998768
87.860214 24.178261 42.987282
88.342781 24.308578 42.907314
89.536224 24.630894 42.900013
94.207642 25.892513 42.952942
87.814156 24.165823 43.01862
92.972122 25.558842 43.022587
97.911003 26.892738 43.074799
102.60518 28.160473 43.027813
88.84362 24.443863 43.110909
91.625641 25.195221 43.161976
94.930542 26.087803 43.130978
95.751236 26.309464 43.144608
96.054413 26.391327 43.189331
94.624931 26.005287 43.262749
99.705719 27.377398 43.205948
102.66724 28.177374 43.251335
85.193375 23.458059 43.364681
92.773987 25.505386 43.361809
93.325531 25.654358 43.345169
84.139992 23.173567 43.413292
85.756111 23.610033 43.460381
88.422409 24.330133 43.437481
91.489624 25.158504 43.408489
97.221596 26.706558 43.427387
99.291069 27.265469 43.433422
100.12105 27.48962 43.466511
101.76228 27.932873 43.476807
102.19902 28.050825 43.458969
102.8797 28.234676 43.418438
87.826523 24.169193 43.541489
90.886589 24.995638 43.50552
94.834343 26.061817 43.547104
100.56993 27.610849 43.509037
89.679512 24.669632 43.636105
102.41866 28.110155 43.642891
85.747337 23.607653 43.792484
92.215576 25.354549 43.759705
93.035194 25.575909 43.711926
96.374702 26.477818 43.783146
100.9938 27.725338 43.72921
86.259583 23.745989 43.870964
95.376297 26.208172 43.878792
84.911942 23.382025 43.925598
91.537369 25.171375 43.93943
93.673355 25.748249 43.959976
98.035995 26.926521 43.985054
98.509842 27.054485 43.920815
98.902092 27.160442 43.979778
101.63343 27.898151 43.98275
89.177483 24.534027 44.071556
90.065445 24.773846 44.032486
91.40374 25.135281 44.022915
101.2915 27.805807 44.014141
102.9726 28.259882 44.130573
85.252098 23.473881 44.201805
86.205536 23.731373 44.286556
90.970268 25.018213 44.220181
93.47496 25.694702 44.240326
96.02932 26.384607 44.237133
97.570091 26.800762 44.275799
84.735519 23.33436 44.316864
85.035088 23.415268 44.334435
86.512169 23.814182 44.37355
89.567673 24.639414 44.339558
91.068237 25.044689 44.304256
93.746117 25.767971 44.366642
86.773163 23.884678 44.45985
87.860466 24.178354 44.483349
98.853897 27.147377 44.496822
95.873833 26.342525 44.503944
101.89034 27.967539 44.57135
86.183884 23.725542 44.624718
87.193863 23.998323 44.63221
89.129463 24.521099 44.61256
92.339157 25.387989 44.619553
92.721489 25.491249 44.631058
93.449593 25.687901 44.625938
93.533379 25.710529 44.631577
98.919685 27.165291 44.66169
99.024269 27.193539 44.664948
101.66341 27.906328 44.6945
102.85583 28.228371 44.693478
92.83551 25.522058 44.734612
98.403328 27.025843 44.762833
101.74966 27.929605 44.749588
89.67041 24.667219 44.811337
95.554337 26.256382 44.86039
99.071884 27.206371 44.890709
100.10941 27.486589 44.849304
101.58549 27.885242 44.831997
88.13327 24.252077 44.939495
102.26507 28.068748 44.935993
84.392204 23.241686 45.092163
86.549026 23.824215 45.089066
91.868469 25.260862 45.083836
96.124931 26.410419 45.092667
97.782661 26.85812 45.117046
98.59436 27.07732 45.187817
102.90828 28.242392 45.185131
88.119606 24.248356 45.214779
88.819885 24.437477 45.240929
93.058899 25.582323 45.235065
93.171852 25.612812 45.290657
96.200638 26.430815 45.254391
99.506653 27.323685 45.248081
84.208282 23.191969 45.361263
84.710739 23.327675 45.342484
85.570511 23.559872 45.357822
85.894493 23.647369 45.365105
87.089294 23.970064 45.322842
92.416512 25.408789 45.374077
102.28176 28.073139 45.34341
93.122955 25.599564 45.484211
93.879913 25.803997 45.473839
94.75589 26.040583 45.416889
98.507996 27.053934 45.412369
102.95107 28.253895 45.464825
85.318947 23.491894 45.536808
88.105911 24.244579 45.518009
95.525772 26.248503 45.511818
96.524506 26.518236 45.542816
97.261307 26.717228 45.549896
99.241043 27.251907 45.512192
85.408325 23.516062 45.635223
93.493744 25.699694 45.689163
96.778946 26.586952 45.623611
84.160782 23.179174 45.739765
89.764717 24.692623 45.777092
89.954254 24.743793 45.715622
95.943008 26.361177 45.799267
88.173599 24.262924 45.890228
89.083954 24.508787 45.829189
93.551804 25.715397 45.809433
94.599884 25.998451 45.817444
97.1175 26.678377 45.821327
98.127274 26.951088 45.822903
85.769463 23.613642 45.96949
91.696304 25.214302 45.908596
93.845688 25.794786 45.990158
95.701508 26.295986 45.901047
100.56081 27.608334 45.976238
85.315643 23.491079 46.045547
87.128456 23.980665 46.095966
92.208458 25.352619 46.094635
93.617378 25.733124 46.099293
96.047813 26.389513 46.060246
85.570518 23.559914 46.110634
93.867722 25.800735 46.137062
96.012207 26.379894 46.179855
100.59896 27.618635 46.106827
101.97915 27.991375 46.197647
95.894676 26.348152 46.242447
88.086639 24.239439 46.372868
88.427101 24.33139 46.388988
89.195923 24.539026 46.399231
91.514938 25.165319 46.3675
92.912842 25.54285 46.342148
84.573204 23.290571 46.400822
85.497833 23.540283 46.481529
93.707191 25.757378 46.477074
101.38838 27.83182 46.404259
101.48161 27.856997 46.45377
93.708664 25.757774 46.508736
97.90564 26.891239 46.518631
100.26591 27.528669 46.555489
87.57444 24.101112 46.615891
91.827919 25.249844 46.623165
95.87326 26.342358 46.637714
96.183739 26.426205 46.68454
102.00064 27.997162 46.647652
85.756882 23.610247 46.717373
91.568245 25.179707 46.726852
91.98745 25.292917 46.797668
96.232391 26.439354 46.7826
96.305847 26.459177 46.751305
96.644928 26.550777 46.79512
98.962776 27.176744 46.753742
87.215485 24.004164 46.853409
95.619011 26.273745 46.884533
84.956268 23.394024 46.986603
88.271019 24.289263 46.920662
90.377243 24.858101 46.92281
101.89169 27.967844 46.917595
86.534225 23.820194 47.047604
92.9729 25.559143 47.02552
93.629631 25.736511 47.07695
94.903137 26.08046 47.015923
101.4121 27.83839 47.083351
84.922012 23.384764 47.162025
88.396828 24.323238 47.197121
89.863083 24.719242 47.147774
97.539658 26.792524 47.136307
98.712029 27.109158 47.103619
88.151993 24.257111 47.226036
90.110077 24.785944 47.288712
91.125626 25.060226 47.244034
92.401764 25.40489 47.285542
87.42424 24.060558 47.314369
92.914024 25.543253 47.312073
93.722336 25.761572 47.319904
94.070732 25.855679 47.359795
102.05615 28.012403 47.306
88.238075 24.280361 47.468014
88.959976 24.475332 47.472214
89.698654 24.674833 47.484264
90.010406 24.759047 47.415058
90.113785 24.786953 47.475296
100.57656 27.612776 47.480686
86.23468 23.739271 47.593361
92.301201 25.377731 47.529198
101.66365 27.906374 47.518196
88.489159 24.348141 47.656498
89.053337 24.500519 47.66885
98.840912 27.143978 47.656487
85.5653 23.558502 47.733707
86.27018 23.748869 47.77142
90.91787 25.004084 47.732876
93.738991 25.766016 47.769913
95.96405 26.366978 47.704178
97.268799 26.719364 47.717499
87.490288 24.078373 47.801315
93.925865 25.816481 47.81324
94.591866 25.996349 47.857262
95.065323 26.124214 47.895218
99.025345 27.193756 47.869614
85.553932 23.555435 47.985909
87.927528 24.196468 47.911644
96.037849 26.386868 47.968552
97.693863 26.834133 47.94091
100.90916 27.702524 47.989517
86.689529 23.862127 48.000069
88.976044 24.479645 48.085121
93.380844 25.669239 48.072151
95.06591 26.124344 48.091141
95.577759 26.26259 48.061626
96.678703 26.559933 48.084366
98.28862 26.994743 48.077293
100.75249 27.660202 48.03894
85.445641 23.526186 48.115112
91.366898 25.125332 48.112419
97.057838 26.662319 48.163452
100.15176 27.497946 48.10236
86.736603 23.874832 48.255764
87.826538 24.169191 48.2071
90.463058 24.881237 48.206932
93.659439 25.744476 48.248085
97.549286 26.795031 48.28756
98.515259 27.055939 48.201214
101.11372 27.757734 48.240986
95.057205 26.121971 48.377163
96.256081 26.445747 48.351471
96.851295 26.606497 48.389996
100.46268 27.581879 48.359226
87.132301 23.981691 48.415043
87.945045 24.201187 48.498795
88.487427 24.34767 48.493984
94.751801 26.039494 48.439972
97.912354 26.893063 48.447445
99.763649 27.39307 48.429302
89.123161 24.519358 48.594269
89.828941 24.709969 48.577282
87.839996 24.172808 48.651325
88.13501 24.252481 48.643311
89.082733 24.508434 48.683544
91.653984 25.202856 48.616272
93.564499 25.71883 48.646011
94.534088 25.98069 48.625599
95.800316 26.322659 48.679634
98.54789 27.064697 48.603241
86.964661 23.936401 48.736012
100.44492 27.577026 48.747162
101.00606 27.728571 48.770344
87.461067 24.070459 48.833401
87.749405 24.148325 48.888748
90.719742 24.950527 48.869148
95.780579 26.317314 48.895908
96.022263 26.382587 48.885483
96.666817 26.556664 48.861008
99.302666 27.268528 48.891609
100.36081 27.554304 48.820358
91.396965 25.133425 48.941017
92.038284 25.306623 48.935188
95.843826 26.334393 48.957623
90.500053 24.89119 49.008278
91.499405 25.161085 49.024002
91.99929 25.296083 49.097946
94.320587 25.923 49.084637
88.706329 24.406752 49.100864
90.370766 24.856262 49.176678
92.272095 25.369761 49.132671
93.683159 25.750847 49.105492
95.208244 26.162727 49.139061
96.138771 26.414038 49.104183
97.687668 26.832348 49.152451
88.879005 24.453379 49.20229
90.622009 24.924112 49.234665
95.778725 26.31679 49.243084
100.20202 27.511395 49.24754
90.788773 24.969158 49.38435
93.848053 25.795376 49.369282
97.324265 26.734196 49.385105
100.1149 27.487858 49.324814
100.66224 27.635677 49.353321
86.840828 23.902939 49.40802
88.015923 24.220301 49.471733
90.014824 24.760138 49.414837
97.835625 26.872299 49.457623
98.756439 27.120983 49.405128
91.342064 25.118589 49.508156
96.343185 26.46924 49.552547
99.359634 27.283892 49.523647
88.177078 24.263834 49.734791
94.198372 25.890003 49.746399
91.073273 25.046011 49.837353
95.994217 26.375008 49.806252
97.912201 26.892998 49.898258
91.067703 25.044514 49.973686
94.688416 26.02235 49.923103
95.963196 26.366632 49.905045
99.478645 27.316046 49.926319
88.09745 24.24235 50.050858
92.08699 25.319794 50.018806
92.141617 25.334549 50.037411
98.269592 26.989578 50.063377
94.15757 25.87904 50.124531
95.435562 26.224192 50.292557
89.991867 24.753986 50.339478
90.973984 25.019234 50.30286
94.121872 25.869392 50.371498
97.542152 26.793156 50.351288
90.330093 24.845327 50.4436
90.652702 24.932449 50.492596
92.154381 25.338024 50.41283
90.175667 24.803616 50.501846
90.434891 24.873627 50.532909
92.835739 25.522049 50.571949
97.48336 26.777264 50.564533
91.357826 25.122869 50.697716
95.033157 26.115505 50.780468
96.800537 26.592838 50.776295
90.236961 24.820156 50.832314
92.178185 25.344433 50.803295
92.5466 25.443951 50.869446
95.224976 26.16733 50.886536
97.166328 26.691629 50.945999
