# .PCD v0.7 - Point Cloud Data file format
VERSION 0.7
FIELDS x y z
SIZE 4 4 4
TYPE F F F
COUNT 1 1 1
WIDTH 1613
HEIGHT 1
VIEWPOINT 0 0 0 1 0 0 0
POINTS 1613
DATA ascii
783115.19 773963 57209.348
760162.12 782458.62 4069.1018
799833.38 767775.38 91011.547
765435.38 780507.56 -2654.8992
782518.5 774183.62 -13749.963
774679.19 777085.5 -32415.906
775315 776850 -25965.09
759190.75 782818.62 69200.758
782000.75 774375.25 -92036.367
798569 768243 46040.32
788601.06 771932.56 -2557.395
769007.12 779184.94 48913.578
776596.12 776376.06 67274.547
776191.12 776526.31 -1628.4656
797471.5 768649.12 -10032.446
768599 779336.12 -31912.504
765413.88 780515 45870.25
795875.06 769240.06 44978.41
771147.44 778393 -53048.812
781698.75 774487.25 58813.398
772546.88 777875.19 79526.844
799689.38 767828.62 -19913.484
791120.88 770999.44 24250.799
764256.38 780943.5 -28645.816
772958.12 777722.62 -40277.898
799567.44 767873.81 83264.875
775992.75 776598.88 24220.012
780532.88 774919.19 75513.891
782334.19 774252.12 -73473.281
783749.25 773728.19 38783.438
775443.25 776802.94 -5295.0464
782011 774371.81 -17456.5
751783.94 785560.06 98922.023
766983.62 779934 8509.2646
793666.12 770058 80519.406
781050.56 774727.25 -30457.494
772627 777845.12 97258.875
776863.81 776277 43828.523
760812.31 782218.5 68704.609
778935.38 775510 12201.349
776238.12 776508.44 58122.055
761465.75 781976 14830.399
786019 772888.12 -76680.891
782993.69 774007.81 37847.812
762908.69 781442 12864.253
778236.62 775769 -83888.258
794624.12 769702.5 17308.385
785490.62 773083.62 31776.029
754792.94 784446 78456.094
795789.81 769271.88 5007.7261
787628.88 772292.12 -45287.383
770236.12 778730.56 83928.367
793142.25 770251.44 -30645.078
797185.88 768755.06 5570.0312
746526.5 787506.12 81917.547
766055.25 780277.69 36359.793
766934.62 779952.25 108214.41
770273.5 778716.06 -195.70621
788328.88 772033.44 68738.164
787805.12 772227.12 -32587.688
758799.5 782963.25 72372.133
792069.88 770648.88 -19049.76
752504.44 785292.81 100449.71
795614 769336.88 77900.242
792216.12 770594.38 -36954.547
764478 780861.12 114704.52
784799 773339.69 -96695.211
760821.56 782214.38 17518.627
792815 770372.38 28016.719
790792.75 771120.94 -45500.375
792718.81 770408.44 49261.312
779525.44 775291.88 -101593.24
769517.12 778996.38 107902.88
789475.38 771608.62 29406.281
793140.12 770252.69 12756.198
767368.31 779791.12 100815.13
787641.88 772287.62 -5234.8506
787721.88 772258.06 60315.102
765528.25 780472.81 60678.234
774103.38 777298.5 -14656.644
785372.12 773127.5 10557.17
800487.56 767532.5 28717.852
793987.62 769938.88 5126.9092
788637.69 771919.19 2997.7581
746629.38 787468.06 76381.594
772797.31 777781.62 100529.23
784928.69 773291.38 20676.629
798234.56 768366.88 64630.516
787616.38 772297 -9105.4785
758406.38 783108.88 38760.57
787851.12 772209.88 -47351.254
762368.12 781641.88 24286.578
772682.5 777824.44 -22852.967
786294.44 772786.25 60515.23
794369.38 769797.44 -7392.1475
750357.38 786088.06 94714.812
794658.44 769690.5 49848.109
783274 773904.56 77790.086
768080.31 779528.19 -21435.447
787704.5 772264.56 -83560.453
761710.81 781885.31 6542.1401
770387.5 778674.12 -50362.438
773549.25 777503.75 -55293.496
782633.94 774141.5 74605.164
760372.94 782380.5 -7.5692978
783593.88 773785.88 50797.125
768996.5 779188.88 56895.504
761131.62 782099.88 62903.098
778734.88 775584.56 85519.531
779769.06 775201.62 51807.543
760688.62 782264 47924.438
796531.75 768997.06 -2503.4902
773362.25 777573.31 74379.453
763394.44 781262.5 -39823.23
782212.19 774297.5 -20481.836
772139.25 778025.62 -33023.977
791201 770970 39069.527
781784.44 774455.88 -100179.36
764123.31 780992.75 -10734.488
789045.25 771767.88 72598.664
795867.5 769242.94 -8850.0322
759138.81 782837.44 59293.875
789409.62 771633.19 -80052.297
784696.88 773377.75 -80454.609
775299.69 776855.88 50380.137
783812.94 773704.81 43668.488
784355.75 773503.94 -5985.4492
772467.62 777903.69 24960.559
797777.5 768535.5 -13388.963
775630.06 776733.56 52043.914
787800.81 772228.88 -60815.094
791551.69 770840 25602.844
794909.81 769597.5 -224.08075
756278.75 783896.38 33248.656
782930.38 774031.12 -14017.369
767670.94 779679.62 51325.695
796979.38 768831.25 75938.797
766176.88 780232.88 -2136.3767
787288.19 772418.19 -13319.911
790605.38 771190.5 38184.727
772951.62 777725.38 84319.516
793028.69 770293.69 -16924.031
747155.44 787273.31 82420.359
793513.19 770114 99928.703
759475.25 782712.69 62947.391
787023.31 772516.69 68210.789
771433.88 778286.94 99558.188
780650.25 774875.44 -95320.188
779867.5 775165.12 52109.805
765293.5 780559.62 -4271.1753
763159.12 781349.69 36169.734
778170.38 775793.12 88790.586
759621.69 782659.19 -32692.883
760221.06 782437.56 -3082.6892
760824.44 782213.69 26690.777
791654.31 770802.5 48208.449
771663.5 778201.62 -56474.918
799327.25 767962 -12914.32
753853.44 784794.06 69451.406
793057.06 770282.94 -38310.598
766960.88 779942.62 59081.328
774550.31 777133.31 -38354.691
774724.25 777068.38 20451.49
766825.38 779992.62 -6365.6504
774033.12 777324.88 -20440.602
763407.75 781257.31 31468.254
764391.69 780893.44 -28925.67
794351.06 769804.12 74296.016
780788.25 774824.12 -90157.289
778269.81 775756.75 85545.734
772517.5 777885.5 -23397.432
787695.06 772267.81 54039.715
779540.69 775285.88 -103161.27
770297.69 778707.25 109564.94
786458.62 772725.62 -1432.8914
796764.88 768910.38 -27164.395
781979.75 774383.19 -89007.516
799041.5 768068 43687.043
764113.5 780996.38 97760.234
775765.06 776683.62 9917.9639
782718.06 774109.88 -87952.508
785886.12 772937.12 -46074.781
798841 768141.88 99392.008
751742.31 785575.38 75601.281
781761.31 774464.25 -61363.266
764409.5 780887.19 68541.141
778968.12 775498.38 75949.266
769242.25 779097.94 6360.4321
797726.5 768554.88 48762.336
782238.88 774287.38 -31796.719
787811.25 772224.62 33202.352
796478 769016.75 36173.754
777183.38 776158.69 -7099.5122
765324.25 780547.81 -95.902206
780833.25 774807.56 -68942.766
781762 774463.75 35196.492
768396.75 779410.88 106423.02
779425.31 775329 8802.1689
763761.31 781126.5 54670.785
798536 768255.5 80136.594
764081.94 781007.81 11427.736
772419.94 777921.62 57608.414
793404.12 770154.81 60861.297
762432.88 781618.25 109643.42
769641.38 778950.44 111461.18
757064.62 783605.38 -23085.906
775625.69 776735.31 45777.75
761818.62 781845.56 -46692.375
795478.19 769387.12 61115.25
751433.25 785689.88 74823.836
798611.81 768227.38 8141.7891
775229.81 776881.5 32603.84
759389.94 782744.25 115131.6
797888.62 768494.88 56529.469
784251.5 773542.25 10617.058
786326.75 772774.31 14386.812
761806.69 781850.31 47272
787764 772242.44 -4692.9351
764746.38 780762 33018.551
773544.75 777505.56 -37718.812
771130.69 778399.06 -47426.414
761902.25 781815 -44299.75
775045.38 776949.94 50027.535
787816.62 772223.12 6380.7314
790736.94 771142.12 8887.0879
798112.19 768412.19 70805.867
766809.62 779998.31 9773.4092
761368.38 782012 102759.09
788723.06 771887.56 -60880.883
784184.62 773567 11597.316
759086.12 782856.69 103586.46
789576.62 771571.25 -31677.418
746052 787681.81 83578.344
788495.19 771971.38 28877.879
783470.75 773831.25 -90375.727
751770.06 785564.94 95298.969
786995.56 772526.5 -89937.531
777876.75 775901.75 32484.293
775191.56 776895.38 18281.176
803324.81 766483 89987.328
768402.44 779408.75 -24891.172
798532 768256.69 -4947.0967
768873.5 779234.69 41670.156
776406.81 776445.62 102580.74
759272.19 782788.44 -28987.977
774276.25 777234.31 102837.19
793594.12 770084 28511.605
767104.5 779889.25 39059.969
793832.5 769996.44 -20577.988
785407.88 773114.31 -77072.766
772900.62 777743.88 -43153.098
784684.69 773382.31 99252.375
797035.12 768810.81 51898.457
787876.06 772200.88 -7226.9395
768468.88 779384.19 106840.2
771099.44 778410.56 -29205.434
771242 778358.12 63274.969
781006 774743.56 -26369.766
763599.38 781186.5 54237.332
758277.06 783156.81 46549.883
765836.69 780358.12 19772.111
757605.19 783405.5 93666.672
763513.38 781218.62 107951.55
783521.75 773812.75 -63524.297
780083.69 775085.12 39108.484
798986.62 768087.88 -14823.348
757593.56 783409.38 76217.672
799721.94 767816.38 -595.02527
803110.31 766561.88 -16665.707
793081.62 770274 -32379.887
749027.06 786580.69 84235.258
763349.88 781278.81 10120.882
794642.75 769696.25 -5360.6392
793029.88 770293.38 -18401.133
749217.94 786509.75 71639.773
774170.94 777273.5 -260.10776
798599.44 768232 14148.508
801404.81 767193.25 96518.695
801318.94 767225.44 93302.477
787694.12 772268.38 67797.961
781062.19 774723.38 -38657.336
763314.62 781291.56 105176.23
773345.44 777579.12 -42771.156
765618.25 780439.38 4456.959
765653.44 780426.12 54314.012
778842.44 775544.88 74461.547
791894.31 770714 -39586.742
776280.06 776492.88 -25929.461
775507.38 776778.81 12080.634
757001.75 783628.19 105597.58
768773.12 779271.69 38212.152
747235.75 787243.56 76718.023
764430.31 780879.25 -52662.473
776131.5 776548.06 70858.703
789282.06 771680.19 35474.32
774630.75 777103.56 8656.7051
775220.25 776885.56 61339.133
762691.75 781522.94 68183.156
757223.75 783546 102475.25
783802.12 773708.69 40323.621
774541.38 777136.44 49782.504
775966.44 776609.12 -38299.176
786023.94 772886.25 -45400.617
780484.88 774936.69 -60812
761132.56 782099.75 -19853.055
775613.12 776739.88 36645.723
776732.81 776325.38 12495.296
774352.88 777206.19 -13314.252
759225.62 782805.5 56463.836
748276.88 786858.12 74012.234
771091 778413.75 -20802.883
790602.88 771191.5 -37897.703
782215.75 774295.75 -24474.525
786299.31 772784.44 44484.379
759975.81 782527.62 48512.363
783510.62 773816.19 16561.844
771286.38 778341.56 99062.273
769896.81 778855.62 40828.102
769297.75 779077 18759.248
763207 781332 42570.922
768765.88 779274.38 76763.617
767675.56 779678.25 63315.691
792949.56 770323.19 9386.5918
773040.38 777692.25 35847.398
772517.56 777885.5 11326.551
790263.62 771316.56 17647.883
771728.62 778177.75 -31933.879
800952.38 767360.38 26342
780416.88 774961.5 -13916.912
768928.06 779214.12 -14155.985
783530.56 773809.44 -79161.148
781753.75 774467 -6146.3193
793541.25 770103.88 -8555.1426
764153.44 780981.88 -37018.684
797357.94 768691.38 63266.426
767446.81 779762.5 56159.484
776448.44 776430.25 24461.027
792792.38 770381.12 45252.254
781217.38 774665.69 -66473.75
785742.81 772990.19 -91568.422
784385.38 773493.12 -18652.008
761621.25 781918.56 -46721.496
784698.38 773376.62 102413.41
773405.75 777556.75 -25537.281
782302.94 774263.75 -6959.1313
756334.44 783875.38 79656.039
787870.31 772202.81 -29546.451
765304.69 780555.25 -49108.422
793427.56 770146.12 -17924.459
770158.5 778759.12 -35733.305
784326.5 773514.25 24343.168
792058.19 770653 8468.7549
773997 777338.19 45448.305
799302.25 767971.62 65480.578
777315.5 776109.44 32156.795
759243.81 782798.88 -27375.135
766550.56 780094.38 -17137.262
773709.31 777444.69 70279.031
797420.12 768668.56 81587.359
789349.62 771655.88 -39550.484
768144.94 779504.19 -28691.16
789196.25 771712.62 -66103.562
782060.06 774353.88 -67329.602
758129.5 783211.56 112495.52
762277.38 781676 28224.902
764919.44 780697.94 -23710.482
783573.12 773793.75 -22050.316
794961.25 769578.25 -31737.789
759728.75 782619.12 109361.79
778625.12 775624.62 26661.645
785738.06 772992.25 -55715.734
798935.75 768107.25 15258.039
790873.44 771091.5 52115.754
786025.19 772886 56064.824
757659.5 783384.88 40263.824
787712.75 772261.5 65442.711
771253.94 778353.25 -25165.43
776430.31 776437.25 60302.77
778759 775575.38 -87855.547
765120.25 780624.12 67646.344
782977.19 774013.75 103277.41
782131.94 774326.88 68198.531
757422.12 783473.25 -31867.6
786787.88 772603.69 -79888.281
794003.38 769933.06 13478.533
787509.94 772336.25 -76383.266
770464.19 778646 77323.781
795611.75 769337.25 28008.99
801883.62 767016.56 85192.281
793470.12 770129.75 17864.537
770753.69 778538.44 49923.215
798966.12 768096.12 70210.18
795215.38 769484.38 66016.945
754897.12 784407.62 73780.875
775097.56 776930.62 -12555.459
782189.62 774305.62 56564.816
764187.12 780969.25 107707.21
789679.44 771533.38 -71380.555
774357.69 777204.38 -24741.07
761379.75 782008.06 52689.527
791839.19 770733.94 -9984.4258
770807.88 778518.62 68082.188
795513.25 769373.88 -32332.031
750232 786134.69 93485.656
768678.94 779306 22140.311
780520.88 774923.12 -34302.727
765236.12 780580.75 39588.539
782398.56 774228.25 -31306.328
774489.38 777155.62 42723.246
789376.44 771645.56 -55187.191
785420.62 773109.88 4675.2388
784447.12 773469.69 -14304.947
788242.44 772064.69 96228.398
800774.94 767426.62 79014.047
763931 781063.88 44315.305
755954.38 784016.06 78737.523
778351.94 775726.31 -21183.582
761847.31 781835.56 60909.004
761493.19 781965.94 6461.4233
762190.81 781708.06 28054.652
787811 772225.12 63927.516
772068.88 778051.62 -33712.102
773669.19 777459.5 -17798
766561.44 780090.19 -45276.875
762590.69 781560.12 28685.516
781409.12 774594.25 -90815.086
766181.69 780230.88 -31843.152
801559.38 767136.38 92969.406
774549.5 777133.5 52335.789
779038.75 775471.5 22709.104
759941.75 782540.75 42526.184
772400.31 777928.94 54195.488
795720.81 769297.25 94083.391
769928.25 778843.62 103994.33
769814 778886.62 7506.8115
797004.19 768822.12 43571.703
765956.69 780314.38 -34984.336
770169.5 778754.81 69091.391
791266 770945.94 -30208.609
789503 771598.38 11024.49
767135.19 779877.88 56516.875
798327.88 768332.38 59553.906
792361.88 770540.56 48475.453
789320.5 771666.25 -74688.109
755979.75 784007.38 57275.266
771043.88 778431.5 58895.969
792895.25 770343.12 63539.215
780200.44 775041.62 -24616.299
797180.94 768756.81 51274.516
753328 784988.62 64735.297
765896.06 780336.38 930.41089
779639.06 775249.31 -92995.984
783676.94 773754.75 -92855.727
770861 778498.38 102726.06
785848.62 772951.75 -40002.582
786970.88 772535.62 -97557.469
802346.44 766844.56 -12064.689
780717.06 774850.62 -28223.984
771423.75 778290.06 19579.59
780393.75 774970.56 72218.195
769913.44 778849.62 -43495.773
801265.56 767245.25 87323.156
784946.56 773285.25 45253.215
792480.56 770496 19526.629
769829.25 778880.69 70033.375
786713.38 772630.94 29295.527
796661.81 768949 60350.023
771898.19 778114.75 54748.82
763446.31 781243.31 108531.27
780839.38 774805.56 8915.3574
775418.56 776812 99675.125
789511.75 771595.62 -18206.441
775809.25 776667.62 80920.312
782838.12 774065.75 4788.2686
793638.62 770067.56 97626.266
757169.5 783566.12 103176.44
760040.38 782504 -24285.787
800470.56 767539.56 -20241.271
785123.38 773219.75 -73067.312
789500.38 771599.75 -2179.2825
786103.25 772857.06 -57230.074
784799.62 773339.12 96573.586
793605.31 770080 -29770.693
772705.88 777815.56 25443.158
774536.5 777138.12 31776.34
801211.12 767265.31 -22446.316
779527.31 775290.56 102962.09
770028.88 778807.06 -34886.18
766782.06 780009 61529.781
781802.19 774449.12 12581.155
781964.12 774389.19 47283.84
791880.38 770718.94 65845.422
791931.31 770699.69 93811.492
793486.69 770124.44 80746.203
795211.75 769485.69 93119.805
762461 781608.12 1945.153
783290.62 773898.44 8204.5332
757120.38 783584.94 107846.86
787843.44 772213 59711.984
788800.5 771858.12 96637.242
761506.5 781961.38 28744.074
756027.25 783989.44 -10033.864
786563.75 772686.62 -56617.406
796566 768984.5 68232.984
788174.25 772090.31 -30704.625
775868.88 776645.25 41201.648
772115.81 778034.69 87762.664
796688.25 768939.12 -6793.2588
778853 775540.88 -59676.703
765052.75 780648.69 -25073.004
774414.19 777183.62 -42735.594
765780.19 780379.75 61821.652
782208.62 774298.62 -23194.949
797455.81 768654.88 -11842.988
795169.25 769501.38 94513.492
786821.31 772591.25 -98255.555
765511.38 780478.75 10669.438
786023.31 772886.25 102581.88
774369.5 777200.62 81753.5
766027.38 780288.25 -35854.52
787601.44 772302.62 51135.312
767920.88 779586.56 22355.174
763476.19 781232.25 -12785.699
766088.25 780265.25 56621.809
771876.5 778123.12 68393.492
766028.56 780287.56 8403.8623
773299 777596.62 35658.148
773604.12 777483.81 63089.008
782141.12 774323.38 -69877.539
796116.56 769151 78554.406
771640.44 778210.62 75578.422
770877.12 778492.81 -45676.508
773023.06 777698.38 32510.367
787603.81 772301.75 13569.237
784043.06 773619.62 46172.844
767055.81 779907.25 1568.3418
792798.56 770378.31 -15282.599
786424.19 772738.25 -10493.14
788748.75 771877.88 51570.531
780729.56 774846 52585.641
794366.56 769798.25 33574.914
789827.88 771477.94 -15299.271
749793.25 786296.81 76626.75
790590.5 771195.75 23275.844
763502.62 781222.38 109198.75
743599.06 788589.81 83664.82
799822.88 767779 -23987.098
775260.62 776870.31 -28094.873
775075.31 776938.38 17866.119
777791.56 775933.44 -87841.883
777488.88 776045.62 69869.578
760219.19 782438.06 -38664.492
770540.12 778617.62 -62257.848
785904.06 772930.88 -75084.32
795131.81 769515.31 71043.648
749944.38 786240.38 105269.33
796371.19 769056.88 88327.578
769725 778919.25 52151.145
794343.25 769807.25 92226.938
793298.38 770193.81 47533.875
756314.88 783883.06 -27028.416
752761.38 785197.75 106104.32
786317.19 772777.75 -88763.711
751817.06 785547.75 75536.922
784473.19 773460.62 99377.836
788673.25 771905.5 -45662.367
795027.5 769553.62 37612.52
767430.06 779768.75 -5517.8555
792342 770548.19 80981.984
776929.12 776252.88 44553.211
795582.62 769348.44 51971.668
749156.38 786533 90003.719
800713.12 767449.5 69803.867
780078.94 775086.81 -84748.617
770474.5 778641.44 101709.88
798284.25 768348.25 38278.75
793292.88 770196.06 -93.698669
782588.56 774157.56 19280.762
792044.12 770658.25 -51766.312
793907.12 769968.25 98071.773
790856.12 771097.56 -13028.377
785813.69 772964.44 64330.141
764324.88 780917.75 100122.44
754347.25 784611.12 97495.531
784149.19 773580.38 -62878.953
773319.62 777588.56 33607.289
788806.81 771856.5 -83438.398
765319.81 780549.75 -50755.109
759226.62 782805.12 108674.83
761894.88 781817.62 -9645.6553
797963.75 768467.5 87556.305
785363.62 773130.69 -34293.203
761270.31 782048.75 -19319.932
785370 773128.38 -88366.406
755762.06 784087.62 -8677.4209
771512.25 778258.12 58763.395
775310.19 776851.94 51804.992
769435 779026.19 103760.08
756895.31 783668.25 69811.195
778663.94 775610.88 -20432.754
787712.25 772261.25 11346.921
778358.75 775723.81 -18167.035
799896.38 767751.5 38400.742
782601.5 774153.12 -56220.793
791039.44 771030 -73205.805
784026.44 773625.94 -74497.484
792052.38 770655.12 48508.055
794784.5 769643.62 -35498.18
768795.31 779263.44 -33279.074
780373.38 774977.94 47716.195
769237.69 779099.31 26406.379
778392.06 775711.56 74308.438
793877.81 769979.44 70953.883
786323.75 772775.5 -78051.789
781558.69 774539.62 -41314.824
764716.44 780773.25 -16974.162
788801.62 771858.25 -79452.953
762659.38 781534.06 16477.197
783771.12 773719.88 102868.7
757428.81 783470.69 -8313.3896
771343.69 778320 43812.332
778217.88 775775.38 27110.789
784405.69 773485.75 -42901.613
768952.31 779205.44 39525.719
786491 772713.5 -50328.391
788178.38 772089 60317.016
755525 784174.94 81646.008
795348 769435.31 85092.953
766876 779973.94 -7319.4878
799600.56 767860.88 29694.4
766397.5 780150.69 13934.476
792210.5 770596.12 101751.5
764426.31 780880.25 114881.79
772589.75 777859 -9533.6025
784725.06 773367.19 -8182.833
773926.5 777364.06 34644.156
783342.19 773879.5 -40460.859
794382.5 769792.5 45199.098
790598.12 771193.5 -42253.707
767833 779620.12 82478.758
797952.5 768471.25 57671.219
768777.75 779269.94 -21432.76
783576.5 773792.5 -18384
745267.62 787972.25 92283.422
795216.75 769483.81 58083.059
761088.94 782115.38 18914.918
760431.94 782359.5 -37621.422
791096 771009.12 54629.18
794382.5 769792.62 62496.734
797645.5 768584.75 -33032.152
775862.5 776647.88 76247.945
785475.25 773089.44 -99623.828
761755.81 781868.88 55137.855
772473.25 777902.12 108152.47
788193.75 772082.88 -96687.609
775773.81 776680.56 -49783.742
790995.25 771046.44 56948.473
771947.31 778096.94 72897.016
760035.12 782506 -7518.7617
772755.75 777797.62 -7714.3135
767193.88 779856.25 -1328.2351
773087.38 777675 77057.383
796743.5 768918.94 80014.68
791800.69 770748.38 5314.1934
788559.62 771948.12 -65804.688
775891.5 776637.06 -51522.453
794896.38 769602.25 -32743.883
791064.62 771020.62 12078.68
764592.25 780818.69 16344.851
772729.81 777807 4317.9756
792530.94 770477.75 -28648.961
771777.44 778159.75 99674.82
792112.44 770632.75 -46810.43
764150.5 780982.62 93762.953
761063 782125.5 -7113.1011
764321.12 780919.38 49228.125
772441.69 777913.31 20187.412
775373.56 776828.12 100260.52
773748.62 777429.94 -32985.23
784693.75 773378.81 59361.473
783504.5 773819.19 65237.074
783467.5 773832.88 -955.83765
793976.94 769942.31 -25177.863
780604.88 774892.25 -8998.3408
757378.62 783489.25 -13340.193
791066.19 771020.12 -47656.812
758715.81 782993.75 62886.891
761613.12 781921.31 23616.771
782393.44 774230.12 -73290.273
791142.38 770991.69 99775.633
797700.12 768564.88 81417.617
797245.44 768733 69864.664
775311.06 776851.69 58250.547
798032 768441.81 50330.176
796164.75 769133.19 7709.1934
797860.62 768504.81 26596.111
775533.38 776769.75 80789.148
768005.31 779556.31 83690.906
757336.38 783505.12 63771.395
781572.88 774534.06 8633.0244
774413.31 777183.81 52968.988
769602 778964.88 -10615.984
764501.06 780852.88 38677.5
767299.75 779817 65392.699
755155.06 784312.38 63992.859
791281.94 770940.38 -70901.375
783441.12 773842.25 -84864.289
783129 773958 -375.24338
778707.44 775594.5 58154.438
786370.06 772758.19 39472.746
762913.94 781439.88 17750.645
769662.75 778942.06 13728.122
749985.81 786225.5 70413.172
791373.31 770906.25 -76109.07
799824.25 767778.62 -22842.91
798175.38 768388.75 52505.016
745351.19 787941.12 78073.484
766006.88 780295.62 -11544.523
781034.88 774733 56435.07
785563.12 773057 702.2785
764062.88 781015.25 43779.258
792784.31 770384 98525.5
795510.12 769375.12 -35531.711
784623.06 773405.12 -81791.867
796079.06 769164.69 60396.293
777141.12 776174.25 71054.32
783677.88 773755 -81394.312
769536.94 778989.25 63538.246
781054.5 774725.75 44978.344
781614.12 774518.75 -36473.719
763816 781106.88 67613.766
765855.19 780351.19 104175.79
791803.25 770747.25 53671.75
778621.31 775626.75 84439.195
784796.75 773340.62 -57234.867
775997.62 776597.62 -39234.383
782771.75 774090.19 -32574.035
782164 774315.25 -22204.301
759207.31 782812.19 99729.203
774213.81 777257.94 8694.1719
779062.88 775462.88 -88100.289
752169.81 785417.38 63834.129
795956.5 769209.62 98183.539
774509.62 777148.25 -40936.594
802349.81 766843.5 -8453.6953
771616.81 778218.75 30633.357
766585.38 780081.31 106381.59
797000.5 768823.69 3209.9548
765033.5 780656 -33372.078
776759.38 776315.75 50994.078
768153.75 779500.81 109111.89
779339.44 775360.69 9322.0576
758988.12 782893.38 63382.762
771144.81 778393.81 -10351.986
794182.88 769866.12 27845.352
771434.12 778286.62 33549.969
771939.75 778099.62 -6386.6133
791599.38 770822.75 56215.688
770657.25 778574.31 67976.336
778219.44 775774.69 22441.113
797917.12 768484.25 48447.523
784571.25 773424.38 -65711.266
770580.56 778602.75 39875.414
789172.56 771721 -50305.18
783556.38 773799.69 12197.567
758051.94 783240 44997.344
791460 770874.25 -37226.363
790893.56 771083.69 73775.781
786017.38 772889.12 -43190.988
769912.31 778849.5 102882.77
772953.38 777724.5 87461.07
751635.94 785614.94 64655.125
751115.75 785806.81 104794.82
750449.88 786054.19 91813.203
800444.38 767549.12 13836.047
774104.94 777298.25 -60142.391
770670.75 778569.25 -29201.326
773449.44 777540.38 26481.355
775694.5 776709.69 10662.879
763708.94 781145.94 -45926.734
789931.31 771440.25 -2920.9341
759954.25 782535.69 49153.801
785194 773193.56 52868.184
799447.06 767918.19 7205.0771
750853.94 785904.25 67024.172
780208.75 775038.69 87689.578
778552.94 775651.75 -62727.266
786226.5 772811.56 46387.609
778694.69 775598.81 18674.57
770780.62 778528.31 31777.758
762695.12 781521.62 113411.41
791237.25 770956.75 55752.68
794093 769899.62 40786.684
790853 771099 -9404.7939
783026 773996.12 -2887.2439
792946.19 770324 -78149.078
791119.62 771000.25 -47585.828
748660.5 786716.44 92783.039
754904.75 784405.06 56439.555
793292.62 770195.88 37011.875
799248.5 767991.75 14510.81
789297.12 771674.94 45119.66
799553.25 767878.75 71079.812
787994.81 772156.88 -75887.797
766839.12 779987.38 54130.164
761293.19 782040.19 37700.734
764689.31 780783.25 41079.578
776268.5 776497.5 -52149.359
795795.25 769269.94 8462.2695
766404 780148.44 -48670.094
764052.31 781019.06 -12636.16
780819.12 774813 -8318.1113
789104.38 771746.38 -70221.672
796575.25 768980.56 -27430.719
792106.62 770635 -17619.471
757790.31 783337.19 -36651.156
778415.25 775702.75 57971.648
786656.62 772652.38 1459.0884
767294.69 779818.56 14748.302
776526.81 776401.38 29081.605
777214.88 776146.88 -25902.871
786122 772850.31 -61945.258
760691.19 782262.75 54696.516
790432.56 771254.75 -52958.75
797532.25 768626.56 -31746.135
799457.62 767913.94 41098.156
771824.94 778141.75 -57206.172
778801.69 775559.62 -77610.688
764492.12 780856.62 -36671.234
781035.19 774732.94 -11933.013
790278.12 771311.75 -80147.641
789268.19 771685.56 57343.352
760653.88 782276.88 -24023.301
763431.94 781248.56 -25969.867
750904.5 785885.69 83757.883
755861.25 784050.69 75166.117
771957.19 778093.31 67135.789
747101.5 787293.25 76768.203
764832.62 780730.06 32844.68
764495.88 780854.38 102206.97
767862.06 779608.75 -42236.836
794557.25 769727.94 -4120.3989
776849.38 776282.38 41648.648
788433.31 771995 -67523.312
756860.62 783680.62 77019.312
796078.25 769164.56 -12995.927
789270.62 771684.44 32725.082
785888.12 772936.75 14375.906
766610.88 780072 8511.627
777066.88 776201.75 87764.406
760898.06 782186.06 21129.367
766470.94 780123.94 -1917.3418
759391.56 782744 25460
786735.88 772622.94 -79666.07
758155.38 783201.88 93893.523
779251.31 775393.06 -102722.27
781960.81 774390.56 -19953.438
761798.75 781853 37182.703
790789.25 771122.5 -32226.66
778858.81 775538.69 -59670.105
790460.69 771244.12 43040.855
782904.25 774041 54861.516
763908 781071.94 19646.354
755186.5 784300.25 62816.828
798441.12 768290.25 -10030.461
792898.94 770341.25 22924.949
797769.62 768538.62 32428.105
772062.56 778054.12 -49382.203
773976.12 777345.75 -16747.137
754691.19 784484 111133.15
789402.12 771636 54034
792452.38 770506.81 -77730.18
759748.88 782611.81 30588.484
757530.88 783432.88 -24003.291
758391.62 783114.44 69829.414
761175.12 782083.5 20189.68
771626.44 778215.56 -3305.8843
788630.25 771921.69 -74948.828
780484.69 774937 76226.195
761648.75 781908.75 107463.67
775913.62 776628.88 72616.648
793024.75 770294.75 16024.376
782850.38 774060.94 39315.199
750917.75 785881 91644.344
763746.81 781132.06 -21885.025
775249.56 776874.62 43926.543
792386.12 770531.69 -53284.266
746212.06 787622.69 92778.766
796142.69 769141.19 -1213.8438
784037.88 773621.75 -68059.414
781584.75 774529.62 86115.781
761802.81 781851.69 34392.996
759121.5 782843.94 66837.656
775091.06 776933.12 -8708.666
781107 774706.25 58027.934
757085.31 783597.62 95116.93
769877.88 778862.25 100535.92
797316.56 768706.38 -30753.49
779319 775368.5 -1622.8173
780997.69 774746.38 20332.598
783767.19 773721.62 -28246.859
767783.56 779637.75 -13335.18
793479.62 770126.94 79124.078
793276.44 770202.19 6268.019
798442.62 768289.5 -12352.227
765258.44 780572.5 868.58258
780402.19 774966.94 -35211.629
778099.5 775819.69 -65274.676
774295.62 777227.62 -53518.812
757539.5 783429.62 -17352.324
764849 780724.19 -27501.871
782357 774243.94 62918.43
764621.75 780808.44 58865.902
765991.5 780301.25 108306.12
770974.06 778457.25 85551.75
768942.44 779208.88 -54880.547
771491.69 778265.31 97287.523
780558.38 774909.38 70976.469
788521.38 771961.62 23092.336
781978.81 774383.5 69047.531
791670 770796.56 -37148.945
764620.38 780808.81 -52516.98
766518.94 780105.69 14249.548
793448.5 770138.06 -38272.969
791163.31 770983.81 29801.928
790864.81 771094 16521.422
772983.31 777713.25 43555.883
754813.5 784438.62 74188.922
761323.25 782029.19 -24587.242
757954.75 783276.44 -36231.188
770868.38 778496.38 -35103.492
785837.12 772955.56 14484.407
793507.38 770116.44 -9704.0342
783951.44 773653.31 97231.344
796091.12 769160.25 67342.133
758630.94 783025.69 -14268.019
802651.38 766732.19 -18951.73
781252.44 774652.38 -85162.547
788116.19 772112.12 45021.75
775878.56 776641.75 -36378.016
759355.88 782757.12 59644.57
786173.5 772831.12 -73474.883
767004.75 779925.81 27329.527
783613.88 773778.12 -14054.006
775230.06 776881.75 87423.531
771631.56 778213.94 3475.791
763641.06 781171.12 49733.852
790558.94 771207.81 57713.301
792140.56 770622.62 13211.207
789770.75 771499.69 -2365.8167
777420.56 776071.19 6562.1934
753299.12 784998.88 79965.93
773168.06 777644.88 50404.203
788698.5 771896.56 47256.773
785605.44 773040.88 23295.475
764609.31 780812.88 -31087.752
776743.25 776321.81 64355.941
793716.25 770039.25 15077.102
764439.56 780875.44 41758.449
774034.5 777324.38 59440.133
760327.5 782397.75 -40493.195
751361.25 785716.44 98927.234
786499.38 772710.31 -98742.336
769989.06 778821.69 3741.5376
757483.94 783450.06 29397.223
779746 775209.88 35041.035
772873.56 777753.5 23030.566
772875.31 777753.25 51893.633
765692.38 780411.62 165.08028
769223.5 779105.44 83282.211
765319.25 780550.06 35185.414
769547.56 778985.06 -6262.147
774193 777265.31 -57408.441
773408.81 777555.31 16122.369
763883.25 781081.38 53951.422
786188.75 772825.38 -75759
789228.31 771700.25 41278.5
762570.38 781567.62 -30327.254
798976.25 768092.31 94732.688
767921.44 779586.88 31291.99
757090.5 783595.94 -29572.432
765683.38 780415.62 61551.055
759389.69 782744.62 106148.24
773171.19 777643.94 -36363.02
782739.44 774102.12 -57737.594
782863.38 774056.25 -84725.766
783114.06 773963.5 -36386.176
774499.88 777151.75 7332.5283
763633 781174.19 -13321.083
797186.75 768754.75 15058.705
791845.69 770731.56 76512.43
760949.88 782167 25194.562
792619.06 770445 10940.889
788421.75 771999 1250.146
794676.94 769683.75 60345.953
770134.31 778767.5 12035.953
759879.88 782563.5 46250.922
779737.88 775212.88 -13489.137
786138.5 772844 60312.312
801162.31 767283.12 72756.523
794837.06 769624.19 -11783.288
766772.81 780011.81 94848.469
798091.94 768419.56 46078.109
797397.62 768676.69 77472.32
776649.12 776356.62 -59493.605
768278 779455 -60389.965
777562.81 776018.12 60385.074
792284.94 770569.19 -51243.32
798186.06 768384.88 61132.07
787238.81 772437 -82296.672
765073.06 780641.06 -55048.867
800881 767387.5 -19726.572
783457.94 773835.94 32035.162
789914.62 771446.25 39487.52
776362.69 776462.19 11508.209
774349.94 777207.44 -8547.3711
778781.56 775567.31 -21641.201
777464.56 776054.69 -7926.9482
789742.69 771510 -52008.32
767567 779718.12 46895.801
772302.12 777965.25 56233.766
770430.62 778658.25 -37826.328
766455.06 780129.62 -5275.3003
796528.88 768998.25 62502.184
769844.12 778875.44 -35025.637
782400.62 774227.38 -89511.164
759654.62 782647.06 70853.906
776275.38 776494.5 29672.969
796652.56 768952.38 -3538.3433
762884.38 781451.06 -48241.621
760013.62 782513.75 53014.242
754426.88 784581.31 102266.34
771936.88 778100.12 22575.9
790714.5 771150.38 70230.742
776732.62 776325.38 39009.637
786337.25 772770.44 54044.195
783675.12 773755.5 29655.785
753731.88 784839.06 98583.359
774990.38 776970.38 9758.6641
782167.19 774313.62 27745.766
775164.88 776905.69 -22909.639
763901.75 781074.38 15336.167
783570.12 773794.31 28473.344
781279.81 774642.56 -98128.023
767135.62 779877.75 8421.2969
773324.88 777586.69 -15872.539
749264.81 786492.44 73039.789
783262.88 773907.88 19407.812
801078.75 767313.81 15642.959
768748 779281.25 62015.32
760286.88 782412.69 108826.53
761678.12 781897.88 3474.7561
776662.12 776351.56 10779.719
779824.62 775180.88 -57736.523
765366.31 780532.62 -16561.529
765398 780521 -31863.393
748811.5 786660.38 87413.734
786683.19 772642.38 -51778.094
763588.25 781190.62 27861.648
752189.5 785409.5 106750.61
780153.31 775059.5 -2006.2542
776097.62 776560.25 32695.262
785049.88 773247.12 63172.836
767905 779593.25 80360.516
762209.38 781700.75 25405.545
790884.88 771087.38 3898.9407
756217.75 783918.88 -18951.273
751665.62 785603.75 97797.695
769965.38 778829.94 22475.293
768024 779548.75 -56383.328
782477 774199.12 -88721.906
780503.12 774929.62 33118.543
762541.69 781578.19 -28051.898
770398.12 778669.88 11814.872
782623.06 774145.19 -11574.557
798172.31 768390.19 -20957.527
794493.25 769751.5 40228.648
771977 778085.88 -60680.691
802058.75 766951.31 -5360.355
792384.25 770532.25 53802.945
785702.12 773005.75 7611.3926
782663.38 774130.25 55495.496
775341.38 776840.62 -4336.2656
796156.38 769136.06 47919.973
771449.88 778280.31 16138.105
778928.25 775513 1808.8871
800727.56 767443.62 27800.598
765028.88 780657.31 32277.51
772734.88 777805.38 59383.305
758126.5 783212.5 69641.461
798446.56 768287.75 -14121.726
783851.25 773690 17547.113
785000.56 773265.31 -79743.055
749729.5 786320.38 80393.641
800681.19 767461.25 74412.75
771234.62 778360.62 51344.055
801696.06 767085.62 75728.742
789103.62 771746.25 32498.223
799914.81 767745 3275.9331
783743.94 773730.31 -73319.539
788515 771964.06 29341.709
754162.38 784679.88 64234.359
786752.5 772616.75 57106.27
800515.38 767522.69 -615.35168
776399.81 776448.31 -86810.812
789710 771521.94 -44374.98
757132.38 783580.38 65238.551
779165.31 775424.88 -90036.406
781400.25 774598 4717.3252
792016.62 770667.69 18116.881
780426.25 774958.25 -68674.922
779281.12 775382 32511.049
743757.75 788530.69 87870.648
793985.25 769939.44 -37179.555
792663.75 770428.62 -31422.98
776602.88 776373.88 -1813.8813
767342.38 779801.12 -49302.199
771460.25 778277.12 60765.859
761718.38 781883.19 2902.1323
778867.12 775535.12 11333.235
781598.44 774524.75 74752.961
760302.44 782407 -14814.433
794974.06 769573.69 60687.016
790193 771343.31 58652.102
790623.25 771184.19 66960.891
786966.88 772537.44 -54811.164
796970.12 768834.62 -32916.832
769576.75 778974.31 -51949.039
759564.81 782680 -7407.8462
774879.88 777011.25 -700.10834
772494.81 777893.88 -23132.676
787817.19 772222.75 9552.1328
776753.62 776317.75 70644.609
781938.38 774398.12 101670.08
766279.12 780194.75 60400.406
772085 778045.81 43371.141
791105.5 771005.38 -43239.578
788971.75 771794.88 -24899.225
780593.81 774896.62 79886.812
779218.5 775405.31 53155.547
792775.56 770387.12 -28756.738
786824.31 772590.12 -23359.035
759418.62 782734 115531.75
783180.94 773938.88 99514.969
788364.06 772020.5 -68579.586
773385.38 777564.56 48742.469
783849.12 773691.25 -28374.854
797337.12 768698.69 30980.363
798010.12 768449.88 51039.574
751920.94 785509.12 82696.203
760245.5 782427.88 99947.719
762909.75 781442.06 -31059.816
790863.88 771094.69 31870.891
751914.12 785512.25 91390.406
787690.12 772269.5 35491.258
801786.25 767052.19 74165.094
768736.25 779285.25 56626.109
759237.25 782801.25 27195.154
773105.25 777668.19 -11766.65
778681.5 775604.19 -6984.5957
782705.94 774114.69 -79871.57
757432.06 783468.94 103711.7
781473.06 774570.44 103923.66
786690.12 772639.62 -91153.344
777838.81 775916.25 5725.5015
763736.88 781135.75 50945.227
780850.19 774801.38 57101.297
771696 778189.88 105722.04
761835.69 781839 21582.98
766098 780261.88 -5679.667
785855.88 772948.69 -74782.109
757971.38 783269.88 46092.832
803282.62 766498.62 90205.344
780545.38 774913.75 20442.371
760616.19 782290.62 40396.746
780610.88 774890.25 3854.2786
783977.75 773643.94 -1602.4546
800196.12 767640.94 80955.141
780851.5 774801.06 -3561.6572
770994.88 778449.31 8632.6416
780155.12 775058.88 -98184.664
760672.69 782269.81 43656.668
758375.81 783119.88 75538.07
771405 778297.94 82406.633
792435.12 770513.69 80300.992
789570.06 771574.12 -62822.539
796701.25 768933.94 26836.113
788497.5 771970.56 -28349.676
760829.62 782212 111697.16
784235.19 773548.44 -69379.953
796452.38 769026.62 67889.25
764861.81 780719.44 -29258.246
764224 780955.25 28171.879
762642.5 781540.62 53252.852
757740.44 783355.25 50112.422
771784.69 778157.12 67389.758
778284.19 775751.19 -32272.613
787723.88 772257.5 -20205.438
775166.88 776904.88 53892.641
789738.88 771511.56 2907.7224
770031.75 778805.5 -172.69514
788848.62 771840.88 55004.688
766576.88 780084.38 6431.7354
777419.44 776071.5 -83359.297
772042.12 778061.75 -50988.414
785915.19 772926.56 390.42255
757468.38 783456 -19586.27
764301.31 780926.81 -51590.977
759549.88 782685.38 48455.496
782120.56 774330.88 29904.492
792832.69 770366.06 -79006.445
786441.12 772732 -53415.914
790142.69 771361.38 22372.152
789420.69 771629.06 -34277.367
780787.94 774824.38 -77778.898
776177.12 776531.38 61090.906
802921.06 766632.25 76735.18
785943.31 772916.12 40679.695
788838.12 771844.5 -45291.734
795710.5 769300.88 -31215.301
797019.5 768816.62 57536.207
771037.5 778433.38 60406.043
781430.12 774587 99188.281
765594.19 780448.31 50380.25
772343 777950.69 80950.5
779798.12 775191.06 -81593.352
763073 781381.5 64863.336
779852.38 775171.12 81710.312
799752.12 767804.5 -14352.019
765225.62 780584.5 54133.344
764554.25 780833.62 67722.477
773727.62 777437.94 64934.938
796556.25 768988.12 85456.258
766779.75 780009.5 51724.613
791560.44 770837.31 -60318.805
757699.25 783370 101945.76
782797.19 774080.75 -73637.805
767419.88 779772.25 6922.1846
756297.88 783889.12 67421.016
780832.25 774808.19 -6459.1758
780265.12 775018.12 -21436.471
785379.31 773124.88 97790.359
795354.75 769432.75 59999.797
774485.88 777156.94 -55938.27
765688 780413.44 96320.859
773879.5 777381.5 52423.477
784736.88 773362.75 -32152.127
758138.5 783207.62 55806.039
777954.69 775873.25 -4348.1836
768356.56 779425.62 53361.453
776921.25 776255.81 3962.8086
768543.69 779356.75 75886.516
759377.19 782748.94 115079.59
779482.31 775307.44 34122.91
786009.81 772891.5 -87757.562
802773.56 766687 80701.344
788596.44 771934.62 -67728.953
782143.5 774322.75 43043.859
764855.25 780721.44 24420.479
777995.75 775857.75 -68863.828
779242.81 775396.56 -84175.484
789483.25 771606 -4501.4829
764300.44 780927.31 64676.277
767590.25 779709.5 36177.145
775803.81 776669.25 -31485.848
772586.69 777859.56 101669.68
782666.5 774129 55938.168
759920.25 782548.38 26116.783
773048.75 777688.62 20510.08
761985.5 781783.5 115038.97
775202.31 776891.88 56717.469
758136.19 783208.5 54023.398
780450.88 774949 -35103.688
773294.62 777597.62 100849.67
795140.81 769511.88 12153.407
782021.44 774367.88 -31445.426
787807 772226 95181.531
787505.25 772337.75 -26297.715
782016.38 774369.56 32726.199
791863.56 770724.75 -43535.93
776098.62 776559.69 100553.89
762638.88 781541.69 104029.95
784940.75 773287.62 -66654.023
787752.88 772246.56 -5222.0361
788508.12 771967.06 -57503.895
770474.69 778641.81 -12509.141
780971.31 774756.69 58987.336
743277.31 788708.44 87780.977
774072.88 777309.94 50471.562
781032.94 774733.75 -10415.18
801060.44 767320.25 18920.084
775425.88 776809.25 -5541.4482
783938.12 773658.31 -30493.148
782935.81 774029.38 -105146.13
782985.25 774011.38 5270.166
793589.62 770086.12 48929.637
789019.75 771777.56 -8977.5312
776162.69 776536.31 523.75549
786127.12 772848.25 -5297.7593
797034.75 768811 93694.562
779178.62 775420.25 -95692.758
784841.88 773324 -73720.906
770373.5 778678.75 104924.17
785942.5 772916.62 -69633.617
796311.62 769078.69 71278.414
773387.12 777563.38 103583.33
791072.44 771017.69 42616.617
774497.69 777152.44 -15516.703
777525.75 776031.81 -55852.648
796496.62 769009.88 37519.781
776108.19 776556.62 50620.406
798713.25 768189.31 30024.914
777663.38 775981.25 5508.6089
782571.38 774164.06 31984.668
773444.25 777542.62 -22704.133
759452.44 782721.5 110018.91
775629.25 776734 68080.531
793319.56 770186 -33769.406
780084.38 775084.62 -69817.242
796363.62 769059.31 -4441.791
771918.81 778107.56 2735.6443
784264.06 773537.94 47873.875
755822.88 784064.56 103576.35
791955.75 770691 5371.8174
770938.5 778470.38 79631.469
776047 776579.38 48482.93
785189.38 773195.5 5331.0381
794074.62 769906.06 -14190.27
801933.88 766997.88 84743.281
791235.44 770957.5 -3474.5898
798857.38 768136 34144.023
784468.38 773462.44 6124.0938
772158.56 778018.5 -61914.719
761241.38 782059.75 -33633.375
769734 778916.12 47117.664
798878.12 768128.94 90096.453
797501.25 768638.62 82817.977
792281.44 770570.25 46172.395
785891 772935.25 -24714.16
772964.25 777720.62 63249.121
777216.44 776146.38 -28693.326
745776.25 787783.81 79835.922
763254.12 781314.75 -2466.7476
766732.25 780027 -24113.562
758419.25 783104.44 61215.098
788979.12 771792.69 49139.027
780871.81 774793.62 -18560.967
767422.06 779771.25 21867.014
762329.5 781656.25 103813.3
793194.62 770232.25 57157.676
777587.88 776009.12 -20712.529
774364.25 777202 14413.542
773992.31 777339.88 -46505.148
755171 784306.5 61666.438
758257.12 783164.12 -12711.743
785327.38 773144.5 -20637.562
769580 778972.44 23140.918
767668 779681.12 112698.56
777989.44 775860.06 31961.664
793634.81 770069.31 46208.07
758640.81 783022 98232.273
782124.81 774329.75 45850.203
802868.38 766652 86023.438
789543.5 771583.38 -45265.75
758841.19 782947.75 60303.418
757923.69 783287.69 69523.445
771868 778125.94 55789.805
789679.62 771533.12 34965.086
775683.31 776713.62 32392.629
777333.88 776102.75 -25883
796650.94 768953 -3409.8633
797534.81 768625.56 -29953.834
786134.62 772845.5 43721.422
771528.69 778251.88 66820.391
795439.31 769401.12 27286.609
788516 771964.19 -22645.309
780216.56 775035.94 53458.281
801247.12 767251.19 24261.021
748790.25 786668.38 85377.703
761786.88 781857.06 16959.779
773688.75 777452.06 -22732.387
778050.88 775837.88 2293.332
764889.81 780708.88 4332.7397
769689.06 778932.88 5275.4868
783967.38 773647.62 -8890.75
773068 777681.69 32960.508
783330.75 773883.25 -10546.905
783522.94 773811.94 -46006.906
784250.5 773542.69 38650.281
771809.62 778147.75 -47553.938
788414.5 772001.31 10598.704
763405.31 781258.38 -24386.557
786185.75 772826.94 -40291.125
769368.56 779051.75 81754.375
779679.12 775234.88 54636.254
760407.31 782368.12 28194.127
783978 773643.81 -17485.801
760735.38 782246.62 109264.02
796157.75 769135.31 -29822.836
773785.88 777415.88 30760.496
787429.88 772366 -78811.398
794271.06 769834 62847.977
758219.62 783178.12 -2356.0183
765192.19 780596.75 -57482.973
785527.12 773070 -105955
766197.5 780225.12 40838.066
777336.75 776101.94 -3928.303
758977 782897.88 70084.508
769203.88 779112.31 48001.578
775688.12 776711.94 56174.059
798202.94 768378.38 42992.07
773461.31 777536.31 -43487.789
790789.31 771122.62 -73751.117
796651.88 768952.31 99440.883
774924.5 776994.25 17314.418
762143.19 781725.5 49872.941
768034.25 779545.38 -35450.758
778348.94 775727.31 67227.102
800553.56 767508.31 -11570.923
772584.81 777860.94 99514.273
773440.5 777544.12 -10418.562
789296.62 771674.75 30700.797
779585.75 775269.62 47101.25
777642.81 775988.88 62770.574
792814.94 770372.88 -47969.59
791065 771020.5 -42882.086
788794.75 771860.5 23437.139
802660.62 766728.88 87915.812
775388.56 776823 -16984.689
793708.06 770042.19 -9782.0586
765843.88 780355.38 20584.293
798412 768301 76290.844
773633.12 777472.5 -15727.762
769824.94 778882.31 -28919.973
765385 780525.25 103373.88
783023.88 773996.88 99754.984
782017.44 774369.62 75392.242
756122.62 783953.75 80581.797
793144.62 770251 -21443.014
788742.75 771880.25 62730.652
790793.06 771121.06 99564.688
771096.5 778411.81 -60959.609
768183.19 779489.94 -26611.176
791863.38 770724.88 -35594.617
765361.25 780534.44 33761.305
781563.94 774536.88 -72032.531
757083.62 783598.44 -23471.414
795117.38 769520.5 -8917.8125
764608.88 780813.31 2898.1121
751264.69 785751.69 104367.73
777410.62 776074.88 59466.953
798449.31 768287.25 -7317.4258
762642.75 781540.25 101341.4
754932.81 784394.44 108883.78
771813.31 778146.38 -49079.266
794905.25 769599.38 -19644.223
766711.88 780034.56 -22047.318
758947.88 782908.25 110437.44
790945.25 771065.31 -39800.684
792427.5 770516.12 -46415.469
754198.38 784666.31 72896.422
761274.38 782047.12 66579.93
765441.06 780505 -39215.461
744760.69 788159.81 83808.922
764273.25 780937.25 -26606.977
775121.75 776922.06 85248.938
768358.25 779425.06 94970.109
779843.38 775173.75 30305.266
784407.12 773484.88 -7332.7529
796850.94 768879.06 -18632.957
774793.25 777043 -15383.062
788575.56 771942 -53101.379
776636.25 776361.31 48930.516
798678 768202.44 37134.309
784598.25 773413.75 25229.582
782970.25 774016.19 16821.908
793411.81 770151.94 -4604.1807
765444.69 780503.56 9001.4268
768073.81 779530.31 -55425.453
801935 766996.94 96770.016
771457.38 778278.31 68073.547
760609.81 782293.12 50037.328
790051.31 771395.88 13405.527
756652.88 783757.69 99713.664
766427.19 780140.06 -32847.383
780148.12 775061.38 72162.688
784665.69 773389.19 -1684.6335
756519.12 783807.38 107657.17
768612.5 779331.12 1448.8779
745998.12 787701.88 92765.641
798601.38 768231.12 73618.328
783307.25 773892.06 46619.586
778430.38 775697.12 -84774.203
761383.94 782006.44 -48789.512
770184.44 778749.06 54596.852
760436.56 782357.38 -10046.91
770713 778553.5 109630.25
767942.19 779579.06 10023.994
775325.5 776846.62 -1532.1442
769340.62 779061.44 53346.785
782697.25 774118.12 79970.68
759540.56 782689.12 -27116.324
759083.19 782858 28119.764
769415.88 779034.19 84197.891
803194 766531.5 86719.266
772970.38 777717.62 28404.975
799078.56 768054.38 75616.438
785070.62 773239.38 -80343.883
795242.38 769473.75 18869.965
780884.44 774788.81 -7517.3242
770852.25 778502.12 -9459.0957
780097.62 775079.94 -2603.5391
799262.81 767985.94 -11920.848
789764.81 771501.62 39719.074
798367.56 768317.62 73338.094
788045 772137.75 18416.982
771619.62 778218.12 -19340.256
772130.38 778029 38022.668
758110.12 783218.44 -19511.455
791865.25 770724.12 39425.859
779124.38 775440 -25893.492
779260.75 775390 -21093.393
768302.69 779445.56 -15804.242
760290.88 782411.44 2067.0186
778858.12 775538.31 104188.45
800683.31 767460.5 72153.961
779988.56 775119.81 16573.672
780010.38 775112.19 68129.648
800877.38 767388.81 80716.242
770627.81 778584.69 18418.828
786736.06 772622.5 97572.969
783801.75 773708.75 15456.217
785544.12 773063.94 -98998.164
751857.12 785532.81 68784.148
798435.38 768292 -25847.273
769961.38 778831.81 108564.75
781491.94 774563.62 100055.94
777460.25 776056.31 -6576.0479
788777.06 771867.25 41190.227
757554.75 783423.88 67370.07
753910.38 784772.75 96126.5
787875.38 772200.69 -14783.444
787200.88 772450.62 -95421.07
775474.19 776791.12 -34025.191
760239.12 782430.19 756.17719
785068.62 773239.62 29198.311
763469.88 781234.5 -40900.613
794637.5 769698.06 15477.982
787393.19 772379.81 -42883.324
791514.06 770854.5 3656.5352
759197.94 782815.5 54000.922
762486.31 781598.44 109728.02
786607.5 772670.38 -78330.219
772162 778017.25 -757.01874
788916.12 771816.25 -66612
768560.12 779350.38 45646.578
787506.25 772337.75 -7083.0713
758605.56 783035.12 -10023.554
767081.38 779897.31 101280.26
776727.5 776327.56 -20833.209
797345.44 768695.75 41868.773
787501.75 772339 -15597.178
753110.56 785069 70176.266
794349.12 769805.06 3012.3147
751305.69 785737.12 94347.547
765878.06 780343.25 -29510.201
792991 770307.62 -6865.3726
754320.75 784621 70956.008
771902 778113.38 -33407.742
756273.62 783898.12 55893.355
795964.56 769207.25 81377.188
799256.12 767988.69 76864.68
780468.94 774942.25 -24896.209
753481.62 784931.88 63439.352
795031.44 769552 -25880.125
764673.81 780788.56 15239.449
769576.56 778974.19 -32622.391
772244.81 777986.25 26104.445
770513.81 778627.31 -50350.508
771955.94 778093.88 62079.039
769137.75 779136.56 10561.529
762393.5 781632.75 115415.51
757659.62 783384.75 103709.08
782627.62 774143.38 -70100.523
782366.69 774240.38 -81486.336
750477 786043.31 105456.26
788786.25 771863.44 96014.352
799018 768076.31 22676.973
790512.25 771225.19 -1477.5828
784260 773539.56 -100780.08
762828.38 781472 40447.258
778107.69 775816.88 78024.422
768424.56 779400.88 -34888.977
762800.88 781482.5 -33772.102
772388.5 777933.25 -383.54327
789987.88 771419.12 42030.633
781251.62 774652.94 66333.844
759843.69 782577.12 69879.383
780838.38 774805.62 -24545.707
765564.62 780459.62 -36037.727
786121.81 772850 34338.133
795854.62 769247.75 -17813.359
785928.5 772922.12 -42046.547
784783.88 773345.56 1422.7843
769407.31 779036.69 74654.008
769543.12 778986.5 -33269.746
784042.69 773619.88 4890.9854
797291.5 768716 67640.859
796647 768954.06 -28637.297
765153.38 780611.19 12216.528
786934.25 772549.25 31286.316
785775.12 772978.38 -99715.328
758092.25 783225.19 -25006.916
