# .PCD v0.7 - Point Cloud Data file format
VERSION 0.7
FIELDS x y z
SIZE 4 4 4
TYPE F F F
COUNT 1 1 1
WIDTH 1596
HEIGHT 1
VIEWPOINT 0 0 0 1 0 0 0
POINTS 1596
DATA ascii
167.27904 3.506264 23.355614
164.39679 10.620925 23.31299
165.29475 16.014721 23.351429
170.24599 0.20763387 23.480684
163.25107 1.8908734 23.469469
165.84085 10.524244 23.44191
162.86279 12.425198 23.401884
168.77028 12.000978 23.566172
169.85159 13.133444 23.517143
169.80237 13.268116 23.510927
165.4536 -1.9297607 23.694769
168.99695 -1.8597544 23.644186
168.78421 11.95575 23.650171
170.10445 10.437243 23.758167
166.28468 0.99657053 23.878082
169.39406 1.9578525 23.812
169.3941 2.8106611 23.824816
163.17725 10.914881 23.887627
164.06544 14.248314 23.973867
165.76056 15.062439 24.094414
167.42763 -1.7679647 24.115498
170.44057 0.47755444 24.151119
169.45242 1.4752748 24.154152
168.92216 10.163291 24.137154
163.06029 11.107675 24.1985
165.94162 15.555204 24.168821
170.28189 -0.00261347 24.267935
165.29932 -1.8159788 24.355181
170.48314 0.79783791 24.376034
163.08955 1.3968691 24.319855
167.01576 -1.0553448 24.48756
167.27188 3.8402181 24.458723
169.95534 13.237443 24.4863
169.3407 -1.0216148 24.543251
170.15639 -0.060458995 24.535267
169.30365 3.2685218 24.575113
168.24698 15.789559 24.570005
167.55475 -1.2940959 24.659845
169.44839 14.606827 24.632362
164.37157 -0.47963947 24.736767
169.55551 2.6285763 24.78788
167.38304 -0.51932335 24.939655
164.34802 4.7484841 24.983624
168.99258 13.959846 24.99868
168.20166 15.499869 24.98057
166.38892 -2.0887649 25.068102
169.68275 11.073973 25.044207
169.0015 14.111446 25.070892
167.90523 -0.40730777 25.266727
166.17784 4.4893637 25.274181
169.90918 12.829202 25.207563
169.03296 14.283391 25.281212
163.25557 2.5978031 25.316128
164.2092 9.0395756 25.369762
168.71188 -1.3986636 25.420444
166.98978 9.8911848 25.541925
165.21555 -1.831471 25.674559
168.98418 -0.34904873 25.689758
167.19202 12.703694 25.677773
168.22421 14.870406 25.676128
164.59006 15.435663 25.631245
163.91306 -0.051696554 25.728085
163.08545 1.0765874 25.739985
162.83826 12.926727 25.737106
163.31999 13.596024 25.732019
168.59088 11.85985 25.895161
167.54947 12.584335 25.869162
169.12469 14.066256 25.805374
162.49527 11.941748 25.956762
163.41815 13.776511 25.984716
169.20554 12.148147 26.165787
169.05351 14.404009 26.135029
165.16043 -1.8155318 26.217758
168.56418 12.734636 26.235142
162.8629 10.838164 26.353298
162.72464 12.915626 26.387272
169.23503 12.976837 26.333519
165.61311 16.010319 26.388367
165.82248 9.1702337 26.457214
169.53371 -0.67761219 26.509663
169.84634 2.0544367 26.517418
167.25017 -1.8430952 26.611317
167.72435 -1.7029105 26.626102
169.16788 -1.2745692 26.623753
164.0285 -0.38265052 26.619122
169.88098 0.99425697 26.69455
169.87944 2.2543774 26.720829
165.04373 -1.7423054 26.877235
162.75844 1.8738029 26.875919
165.99724 5.0854845 26.87484
165.45917 5.2164803 26.889015
168.46878 -1.4865056 26.907215
163.26401 0.57439852 26.906654
169.27896 10.688862 26.920572
166.01358 9.0225563 27.069284
163.75391 4.853611 27.148346
166.90584 15.615959 27.110138
168.57812 -1.4570817 27.21162
169.36613 -1.1968309 27.295382
162.53499 12.846042 27.250313
162.9151 13.355429 27.219616
162.86845 1.0146892 27.343727
168.51315 9.7653942 27.472433
165.351 -2.1258121 27.51203
169.22119 10.328426 27.541008
167.55026 4.8382115 27.699402
166.04433 5.3433218 27.681557
170.05988 0.91529357 27.779371
166.40546 5.2447233 27.71946
164.28265 8.7201128 27.835684
170.09009 1.740399 27.951
169.2823 10.286028 27.939587
166.60977 15.71502 27.989208
162.62405 10.747282 28.294096
163.69402 14.683072 28.354803
164.36313 -1.129565 28.413773
163.47232 4.6529274 28.447401
164.01619 8.6956348 28.603268
169.85385 3.9057307 28.703144
162.62683 2.2517166 28.867104
162.61267 13.284971 28.879215
170.25946 3.2163162 29.009029
169.04208 14.69523 29.093584
170.28282 1.0961314 29.18539
162.77158 13.557589 29.190174
166.82903 5.6496673 29.305872
166.43449 8.3967123 29.307659
167.52147 8.7909431 29.375975
167.83852 -1.6940274 29.42485
162.31197 13.000034 29.450615
169.04781 14.714412 29.485756
165.77676 16.007946 29.41769
163.19325 4.2718215 29.551918
170.36845 1.7339587 29.603039
167.55162 8.7242594 29.605066
169.41393 9.8141708 29.745348
168.19971 15.258368 29.735447
164.29051 15.443851 29.754772
165.20627 5.5132737 30.068497
169.67563 13.080377 30.0634
164.57159 8.394949 30.153296
164.27963 8.4588032 30.182247
162.30846 10.916074 30.122574
164.37958 8.423769 30.290344
165.48225 16.115332 30.202684
165.32062 -2.3691139 30.324646
163.06073 0.066347286 30.326151
162.67953 9.555727 30.353317
169.97974 0.18640178 30.49221
168.50482 15.173988 30.400425
168.61316 8.8090744 30.59795
163.61441 5.2248516 30.76128
170.44194 1.4104714 30.84856
162.53581 0.57937014 30.922863
167.72746 5.8701291 30.906528
170.01151 11.455093 31.000427
170.02081 11.685419 31.04768
169.91818 -0.022380471 31.127472
162.20393 2.2107589 31.126488
166.76808 7.8842082 31.132563
166.90619 7.898725 31.251625
161.53867 12.236511 31.328695
169.88661 -0.12813042 31.435081
165.96574 5.8665795 31.593777
164.61427 8.2253036 31.584873
169.60486 13.390139 31.777431
161.48631 12.099531 31.891918
163.75659 15.136116 31.814548
167.21558 15.581251 31.87252
162.65402 3.9771478 32.008541
170.03171 12.247937 32.160866
163.00333 14.360469 32.17868
170.18304 0.61101866 32.228642
162.41098 3.3899102 32.258904
162.55756 0.22339985 32.362301
161.65118 1.4753356 32.391613
163.85263 8.3091955 32.32048
170.12416 10.192458 32.345371
168.49484 15.19452 32.631233
164.0937 15.605 32.659966
163.54764 -0.77558929 32.75045
169.68265 5.1690755 32.796627
164.67488 -1.9827027 32.860813
170.45674 1.3004771 32.870815
170.44159 4.303318 32.841957
162.91641 8.4598322 32.825619
162.41086 0.29105514 32.937237
170.57585 4.0879827 32.980286
169.74284 -0.59309244 33.08474
170.92612 3.4930549 33.094975
166.38881 7.7483068 33.004494
161.37094 11.822964 33.078476
162.67114 14.148489 33.01453
170.41727 4.4571152 33.131332
166.02675 6.0223246 33.105202
167.4787 7.8704219 33.106194
165.88719 16.029232 33.276543
168.23723 8.1647186 33.646503
169.47177 13.864826 33.633141
165.15303 5.9542789 33.719261
170.57187 1.5533739 34.019482
165.19946 16.252884 34.003181
164.09451 8.0132084 34.17511
162.69135 5.4692059 34.36021
161.69875 13.400888 34.331684
168.9205 15.082859 34.343933
165.89578 6.0010581 34.558937
161.34332 11.096757 34.538437
165.01103 5.9611359 34.771408
165.36539 7.8103971 34.723339
164.68152 16.424719 34.828766
164.7305 5.9469395 34.981152
166.14871 7.7796841 34.963516
162.99011 8.1615086 34.997971
169.73599 8.7602844 35.058422
170.61694 10.738696 35.054539
165.04596 -2.6087992 35.104549
170.92877 2.5235312 35.129967
170.97768 4.1911564 35.180748
167.32141 7.8158226 35.16507
163.22668 8.0926495 35.108139
161.05061 12.898523 35.175621
161.40247 0.95423138 35.238335
167.31032 6.0040345 35.27161
171.1965 3.9341199 35.424797
167.88966 7.8470836 35.467712
170.55367 9.8123388 35.485512
169.60176 13.621875 35.422512
163.84105 15.655407 35.499363
171.05496 4.2009392 35.569466
163.18703 5.7391653 35.561577
165.37221 5.9675765 35.597504
169.6127 8.6271992 35.592175
169.56238 -1.1653748 35.764778
163.69511 5.8798938 35.742893
170.59471 10.859516 35.780022
165.10585 5.953023 35.896217
170.94337 4.5076151 35.973438
161.73882 9.0373602 35.952099
170.63306 10.762617 35.99614
170.32802 11.663298 35.988083
161.19099 13.125776 35.993752
162.59003 14.426908 35.96965
160.90779 11.41715 36.059036
169.9917 -0.06120643 36.116489
160.95552 1.273785 36.139935
166.12283 7.7934599 36.136585
170.44142 11.337332 36.107971
162.3196 14.199742 36.199894
164.4819 16.398724 36.156605
163.44897 5.8782868 36.291588
169.85292 8.6924419 36.229145
166.79416 -2.0830796 36.420467
167.44882 5.9730439 36.416435
161.11665 13.103548 36.42952
165.66576 10.984396 36.605568
164.37144 2.6742277 36.762974
166.4057 4.1153426 36.788719
161.53003 0.66641396 36.821037
161.93565 4.906198 36.886379
164.89174 11.714446 36.845154
167.63643 5.9529467 36.964508
166.5809 10.830949 36.951202
160.77759 12.846327 36.973377
161.66296 4.1332903 37.05064
170.77005 9.7413034 37.034355
162.38986 14.337702 37.048874
168.44212 15.22995 37.053295
166.74963 3.0503664 37.168739
168.224 5.9240518 37.120655
164.16092 7.8882608 37.189594
165.13885 9.5444717 37.155548
162.53555 10.608999 37.197014
161.79016 2.3764701 37.282753
171.22226 3.827971 37.237301
163.85551 4.3224359 37.235268
162.66542 14.623927 37.278049
166.81218 15.737996 37.252411
162.48944 -0.25263518 37.324589
163.2207 0.93774164 37.3703
162.77377 1.1496862 37.398579
161.85677 3.5206957 37.386765
162.50488 3.7933931 37.330845
167.59915 4.4704342 37.335861
166.25749 5.9866986 37.313618
167.48953 10.456247 37.334976
167.47546 10.59516 37.367958
165.70551 12.294507 37.317787
165.10898 5.9364061 37.447598
164.63457 9.2747927 37.431187
160.89308 10.784791 37.442764
167.33841 2.8062682 37.558792
167.17006 5.9603109 37.55397
163.45078 4.7134676 37.633011
162.50281 7.9642148 37.693859
168.05901 7.9026351 37.676716
166.91043 9.0044098 37.683365
161.05046 12.657773 37.678097
163.85649 13.668499 37.69519
165.6326 1.0253515 37.766392
161.20618 2.7905731 37.743416
168.26825 3.8686991 37.714996
161.78389 4.9952979 37.758343
168.22675 10.548975 37.762386
160.57681 10.751526 37.743687
169.69519 13.355231 37.746887
164.49478 13.625855 37.797626
163.23465 14.020415 37.762722
167.64467 11.726997 37.877132
167.21068 11.980829 37.809505
166.88298 1.5601102 37.984489
165.31383 16.203541 37.925453
167.78145 2.329469 38.000896
168.588 10.994822 38.088924
162.77199 14.818286 38.042603
165.49725 0.27961111 38.14183
168.8797 3.6411653 38.113533
166.84456 8.4804249 38.157711
168.235 11.816707 38.189636
160.46896 12.678036 38.10479
169.90198 -0.16267923 38.246246
162.84871 5.8050251 38.337044
168.91318 7.9549551 38.375957
166.90878 13.357225 38.370678
167.51071 5.9253683 38.478176
164.99814 8.1491537 38.458672
165.62863 14.493763 38.488338
167.06064 0.60878015 38.547108
160.9509 2.2587423 38.597496
170.95938 2.7098031 38.577332
169.62953 5.3965678 38.501755
169.29916 11.410034 38.596519
162.10132 14.649519 38.627632
169.16138 -1.2807531 38.752258
167.68427 0.72708941 38.769211
161.35155 0.87758851 38.769295
170.43036 5.3574438 38.700115
162.82809 8.1772966 38.739517
168.3911 12.812275 38.764923
170.17661 0.56143349 38.812656
164.79521 5.5958371 38.860863
166.68945 7.8687696 38.848221
169.21768 8.0284462 38.851185
170.41138 11.315848 38.85445
160.5565 11.401077 38.878822
168.47116 5.7572188 38.9072
167.50427 7.6185222 38.966133
160.50812 8.8309412 38.978539
160.37033 11.971932 38.969364
165.44617 15.40532 38.943924
160.34454 5.2895374 39.002785
169.97394 5.4050131 39.009789
170.27811 5.8955231 39.022469
170.42236 9.3634825 39.095631
169.31013 12.468065 39.006145
164.51826 15.395088 39.084984
164.17455 16.535751 39.09565
161.85553 0.071757555 39.177658
170.98523 3.8447478 39.117516
163.75201 5.1926546 39.177032
170.10815 5.1595211 39.110573
169.59225 13.532614 39.101089
170.11484 2.0713241 39.243336
162.94101 4.9882445 39.286461
168.35165 5.4461069 39.29583
170.34259 5.9704781 39.26318
162.756 6.6811934 39.250267
167.77907 15.379612 39.275936
164.08492 16.459562 39.205994
165.90288 -1.6462579 39.310749
161.94289 7.6766796 39.353813
169.56384 8.2811279 39.375031
167.34398 -1.0055648 39.493618
162.24258 3.9088676 39.432556
163.00334 4.7581244 39.450134
170.35811 5.4364157 39.419765
161.07208 8.0386353 39.415817
165.67725 8.0620241 39.491337
160.98129 12.624669 39.42907
169.69997 -0.57062197 39.563988
170.32628 5.7314138 39.58139
166.67491 8.0740242 39.53141
169.82169 12.929202 39.53804
164.61841 15.392586 39.579075
170.63142 10.934072 39.684273
160.56604 11.838897 39.691284
162.64519 14.755944 39.603283
166.00455 8.2737446 39.767189
163.39133 8.5569382 39.730698
168.36852 15.181866 39.777351
170.62314 2.4756351 39.886288
163.54608 4.5472875 39.892807
167.99234 4.9867272 39.835022
162.40056 14.659442 39.856396
166.30264 4.8275948 39.961884
168.91843 15.006184 39.910957
168.37506 15.174162 39.992294
167.15698 4.7393622 40.096817
170.23799 6.4448733 40.089626
163.0246 8.8863039 40.057686
169.37292 14.018552 40.015911
161.567 0.9553051 40.117191
168.16872 4.7431641 40.145103
169.53012 9.1104412 40.186447
166.07065 4.552887 40.24295
160.1048 6.3488922 40.396935
165.67755 8.7911263 40.327286
170.28918 10.992682 40.369709
165.71988 -2.381474 40.4533
162.1685 -0.36595041 40.430153
161.57707 0.25190875 40.406521
170.62918 2.4103498 40.412956
160.40456 2.7542195 40.434906
167.93649 4.5106382 40.414436
169.62665 9.5843554 40.440956
163.73375 16.308302 40.486122
170.79292 1.6759019 40.577545
165.68454 8.9930878 40.559853
166.8696 -2.0086341 40.601215
162.64206 0.38269728 40.605324
160.40689 2.7211292 40.664444
170.45401 11.479237 40.667011
170.36354 13.150829 40.605553
162.02408 14.479637 40.690971
165.23843 15.492214 40.775139
167.18648 -1.6647398 40.815495
163.05463 0.38795626 40.852779
169.79047 2.5204768 40.844063
166.26064 4.0640416 40.832657
169.30225 9.8568163 40.876472
160.55905 2.2837687 40.901779
168.60201 4.1472316 40.903908
161.41626 12.710547 40.964405
169.54785 12.924586 40.947163
161.60904 -0.016509838 41.064491
163.62067 9.639184 41.015129
162.78661 10.666456 41.068031
161.89865 13.563123 41.024273
170.10139 0.96874988 41.125786
160.21529 5.0260563 41.122681
170.20335 5.2800608 41.153671
163.7623 15.008862 41.119202
168.5267 -0.51700544 41.285076
168.65715 3.8901596 41.204659
166.51979 9.5663404 41.285332
169.21498 13.279215 41.207775
163.96294 0.34109956 41.356453
163.34674 10.48776 41.331009
169.31934 13.718494 41.354244
166.39828 15.645012 41.387466
166.71913 -1.0654354 41.428925
164.40091 -0.29570103 41.421867
170.46483 1.7921407 41.421421
170.3326 2.4464245 41.473545
170.25928 3.8363657 41.421719
170.10207 6.6490617 41.411953
163.09795 14.640366 41.409355
166.86099 -0.81209242 41.587601
160.20038 9.0178795 41.554123
161.15289 13.076761 41.545135
162.7308 13.338371 41.580631
164.27448 0.68083245 41.629295
168.7332 0.60818839 41.626907
168.2056 2.9452589 41.658958
168.70053 1.5765783 41.792416
170.05156 6.997076 41.739815
160.10678 7.7074013 41.774979
163.7951 10.739974 41.732391
168.38577 14.323292 41.780228
165.53079 -0.81634772 41.896309
164.90439 0.35187995 41.89072
167.50157 2.6922305 41.885757
165.39178 10.263111 41.844963
161.08095 12.957109 41.87841
166.02281 -0.71840459 41.907864
167.3604 -0.16105331 41.95578
170.33647 1.5653918 41.987209
165.29642 1.6013533 42.056686
167.55298 14.39782 42.017933
160.22295 9.3302364 42.21299
163.57312 12.243102 42.260792
166.91971 15.123922 42.293545
167.28879 -0.69754916 42.374115
166.96666 1.5163387 42.364227
166.94385 1.7835218 42.348743
170.15114 4.2854719 42.300297
170.22337 11.752394 42.399055
170.23703 11.856241 42.366787
166.95633 11.087231 42.472565
165.92685 11.205389 42.483536
165.67209 -1.2294085 42.585144
169.29604 0.73554242 42.523182
167.64616 11.719275 42.549843
167.95087 12.71119 42.528748
168.09082 14.326801 42.551468
167.51372 11.948593 42.611313
167.43707 12.663697 42.693005
167.73961 14.554776 42.603973
169.36601 0.85028791 42.831848
165.2984 12.226779 42.822617
160.1799 6.6868114 42.973713
165.68988 13.055725 42.908768
169.94475 2.6142914 43.069534
160.38922 11.325174 43.026535
166.51112 15.262647 43.167473
169.57541 1.092962 43.341732
169.81554 12.684981 43.387871
165.10251 15.164044 43.329323
162.75989 -0.31163701 43.493233
167.30293 14.674547 43.457195
167.29584 -0.48851141 43.506474
169.73994 9.6827154 43.573143
168.94189 13.500014 43.516876
167.18239 14.730471 43.585258
160.91344 1.2149423 43.611065
169.79408 9.0282526 43.658997
160.32506 10.615608 43.671177
164.16655 -0.67041135 43.798756
168.19287 0.20776841 43.827507
160.233 8.0096798 43.823936
169.6109 5.7885141 43.925995
169.56499 12.101652 43.988266
165.25534 15.141648 43.902832
169.46777 7.65657 44.067657
169.54457 12.074469 44.037308
163.37283 -0.40680709 44.164772
162.09602 -0.052846819 44.136669
162.27925 14.274283 44.209904
164.16638 14.799803 44.219852
165.63371 15.205016 44.238976
169.42642 3.4270468 44.314079
160.79106 12.829769 44.36237
162.09186 14.207647 44.323761
168.75656 13.456177 44.454979
163.31462 14.522488 44.494831
169.42743 8.4845066 44.648891
160.54909 11.991236 44.785988
160.14531 5.9062471 44.948196
165.67084 6.843503 45.081547
165.75516 6.2021976 45.159546
166.01825 7.2848744 45.188576
165.86606 7.4512787 45.13472
169.33423 4.8941469 45.224056
169.26111 5.343462 45.294209
165.17664 6.0657272 45.254707
165.34312 8.3145647 45.272602
164.89706 14.882489 45.227852
164.27625 -0.48978841 45.320988
160.44249 2.7587485 45.395943
166.60689 7.4653425 45.396858
164.55023 -0.57391167 45.420589
165.10551 5.206183 45.472389
162.20242 14.079287 45.404907
168.92496 2.7134175 45.527203
160.05196 5.0885725 45.569557
166.44681 5.5885534 45.532982
164.24883 7.7253423 45.513702
161.15855 0.89991122 45.678112
160.07713 4.4064636 45.60667
164.11749 5.0934277 45.666077
160.48708 6.7665133 45.635712
163.62915 6.013905 45.72784
161.33292 13.792645 45.709717
164.15846 4.3505116 45.839661
163.72278 4.5649457 45.860893
163.43211 4.7390141 45.867523
167.32471 5.698638 45.81395
160.33189 10.891129 45.898758
164.30518 3.6510117 45.984898
163.75264 4.2704444 45.92741
166.01799 14.886425 45.972702
167.08258 4.3046036 46.052101
167.35139 4.5161333 46.096966
167.85703 5.4238005 46.063389
167.75124 9.0430346 46.093185
166.83771 10.316866 46.069153
166.27129 10.449517 46.051521
161.13234 1.1666961 46.127762
162.72997 3.8646245 46.198124
164.19484 11.013912 46.121632
168.73102 2.7323933 46.271
166.92108 3.372885 46.216347
159.99696 4.5868907 46.218418
168.34468 5.3612947 46.248074
162.05417 5.6723814 46.227345
161.95432 6.6250443 46.211014
165.87376 2.764097 46.361645
161.58395 7.8019934 46.326286
159.97366 9.4585857 46.300301
167.89595 10.148294 46.399529
166.70956 2.7568319 46.417027
161.30554 4.5425544 46.525002
169.21356 8.6706276 46.581764
161.88904 10.999868 46.506306
160.94359 3.5005884 46.69978
168.66188 4.056469 46.660816
168.0412 11.07285 46.664234
162.5546 12.120435 46.666504
162.10847 13.862853 46.698086
167.78551 0.55455405 46.753605
166.87764 1.7753232 46.768688
160.38199 3.578922 46.7966
160.69339 3.8756385 46.752403
164.55019 -0.41637415 46.804272
166.25322 -0.38706303 46.882713
161.6821 0.45974618 46.871292
167.9478 0.75982404 46.838387
166.10007 1.3765856 46.858063
168.73645 3.637912 46.829926
169.49203 6.1105719 46.885067
160.2446 9.0145941 46.808475
168.71939 10.520407 46.897602
161.62021 12.27556 46.861454
162.36775 12.590015 46.812027
162.0435 1.0782474 46.990566
161.95618 1.3072442 46.949631
160.66661 2.9076359 46.966125
168.67625 3.4981339 46.986507
168.57121 7.2894135 46.993343
161.02112 7.3383894 46.945961
159.77625 8.7457104 46.933956
160.30565 11.333914 46.934326
166.55052 13.083627 46.984425
165.10471 0.68412137 47.035713
161.81772 0.80412245 47.095161
167.3768 1.2550118 47.011284
167.64911 1.3657236 47.039829
168.66769 3.5055058 47.019371
159.19321 6.8583627 47.050133
165.63908 14.536387 47.276997
163.98991 -0.086762458 47.343029
165.68362 0.59399635 47.365234
168.63892 5.4130349 47.314793
166.30104 13.337181 47.357315
161.52789 13.95703 47.39613
162.21196 0.36496818 47.43795
161.69009 0.55878162 47.413292
166.93744 0.13422015 47.533562
161.62267 0.088772371 47.643982
161.05867 0.63371509 47.670101
168.08788 1.824875 47.686283
161.46404 2.3989573 47.621384
168.61861 9.4483118 47.668159
166.53375 14.079382 47.642902
163.96848 -0.075887017 47.718208
163.96072 13.796274 47.7967
168.10489 2.6640823 47.812698
161.3378 4.6735144 47.81633
161.24765 8.7091389 47.834099
167.8952 11.73012 47.869156
166.96004 13.16324 47.859528
165.5594 13.88623 47.886829
168.14049 3.4126749 47.977772
162.04643 6.6065841 47.923801
162.16795 7.3952327 47.935032
160.63875 0.9825055 48.038746
166.80023 1.4646813 48.097755
159.15756 6.2492328 48.081764
168.72554 10.938073 48.072895
163.75256 1.3571808 48.158592
167.05644 1.869629 48.112114
168.97406 3.8108537 48.195374
164.81967 13.296281 48.116325
162.3143 7.6085162 48.232353
169.16998 9.9223347 48.298508
163.70494 12.681281 48.207024
159.31265 4.9363365 48.337555
159.19254 8.3256235 48.380558
162.09598 9.8383598 48.30938
161.58549 14.175559 48.39156
162.26999 14.851509 48.387836
167.6942 8.5927172 48.439575
169.40903 4.9158616 48.521461
162.14636 5.8587637 48.528011
167.49791 8.8001194 48.592667
160.73428 13.365449 48.506809
162.47215 -0.62994903 48.610905
159.42233 3.9476423 48.663177
162.92088 7.2917953 48.66452
167.36778 9.3389893 48.657806
162.7388 6.3947859 48.790123
167.56015 13.017458 48.764122
163.76184 14.281263 48.7981
167.0168 7.6098404 48.824848
167.02422 10.244476 48.841675
167.89098 12.950104 48.920887
165.8092 0.69036472 49.015594
166.52095 8.0386868 49.036678
165.79898 8.1210308 49.012222
166.84853 9.9896917 49.012775
165.19724 4.912271 49.122898
163.49515 10.039139 49.131573
164.93933 11.049206 49.131065
168.52711 12.2159 49.216404
160.29855 1.0942712 49.383949
168.80539 11.544968 49.30481
167.94986 1.1845071 49.478008
159.39273 3.8365374 49.483585
169.56862 5.2580462 49.446983
161.12146 0.27249134 49.509182
164.561 0.25930184 49.594994
168.71822 1.8244938 50.18095
168.84209 12.031658 50.184601
159.99579 12.913674 50.145515
159.10588 8.4421635 50.280617
169.51076 9.6458941 50.364044
169.38602 10.2322 50.30484
159.37874 10.931902 50.478268
166.58289 13.446672 50.481033
159.33401 3.7078731 50.592487
159.03656 8.0048361 50.525482
169.58925 9.3756056 50.606705
164.05557 0.063063592 50.743534
169.0714 2.388324 50.727478
159.09668 5.5783186 50.832409
169.38858 10.49296 50.874313
159.38269 11.510922 50.953072
159.15952 4.9993348 51.048851
161.50562 14.563225 51.0718
169.56924 9.7286806 51.136887
159.3215 10.934566 51.158909
159.3757 11.664201 51.173817
161.89145 14.904114 51.256962
166.98953 0.7387529 51.392242
158.98431 6.6342382 51.376663
169.57336 9.7971325 51.321747
159.49213 12.621178 51.358696
164.93628 0.20884886 51.478401
159.60071 12.744781 51.468193
160.16019 13.283565 51.431133
160.39201 13.522188 51.509979
163.26804 -0.22985211 51.625626
159.30704 2.9047785 51.635551
159.2253 3.9975386 51.619656
164.89374 14.006585 51.725765
164.57423 14.096931 51.813866
167.62003 13.340946 51.970718
166.55798 13.611046 51.977535
169.17746 12.097544 52.049702
168.9053 1.1447266 52.149368
159.22205 3.4520712 52.149502
159.16559 4.2410727 52.107613
166.80635 0.60154527 52.251461
164.53836 0.019876096 52.312031
162.75958 -0.44838321 52.47369
159.18956 3.3931439 52.587608
169.54626 10.507687 52.523781
166.27776 13.73971 52.521873
165.6456 13.964933 52.790928
160.08572 13.461406 52.899998
167.65405 13.554508 53.130356
168.58543 0.81474972 53.353897
169.14653 0.95386887 53.325802
163.76971 14.566311 53.32732
162.3904 14.93214 53.422852
159.23923 1.6916069 53.531761
169.41098 1.9167427 53.576523
166.64825 13.915737 53.569759
158.94481 5.4717402 53.614693
169.68988 10.850842 53.7206
164.9743 -0.20840286 53.888115
170.32043 7.1864381 53.872231
167.14497 13.85277 53.804527
169.51436 1.9706993 54.010098
169.53195 2.0573573 54.021057
169.98502 9.6449585 54.105789
169.44408 1.3111711 54.220097
159.14926 2.2155399 54.220352
159.10532 2.7899041 54.208973
165.88943 -0.090177625 54.348328
158.90353 5.3096948 54.375031
169.58159 12.208776 54.321198
162.76544 15.102022 54.451107
170.08055 9.607872 54.516724
169.43445 13.461182 54.656883
158.87527 5.4655666 54.767208
160.5302 14.032192 54.735016
167.02795 14.134147 54.792454
170.37639 6.4743676 54.81921
170.26807 5.1532736 54.920559
158.99515 10.42441 55.069939
159.17282 1.8405898 55.275951
170.17432 9.943676 55.22184
170.30661 5.0953455 55.385548
158.8976 9.3132429 55.350655
165.21405 -0.51198798 55.421215
166.22409 -0.2627582 55.427814
158.80199 7.4560232 55.424458
168.45236 13.944782 55.46101
160.85403 -0.14349917 55.685055
168.61208 0.27361831 55.626141
166.10083 14.582076 55.647385
161.89114 -0.93858188 55.763447
168.3494 0.17240077 55.793457
159.08505 2.5540197 55.798882
167.77921 14.183127 55.71196
168.06815 0.092286587 55.855858
167.41335 14.307259 55.843342
162.58803 -1.2942538 55.97113
170.03918 2.4816811 56.018715
170.40817 5.4809942 56.09919
169.70721 13.678993 56.092682
166.43719 -0.41230229 56.282578
170.54366 7.3644648 56.275085
170.14342 11.537241 56.37056
160.76691 14.256037 56.334076
160.7216 -0.027347505 56.445034
169.22894 0.22730768 56.406712
170.12625 11.783791 56.491165
159.57262 0.96591955 56.650787
170.3914 9.4986305 56.68084
159.19923 1.7180405 56.818371
159.16048 12.158586 56.8069
170.49867 5.6076126 56.94136
159.08224 11.535791 57.027428
162.5784 15.699205 57.008934
161.12372 -0.32245612 57.169712
159.10269 11.684166 57.236618
158.7276 7.2180796 57.353012
159.11118 11.744987 57.334423
170.29379 2.7382197 57.484699
158.72263 6.2711544 57.482311
160.59842 14.111969 57.489685
166.70337 14.903547 57.489326
159.10829 2.465215 57.505188
170.31335 2.9311967 57.509365
163.29308 -6.189496 57.685455
159.20763 1.6996469 57.6866
163.6387 -6.6049309 57.703171
164.46103 -5.2113609 57.782532
164.41252 -2.5907149 57.755882
164.30753 -1.8459686 57.721096
170.69531 6.9793339 57.730625
164.93398 -6.0403833 57.982315
170.52324 4.8642859 57.907352
170.03427 14.086817 57.93301
163.44087 19.416687 57.978123
162.93927 20.676834 57.958389
163.53232 -2.7894664 58.039589
166.60104 -0.79079115 58.052376
170.23151 1.4634657 58.031544
170.32275 2.5111318 58.00798
166.69438 15.042225 58.023399
161.94223 15.182372 58.011307
164.28146 15.175871 58.095039
164.24193 15.313344 58.078835
165.35432 15.389427 58.084053
164.03336 0.22381157 58.177467
158.69762 6.0693984 58.13073
158.69756 7.0647306 58.132385
165.53511 -4.0085378 58.228756
163.27528 -3.0503833 58.218933
158.80109 4.9036145 58.246536
164.29971 13.396846 58.235382
164.56096 20.006905 58.243977
162.46875 21.79071 58.206024
164.45509 -9.7940969 58.376953
165.79877 -3.3759637 58.366611
163.51926 -0.97309786 58.382706
164.1748 12.618914 58.319229
163.74396 13.108875 58.351124
162.20248 19.263485 58.35091
163.70096 -1.6097801 58.470024
164.52411 1.9524415 58.43465
159.24413 12.721901 58.455246
164.97632 1.1834323 58.544693
163.95729 11.420429 58.597412
165.41005 16.279474 58.571686
161.73334 -8.2976599 58.676506
162.94101 -2.203115 58.647514
163.57275 -1.6883566 58.6674
163.1319 -1.0930024 58.684578
170.58347 4.9546881 58.612724
168.06091 14.845122 58.654266
165.40921 15.038511 58.697556
162.18159 21.778368 58.654251
161.7514 -7.1123457 58.717606
165.31999 14.664954 58.701706
162.33456 17.674828 58.714813
163.02748 -13.840753 58.845409
165.66837 -11.845169 58.864872
161.88986 -5.9411187 58.863308
170.12358 0.25894612 58.819889
158.69064 7.5207667 58.884109
158.69331 7.6480265 58.896881
163.29483 12.579333 58.819302
165.23816 13.682825 58.825272
165.5372 14.966879 58.805405
165.66179 17.100533 58.817951
162.79388 25.874477 58.885765
165.85997 -11.207494 58.972744
164.69833 -10.533916 58.963398
165.94278 -9.4066429 58.938
166.20883 -7.2692385 58.965565
169.34027 14.577671 58.963985
165.38086 21.0327 58.918442
165.35091 21.183239 58.908379
165.12772 -28.9261 59.08712
165.79477 -11.736979 59.063431
165.58369 -10.764912 59.062664
162.60243 -10.47975 59.00238
163.16899 -9.8932819 59.00098
165.99509 -9.4864388 59.00639
166.71176 -4.0615225 59.082203
163.93756 10.117398 59.012791
165.54866 13.809325 59.030548
165.75455 15.539078 59.057518
162.43771 23.93718 59.089668
164.48634 -9.5389948 59.171616
163.86374 -1.7293172 59.145355
170.03577 0.075160503 59.122253
170.26807 11.458274 59.118275
165.00435 23.392904 59.10321
164.79584 -9.5848389 59.28083
161.71753 -4.6559706 59.277229
169.00668 -0.50115597 59.204475
170.05185 0.52307504 59.219604
162.70381 13.024361 59.233536
160.41428 13.950245 59.281002
163.10213 23.007748 59.292107
164.04686 42.239006 59.249542
163.60399 42.459118 59.223351
165.34827 -14.756836 59.356533
164.79535 -10.572267 59.362442
161.66975 -4.6714592 59.356461
163.95767 -1.7645756 59.392708
165.22495 3.4866025 59.300049
159.37509 13.11835 59.389851
165.81665 -25.701668 59.481972
170.53609 6.9364634 59.435566
161.06448 19.70628 59.455395
163.73392 27.914276 59.428383
164.75279 41.768963 59.423996
164.32898 -16.374882 59.559738
165.56834 22.869154 59.584938
164.22655 9.0914917 59.699188
169.9549 13.716698 59.605675
166.86336 15.468492 59.689445
161.74561 21.740499 59.60907
165.33423 23.044399 59.637196
163.672 23.485504 59.669197
163.86223 28.525274 59.609531
164.20673 41.783417 59.676868
166.20898 -26.783779 59.761383
166.16194 -24.290501 59.709236
164.86235 -17.028818 59.732071
164.35236 -9.009367 59.768734
169.97221 1.0913701 59.764751
170.4091 7.9918213 59.737221
164.67992 9.0886393 59.753613
161.1983 18.143278 59.74041
165.25818 25.980385 59.725952
161.59415 26.208096 59.714458
165.66052 37.650726 59.799713
165.00261 38.305218 59.765892
166.13065 40.109577 59.788639
166.68394 -25.166296 59.818855
164.93834 -17.286739 59.807335
167.06076 -5.077816 59.802551
163.36797 3.5977831 59.884892
165.61246 10.200233 59.864677
166.20737 20.250923 59.818466
161.53503 22.988461 59.846901
165.1279 28.114603 59.861694
166.40469 38.42952 59.86203
162.41577 -15.331816 59.992081
162.28448 -14.952897 59.925388
166.15755 -10.423823 59.916832
166.13882 -9.8017292 59.982021
166.79607 -6.1384468 59.937687
170.21977 9.7920599 59.936089
160.0351 13.641283 59.990341
163.27666 42.012943 59.944519
166.18617 -23.718443 60.002739
165.58037 -16.724932 60.000057
164.45183 -8.7410917 60.054485
162.39453 28.311127 60.00383
165.17996 28.594929 60.001244
166.66103 39.637283 60.006142
165.49492 40.090218 60.042274
166.05728 41.851757 60.047863
163.48326 42.384495 60.007065
162.07295 -14.946749 60.160004
166.21037 -11.51248 60.119255
162.12135 -9.0573215 60.17696
161.21274 -7.2085505 60.184937
169.99678 2.4090109 60.146938
170.1058 3.7714334 60.189735
170.33189 6.9336958 60.188347
159.28468 11.449339 60.134789
166.46338 11.853838 60.196861
161.66177 14.940889 60.142097
161.45114 22.143248 60.180309
166.60626 39.006248 60.175446
166.21803 -11.825243 60.290791
161.23517 -7.8527594 60.241913
161.73456 -1.6352044 60.254902
166.7542 0.95346719 60.230095
164.98793 4.2317085 60.267754
159.30707 11.338636 60.295197
165.26245 28.789972 60.292061
165.73019 39.227558 60.210823
163.91124 4.324913 60.337372
165.96696 10.198536 60.316795
165.81247 15.856434 60.355713
165.77496 21.951687 60.344872
165.94348 -29.245544 60.4086
164.19611 -22.708233 60.480942
162.96727 -9.9194241 60.448174
164.43192 -8.3681135 60.477123
161.14166 -4.721766 60.444725
167.27765 -4.1314783 60.436428
166.74738 0.91657031 60.425022
169.96483 2.7533019 60.408554
163.81357 21.595329 60.417747
160.83798 23.611053 60.468204
164.80008 31.731598 60.459991
167.15491 -27.734365 60.518044
166.30635 -9.6073427 60.532867
165.76213 -1.601826 60.597221
161.88454 -0.84225893 60.574028
163.64955 4.3309197 60.589764
170.11993 9.0848064 60.560871
159.31482 10.791498 60.599503
166.15601 10.887115 60.530727
163.4873 -27.989187 60.656902
160.85007 -12.617199 60.609467
163.30991 -10.277267 60.614388
167.21233 -4.3732548 60.661545
166.41904 -1.4588017 60.682007
166.813 0.47426048 60.678505
162.86345 9.1020575 60.660988
165.53079 27.834919 60.691097
163.37024 32.272995 60.616112
164.04962 32.357258 60.635067
164.40515 32.465965 60.664215
166.22954 37.659546 60.61438
164.83011 -29.655376 60.772453
164.87842 -21.408825 60.787605
169.86768 11.652377 60.734253
169.30658 14.417847 60.730095
163.00378 21.41777 60.774963
160.62514 24.041853 60.741356
165.14941 32.800823 60.710262
164.8257 32.981903 60.772148
163.72118 42.381828 60.770584
166.54962 -24.728584 60.868008
164.4903 -21.806952 60.850239
166.19604 -13.053296 60.880219
162.31989 -1.1723578 60.800266
160.64778 14.124148 60.869392
166.33185 19.642662 60.811756
164.41837 21.136383 60.879845
163.55173 -24.114202 60.977425
166.31796 -12.524384 60.949966
160.74893 0.036857307 60.936775
169.72812 1.527931 60.954498
166.08229 15.934708 60.923485
164.75443 21.055147 60.98716
160.49823 25.448078 60.944401
163.93066 38.550369 60.979988
164.25755 -10.763411 61.092522
161.61264 0.069958925 61.039116
159.31294 4.4260459 61.098602
161.48608 12.80418 61.013176
164.97415 16.246071 61.068558
166.57378 38.737137 61.052536
162.74121 40.950405 61.091522
164.37985 -29.388279 61.155518
166.53589 -24.59096 61.161591
163.61707 -21.508257 61.101177
160.45732 -13.10463 61.102768
163.14301 -10.192736 61.119293
167.44037 -3.0309467 61.17873
166.63065 40.667595 61.145847
165.46982 -29.234221 61.268669
167.0327 -26.438414 61.275345
160.90248 -9.4933863 61.235123
167.09979 -4.7674041 61.262375
165.87048 3.6795323 61.219311
159.17583 7.2680564 61.200481
165.72798 21.095425 61.274784
160.75452 -14.647752 61.335152
166.63487 -11.06362 61.322765
166.22513 -8.310462 61.3438
163.75436 4.2529087 61.351364
169.7383 11.372663 61.382721
169.61133 12.919794 61.347515
162.85602 33.125195 61.351719
164.62122 -29.382832 61.440849
165.65099 -28.949856 61.41515
166.6118 -24.75762 61.48526
160.71335 -10.862255 61.451698
161.72003 -8.6586628 61.44952
161.27248 -7.83951 61.408791
164.29333 -2.159116 61.4104
161.83354 2.4938929 61.457485
159.22514 7.7930355 61.435959
169.78076 10.821257 61.406986
163.67384 39.076077 61.458466
160.77216 -10.430256 61.520386
160.55829 0.27964747 61.542244
169.61267 1.9546239 61.598396
166.13913 2.7006931 61.52449
165.93605 3.3722878 61.543343
159.24963 8.0378361 61.552979
159.51419 10.783149 61.550549
165.75766 41.471867 61.595181
164.25726 -28.699564 61.683365
168.44827 -0.81037766 61.672497
165.60684 4.1058273 61.654156
166.33939 24.018444 61.629814
161.80835 31.116838 61.669254
165.48605 31.605616 61.697266
166.2077 -27.246563 61.75148
166.64899 -25.730717 61.708191
162.92189 -25.475021 61.720711
167.27182 -4.0127625 61.798809
159.59744 2.9925587 61.748955
162.7122 8.4779587 61.714622
159.47278 10.051614 61.711426
159.56274 10.774548 61.785202
164.52193 16.525471 61.723976
165.53308 21.515081 61.788422
160.42177 23.709984 61.739014
165.79396 25.794985 61.77137
165.27855 34.687923 61.749825
165.98325 -27.517668 61.841331
161.59846 -17.301334 61.834183
160.53047 -13.509415 61.853989
160.46806 -13.321005 61.828751
162.97827 -1.6573161 61.893261
169.2231 0.12090716 61.858055
165.70444 4.0486813 61.891773
161.3266 11.018785 61.890518
166.87209 17.339508 61.862427
160.92899 -14.783525 61.924252
161.13547 -3.0227466 61.931973
161.30356 -0.34165454 61.961327
169.5827 2.6304755 61.973888
169.85095 7.3843098 61.931694
159.33403 7.8845482 61.955856
165.57742 9.353179 61.969948
166.40051 19.244551 61.95895
165.89975 22.024822 61.911026
162.83084 -21.122978 62.08506
160.89044 -9.5450401 62.007263
161.89651 -8.518568 62.063847
163.9158 -8.5658894 62.086319
161.21358 -5.396801 62.001503
161.03816 -0.091760382 62.009804
165.79965 -27.194624 62.145569
165.85358 -22.61603 62.164223
161.27022 -15.864454 62.115368
160.87854 -9.6272011 62.157063
165.9446 21.078753 62.124645
165.80032 22.061733 62.184013
165.39154 33.255676 62.150734
165.40915 -27.724007 62.227295
161.14368 -8.6331196 62.209633
166.49698 1.300077 62.28392
169.56653 3.2895429 62.201172
159.38663 6.4044771 62.208221
162.92529 8.5465164 62.2836
166.38313 12.201461 62.262028
166.84816 14.649646 62.227238
162.95639 21.367464 62.211113
160.52032 22.965775 62.283882
165.92604 39.623352 62.200558
163.18576 40.386883 62.299709
163.33504 -1.9235092 62.30619
165.68819 9.8257399 62.347576
165.72858 9.9623737 62.35516
161.24197 29.993069 62.342697
165.43048 35.173641 62.36586
165.61102 -26.886972 62.43544
165.49329 -9.4185696 62.470585
160.1326 0.79857016 62.435207
162.47543 33.922878 62.476433
165.90155 38.17767 62.430527
166.24858 -10.676018 62.540489
161.41495 -7.1264677 62.583496
163.25589 21.517956 62.515339
160.21561 25.364285 62.520676
165.33266 31.19739 62.52153
162.75587 -24.870625 62.689167
160.9841 -9.4083996 62.617649
162.42447 -1.2177931 62.639469
159.81528 1.7848523 62.650658
166.08029 16.372421 62.646854
164.27676 16.821276 62.644234
161.52011 21.817863 62.635296
162.7789 -23.598993 62.740494
165.13808 -19.432787 62.762703
164.35904 -16.928366 62.786396
162.86856 -10.112582 62.767239
166.03987 -9.9933596 62.73246
161.06471 -9.7188482 62.749405
159.70959 3.9554722 62.75238
163.68018 4.1121616 62.721184
159.52362 5.8108568 62.775543
161.08537 9.8437214 62.708729
167.95168 15.220337 62.750637
160.62369 27.181612 62.787392
163.43275 40.07893 62.721481
163.97557 -26.009975 62.845795
164.99968 -21.377106 62.827011
163.66426 -20.377256 62.821285
163.70334 -20.225092 62.815388
164.24852 -20.099098 62.826668
160.62141 -13.056347 62.823765
160.59108 -12.934187 62.850636
169.39548 3.2926865 62.832954
169.58554 7.7866526 62.821404
160.84631 10.656972 62.859753
163.80869 16.635925 62.843758
160.34175 24.449072 62.819008
165.33713 29.36985 62.834152
162.80099 -21.828897 62.970192
163.04135 -20.552855 62.915237
162.87633 -20.177351 62.941509
162.72256 -19.714647 62.966331
162.68539 -18.479012 62.975708
165.61023 -13.846813 62.908031
161.81058 -9.3285446 62.954414
163.28969 23.756453 62.990334
162.48924 34.580692 62.925697
165.14743 38.441952 62.987785
165.00156 -25.361549 63.068829
163.47377 -23.907148 63.086983
165.80087 -9.8593979 63.015854
162.09056 -7.9890079 63.083168
161.65939 -6.2215919 63.067451
160.99016 2.6623778 63.058109
159.56049 6.3111038 63.038673
169.48203 8.4493637 63.055836
165.96419 20.900408 63.071171
164.09767 30.009411 63.031693
163.45399 30.730923 63.085873
163.54347 31.766714 63.069088
164.07382 32.796555 63.077969
164.974 35.720959 63.095673
164.88089 -23.545252 63.173347
163.03923 -15.250467 63.148758
164.56197 -12.077146 63.199104
165.39252 -12.096016 63.104015
160.92316 -11.362415 63.198315
161.10921 0.0047016144 63.124363
166.62431 16.338793 63.100304
165.67729 22.058592 63.138054
165.54222 25.479633 63.18325
160.73047 27.543625 63.134621
163.94131 -24.135754 63.249992
160.95264 -14.031559 63.288124
164.97647 -10.718102 63.24194
165.0157 -9.9940767 63.28101
162.39827 -8.449769 63.28627
161.05769 2.1440063 63.298355
164.15108 22.313217 63.296005
165.68623 24.118488 63.237446
164.34465 27.158333 63.285164
163.03757 35.702415 63.287262
162.58197 35.89991 63.235363
169.13522 1.3141168 63.352886
169.10675 13.27149 63.344563
160.91818 13.873599 63.39875
168.44597 14.386935 63.38147
166.90938 17.031775 63.357708
164.64648 25.717987 63.372025
164.26152 26.789248 63.331364
160.73857 27.548006 63.399338
163.69621 27.824684 63.317368
163.51813 34.866375 63.349342
164.77954 37.240879 63.377769
162.86562 -9.1935787 63.477009
161.56625 -3.1634474 63.476509
166.78873 -1.9680052 63.482056
168.81221 0.28241771 63.487617
162.9657 4.0253811 63.455063
166.39038 12.689916 63.465279
165.28391 23.6236 63.448959
162.73364 28.377331 63.402027
161.53752 29.512117 63.44519
162.31773 -7.071475 63.534531
166.62982 0.37319726 63.54147
165.39262 3.9054651 63.556488
169.25354 3.9772038 63.526363
163.09906 25.876936 63.520378
160.49437 26.288187 63.586201
160.61929 26.731079 63.566849
161.33804 26.729992 63.5662
161.57791 27.488739 63.53302
166.05069 -8.6812687 63.644394
166.72572 -6.0339813 63.678612
162.80586 3.8585262 63.65192
165.862 16.671608 63.612541
161.42532 18.19916 63.620224
161.487 18.271275 63.665794
161.9241 22.87175 63.608162
161.408 24.55875 63.660423
161.61565 25.710442 63.610207
161.79048 25.885458 63.60244
164.42905 37.524937 63.614956
169.17834 10.775786 63.794933
161.75949 14.767245 63.792297
166.10962 16.642397 63.763077
162.03685 23.100254 63.723152
167.99437 -0.48810476 63.85202
160.03065 1.4952426 63.85722
159.9371 3.7382216 63.852913
159.93111 3.9056582 63.858334
165.13538 16.906431 63.809326
162.5569 -6.2627096 63.972054
166.16237 -2.3023343 63.930199
161.34567 15.986021 63.904541
161.8945 18.723402 63.972637
164.39137 -9.7819738 64.084839
169.30174 5.492012 64.037689
161.96547 9.264183 64.040596
165.63203 -7.203043 64.149681
168.64323 0.93826544 64.199341
164.58717 9.0268488 64.130211
160.02199 11.281537 64.14994
160.08078 12.89002 64.103813
168.23308 14.344138 64.126198
168.21782 14.211709 64.232224
167.60074 15.049597 64.231857
164.95892 -7.5102167 64.394325
166.08617 -5.0708389 64.391914
166.70288 -2.8440316 64.39222
169.04152 2.5229232 64.382454
166.27954 -3.2820296 64.59613
166.34888 -2.0489681 64.517136
165.68188 2.5458615 64.508125
162.71552 2.9423895 64.565887
160.06223 3.7111809 64.588593
169.34386 7.1098309 64.531204
164.57617 9.0691547 64.540558
166.33044 13.254291 64.598694
160.88106 13.793154 64.581573
167.83948 14.261467 64.516541
161.60745 14.849273 64.582626
167.54968 14.999908 64.510239
166.96652 15.662329 64.577782
161.89886 16.189667 64.584358
164.87817 20.44335 64.555847
164.32719 21.726685 64.537666
162.77872 -4.0093679 64.698013
165.74368 0.30937892 64.691483
165.82324 0.55043381 64.639259
160.14706 1.7214154 64.603333
163.14931 3.0021381 64.663818
160.17038 12.960342 64.618095
167.48546 15.003159 64.607651
163.53955 16.363995 64.638748
164.66794 20.555557 64.628784
162.75002 -3.6731973 64.736435
160.07375 4.0163546 64.732056
169.2124 5.4985828 64.767815
161.52707 12.710365 64.751579
166.02933 14.117889 64.765396
165.51398 -4.2237377 64.834435
165.71339 -2.7915461 64.826584
168.32697 1.7662761 64.869736
165.45544 17.606384 64.89048
165.47614 -2.760016 64.929955
168.74255 2.9346645 64.974365
160.14032 10.994007 64.922432
161.93469 12.250812 64.952438
161.71513 13.58636 64.982162
164.99567 17.236834 64.967148
164.16748 2.110486 65.067017
160.1938 2.4383802 65.056519
163.28348 0.085401654 65.137077
163.17622 1.6493465 65.104309
162.29736 11.771643 65.101151
161.84363 14.642076 65.133469
162.80086 17.162251 65.126549
164.25851 -2.431463 65.294662
163.91295 0.47145152 65.232712
164.24074 0.66271722 65.221481
167.56746 1.6127685 65.204803
166.96901 13.869576 65.298065
161.58693 14.38186 65.205666
162.25484 14.574911 65.210426
162.8723 16.616379 65.263916
164.45541 12.572983 65.382385
164.51987 13.455075 65.399162
166.53448 -0.23382179 65.478455
160.06761 6.0123701 65.45874
169.21561 7.468029 65.464432
169.14247 8.4689522 65.462051
160.23468 11.156346 65.44268
166.797 13.900292 65.425285
166.09253 15.806475 65.498344
164.23305 17.731701 65.486176
164.16582 18.142525 65.427116
163.77904 -2.0825653 65.58149
164.11237 16.890724 65.559631
164.10704 17.534424 65.568649
165.799 -1.768149 65.649269
166.50815 13.69162 65.704407
166.58846 1.2722745 65.830551
165.3152 16.516325 65.929573
160.31912 3.3633242 66.027809
168.77847 5.7174282 66.088982
165.83345 14.243114 66.094986
161.80402 -0.18629445 66.194847
168.34325 4.7962031 66.104065
167.58727 5.13586 66.146378
165.16727 16.069885 66.157982
167.15729 2.9789977 66.282143
168.79147 7.0779319 66.299103
167.56989 9.0543747 66.246864
160.30106 9.5429726 66.233505
166.52148 11.811306 66.244125
165.59607 14.487861 66.219635
163.73071 15.976977 66.272736
165.90298 1.227875 66.352264
160.29051 5.2936668 66.332794
165.91417 4.2176495 66.40403
167.62216 5.2720714 66.484192
165.1944 14.996716 66.406746
162.68607 -0.28546059 66.559433
167.80707 5.8692436 66.537079
167.88104 8.3714561 66.534081
160.45903 12.217312 66.51329
165.17993 14.530216 66.535454
167.25146 8.1727324 66.670578
167.51591 9.1178122 66.662315
160.49696 12.059286 66.64727
161.10629 13.161221 66.690521
167.80461 5.6791072 66.788864
167.94872 5.910512 66.744438
166.68489 6.8169308 66.792099
164.6579 -0.27316988 66.871109
166.59854 8.4008121 66.875381
165.36011 12.803858 66.828484
166.47302 4.8418646 66.968277
160.44862 8.4886055 66.935936
166.44016 3.5245199 67.012405
167.4951 4.5037827 67.06839
166.02333 4.5644498 67.116547
162.59364 4.8401933 67.137932
161.91974 7.127357 67.187744
161.34979 2.1707442 67.248299
160.55728 8.5103045 67.227837
165.92732 10.146077 67.235535
167.11765 10.230061 67.22982
161.0204 11.50383 67.29715
163.76253 13.791105 67.200897
163.1449 1.2326312 67.344826
168.14047 8.63241 67.375191
168.02867 8.8163424 67.300926
164.21686 1.6043016 67.492599
162.34065 2.0222313 67.461395
160.68198 4.8732276 67.472382
168.47549 7.4491453 67.403717
166.91284 9.6287737 67.433731
167.31567 9.8834944 67.491714
163.13083 1.6024473 67.500931
166.48215 4.4323344 67.550522
164.33386 5.3238578 67.565453
164.01355 9.7917252 67.596199
165.76199 9.9263687 67.511154
165.08333 10.203964 67.587387
163.04755 12.555471 67.519836
164.53247 4.5065355 67.636429
164.28253 9.4307766 67.662048
164.79128 9.9413967 67.615685
161.60446 11.223773 67.648239
163.53133 6.2395968 67.745392
165.07362 3.5587072 67.877296
163.50761 5.2972784 67.808884
163.39619 5.3714623 67.837051
168.39848 5.4988174 67.897018
168.34392 5.7598805 67.835739
166.25705 10.457239 67.833389
161.94846 5.9010777 67.944748
162.96489 8.267024 67.930878
169.06265 8.2161045 67.915352
163.43219 3.16289 68.049072
164.40666 3.6270776 68.011932
162.98584 3.3179874 68.140129
162.28549 3.8653324 68.243553
162.46844 5.1307969 68.237503
162.49525 3.9955626 68.358635
163.87331 3.7186618 68.457153
162.3385 4.739522 68.418579
168.64331 9.2808037 68.456017
161.87445 8.1232185 68.51207
161.76572 8.9310665 68.572693
167.61769 4.2779293 68.618668
163.44601 4.8106637 68.618591
161.95746 5.8961 68.691704
162.1022 9.3928204 68.706192
164.28865 9.7023354 68.770706
167.47523 9.9650402 68.716469
164.87425 3.545393 68.871025
160.95198 6.6979537 68.89785
170.06824 5.7229061 68.958542
161.74252 6.7285209 68.957642
161.73608 7.1545229 68.998215
167.28047 10.064666 68.958176
165.25916 10.014028 69.093559
163.14211 10.178339 69.039963
161.85419 6.0418463 69.233589
164.62048 9.9288206 69.388588
161.23538 5.8294559 69.429131
162.55188 8.9668102 69.474724
163.81511 3.6950414 69.564682
161.91071 8.2862701 69.943283
163.6499 4.4667664 70.002602
161.68256 6.9659019 70.017502
163.74997 9.7610073 70.005104
170.75847 7.5642653 70.256355
167.65025 3.5980833 70.362015
164.2597 4.0170202 70.383972
170.03983 9.1717253 70.319374
162.13905 9.6595259 70.310928
165.00935 3.7524843 70.418198
160.90129 6.0856094 70.765839
164.63324 10.434628 70.757912
168.4447 10.458332 70.848175
168.39999 3.6819673 70.928535
161.55109 5.3994436 70.902153
170.5751 8.2545223 71.009087
168.73532 10.486217 71.20298
170.0817 9.1614189 71.324684
169.9371 4.7068291 71.566902
164.98839 10.80182 71.560043
167.96606 3.3400004 71.721947
161.81918 9.3026638 71.724655
167.08824 10.974362 71.792389
163.47437 3.8212655 71.828232
171.46497 7.3051329 71.862068
168.673 3.5312226 72.038704
165.53793 3.1641798 72.309357
165.36452 11.017037 72.303596
163.18991 10.489674 72.617142
166.12701 3.1877837 72.7659
165.01411 3.1794734 72.889832
167.26164 3.2492847 72.851738
168.25595 3.4005632 72.908806
169.32503 9.9513817 72.971985
170.00775 5.3050408 73.13102
160.62296 6.7134457 73.296936
170.61763 7.4574232 73.283531
160.63734 7.9555192 73.264626
164.82031 10.982859 73.27356
161.29346 9.468174 73.40274
167.5694 3.4163134 73.627327
168.73744 3.5289857 73.675781
161.33115 9.5875597 73.687195
165.6803 3.2200394 73.795776
169.46718 9.8550673 73.744553
168.6983 10.67145 73.759727
167.91342 3.3993199 73.878067
166.89703 10.877929 73.839035
169.06512 3.8176684 74.156395
169.23734 4.0070295 74.129417
169.72008 8.8533688 74.144928
161.05289 9.3603621 74.188744
168.47496 3.3894558 74.203094
160.46501 7.9113545 74.23494
170.46584 7.330575 74.318497
165.30714 3.1024246 74.471153
160.4848 5.8896213 74.555321
168.39984 3.2926838 74.621872
166.19171 3.0400479 74.947968
160.51056 5.6436744 74.903816
166.14969 11.147882 74.985641
170.32239 7.9247799 75.038017
163.05052 10.764639 75.171478
163.03448 3.4368398 75.280838
161.22974 9.5028515 75.228027
165.50407 2.9243207 75.378342
161.00446 4.9514046 75.404633
166.27533 2.9528289 75.734703
166.05318 11.246545 75.740685
164.8911 3.0244913 75.858109
160.49838 6.9048018 75.810425
170.00064 9.4651241 75.818649
163.27205 3.4015212 75.932243
162.2912 4.0343823 75.951172
163.25381 10.733475 76.028786
164.3591 11.000885 76.188751
160.97977 5.2879128 76.227882
170.03487 8.4491491 76.260002
164.20227 10.964534 76.242165
169.81879 4.6757941 76.454842
163.0459 10.416101 76.416428
166.01097 2.9970832 76.580338
170.14859 7.4398375 76.50235
170.04335 7.9689341 76.562576
169.05295 10.244864 76.586395
