# .PCD v0.7 - Point Cloud Data file format
VERSION 0.7
FIELDS x y z
SIZE 4 4 4
TYPE F F F
COUNT 1 1 1
WIDTH 1612
HEIGHT 1
VIEWPOINT 0 0 0 1 0 0 0
POINTS 1612
DATA ascii
134.30009 106.78231 3.7806323
134.55388 106.78558 3.7203183
148.22894 108.32707 3.7798896
140.11894 109.13675 3.7195473
136.6723 106.87441 3.8111188
133.84625 106.95097 3.8674874
148.05873 108.61791 3.8440678
137.92923 108.2213 3.989886
138.69777 104.84759 4.0734482
139.10637 105.25217 4.0248518
138.21608 107.07501 4.0578279
150.59424 109.14327 4.0448098
133.81403 107.08569 4.1343393
144.96658 107.76875 4.1815448
134.45682 104.97334 4.2372861
144.29999 106.08136 4.2295642
150.6214 108.88562 4.284008
146.78583 109.69681 4.2435923
147.73561 110.9136 4.2561193
133.53104 108.26418 4.3003197
144.36105 109.882 4.3438687
135.94336 103.04027 4.4681587
138.34108 104.40291 4.4744029
147.89932 109.7805 4.4193401
136.32762 110.04298 4.4164948
134.92072 103.46226 4.5686073
137.34744 103.4349 4.5483851
138.29671 104.34546 4.557487
138.93544 105.17987 4.5989723
133.38916 105.9351 4.5554919
139.26704 106.19524 4.5340476
134.10396 109.2469 4.5543094
134.35555 109.35484 4.503993
139.77896 106.6655 4.6986065
144.60991 105.16068 4.7311001
139.36241 110.07382 4.7257199
147.56267 110.85771 4.7513962
148.72441 110.16185 4.8925638
148.89548 103.1445 4.9681149
133.89418 106.25488 4.9551697
139.63736 108.41931 4.9411831
137.26334 110.80392 4.9023175
147.79001 110.18285 5.0367188
137.24684 110.39096 5.0367308
144.99304 104.55152 5.1913977
149.99556 105.40936 5.1732354
150.21198 107.33163 5.112628
144.82393 110.00405 5.1406231
136.91997 102.92892 5.2066474
146.15103 103.1105 5.285346
138.23061 104.10223 5.3039937
150.1796 106.31256 5.3930798
139.86443 108.114 5.314446
135.1465 110.15137 5.3411832
137.33768 110.59864 5.3573923
140.5062 107.93445 5.4156847
137.02303 110.4404 5.4178934
139.53442 104.73259 5.5873332
139.42657 105.18848 5.5687895
133.22382 107.08305 5.5344696
140.60242 107.04808 5.5403113
150.47224 108.24333 5.5936923
149.64481 109.27946 5.5306606
137.89172 110.39296 5.5171824
144.29904 105.57212 5.6836615
147.11336 110.42336 5.6890354
133.42029 105.53764 5.7428122
133.23454 106.71754 5.7001405
150.31863 106.94308 5.7563066
133.86299 108.38459 5.7097836
147.46928 110.06059 5.7617898
144.17369 105.42311 5.8746343
150.21155 106.04286 5.8969498
143.75003 107.77326 5.8415589
150.26898 106.26453 5.9534001
149.34708 104.29591 6.0742416
140.02457 105.08728 6.0619135
148.66177 103.48518 6.1114621
135.33987 104.08356 6.1231046
144.47633 105.02435 6.104188
143.9473 105.72666 6.1622715
134.47421 108.44978 6.1684995
143.89484 108.74934 6.1964016
139.43982 109.84057 6.1703649
135.43501 110.49039 6.1583562
134.92029 104.91296 6.2744484
136.78723 109.81192 6.2358723
146.34813 103.29346 6.3514118
140.43954 106.6388 6.3458562
149.68132 108.03933 6.3058572
140.21155 108.17712 6.3320055
140.38165 108.48456 6.3093004
136.14853 109.54926 6.3870077
146.82628 102.31937 6.4868135
148.98581 104.2542 6.4284611
140.02797 104.80275 6.4797416
134.44498 107.70118 6.4556594
133.26233 108.55177 6.4692283
149.0103 109.91224 6.4586601
135.12706 102.40602 6.548141
137.76981 103.71265 6.5896955
150.12549 105.10188 6.5310144
149.24673 108.21045 6.531517
134.71848 110.03549 6.673418
139.77292 105.58137 6.7939663
140.36929 108.1321 6.7316771
148.39291 108.90788 6.7181621
140.34586 107.43974 6.8755202
148.42532 108.80453 6.8138962
134.25459 102.90985 6.9657922
138.6459 103.35414 6.9857011
136.905 109.2386 6.9876423
145.12631 104.63986 7.046279
136.04524 102.1291 7.194438
137.64606 103.93628 7.1684232
136.04073 104.98996 7.1443062
148.14191 108.00852 7.1977911
137.6703 110.40922 7.1520519
133.27724 105.67828 7.2262487
148.30879 106.14661 7.2546082
138.56792 110.13053 7.2054405
147.69846 110.37529 7.2287335
146.03519 110.48589 7.2972183
133.06065 107.22081 7.3277054
145.24831 103.37288 7.4066801
147.61746 107.09309 7.4638834
150.36812 107.08777 7.4558458
139.99223 109.80774 7.4576197
144.6754 106.94275 7.5758243
145.94424 107.89867 7.5667257
138.79317 108.35175 7.5223026
138.88763 110.01475 7.5084429
135.4892 110.21515 7.5023146
138.66417 105.61504 7.6431036
147.34978 106.44454 7.6190057
134.39987 109.6169 7.6403427
146.40002 106.72102 7.7424951
144.37802 109.76703 7.7798152
144.44502 109.87416 7.7694688
138.45015 110.15733 7.7098761
144.91147 110.57562 7.7890935
134.26978 109.47724 7.8555565
138.57045 110.13783 7.8676486
149.89246 107.82016 7.975132
135.39633 110.32668 7.9417944
144.88698 110.5869 7.915741
145.72449 110.54901 7.9096432
135.01773 102.24967 8.0323744
133.81479 103.5929 8.0613756
133.39874 105.05003 8.0606213
133.12198 106.00208 8.1314631
144.21396 109.56657 8.2335415
133.61545 104.23282 8.3004274
143.94695 104.8027 8.370162
134.27174 102.63625 8.4490862
150.65717 105.91979 8.4815331
132.94118 107.50124 8.4978552
144.87276 103.46471 8.5434303
143.42743 108.24444 8.5261612
149.6779 108.46368 8.6663027
148.75955 110.27266 8.6272507
136.57419 101.72859 8.9110212
135.28833 101.99198 9.0535069
143.17815 107.15319 9.0479231
138.35056 110.54571 9.0274248
148.37256 102.26474 9.1089573
137.13519 101.72259 9.2895498
140.51331 105.21688 9.2528124
147.44048 110.58028 9.2084656
146.15674 102.19396 9.3309155
143.45798 108.42947 9.3171406
149.06961 110.13151 9.4607067
139.13947 110.20429 9.4557467
144.31363 103.85679 9.5522346
143.65378 108.80739 9.5368423
146.185 110.76908 9.6674881
144.66177 110.41915 9.7057705
136.24594 101.61281 9.8751125
135.41 101.83734 9.8989706
140.70319 108.58847 9.8479652
140.20323 109.55513 9.8861084
145.40594 110.491 9.8345585
146.05649 102.04961 9.963048
143.10735 107.08159 9.9173193
132.80899 107.43614 10.091311
143.16858 108.04941 10.063139
139.07184 110.26036 10.054845
136.68251 101.50874 10.148971
150.66644 106.13876 10.127675
136.39685 110.83347 10.170793
143.76797 109.12314 10.237062
144.49991 103.32345 10.392835
144.01117 103.98882 10.312351
133.09372 108.1824 10.45447
134.79228 102.12889 10.571493
145.29968 102.66221 10.50285
143.20634 105.23656 10.794624
144.07095 110.26981 10.827968
138.4313 110.65023 10.844757
146.88422 101.50027 10.954007
134.72154 102.13704 10.930741
143.87509 103.92606 10.981337
149.2498 109.86613 10.927528
148.95148 102.32415 11.002059
140.72823 104.05536 11.141809
150.57585 104.98245 11.194328
133.15123 105.16985 11.135759
150.60452 105.10219 11.100557
140.26123 109.50216 11.120983
136.14473 111.02065 11.169147
139.5807 103.16165 11.250072
144.1918 103.4016 11.219242
140.21936 103.65416 11.212282
150.83122 106.05777 11.205101
135.97777 110.94571 11.206927
145.85402 111.10884 11.286361
133.03569 105.52535 11.337941
149.84744 103.30466 11.404293
150.46361 106.81542 11.407117
142.98845 107.51236 11.586951
140.60114 109.30856 11.595673
140.83667 107.77686 11.678091
145.07301 110.46776 11.675898
138.71307 102.36352 11.895132
150.55295 104.86997 11.873968
142.9184 105.79259 11.819593
150.77844 105.79266 11.821635
140.81396 108.18859 11.876786
133.40726 108.42619 11.81794
135.75998 101.43183 11.939188
139.8866 103.23119 11.99721
133.62512 103.5441 11.996489
143.18169 104.52654 11.977879
143.11618 104.80914 11.903967
133.65027 108.75396 11.974049
144.58307 110.2252 11.914558
136.59903 111.09396 11.970167
148.42007 101.8858 12.07024
133.64369 103.49039 12.003779
134.05371 109.60275 12.080719
145.98254 111.23644 12.024132
137.17912 101.2518 12.122146
138.26941 101.9422 12.182096
150.65237 105.26889 12.135341
140.83688 108.25203 12.119339
138.61768 110.79746 12.125412
146.3652 101.4009 12.201113
136.50516 111.13211 12.202524
141.07019 105.73218 12.390361
133.9637 109.46565 12.311759
135.39488 110.54262 12.353255
136.07709 101.24869 12.406516
149.26555 102.29996 12.441498
143.0182 104.78941 12.449616
144.09392 109.91328 12.414466
150.8669 106.13174 12.620323
141.07825 106.90956 12.669929
135.64288 110.76283 12.699119
138.62601 111.0699 12.629089
144.33488 102.92909 12.827768
143.56558 103.66629 12.816083
149.33289 102.2653 12.965504
133.59766 108.85559 12.994741
135.53963 101.45187 13.070789
140.96838 108.07262 13.043715
135.31232 101.57739 13.167317
147.14838 101.2023 13.237734
150.27798 103.74946 13.273046
133.70255 109.13593 13.31334
140.22757 109.52367 13.384651
147.34668 111.1417 13.370624
149.85542 102.8054 13.482421
142.80818 106.34673 13.426005
139.16603 102.3456 13.547347
150.13615 107.9408 13.528404
143.10626 109.21177 13.58826
134.89462 110.21957 13.54767
144.47655 110.28812 13.57541
146.36478 101.1665 13.861718
147.82646 101.31793 13.834981
133.03012 107.95148 13.857677
133.39218 108.61345 13.867229
141.16939 103.7599 14.039881
132.94461 105.23676 14.030706
132.82083 105.58541 14.188121
133.25182 108.37875 14.125605
134.20416 109.75922 14.174193
137.83749 111.29288 14.146931
149.62979 102.28903 14.262236
150.56898 104.86852 14.282509
149.81406 108.85909 14.210702
146.64459 101.05593 14.345956
135.60982 110.84428 14.319836
150.2756 103.66408 14.494935
150.34128 103.9339 14.439826
135.18416 101.52362 14.54861
137.02515 100.90309 14.627377
135.48839 101.3317 14.674393
150.68611 105.33611 14.674788
132.71724 105.82617 14.690392
139.64067 110.93878 14.619563
142.80353 108.70558 14.746964
138.57805 101.50855 14.86368
140.90912 109.09794 14.854152
140.6808 103.19586 14.930225
141.40721 104.69581 14.924896
145.75784 101.11609 15.008924
156.54195 102.23264 15.036608
141.41367 106.18737 15.076479
147.97751 110.92927 15.012203
140.27837 110.46465 15.172556
143.94785 110.70695 15.153038
127.55866 100.96421 15.217609
148.28302 110.76024 15.257244
147.01784 100.91517 15.430126
127.24524 102.36232 15.437835
128.11523 103.08111 15.414522
142.83606 103.69321 15.429706
157.02542 102.50205 15.531555
143.02214 103.35152 15.716695
155.94838 103.85498 15.714169
142.56393 104.45038 15.797379
142.76103 108.52643 15.790932
143.59428 110.4498 15.719342
127.52333 102.80922 15.843286
140.48428 102.84081 15.836092
150.28745 108.09233 15.880561
146.07431 111.66423 15.841694
127.50022 101.01484 15.922939
127.37656 102.39031 15.904743
133.82477 102.5062 15.917921
133.00529 108.25353 15.977839
149.28091 110.45525 15.907315
126.65553 102.27287 16.018911
132.65685 105.81477 16.04051
141.51466 106.39238 16.081059
127.14137 102.07617 16.164133
156.83093 102.29053 16.130783
141.49951 106.65538 16.182707
149.60678 109.65431 16.170334
127.19996 100.84473 16.267294
142.87007 103.34894 16.289806
156.48613 104.31861 16.224316
141.60655 105.72719 16.263216
139.29065 111.51262 16.271591
139.32265 111.51726 16.311077
146.69759 100.78387 16.427013
145.53784 100.94942 16.426121
156.67084 103.84107 16.453299
149.51335 109.93274 16.458227
146.241 111.73351 16.414772
146.18286 100.81456 16.573946
126.56586 101.363 16.566322
142.84511 103.30424 16.588938
126.94441 100.92941 16.656315
149.92708 102.18096 16.627493
151.02713 106.67343 16.680872
156.99316 104.00441 16.795103
156.96034 102.13335 16.826807
140.94287 102.9253 16.884579
141.64101 103.55049 16.884005
156.60709 103.94539 16.859303
150.41966 104.18835 16.804247
142.46075 105.29552 16.838018
136.9155 108.32758 16.875427
136.12854 100.98334 16.968853
141.47726 103.36236 16.942654
144.75272 105.83228 16.984535
139.05191 105.92934 16.923077
139.66679 106.64362 16.971436
143.50641 107.2838 16.949434
145.16678 107.21475 16.922836
139.74918 107.80379 16.951004
136.58148 107.96147 16.939415
138.77881 108.7748 16.930893
138.02919 109.16743 16.951694
149.32034 110.48773 16.90237
139.8681 111.54398 16.934256
126.60077 101.11748 17.079893
133.5945 103.02696 17.040348
138.89093 104.31327 17.016703
139.79395 109.34667 17.058622
146.59137 109.6055 17.079533
148.99246 101.49896 17.199108
126.46661 103.16825 17.148964
142.41978 105.83072 17.144642
136.04489 106.51762 17.101303
143.22609 106.53052 17.167107
141.62495 106.97884 17.164379
147.08696 106.99728 17.163303
136.09448 108.31279 17.135014
147.66397 108.78293 17.197697
136.16403 103.51035 17.272717
157.29073 104.17799 17.231962
147.00168 105.19099 17.297798
146.73672 105.78555 17.218859
147.47765 106.83166 17.22187
143.19485 108.45914 17.297855
138.79317 101.18933 17.334845
155.42947 101.44024 17.367786
137.67542 102.55626 17.373558
157.60144 103.65279 17.382992
140.44025 105.72862 17.324299
141.77377 105.96528 17.311893
150.8409 107.35039 17.310997
150.39967 108.20116 17.378273
149.0224 108.96827 17.38401
148.41141 109.84178 17.316248
148.51759 110.29408 17.33815
136.63182 111.64995 17.338604
136.9563 100.64842 17.48122
138.65816 101.10774 17.486757
138.80635 102.86411 17.422714
140.23193 103.70065 17.487562
141.54268 108.30382 17.446815
149.46846 110.18184 17.454704
136.82727 111.69086 17.411524
138.06332 111.72081 17.467514
146.86588 102.55691 17.581537
144.7276 102.76689 17.528902
134.69662 105.80711 17.593517
140.59015 109.36536 17.540031
149.53448 110.02851 17.57456
148.51172 110.89194 17.58812
144.0387 111.64091 17.553064
143.34442 102.45122 17.616903
127.26285 104.1273 17.6096
148.57225 104.25337 17.689335
149.31938 105.47063 17.646732
140.95575 105.92035 17.674633
149.83958 108.03911 17.610043
150.31992 108.41212 17.65663
142.31441 108.98705 17.656216
135.43723 110.08089 17.63096
143.31409 110.05541 17.677946
136.01904 111.7125 17.618662
136.83472 100.69006 17.754248
148.22101 100.99753 17.763302
148.80766 101.36693 17.723129
142.98636 103.33829 17.703283
140.67096 103.45879 17.782482
149.03349 104.49588 17.759369
148.92706 104.50488 17.730915
149.44809 105.01508 17.765312
149.80548 108.7009 17.777874
136.12746 112.14476 17.793539
148.98753 103.90199 17.860231
132.71622 105.43025 17.839714
147.6292 112.13713 17.829838
147.20789 100.58623 17.94902
140.5842 103.08791 17.960558
150.25049 104.93279 17.989038
141.02013 107.92497 17.913448
142.71829 110.72968 17.956623
149.57281 103.70646 18.047552
150.33005 104.26183 18.034618
138.78065 111.68619 18.016739
128.55113 101.62362 18.131817
144.65738 101.60857 18.112625
149.62782 103.27262 18.144735
133.64792 106.35722 18.195213
145.21603 100.90952 18.217304
139.5925 101.4585 18.285818
139.17274 101.77399 18.250282
140.83191 102.46404 18.271587
140.73439 102.81667 18.25857
141.83214 104.01999 18.271097
141.6037 104.29493 18.275311
150.57874 104.74138 18.262394
134.7292 110.1239 18.227385
139.89488 111.42708 18.251772
156.06609 101.77754 18.357576
149.73996 102.38345 18.34013
143.2825 102.44398 18.372616
142.21208 108.90596 18.313171
142.22249 109.11446 18.320126
149.56343 109.91371 18.320084
139.18533 111.7558 18.35549
147.67206 112.8921 18.328938
145.62682 100.75214 18.472893
157.82101 102.75432 18.423561
142.0663 105.90117 18.402697
150.95029 106.00414 18.49505
133.28191 109.19312 18.44841
134.7088 110.75757 18.400192
142.42993 111.03795 18.457783
141.07129 111.28497 18.474157
143.78728 111.92941 18.457535
145.45839 100.92539 18.572086
143.61819 102.18755 18.572445
126.47079 103.80322 18.546703
132.56729 106.09196 18.575958
150.9745 106.10595 18.50852
150.95526 107.16287 18.526026
133.91241 108.86568 18.593609
142.4874 110.77059 18.516407
146.92853 111.98087 18.530005
148.34343 112.53311 18.550697
132.8707 105.03633 18.674261
151.07275 105.85408 18.659012
133.64188 108.18373 18.649651
150.37672 108.51823 18.652496
141.94853 110.50112 18.692312
138.77287 100.93956 18.738354
133.4178 103.03105 18.758255
133.76978 108.93057 18.727592
134.52454 110.22352 18.740358
144.41676 111.85252 18.738432
147.20459 111.88161 18.756084
136.21152 112.95468 18.78698
139.80391 101.15723 18.849558
126.50385 101.85898 18.859938
157.78644 103.77734 18.885303
150.52751 108.33 18.891045
141.65222 109.66617 18.826513
136.43243 111.84978 18.890894
144.33208 111.85204 18.840954
144.47256 100.8685 18.935251
140.64996 101.46801 18.971859
149.92734 103.35944 18.906296
150.55621 103.683 18.994936
127.89709 101.38173 19.004005
149.81175 103.03409 19.014074
146.42703 100.69802 19.107183
126.96072 101.71589 19.189363
143.69016 102.11927 19.170855
126.78282 103.83873 19.157961
156.06729 104.27422 19.181732
132.73843 105.32055 19.187378
150.47646 105.39615 19.15126
142.21533 106.2691 19.193064
139.54373 101.29556 19.272856
135.39667 101.32677 19.293325
135.41733 101.31747 19.276814
149.72629 102.43336 19.269739
133.26314 108.10044 19.286816
149.8268 109.68282 19.222008
141.0433 112.00951 19.239752
147.09033 113.08983 19.257687
136.41759 100.76701 19.302969
127.91972 102.89229 19.350697
156.42944 105.23485 19.382568
151.22435 105.6052 19.394545
142.065 105.75414 19.392723
142.01208 106.69388 19.314968
151.338 106.80187 19.355894
142.09573 107.44208 19.305046
141.13483 101.13161 19.48349
144.13925 101.57262 19.496569
156.88928 102.34521 19.409233
132.77516 105.81631 19.441555
151.3172 106.68168 19.455154
150.79567 108.47182 19.40897
133.26324 104.0754 19.523285
133.02937 109.02958 19.519796
149.68791 110.56181 19.508497
137.98827 101.02483 19.684343
126.15475 103.16872 19.662884
127.62489 103.91638 19.662062
155.65256 104.22122 19.676678
132.99358 107.69085 19.664898
142.15298 110.41238 19.670168
141.50351 112.02742 19.663361
145.38446 112.73535 19.633488
137.69476 100.96645 19.728712
147.14966 101.14249 19.794687
133.22346 102.31125 19.702873
156.86525 102.6152 19.772387
126.95224 104.4578 19.757002
132.70778 106.45427 19.727718
150.72092 107.67894 19.781158
145.53284 101.16191 19.886211
132.54549 104.86446 19.888729
132.67128 106.42349 19.846289
141.90175 108.03541 19.875759
141.84317 108.67133 19.809666
142.96542 112.15575 19.887119
134.39417 112.64331 19.874048
135.17296 112.91942 19.826902
146.49629 113.04912 19.897285
139.05453 101.41901 19.946545
156.60461 102.99719 19.993912
140.68269 100.75127 20.083742
142.05174 109.1004 20.043585
149.68785 110.99525 20.033792
147.60539 111.52061 20.073112
147.66757 113.2003 20.032913
144.03485 100.57588 20.199207
141.34891 100.69698 20.119797
128.43846 104.64967 20.159897
155.81322 105.51986 20.108294
141.62927 109.40633 20.134338
133.94928 109.82893 20.113106
135.54785 110.92967 20.108271
147.44142 111.47031 20.189093
143.39636 100.5437 20.259647
139.22423 101.73468 20.290825
148.78078 101.75677 20.256851
156.76601 103.34776 20.266918
126.13277 103.5036 20.248461
132.44241 104.84496 20.29472
132.45343 106.03979 20.279251
150.56271 106.29394 20.206934
142.30109 107.49854 20.246895
132.77859 108.32829 20.210543
134.63612 101.87164 20.324511
149.36284 102.33093 20.358976
143.57341 102.41057 20.302702
150.31317 105.54249 20.358763
155.62646 105.61506 20.399822
132.58348 107.00983 20.318815
150.48427 108.73853 20.365803
147.46783 100.85835 20.465816
148.0737 101.2485 20.435961
143.22607 102.81441 20.47756
132.45116 103.51651 20.487206
157.82475 104.09042 20.495251
141.53368 112.31923 20.480894
144.5506 101.7814 20.505447
149.35413 102.42532 20.563585
155.22292 104.48502 20.585217
156.62228 104.42542 20.579132
146.63962 111.14606 20.563965
126.24551 103.69691 20.609852
149.79047 103.95792 20.659344
141.30235 109.29037 20.694931
141.35989 109.46558 20.644785
148.06903 113.03255 20.681072
137.66716 99.860992 20.705492
156.77602 104.05329 20.794241
138.72842 101.85938 20.889338
156.12407 103.25228 20.896523
143.34152 110.02028 20.829006
144.37135 110.42915 20.85815
147.42792 110.7331 20.84214
148.02643 100.99529 20.928387
135.37708 101.97981 20.999313
126.6942 103.47089 20.918644
149.99762 108.10872 20.920631
143.89438 109.68618 20.968616
143.95328 100.02359 21.031534
138.1805 101.84248 21.072376
140.8557 108.09594 21.075872
135.18884 109.00738 21.036964
136.75493 109.48734 21.088627
147.6153 110.40577 21.04738
147.59401 100.62927 21.142317
136.44055 102.09613 21.193602
126.28189 103.12679 21.17753
134.0146 104.00422 21.122671
133.82433 105.48621 21.198654
136.34286 109.26868 21.120646
149.13168 112.16035 21.156828
145.29543 99.818497 21.271502
142.50027 99.93544 21.298183
148.19931 100.94229 21.281378
136.44048 102.26389 21.273594
147.9579 102.50688 21.290146
138.96507 102.74757 21.25609
150.85585 102.81117 21.252226
154.96756 105.48863 21.256001
140.59769 107.80759 21.239912
147.51184 110.22032 21.255495
145.00491 99.783005 21.347334
141.55942 99.948227 21.354063
157.4225 105.44936 21.381636
144.05029 107.58232 21.381212
136.34062 113.35178 21.314804
145.03772 99.734894 21.425062
146.94818 100.08602 21.454344
144.48674 102.92555 21.477375
132.57817 103.67863 21.439224
156.96295 106.0852 21.477116
139.99179 107.95102 21.437361
146.86966 109.03912 21.472958
150.43481 110.60414 21.419369
148.73677 103.2866 21.502054
139.76215 103.79762 21.508804
134.20905 106.05502 21.522905
143.76253 106.72009 21.500973
138.38417 107.54314 21.589691
134.67386 107.79472 21.535269
139.16635 108.00191 21.514069
146.04526 108.09004 21.541792
138.59729 108.10625 21.523884
145.71567 108.11855 21.515266
137.76233 108.46893 21.516659
138.5752 113.14989 21.56036
145.62051 99.586594 21.625093
135.53101 103.25891 21.633751
148.58749 103.5885 21.640312
132.57581 103.98883 21.686977
134.62347 105.14658 21.653675
139.53342 106.22213 21.684433
139.43138 106.71355 21.637417
146.3826 106.81741 21.695492
145.98761 107.02469 21.655987
147.6882 107.45985 21.68071
147.30624 107.69987 21.638174
137.07019 107.81384 21.609283
148.86574 107.87624 21.606352
132.99625 110.12962 21.675406
132.80521 102.70474 21.767357
145.12708 103.36497 21.710373
147.31284 103.37764 21.753813
135.41382 106.60569 21.793865
144.37984 104.54079 21.852865
138.6785 104.66107 21.876551
126.43246 105.0396 21.873537
148.70769 112.30738 21.89127
139.53772 113.06548 21.839603
144.07394 99.48143 21.968834
128.0054 102.99375 21.944244
135.36252 104.70732 21.992016
147.96381 104.89445 21.962193
147.15494 105.17255 21.900499
132.401 105.60098 21.932579
133.4995 110.70119 21.91441
144.27567 112.71608 21.914297
147.66212 104.04858 22.008705
148.07309 104.11079 22.039024
150.8331 108.23917 22.059202
150.81631 108.62935 22.053743
144.54167 112.79744 22.024815
149.05763 101.37486 22.119598
129.40463 104.96992 22.162626
132.08025 108.24205 22.114265
126.39223 104.40474 22.225784
150.75772 109.23095 22.241062
144.44342 112.79308 22.222681
139.11276 113.07051 22.244614
148.84647 101.20076 22.393633
129.04034 103.85328 22.34428
150.7605 104.69401 22.335146
157.48134 105.29496 22.347765
150.79547 108.07323 22.329353
137.87231 99.4468 22.494915
132.39333 106.23561 22.421354
127.2933 106.27973 22.557953
141.73965 112.87871 22.520388
143.03363 99.316498 22.634493
156.06114 103.70132 22.625544
150.74951 106.1649 22.663507
156.19849 107.13616 22.66478
149.86673 110.45245 22.691668
132.72913 104.10791 22.771124
129.6904 105.16234 22.769424
155.3694 107.01309 22.703672
136.88068 112.63457 22.730331
149.48357 101.56712 22.876747
146.86484 99.816772 22.90637
150.72049 107.00435 22.98304
150.63521 109.20676 22.980564
140.14441 99.256088 23.011145
155.74858 103.84977 23.005875
150.31448 103.53226 23.17757
129.00063 103.67773 23.123953
156.92853 103.99998 23.151707
157.07373 106.37669 23.189152
147.63121 100.28139 23.290173
135.61337 100.59883 23.220367
154.37463 106.50584 23.209789
144.81694 99.096176 23.355625
139.27287 99.167725 23.384436
150.14841 103.01859 23.334814
132.82327 108.4998 23.372753
154.96988 104.04254 23.45623
157.14548 104.43193 23.43181
156.15053 107.43796 23.451099
142.94139 112.71844 23.460999
154.29704 105.02721 23.522005
132.62105 108.05588 23.513088
140.03304 112.42966 23.573502
135.11986 111.62863 23.670692
144.14409 112.6426 23.687235
157.41656 105.79228 23.746136
138.38048 99.166466 23.896393
147.57224 100.1713 23.873339
128.83476 103.58842 23.892916
150.5697 106.67532 23.800781
150.57291 106.78983 23.802738
142.14844 98.979332 23.929493
147.32869 100.00018 23.944864
150.0695 103.65456 23.928217
148.99423 109.90599 23.912262
139.2368 112.06522 23.921516
147.07285 99.818787 24.033466
132.96439 103.93508 24.133492
154.4655 107.46333 24.132965
128.41251 103.72507 24.266245
154.81409 104.21645 24.288763
148.50641 109.81808 24.285585
146.72758 99.551689 24.33679
130.2908 105.37123 24.397781
150.40813 105.90397 24.321289
154.49911 107.74706 24.396008
150.28206 108.41493 24.383165
136.61913 111.45752 24.395508
144.2252 98.815811 24.424847
155.43039 104.27894 24.49312
139.02151 111.61941 24.40959
157.38579 105.9059 24.516533
149.11884 109.07478 24.596533
142.60483 111.59791 24.580532
144.134 111.80231 24.587185
137.73009 99.263451 24.611038
143.64742 111.64977 24.675709
133.4039 102.16821 24.723722
128.75394 107.68614 24.746309
157.37561 105.46655 24.880802
153.28728 106.41536 24.817785
128.78583 107.74034 24.863926
147.61768 109.9211 24.811718
136.31874 100.24085 24.943842
135.67834 100.67938 24.976284
156.16328 104.45217 24.901661
142.64998 111.23033 24.97278
133.17473 103.37235 25.005516
149.27885 102.31248 25.187164
154.18935 104.7923 25.148401
157.33667 105.37711 25.17561
133.23663 103.75722 25.209988
129.91614 104.56744 25.215683
148.92259 108.59608 25.222033
154.04683 108.01694 25.406239
156.71964 104.92401 25.509747
140.36719 110.64172 25.573498
139.39445 110.52155 25.685888
149.72102 105.16071 25.78397
150.15184 107.13735 25.706165
142.13922 110.47066 25.710516
144.9608 110.81271 25.781216
137.72235 99.318871 25.804998
134.11081 107.95519 25.813379
142.79117 98.424011 25.951187
134.12315 107.84116 25.94442
135.47665 109.48565 25.918758
136.31708 109.93773 25.923901
138.72929 99.005363 26.001724
136.79739 99.962128 26.087189
133.62863 102.80575 26.079617
130.14142 104.6918 26.021908
126.65094 106.30788 26.079762
154.06418 108.39781 26.095251
141.34389 109.99875 26.094866
136.94722 110.01643 26.057533
140.44603 110.10871 26.011686
142.16765 98.37513 26.165186
152.97696 106.5473 26.18095
134.63962 108.42991 26.118595
143.8143 98.565262 26.235077
146.80232 99.432137 26.239319
133.69008 104.74683 26.291201
133.68015 105.4072 26.244541
153.33228 105.84509 26.213829
149.27118 107.5035 26.260672
149.40602 104.65682 26.357988
127.09208 104.84883 26.326096
152.96648 106.44031 26.314461
128.63567 108.29803 26.308191
129.05379 108.38361 26.312571
130.83699 105.66975 26.459824
126.60929 105.87786 26.433044
136.25557 109.34531 26.412113
146.77248 99.407227 26.513239
155.47849 104.88937 26.681953
133.83684 105.57571 26.623976
134.73651 107.99034 26.689444
136.45763 100.22258 26.766367
154.07678 104.98184 26.765602
134.26154 107.24217 26.737276
127.37379 104.92426 26.830082
143.80429 98.570732 26.901783
134.12619 104.28696 26.906973
130.19037 104.76425 26.948772
131.04013 105.84168 26.980324
156.94659 107.40972 26.903559
127.43005 104.97443 27.008844
130.59616 107.19334 27.036877
127.51666 107.69185 27.06181
134.81842 107.65937 27.097385
143.91864 109.52327 27.00732
136.36142 100.32001 27.162766
134.65025 101.75998 27.161648
148.79524 103.3366 27.272785
146.47435 108.78874 27.264076
144.86555 109.40755 27.279234
148.29031 101.86093 27.342525
156.07803 105.40086 27.336521
129.0907 108.83899 27.410759
138.90927 98.901047 27.546097
135.01776 101.51859 27.503574
148.84129 104.09277 27.587831
145.19533 99.079651 27.694584
148.79741 106.1176 27.658722
127.54647 107.8672 27.60947
138.14406 108.85252 27.626854
134.56297 103.11114 27.716703
131.08597 106.79317 27.79027
156.74474 107.8931 27.746843
148.65022 103.55872 27.804348
153.64531 106.53368 27.887754
153.91409 106.58995 27.893238
131.23178 106.60133 27.870626
129.43193 107.12056 27.820534
147.81908 107.10093 27.874695
146.51556 108.181 27.895515
154.02106 108.10886 27.836321
154.27478 108.25719 27.849815
129.02461 108.99236 27.858921
144.5377 98.922951 27.92363
148.78055 104.93922 27.981125
128.14287 105.0186 27.957556
130.45703 106.0281 27.928425
154.7704 106.68341 27.975277
153.1788 107.45029 27.962048
153.31612 107.54899 27.932615
153.49898 107.95728 27.941885
137.6326 108.50726 27.958401
144.68584 108.77924 27.927719
137.84235 99.376991 28.031521
131.23911 105.92573 28.084047
128.67436 106.10696 28.064163
154.92468 106.38767 28.088585
126.67281 106.75373 28.090364
128.30418 107.10674 28.021103
155.15216 107.12628 28.041132
155.06857 108.30029 28.008579
145.46082 108.55036 28.007627
139.28784 108.62357 28.081303
154.08401 108.88918 28.001541
145.03922 99.304131 28.174906
134.74702 103.578 28.143749
134.95232 105.8025 28.185417
152.64995 106.62426 28.147068
152.51448 107.11515 28.195534
157.24336 107.3022 28.190487
152.9077 107.65135 28.19998
146.13022 108.1024 28.165302
153.8513 109.12631 28.130632
141.18953 98.460754 28.200594
140.05029 98.783348 28.254978
148.51312 103.66035 28.243824
157.13101 106.47656 28.272261
127.68887 107.40395 28.249348
143.79965 108.56035 28.237
140.68553 101.47063 28.390879
148.3053 102.88586 28.369009
131.05412 107.17403 28.355999
142.65283 108.53977 28.342117
147.85477 101.72714 28.480669
141.63037 102.54003 28.414989
140.98561 103.06179 28.48222
142.7977 104.12935 28.481623
143.44672 104.25409 28.435314
126.83504 106.03503 28.493916
155.98782 107.0623 28.4575
157.21005 107.0107 28.422998
129.97298 108.76786 28.498507
154.97604 109.45877 28.477549
143.25156 102.57825 28.589266
141.03427 104.31624 28.578091
141.72467 104.40909 28.585028
145.00221 106.14111 28.564131
155.91254 106.43124 28.510391
127.19122 107.28419 28.555416
127.42416 107.74419 28.576166
141.18831 108.4752 28.505825
155.56555 108.82142 28.570402
141.6642 100.74974 28.627069
142.39624 101.24019 28.618553
139.90506 101.4445 28.6441
139.61215 103.61975 28.623142
139.22063 103.96963 28.694212
144.88133 103.90987 28.690569
139.95531 104.53197 28.604759
154.5201 105.42554 28.644388
143.25037 105.69144 28.611357
127.72058 105.8334 28.629242
152.73831 107.34762 28.622753
128.08051 108.44087 28.648144
128.7919 108.81775 28.674084
155.25906 109.01939 28.654125
140.8716 100.59528 28.786205
145.06659 103.75628 28.744659
129.8322 104.81654 28.795082
130.7484 105.01974 28.724241
145.7045 105.15009 28.777878
153.73897 105.1943 28.764452
131.77209 106.96014 28.745632
140.02618 107.10886 28.799614
140.29926 107.1003 28.795631
154.43069 109.40329 28.724621
145.54565 103.33473 28.893154
145.8199 105.72331 28.856937
155.23001 105.77386 28.891653
138.8515 106.16541 28.830238
138.9221 106.62822 28.825754
130.87369 107.05402 28.893082
139.4193 107.16447 28.811245
141.98033 107.3692 28.811224
140.18526 107.4147 28.820902
152.35587 107.49626 28.817081
139.34087 107.70686 28.853399
127.80307 107.91663 28.898434
154.70467 105.50581 28.999432
138.41367 105.9217 28.958435
156.5739 106.88239 28.925865
127.19679 107.22024 28.975483
139.20226 107.83453 28.930424
142.60117 108.53452 28.900148
153.99216 109.43182 28.961601
140.30835 98.783493 29.058437
138.77873 99.27491 29.098461
139.38971 100.77747 29.097544
139.25334 100.92174 29.07893
138.02637 104.07262 29.009401
146.30328 104.56731 29.046692
156.13467 106.18379 29.011578
146.05637 106.71419 29.070087
144.33633 108.33377 29.052689
145.5002 101.63342 29.104935
138.29941 101.99836 29.115393
131.23634 105.11668 29.166346
126.9842 105.99493 29.121279
152.94997 108.92647 29.172626
143.10356 99.178291 29.282774
128.44023 105.45736 29.288898
152.40779 105.83902 29.201832
138.21954 107.19573 29.235544
131.8573 107.4052 29.23307
129.77695 108.17206 29.211033
146.2236 101.80405 29.341331
146.62822 103.21117 29.384277
127.91277 105.5645 29.338381
146.55067 105.74429 29.323425
156.62465 107.06358 29.352669
156.18549 107.85068 29.362768
136.43413 100.88351 29.49695
130.3539 104.87214 29.497658
130.05003 105.08545 29.439381
143.16386 108.22067 29.420921
144.68053 108.8825 29.483633
152.68677 108.81344 29.486801
153.71556 109.53447 29.496857
142.18993 98.756905 29.570732
137.41301 103.4543 29.569611
136.72549 107.22131 29.501904
131.68167 107.97598 29.548239
131.50285 108.14326 29.502068
135.39139 103.93211 29.681707
127.33876 105.87094 29.636431
137.95557 107.3831 29.620354
137.31558 102.94533 29.761951
146.90247 102.93803 29.741215
137.2045 104.00173 29.775446
135.54871 104.78313 29.741617
146.7692 107.02893 29.753716
128.67955 108.66035 29.795563
139.91217 99.064873 29.839359
152.60652 105.51535 29.824532
129.65109 107.20375 29.809496
138.11159 107.79987 29.804844
145.36847 108.6322 29.828075
142.26668 109.4388 29.849077
147.19244 101.48882 29.90674
154.2386 105.24559 29.954453
129.8046 105.93484 29.993252
154.80182 106.11081 29.911537
137.59996 107.13223 29.95347
130.79057 108.98343 29.967661
140.09686 109.20351 29.952845
139.65196 98.997154 30.058002
146.15012 100.17902 30.01181
136.72395 101.6109 30.083134
137.22153 102.22449 30.012041
147.26509 105.03585 30.055706
132.45317 106.38895 30.023502
154.77341 106.96509 30.081322
155.28477 107.00721 30.053745
151.91527 108.02863 30.053698
139.23547 108.91836 30.069685
130.17612 109.12726 30.016327
143.25688 99.504433 30.170433
145.98959 100.737 30.106068
129.43155 105.01792 30.12822
147.54428 105.43828 30.111336
146.75751 106.65729 30.12377
143.81371 108.01784 30.103512
154.88449 109.04636 30.191399
143.25285 109.49885 30.138504
142.59583 109.5265 30.120676
137.06152 104.08749 30.210709
154.19908 105.2656 30.245747
155.99908 107.18846 30.269604
141.91913 107.94007 30.215015
152.31474 108.97133 30.259428
145.16425 109.08344 30.279209
154.90742 109.0294 30.232006
139.98251 109.22217 30.237448
140.06009 99.796951 30.392946
137.27875 101.15063 30.38813
146.13341 101.72256 30.393194
147.33209 104.43414 30.341106
154.19043 105.28433 30.366535
132.42178 106.16735 30.312017
145.07809 107.35406 30.376793
145.43747 108.9381 30.354954
139.67886 109.28097 30.393852
154.13116 109.56013 30.308323
143.15851 99.809219 30.41947
129.5213 105.03725 30.422167
155.55174 108.0037 30.447895
140.07405 100.0921 30.597319
143.05919 100.00664 30.548664
139.54263 100.16052 30.580723
137.15118 102.10001 30.534832
136.66177 105.12059 30.580265
137.24246 106.52963 30.589403
138.34755 107.06166 30.545088
142.34474 107.54726 30.583828
144.88434 109.37943 30.586824
144.92311 100.88454 30.609497
138.31039 101.02738 30.669292
138.0137 104.812 30.696732
131.41685 104.91994 30.657772
136.78456 105.36797 30.602131
137.20123 106.63923 30.65547
138.77748 107.05583 30.621536
140.29138 107.22866 30.666798
141.25189 107.27226 30.65942
151.89842 108.68427 30.692375
138.95789 103.94093 30.77593
153.62099 105.10146 30.798887
155.48755 106.30934 30.777515
139.93956 106.44102 30.760601
142.92233 106.74863 30.774412
143.96442 106.73333 30.769258
143.69267 107.0529 30.711069
132.71274 108.07983 30.79698
139.23189 99.017776 30.832592
139.61433 105.91389 30.815897
138.75339 99.253868 30.948799
140.48245 102.7326 30.93895
153.60297 105.12364 30.960674
145.39722 99.017708 31.032032
143.90042 102.80063 31.055405
143.75204 102.96683 31.064667
144.68279 109.45855 31.010975
140.5193 109.76554 31.009039
142.30528 109.8653 31.008303
152.49634 105.2554 31.159943
127.96041 106.4845 31.144157
151.21234 107.23308 31.167278
140.76105 109.82864 31.166798
142.33838 109.90295 31.120037
130.61642 104.96023 31.249065
151.33987 108.22577 31.204887
155.19623 108.27091 31.208342
129.49446 108.94147 31.279669
152.2001 105.39151 31.337854
154.63242 109.04492 31.39843
152.09888 109.34712 31.305185
155.06802 106.30536 31.429056
132.96112 106.48504 31.467489
155.15382 106.89935 31.481775
152.25893 105.28364 31.590569
132.93217 106.37471 31.568855
133.2991 107.06573 31.523169
139.20779 109.32945 31.58522
152.60561 105.22065 31.664825
151.48849 105.82878 31.666262
155.02124 108.3468 31.687473
152.53105 109.74098 31.630016
146.55331 100.12985 31.724052
154.94493 106.27217 31.725142
129.28688 108.81007 31.722361
147.37151 103.10727 31.868
133.44675 107.09476 31.940998
142.09471 98.673912 32.069843
147.37115 104.01936 32.078758
147.43723 102.00209 32.156364
147.44936 104.26025 32.189354
132.88351 105.96033 32.14027
150.66476 107.10598 32.103191
154.98428 107.44408 32.157623
138.42067 108.89407 32.167622
153.94141 109.4026 32.109009
143.0052 98.712662 32.23983
143.91835 110.02974 32.242813
147.30907 102.3527 32.361778
153.22012 105.21529 32.391289
133.81686 108.17256 32.301437
136.6304 102.96309 32.466381
150.92696 106.02262 32.427898
150.39046 106.80508 32.439636
150.80051 108.56046 32.46727
147.6414 106.48132 32.555847
137.72231 108.66998 32.577671
154.11087 105.68629 32.696751
154.69215 106.99109 32.690529
139.63429 98.42041 32.781555
143.83719 98.704071 32.734997
147.66931 105.36812 32.746475
133.59203 106.88058 32.777283
154.6449 108.51454 32.712101
146.05164 109.16084 32.751617
132.74918 109.25996 32.839565
146.13721 98.96077 32.990295
136.32684 105.63664 32.968113
139.74582 110.24593 32.903656
136.31691 105.09293 33.09396
153.78534 105.59772 33.027641
150.26703 106.5267 33.067375
141.38025 110.5284 33.000317
136.86771 101.61455 33.125099
154.19824 105.92914 33.153702
153.32874 109.84166 33.162506
141.35031 110.58365 33.101612
143.51967 110.53589 33.112759
144.54507 98.686462 33.235695
137.70764 99.47113 33.282345
136.58138 102.9325 33.229694
129.7061 105.5868 33.260464
138.50159 109.84438 33.265858
131.86305 104.92941 33.357712
150.71884 109.42926 33.372803
150.98358 109.58011 33.362236
152.45667 110.27276 33.378658
145.1324 110.4534 33.318268
147.91954 105.93155 33.44698
147.40413 108.31924 33.449661
141.97504 110.6244 33.493412
132.85338 104.93952 33.595833
147.95319 107.57888 33.574963
145.84949 98.716835 33.673393
151.51874 105.34799 33.697514
130.86081 109.42377 33.617905
134.81998 107.98796 33.771767
152.10014 110.35241 33.794434
151.72202 105.28287 33.828384
149.76015 107.28799 33.868267
148.01468 107.74722 33.807373
145.75735 110.37994 33.839157
134.38577 106.08475 33.910767
135.04147 106.58012 33.955009
150.14183 108.60225 33.900063
147.20642 108.99115 33.963692
153.17824 109.84901 33.993195
129.62834 106.68456 34.081196
149.89612 106.65982 34.093277
134.78294 107.90442 34.040531
129.93929 108.56407 34.086716
152.67586 110.13301 34.048096
145.86864 98.566269 34.140549
137.22325 99.656418 34.102734
147.14984 100.39592 34.151531
149.77852 107.78745 34.113277
133.08904 104.9733 34.254105
150.15761 109.25382 34.257904
132.8596 109.59156 34.21228
132.37888 109.76889 34.288658
138.24785 98.493179 34.380814
138.58115 98.419235 34.318142
145.70367 98.43045 34.38105
130.85562 104.9938 34.345592
152.94402 105.4579 34.356152
133.52525 105.77158 34.328175
129.55719 107.10657 34.335629
149.49866 108.24736 34.331413
153.56058 109.35505 34.325039
132.94736 104.93259 34.458328
150.31876 105.90063 34.463509
153.82317 106.62029 34.473305
149.51961 106.73384 34.483383
154.03036 108.65594 34.49585
136.83878 109.40363 34.46299
152.39653 110.14368 34.477409
132.81175 110.27367 34.443394
132.97571 105.06422 34.576664
133.49252 105.64784 34.589821
135.94064 106.79698 34.566025
134.61505 106.06939 34.646202
134.18748 109.63182 34.668156
133.37453 105.4905 34.786018
130.40775 105.63617 34.707142
150.41553 105.74638 34.771957
153.72592 109.15238 34.746864
150.18567 109.71863 34.747814
149.86682 109.9212 34.797234
130.88487 110.01494 34.782173
151.69681 110.24718 34.716537
140.33351 98.286247 34.84832
133.71927 105.19585 34.828232
134.37059 105.72306 34.829609
150.29257 105.80843 34.868141
135.31078 107.45064 34.849747
135.40118 108.63721 34.863197
140.72426 98.267799 34.949749
141.14815 98.238174 34.930084
133.41194 105.17393 34.916416
152.60732 105.41272 34.949398
149.8334 106.1714 34.901779
129.81969 107.3763 34.95422
130.13634 108.59933 34.93708
130.79192 109.21937 34.922211
152.78647 109.98074 34.949627
150.6355 110.09118 34.932922
150.08949 110.14277 34.932693
135.32379 106.02399 35.066521
148.89752 106.7337 35.031136
134.66399 108.81569 35.097672
152.05878 105.1988 35.106285
135.29308 106.9703 35.173599
148.99066 109.43164 35.104321
151.39131 110.18225 35.128284
138.72736 98.423462 35.260906
130.46886 105.82948 35.25705
154.62494 107.11404 35.222687
154.6985 107.36121 35.285755
135.41963 108.26176 35.296577
153.78625 108.34324 35.28278
136.46983 109.7739 35.297577
143.11961 111.43966 35.228085
140.56075 98.307365 35.337978
148.05524 107.83763 35.327148
135.64792 108.24338 35.363392
134.69258 109.18874 35.350807
135.22441 109.1228 35.315155
148.66853 109.31551 35.341797
150.0394 109.85133 35.307098
152.66531 105.10427 35.48864
152.91309 105.69345 35.434174
149.1898 106.27148 35.49202
153.44089 106.51894 35.428795
130.02213 106.60767 35.403141
154.0575 108.3482 35.436691
131.6265 109.66129 35.464561
144.71407 111.74182 35.471718
136.69849 101.85107 35.568913
136.34654 103.41774 35.57259
147.96025 108.22298 35.534752
131.04413 109.34851 35.508938
136.13512 109.36336 35.502388
150.18907 109.82385 35.573605
136.84599 101.19 35.613369
133.65877 105.3727 35.692215
150.07211 105.90373 35.680393
135.61613 106.00391 35.633629
129.81038 107.27449 35.669884
133.90872 109.55885 35.604355
140.06674 112.19569 35.666557
145.47752 98.104141 35.78331
153.104 109.46404 35.759514
152.29004 110.07304 35.776398
136.98935 100.52847 35.85384
134.05106 105.21328 35.818413
153.13599 105.65536 35.818016
148.5522 105.87471 35.865452
153.48917 106.25573 35.895744
133.19934 109.67319 35.86528
131.29967 110.08228 35.814209
137.06454 100.18327 35.961121
150.23767 105.2294 35.908493
129.82617 107.4931 35.969074
131.21951 109.13598 35.916683
151.94398 110.08411 35.907501
147.61975 102.05164 36.064251
132.48627 105.06027 36.050964
152.75339 105.75522 36.067654
135.28584 107.88506 36.00536
153.1189 109.35778 36.01577
136.28752 110.48336 36.099533
147.2157 100.36196 36.179169
148.00044 103.61701 36.173565
148.57524 105.75232 36.184753
130.56801 107.76981 36.170689
153.73857 107.991 36.168346
153.80658 107.91441 36.122417
153.87527 108.62464 36.139885
151.63487 110.03665 36.165047
143.55157 98.283974 36.244617
150.12401 105.14807 36.217812
130.90793 105.73126 36.233448
131.26567 109.95499 36.272446
152.15604 105.53271 36.327007
147.64456 106.50436 36.378956
153.63509 107.76453 36.379299
147.28532 108.54389 36.398949
136.52245 108.62821 36.326115
145.20355 98.748138 36.47184
136.19067 103.46295 36.483616
136.54706 106.0843 36.446308
144.36911 112.2054 36.459885
144.30807 98.68203 36.5373
150.08487 104.98632 36.548225
130.88676 107.89079 36.537434
147.13667 108.49509 36.540302
148.23872 109.60823 36.532028
148.46181 109.68881 36.532246
132.84535 110.6501 36.550045
136.10837 103.65039 36.605293
151.22223 105.01241 36.615196
137.53651 107.20163 36.693123
130.71872 108.73808 36.665474
142.83649 112.11932 36.62785
146.83278 99.830742 36.793045
135.62939 105.05761 36.711884
137.87219 112.21446 36.752819
140.40607 99.014755 36.819485
134.09486 104.60185 36.898766
153.70001 106.04976 36.816235
137.4425 107.70839 36.846626
137.28104 108.34596 36.873402
131.1393 109.66753 36.802547
138.04503 99.410797 36.991131
131.53922 105.05619 36.970268
136.98439 105.78101 36.999554
153.98473 107.68058 36.942383
135.28072 109.31913 36.991501
142.02791 99.365494 37.069462
136.07857 103.38628 37.099686
135.19086 106.15527 37.073982
145.33846 112.50506 37.006828
130.97336 109.11932 37.174385
130.74341 108.25873 37.227921
136.3333 109.72456 37.221352
152.28781 110.24889 37.261955
134.59267 104.53981 37.379143
151.05568 105.08046 37.317677
151.10271 105.087 37.358871
137.64989 105.84248 37.377533
143.44481 112.54309 37.327839
135.90331 103.66754 37.462879
146.25171 106.2891 37.490658
137.01186 112.18284 37.493839
144.77156 100.24041 37.572327
135.85831 110.54163 37.53373
146.5132 112.51877 37.518806
147.1487 112.50258 37.505352
149.80405 108.21965 37.607494
135.30699 110.43442 37.69381
151.77348 110.55788 37.698608
138.10135 112.97099 37.600418
145.72678 100.44322 37.749912
132.41609 110.33894 37.757736
132.52963 110.381 37.778645
135.51981 110.87903 37.721455
136.39583 111.95291 37.769367
146.09167 112.50537 37.742107
143.03728 100.35626 37.80518
132.81744 110.48611 37.876755
134.33049 104.46992 37.955696
153.49159 107.88495 37.94173
151.18341 105.02315 38.040359
130.74258 107.43661 38.078995
145.80655 108.89832 38.064266
134.13309 110.99917 38.046371
139.73526 113.08802 38.122414
146.17056 105.5253 38.226822
135.06921 105.95923 38.252136
131.35039 109.22044 38.288551
148.18497 104.47751 38.334103
138.08208 105.60713 38.334496
149.23315 105.74717 38.383739
149.7079 107.25409 38.392391
145.50368 107.3667 38.311714
138.71541 107.83437 38.458191
142.42958 101.31609 38.531059
145.90445 101.35394 38.516251
137.32268 102.06949 38.510929
145.55632 112.58899 38.538742
147.21652 104.36292 38.622196
133.2897 104.43944 38.676662
153.13704 107.53053 38.649117
136.09358 111.07383 38.602715
136.59833 104.1009 38.775616
134.58282 108.02208 38.739605
133.6353 104.29047 38.945499
149.68274 108.56705 38.933411
148.89813 111.66745 38.959991
152.90494 107.18404 39.050125
138.49445 108.31602 39.003616
135.33595 111.19568 39.031528
146.45499 102.47012 39.169163
136.95195 104.23608 39.174477
145.73257 108.85526 39.146351
145.54755 112.62561 39.10656
138.15463 106.26986 39.277065
131.31779 106.48403 39.224972
146.21606 110.68729 39.269989
137.22668 111.02869 39.284203
146.71143 102.92461 39.376495
147.15649 103.23602 39.35482
152.75233 108.10551 39.358521
138.01181 110.39326 39.377327
146.41197 110.88525 39.3358
146.15105 102.56662 39.431046
149.41722 105.52335 39.43161
131.73643 109.08522 39.434586
138.74318 112.9669 39.415459
136.96643 104.46223 39.569473
140.02594 102.69414 39.665771
136.20934 103.87844 39.641857
138.18974 102.85584 39.743858
135.01201 110.19774 39.708229
141.97853 102.80191 39.823139
135.54585 111.34384 39.852276
148.83221 111.38023 39.828499
139.89752 103.02866 39.932728
147.47043 104.23566 39.997234
132.65962 105.21214 39.944328
135.01845 109.76906 39.934998
137.53664 105.36839 40.009304
137.74664 106.30036 40.034138
137.56465 106.93822 40.178902
140.28975 103.36977 40.249718
147.17999 104.3651 40.287746
137.33458 106.53831 40.277145
146.95917 108.14527 40.288528
141.03912 108.2663 40.261295
151.51611 109.84584 40.274784
142.52252 107.72935 40.350784
141.04449 107.80424 40.323162
135.23126 109.81754 40.359726
133.578 110.40338 40.380692
143.38965 103.36424 40.409908
142.44992 103.40292 40.444752
144.22697 103.53395 40.48753
135.03264 106.85612 40.473579
142.23372 107.22295 40.478699
141.0744 107.34497 40.43343
152.11676 108.21416 40.466164
147.17842 108.3566 40.413078
135.69469 104.45432 40.529266
148.40234 105.563 40.686272
147.56856 108.01028 40.642838
151.64636 109.353 40.60957
141.43761 109.83894 40.657547
141.93364 109.86444 40.676903
142.15305 109.89046 40.691452
140.13356 112.78613 40.641724
139.63873 103.91314 40.769314
147.78372 106.58899 40.783409
139.02275 108.52726 40.743198
135.13817 108.63625 40.751331
136.48674 109.32819 40.700466
147.83366 109.50725 40.779446
141.53806 110.1116 40.770706
147.17458 111.89301 40.701065
141.28612 103.87753 40.850822
135.42938 105.22461 40.832363
135.91032 105.66791 40.83569
142.9151 106.41862 40.817745
140.68768 110.27212 40.806557
140.81976 110.337 40.837143
141.7099 110.35549 40.874702
142.79871 112.44977 40.823273
139.15643 112.62109 40.855766
148.14435 106.88541 40.98885
151.53049 107.24546 40.953022
145.65579 108.76739 40.969967
135.91905 110.62196 40.980568
147.95364 111.11826 40.990631
138.76736 112.38814 40.960434
142.28535 104.4263 41.042458
146.07083 104.51433 41.034767
137.48601 105.05143 41.008137
132.78763 107.77427 41.014114
148.32941 108.66533 41.063759
133.9463 110.3034 41.003334
145.38162 110.33714 41.070366
149.07852 110.78219 41.091888
141.70374 110.84496 41.072479
137.8992 111.98746 41.035984
148.4097 106.20809 41.150101
140.10437 106.69203 41.155853
148.49271 108.72337 41.146687
138.07404 109.76683 41.166801
136.22087 110.6348 41.150341
140.78754 112.41125 41.164413
140.35284 104.39089 41.246193
138.95456 104.4988 41.208031
138.33435 105.13342 41.245186
143.15475 105.51727 41.298843
139.22722 107.73225 41.288635
148.74532 107.76776 41.273048
146.83598 111.28856 41.281162
144.10397 104.61826 41.385532
141.01483 105.56931 41.362602
137.01773 106.37365 41.354889
148.73062 108.16679 41.314346
133.95239 109.6013 41.398983
134.55116 109.80519 41.317955
147.00784 105.91069 41.47007
149.62213 106.94 41.421722
134.11861 107.27652 41.456997
149.7861 107.39085 41.489937
139.23128 107.65255 41.40329
148.70726 108.03593 41.406113
134.57964 107.43899 41.500702
149.99748 107.66927 41.539238
143.64429 111.25059 41.555325
138.76266 111.77306 41.507755
137.87083 109.63544 41.626587
144.42612 110.96317 41.649132
141.9053 105.74257 41.719807
144.10168 106.03615 41.792713
144.77956 106.11469 41.746025
139.93724 106.59858 41.733978
146.29565 110.8318 41.743549
143.71013 111.3336 41.799576
