# .PCD v0.7 - Point Cloud Data file format
VERSION 0.7
FIELDS x y z
SIZE 4 4 4
TYPE F F F
COUNT 1 1 1
WIDTH 1580
HEIGHT 1
VIEWPOINT 0 0 0 1 0 0 0
POINTS 1580
DATA ascii
1.4056475 11.389328 27.53277
5.7078838 7.3579755 27.604511
0.55907249 11.398225 27.742813
-1.8391794 5.9834995 27.865023
-3.1917415 6.4550295 27.916641
5.6791129 7.3149452 27.944405
6.1826334 8.247838 27.93557
-2.2247698 11.26683 28.073505
3.2540057 11.323795 28.029381
0.41530371 5.865386 28.291271
3.7410226 6.1252646 28.233673
15.135822 7.9593339 28.295588
5.7098098 9.9840317 28.210854
-0.81866902 11.375731 28.272835
2.4685872 5.9398832 28.39661
6.2552986 8.4958963 28.346487
1.1998599 5.8761444 28.557789
4.7597756 10.748196 28.535664
3.1575847 5.9946494 28.647718
-2.2690434 6.064024 28.607645
1.9362042 11.381075 28.655109
0.32835141 5.8585815 28.74744
5.2411127 6.9168367 28.796951
-1.8710498 5.9775686 28.943335
-2.6532753 11.081635 28.923664
5.5050693 7.1155634 29.176899
5.6587739 10.024391 29.138277
-0.37844664 5.9037814 29.313717
3.7404051 6.0979991 29.327065
3.9141939 6.1867361 29.344952
-4.8525925 8.795557 29.351688
-1.4533315 11.343771 29.303638
-13.213989 8.7569351 29.491924
-13.566586 7.4752517 29.573515
5.8999553 7.6152377 29.599596
-13.240549 7.77917 29.577805
4.2058601 11.012556 29.544783
6.0366025 9.5383368 29.618538
-3.717236 10.491117 29.726856
4.4117126 10.923589 29.722837
-1.8017025 11.326712 29.751291
3.0831206 5.974997 29.856159
5.8945184 7.6078453 29.898771
14.643396 9.3343477 29.84024
-4.7317934 9.389328 29.995605
4.8111587 10.725126 29.920433
3.9985437 6.214149 30.096443
15.014606 8.4544497 30.071533
4.4818368 6.4226327 30.128904
4.6346226 6.4844704 30.165985
-3.7605658 6.8523874 30.158592
14.660457 8.4326305 30.196129
-0.230351 11.386225 30.15752
1.7601196 5.9032454 30.221319
3.05024 5.9731178 30.22628
-1.8049396 11.326553 30.221001
-0.89040619 11.371337 30.264839
-4.9018283 8.6497984 30.432856
4.0114365 6.2146993 30.51383
-13.285711 7.4826169 30.550484
-12.901228 9.404211 30.532375
-1.0118968 11.365387 30.503876
-13.017122 6.1891203 30.629604
-2.3782442 6.1112199 30.684103
-3.3859532 10.734302 30.736168
-2.8901138 6.3324442 30.859535
-3.7580934 6.8373671 30.864845
-4.5179338 7.6298218 30.858284
14.828264 9.3491812 30.850878
-3.5048332 10.647036 30.807022
5.0775566 6.7967815 30.998199
-4.3963885 7.4400835 30.930052
5.9343309 9.6496992 30.999508
0.016277343 11.390061 30.975475
14.528498 6.5374584 31.041212
-3.6623335 6.780283 31.090126
-1.762507 11.328631 31.047743
1.6990919 11.384764 31.013081
2.6212518 11.35478 31.062531
1.9120661 5.9218192 31.123699
-1.4790583 6.0338173 31.123699
-1.1133502 6.0358758 31.123699
3.7295156 6.2681646 31.123697
-2.9787405 6.4577699 31.123699
5.3086176 6.5258427 31.178749
-3.4230611 6.7260685 31.123699
0.74388897 6.7026768 31.123699
1.0099192 6.7351809 31.123699
2.755579 6.992384 31.123699
-0.86132419 7.0713315 31.123699
3.817601 7.0666552 31.123699
-4.0507474 7.1383786 31.123699
-3.1754394 7.3519092 31.123699
3.1219821 7.3157239 31.123699
-2.1041386 7.4714603 31.123699
-2.8295598 7.5418396 31.123699
1.1564021 7.5644727 31.123699
-3.7390668 7.6355877 31.123701
-2.0367179 7.6447082 31.123699
-0.32748494 7.9076324 31.123699
4.7671967 7.9574976 31.123699
2.3188272 8.0112886 31.123699
3.3701668 8.0643177 31.123699
-3.7136345 8.1619072 31.123699
-3.6842041 8.3986263 31.123699
-0.10001245 8.3461809 31.123699
0.48441157 8.5377598 31.123697
-1.0341673 8.6799793 31.123699
-0.43058527 8.6493301 31.123699
-2.4275947 8.8073931 31.123699
-4.2200308 9.2005196 31.123699
-0.12600839 9.2438602 31.123699
3.3964672 9.296751 31.123699
-1.9054163 9.3736916 31.123699
2.8444586 9.4310484 31.123699
3.9225197 9.685214 31.123697
5.1326885 9.6422396 31.123699
5.2948017 9.6670551 31.123699
-3.8486965 9.8178596 31.123699
3.168591 10.178905 31.123699
2.9841595 10.655354 31.123699
4.6643376 10.62263 31.123699
3.4360411 10.797464 31.123699
-0.97246242 11.092629 31.123699
-0.44133478 11.072788 31.123699
2.6163568 11.045046 31.123699
4.2192044 11.010342 31.123699
-0.53238261 11.20712 31.123699
-1.4217696 11.359365 31.123699
-0.43570521 11.473638 31.123699
3.1460032 11.543751 31.123697
-2.1867366 11.647824 31.123699
1.3316525 11.774067 31.123699
-3.9026625 10.767462 31.247849
-1.3829563 5.4550428 31.3631
14.066526 6.6099644 31.324078
-1.5894663 11.805637 31.300865
1.8850536 12.02039 31.312168
1.8093777 5.0531459 31.427885
2.2526522 5.2227879 31.566393
-0.67913032 5.3074088 31.554264
2.8367057 5.4610968 31.573862
4.260694 11.383469 31.529755
0.88781762 4.9822721 31.607414
-2.5955822 5.8211946 31.66008
-4.9700155 7.7205839 31.697653
6.5590172 8.3448057 31.639627
14.09853 8.7049551 31.69384
-0.28498441 5.2770963 31.75115
-13.036986 8.4153862 31.744673
5.5955687 10.566368 31.702995
-3.874357 10.789008 31.756794
2.1760547 11.998014 31.701981
0.29739892 12.078341 31.746353
1.0602269 4.9955316 31.832035
-0.6258648 5.0723743 31.82233
4.9457102 6.249567 31.823627
3.0931754 5.5231533 31.984529
5.284462 6.5074539 31.989523
-1.3143495 11.872212 31.97447
0.60818583 12.102236 31.939022
-0.090636835 5.2621498 32.083836
-12.663085 7.5881262 32.056183
-12.625451 8.5461054 32.052002
13.759165 8.2714291 32.14674
-12.82823 8.871254 32.164448
6.4763889 9.3324604 32.181087
5.073606 6.7814674 32.208401
4.0679893 6.9347353 32.208401
1.2514119 7.0450487 32.208401
0.27991307 7.7179713 32.208401
-5.3180513 7.9748507 32.280064
5.4939566 8.2750149 32.208401
5.0273557 8.8837662 32.208401
1.1813227 8.9794827 32.208401
3.9917138 8.9954214 32.208401
5.1331859 8.9447231 32.208401
-0.6065495 9.2099438 32.208401
3.7387323 9.3248005 32.208401
6.5506334 9.3682814 32.208401
3.6079752 9.4689064 32.208401
-0.91500288 9.7621918 32.208401
5.9516315 9.7180347 32.208401
-5.0486975 10.044874 32.208401
2.1371803 10.166478 32.208401
-0.88791645 11.165855 32.208401
-2.325604 11.354542 32.208401
-0.48014331 12.15022 32.208401
-0.056747157 4.9321651 32.317341
2.0101564 5.5494981 32.380089
4.5344648 6.066823 32.3559
-2.8659213 6.1635237 32.355896
-4.52807 7.3504906 32.3559
6.2915235 7.8282018 32.3559
-5.0890713 8.2674761 32.3559
6.3097811 8.3816891 32.385422
-11.981754 8.5375919 32.360035
14.616518 9.431798 32.365108
-5.3376689 9.8825674 32.378757
-3.5975764 10.866146 32.3559
-2.2509413 11.643918 32.34586
1.341961 5.4981074 32.497959
14.846503 8.7112904 32.436386
3.9358387 11.255951 32.412197
4.1718664 11.860089 32.490021
-12.340101 8.2406273 32.593868
14.427885 8.4297371 32.551144
6.9055514 8.8227062 32.51321
0.48184356 11.842913 32.528042
-4.879283 8.9367971 32.67173
6.0935764 9.5873146 32.777153
5.8107944 9.9861298 32.789768
5.7314944 10.09797 32.704918
-12.488367 7.7162247 32.8218
6.288188 9.0247612 32.814404
-0.091125011 5.5117893 32.997356
-13.120224 8.9762268 32.946449
-0.26193514 11.785694 32.943905
0.78013098 12.414256 32.900131
1.9976053 5.5485325 33.005714
-4.5994849 10.862343 33.096039
0.70610589 4.8827629 33.162266
-3.4474103 6.5105224 33.137302
13.975166 7.3527842 33.173214
-4.5040717 7.4966002 33.128712
-0.065048873 12.366755 33.181461
6.3082829 6.9913778 33.277687
6.8345284 8.5320148 33.233055
6.1068883 6.5935645 33.476986
-1.7907052 12.120613 33.452923
-4.7626066 7.8612008 33.548912
6.5244112 10.312819 33.525017
-4.5791726 7.6025114 33.673679
14.473885 8.9819832 33.605183
6.3658867 8.6306372 33.70929
13.258576 8.7048254 33.757092
1.6644919 4.9608564 33.816643
-3.4037397 11.593076 33.826355
1.5224956 11.798631 33.874546
-1.7463026 12.133493 33.853615
-2.4490411 5.3524299 33.988419
2.0568395 5.5530882 33.93578
-2.662354 6.1243 33.921612
-2.2871711 5.9561315 34.135452
6.7695179 9.815815 34.116661
-2.7164507 11.162107 34.16885
-1.5101421 5.9938483 34.204102
-0.98973644 6.0137277 34.204102
-0.58537859 6.0823975 34.204102
2.1058798 6.046299 34.204102
2.6988158 6.2105999 34.204102
-2.0738225 6.440424 34.204102
-1.697991 6.4641762 34.204102
-1.2551008 6.9484892 34.204102
1.2228593 6.9176731 34.204102
4.4459519 7.3081274 34.204102
-10.279493 7.4152346 34.286816
-3.6292849 7.5059757 34.204102
-1.0247853 7.5890632 34.204102
5.1204414 7.6361122 34.204102
3.8963366 8.2897997 34.204102
3.9386265 8.2548141 34.204102
5.7465935 8.2713766 34.204102
5.1056738 8.4956779 34.204102
1.1403216 8.6086426 34.204102
2.5636711 8.7082558 34.204102
6.1440668 8.8058538 34.204102
0.45792502 9.5536871 34.204102
2.1563795 9.6235533 34.204102
2.7280951 9.7737684 34.204102
1.9697556 9.8900547 34.204102
5.8254685 9.8420982 34.204102
4.8804579 10.073061 34.204102
1.4992125 10.540812 34.204102
1.3929673 10.750542 34.204102
0.43792403 11.245238 34.204102
3.1795592 11.274782 34.204102
1.4367468 11.717093 34.204102
12.655334 7.4646096 34.313435
13.060197 8.0966406 34.421928
-12.648983 8.8652687 34.488598
-10.18722 10.087844 34.458157
-2.5823536 5.2960639 34.551693
-12.529821 7.0663166 34.696491
-2.8209202 11.825288 34.677536
2.9249163 12.201355 34.693695
-10.67604 10.498914 34.702934
3.8763146 11.985866 34.70768
-13.102607 8.4093571 34.849934
-12.942435 8.6086769 34.807022
5.3832731 5.8648725 34.922653
13.047446 6.7607365 34.954613
15.078789 10.252805 34.962875
-3.7564855 11.416984 34.958405
-12.203287 6.7403955 35.049
15.225593 8.4554014 35.00222
-14.107126 9.1810589 35.119156
5.0398932 11.526972 35.129986
3.7461848 12.028522 35.13372
-4.7028813 10.713732 35.22403
-12.2475 10.781734 35.43898
-11.355079 10.782186 35.498779
-0.42124295 12.365892 35.419365
2.8427067 5.1639242 35.569469
-4.3741865 6.4104586 35.678391
1.5588644 12.390142 35.627949
15.60646 8.4354639 36.071434
-1.0125177 12.308612 36.137337
1.5385598 12.399123 36.363213
-12.091364 6.7767096 36.491062
-12.890223 7.060534 36.512161
14.421787 10.481627 36.596752
-12.776261 7.039475 36.752811
15.062074 7.6489801 36.789452
-5.3120346 8.9776487 36.729671
-9.0440044 9.0711956 36.721432
-5.204217 9.9106789 36.750767
-3.0522845 11.743826 36.745731
-11.398266 6.7063179 36.841167
12.397318 6.7733488 37.025162
6.7653103 9.5020075 37.00663
11.950455 10.650461 37.079063
-4.2390804 6.3382902 37.145836
14.333259 7.0837259 37.133457
-13.727013 8.255249 37.154716
10.750387 9.7594376 37.191429
11.400288 10.399173 37.125301
5.0264778 5.5714436 37.212112
-13.385657 7.6477361 37.239689
13.325937 10.779884 37.270035
-9.5345182 7.3368034 37.417503
-5.2655206 8.8479605 37.460342
-2.4621208 5.3670044 37.561817
-2.0620499 5.3591156 37.5439
12.753555 6.7085004 37.524979
14.957417 7.8221703 37.574341
-4.2970066 11.04008 37.566681
-0.50697649 5.030118 37.684021
3.5900154 5.376133 37.657433
11.316844 7.1039829 37.609463
14.341566 10.351036 37.637913
6.3511119 10.428904 37.637764
3.0900278 5.2556152 37.734741
12.996119 6.7363725 37.780148
5.6695127 11.102373 37.798027
4.126884 5.300293 37.931725
10.431306 7.9672227 37.961464
-13.242033 9.7960701 37.998871
6.44804 10.29572 37.959839
-2.5168421 11.958997 37.918053
11.021112 7.2215452 38.187874
-5.2164836 8.68999 38.144657
-1.2682157 5.1732869 38.311172
5.2938061 5.9359961 38.359585
-9.0341339 7.557189 38.305695
3.6862993 12.065102 38.30093
-3.7172601 5.8155503 38.53051
-9.5287189 7.0931549 38.544212
-13.227998 7.9660788 38.552795
-13.183312 9.6456099 38.560566
-4.7997289 7.3396015 38.64064
11.002054 7.1040888 38.783783
-4.6536236 10.689608 38.929802
5.0691357 5.7102561 39.032295
3.9254262 11.986013 39.028053
-1.8126959 12.161012 39.099701
-8.9154472 10.081698 39.17701
12.026381 10.795729 39.179131
13.164279 6.8313961 39.283611
14.287138 7.5116639 39.274513
9.9718332 8.2304249 39.232254
6.5661898 10.035099 39.202259
-12.385805 10.327663 39.2379
13.616194 10.526175 39.212616
12.698702 10.791286 39.289047
-0.87414324 12.36455 39.20179
-3.7446687 11.407621 39.370247
3.8669147 12.010423 39.35778
-9.6232376 6.9550681 39.402256
-8.5014935 9.6344576 39.496376
-10.063108 10.752192 39.47385
14.716441 8.6835871 39.568638
-9.0186329 10.244511 39.519276
11.183189 10.608517 39.574772
5.2205353 5.9151845 39.635067
-2.5568774 11.951306 39.699501
-8.2769623 8.2459507 39.743042
10.072119 7.7001953 39.909748
10.992971 6.9634395 40.020596
-5.1052356 8.4047728 40.094414
12.076597 10.833664 40.06245
12.860174 6.8014174 40.122375
-12.962098 9.0297079 40.191082
6.4721184 10.204291 40.172695
12.988984 10.682876 40.17942
-2.8028171 11.853241 40.158638
4.3333941 11.826358 40.131908
-11.296007 6.805603 40.226364
-12.170776 7.2575183 40.234123
-12.904404 9.2208824 40.271133
-10.59748 10.828721 40.27071
12.852865 10.715355 40.402649
6.5239148 10.052017 40.515671
2.663888 5.1873746 40.686485
3.3836148 5.3697596 40.69833
-12.723343 8.0432777 40.611897
-7.961874 8.660305 40.625759
4.1308751 11.910174 40.674454
13.703348 10.198688 40.700363
-2.2730305 5.4427891 40.840096
10.271513 7.2595716 40.815475
-3.2364149 11.677997 40.87011
9.4638577 9.0950832 40.974846
1.0500802 12.479374 40.953312
-10.560658 6.7371135 41.086784
-11.279442 6.8893056 41.022186
-3.0615411 11.749905 41.131023
-5.0183592 8.0893078 41.226814
-7.8800936 9.2704535 41.206196
-4.7571883 10.495162 41.27195
-3.200937 11.693279 41.232174
1.1588936 12.475994 41.379356
2.3188119 12.388042 41.412239
-0.80741096 5.1003036 41.595722
4.5817766 5.4397602 41.578392
12.906354 6.9852543 41.595207
13.528002 7.3969593 41.595242
-2.1364429 12.107843 41.552299
-0.013642341 5.0373654 41.712708
5.9400783 6.9237218 41.79937
9.5855103 9.9068813 41.874397
9.9605112 10.255636 41.857273
-12.416267 8.1774206 41.991299
-8.234623 10.135696 41.959087
10.56146 10.617659 41.975281
9.2840519 9.5552864 42.199123
6.0144849 10.736488 42.183811
-4.1454935 11.112701 42.114376
-3.06742 5.4305339 42.238575
6.3354435 7.8257122 42.440556
3.5791962 12.119691 42.498688
-1.7394502 5.3488393 42.539543
11.334924 6.7193255 42.514065
-5.0103464 8.356389 42.577553
10.381515 10.609529 42.575569
11.798911 10.794052 42.568993
-3.4337776 5.6933947 42.613762
-0.085740842 5.0592856 42.769325
-9.246542 10.763636 42.844273
5.954896 10.781797 42.812767
-4.2009816 11.056973 42.839306
2.5546324 5.2007341 42.907524
10.194638 6.965961 42.977863
-9.487587 10.798359 42.924831
-1.2293557 12.299555 42.975277
13.431555 7.7267556 43.051727
-1.9854484 5.445313 43.182854
12.564491 7.0218887 43.192238
1.5301993 12.438438 43.152267
4.8304491 5.7119374 43.2537
10.434856 6.8313961 43.261303
2.767992 5.2827549 43.340256
5.3166761 11.251374 43.394688
2.6200585 5.2541389 43.476868
8.8768072 8.0897837 43.483887
-7.2886009 8.2244778 43.446846
-11.683857 9.9351997 43.497326
-1.3498478 5.3098226 43.575954
-3.7571893 11.304614 43.539188
13.52279 9.3680449 43.662716
13.563976 9.0745783 43.716656
-11.876025 8.2201385 44.037689
-4.6058989 10.462315 44.070812
4.8546224 11.512882 44.080318
-10.227386 6.8026237 44.178551
-11.907568 8.9309616 44.196415
-3.246716 11.579211 44.189976
-1.0582193 12.269546 44.17844
-11.850647 9.1731339 44.237503
-0.64556652 12.341332 44.23016
-0.32347044 5.1724019 44.328125
5.5233355 6.6487732 44.311184
-8.6336317 10.739035 44.437225
-7.0686836 8.0203896 44.586372
1.8272913 5.1936951 44.629169
-8.0023947 7.0488043 44.629456
0.54386479 12.40275 44.645988
-1.2332247 12.201242 44.707558
-4.8756227 9.6689377 44.856682
-8.7070456 6.7763309 44.909801
-7.5792093 7.3196764 44.921875
-6.5805058 8.8528233 44.959839
6.3347182 9.6409473 44.984886
-8.4655285 10.089459 44.920654
2.7827184 5.3955536 45.025871
-7.5578165 7.1655774 45.050983
-6.7260804 9.5680676 45.09787
-6.656538 8.0155792 45.169022
6.3671966 9.4461346 45.14481
-8.9244499 10.14595 45.185638
-4.0228806 10.97961 45.190163
-9.0176678 6.831377 45.23946
-4.8187304 9.7570515 45.212181
5.3671575 11.054184 45.294514
-3.0769145 11.581204 45.216549
-9.3118076 7.1971197 45.409271
10.852934 8.5691414 45.401268
8.9533577 10.080997 45.406494
-10.300984 10.55119 45.523338
11.092495 6.7765141 45.683189
-6.6219225 7.6931343 45.608929
11.799237 10.542848 45.639454
-9.2809372 10.798422 45.643616
4.1060658 5.4920273 45.746845
5.502593 6.82409 45.711308
-7.8643551 7.1936259 45.843487
8.5232668 7.279336 45.809097
-10.057253 8.2741919 45.839615
-10.152242 9.7287388 45.894463
8.1744804 10.014712 45.840252
-3.6003449 11.217661 45.829922
7.8250074 7.8810596 45.997086
-10.334192 8.1238422 45.999516
-10.22329 8.4950428 45.935482
10.77777 10.786347 45.920784
1.1964202 12.315975 45.933308
0.22521582 5.2321472 46.051243
-3.964982 6.7942615 46.09227
11.848298 7.0810957 46.02441
5.7746229 7.4096136 46.049385
8.564043 8.5742149 46.088287
6.2138357 9.7001457 46.061676
4.161283 11.684286 46.011642
-4.139101 7.0741019 46.180054
12.17955 8.5015249 46.167179
-8.3592672 7.1126246 46.297798
11.832687 7.1715689 46.296146
7.4066143 8.7122803 46.213863
6.1340976 9.9298496 46.293243
-9.0543566 6.7619667 46.307564
-4.6229782 8.1902637 46.322659
-4.6853285 8.7159767 46.482586
-1.1376173 5.4506626 46.582993
-6.3781953 7.3919883 46.570568
-10.821548 9.6894369 46.591095
9.1643724 9.690732 46.573517
9.2722359 6.7778468 46.63662
12.548402 9.3338194 46.650383
4.6841445 6.0297432 46.769058
9.8419342 7.4856524 46.798931
9.5699778 7.592577 46.712936
-4.6818614 8.8423443 46.708107
5.1505613 6.5868244 46.899837
9.3946838 6.745574 46.895763
11.343641 7.0674133 46.836407
-9.9932604 7.2162552 46.892132
-5.7396712 9.6160116 46.862865
-7.0597053 10.619313 46.864346
1.4960707 12.239882 46.98468
0.53447038 5.2648273 47.005951
-8.617753 7.8113785 47.199272
8.0324535 10.462412 47.16077
10.595062 10.693166 47.140114
-6.7140293 6.9644766 47.27261
-8.2146206 8.1693783 47.248268
-10.344585 8.9040909 47.240112
2.1199253 12.184727 47.204376
0.46864116 12.263375 47.2038
-7.6387229 6.736578 47.375175
-9.5991135 8.0047722 47.356804
-5.3129535 9.388958 47.351719
5.7328501 7.6290579 47.413292
10.230006 8.450448 47.471214
10.381456 9.2086906 47.482052
-5.4783001 7.6963234 47.585972
-9.2847567 9.0245667 47.56179
-9.0624561 9.290617 47.502136
6.0096712 9.8975983 47.63559
-0.06296429 5.3571358 47.73959
-10.112516 7.8339539 47.797451
-9.8124971 10.094949 47.738571
-5.011651 8.1530371 47.87352
-0.78017545 5.4489899 47.955772
4.1333241 11.568232 47.956955
-9.9244671 7.8788433 48.176056
-4.798111 9.0740376 48.128071
9.8341522 10.744129 48.172047
2.6981277 12.008596 48.131012
-8.9700785 10.482574 48.217133
8.0087366 10.694881 48.257004
3.6328588 11.756229 48.203018
4.6834106 6.2602267 48.394516
-7.4317122 6.7088566 48.34256
6.5066786 9.7113037 48.340057
-9.1720943 10.272066 48.438137
-9.5118551 9.8379555 48.684521
-3.7286797 10.887656 48.653748
-1.9742831 11.804773 48.668247
-4.3199902 8.9105015 48.896313
6.8615351 7.1490092 48.988708
-4.0654278 7.550808 48.981663
1.337759 5.4233136 49.090649
8.357049 10.825732 49.124153
5.3806267 7.2858248 49.224522
-4.2979317 8.0985498 49.204697
5.6772895 8.7286158 49.203175
-6.5846062 10.810186 49.273598
5.6233068 8.8387413 49.306034
7.2034435 10.672859 49.551865
6.5715365 7.0951166 49.619873
-9.2504644 9.3652039 49.657707
6.0371342 7.4559879 49.706688
7.1962166 6.811698 49.824322
-8.8838625 7.7400432 49.814861
-3.0068703 11.282105 49.889431
10.720396 8.5246792 49.932579
4.933444 10.95917 49.92569
8.0334034 6.7105832 50.018967
5.509366 10.364004 50.097374
2.1673005 5.5707173 50.140995
-8.4617796 7.481842 50.158951
-4.3123846 8.6339865 50.139755
8.0747976 10.819474 50.118477
6.1702409 10.430509 50.273251
-4.1099091 7.453784 50.35643
5.6181278 7.4839973 50.367645
-5.1208715 10.638581 50.309982
-4.5069551 10.410835 50.41526
3.2593403 5.8751526 50.572857
-6.0632639 10.837221 50.571594
1.6204935 12.042211 50.588928
2.1128895 12.002264 50.533783
1.2944005 5.5110526 50.60368
-7.5876942 7.1900434 50.998062
-3.0852363 8.5899086 51.050167
-2.9737051 8.7395077 51.18853
10.07443 8.7655811 51.139648
5.7495375 7.0427322 51.281395
5.1373549 7.2167783 51.217628
-3.7504389 10.580296 51.283554
9.802681 8.1184406 51.362659
5.2139721 10.161663 51.307831
4.2059317 11.314359 51.379562
-8.2779369 9.0725918 51.44931
3.5289414 11.576362 51.595173
5.7140136 9.4768867 51.689144
0.59536064 5.5434704 51.708527
1.8902973 5.6259465 51.71386
2.6547267 5.7967176 51.726479
-3.7825391 10.469566 51.795441
7.3186173 10.79485 51.78801
3.3814614 11.623445 51.794655
7.9947615 10.638587 51.891724
-1.8701024 5.9462624 51.920902
8.5692396 7.1621547 51.926861
-1.8651406 11.632155 51.982361
4.0402913 8.0968523 52.298103
5.5285001 10.022305 52.200275
5.3818221 10.236448 52.24128
-4.2726283 10.744107 52.312599
4.486536 10.165937 52.577667
3.07131 5.9595814 52.790306
6.6786423 6.7456331 52.877312
-5.6972151 6.8242049 52.819077
4.5109653 7.245275 52.837402
0.35992509 11.963022 52.887077
0.96853304 5.6158199 52.900574
-3.9407086 6.7951422 52.925148
4.9679713 10.571974 52.965923
5.2791419 10.677248 52.90477
-0.11161427 11.337329 52.920052
-7.2651868 9.1295366 53.182587
-1.4097929 5.9298739 53.24847
-6.5551953 10.153249 53.245495
5.4746819 10.764397 53.220436
-5.0333548 6.7719355 53.417732
-3.3807182 7.0402679 53.478809
3.6831672 7.6334629 53.462688
-2.1191707 9.9250088 53.497837
7.0949116 10.645585 53.418564
-1.6345575 11.146373 53.440434
0.41947478 12.904911 53.447731
1.560601 5.6991868 53.630714
6.7224307 6.808816 53.666908
5.2062993 7.6479392 53.657509
-0.34775066 11.877552 53.69873
1.2492646 11.921211 53.602654
-0.47985184 5.736248 53.756493
2.2085376 5.7890549 53.793777
-2.2171595 11.199802 53.74073
3.4349811 7.6753707 53.85046
-0.47355598 9.2639761 53.80714
-2.5412326 10.408994 53.815746
2.2517238 13.180229 53.935791
4.1476684 6.3218212 54.023884
-2.9912736 6.8837614 54.087006
-2.0573745 7.4168277 54.039234
1.5530367 5.7217584 54.104549
3.139462 6.0370684 54.163544
5.6812472 9.3891306 54.153389
5.6456804 10.823607 54.265442
0.63359022 11.917059 54.296696
-3.6971736 6.725441 54.364738
0.42410272 8.7238474 54.359665
-6.1875029 9.913147 54.353794
4.5076184 11.00736 54.306797
-1.8869541 6.0610948 54.400131
3.3302789 6.0624542 54.419346
-4.7137585 6.8329058 54.561974
5.1918869 10.42996 54.522583
2.1989498 5.8281016 54.637562
-2.7821538 10.662249 54.646843
4.2998781 12.148937 54.649479
-4.0931706 9.8566322 54.795868
-2.8180676 11.132996 54.765667
7.8788381 8.4428244 54.824318
-1.2785257 11.662565 54.87925
-4.6930556 6.9065337 54.932022
5.5190635 8.3425159 54.90509
7.8261213 8.5925035 54.970467
4.2577724 10.65572 54.982338
4.3748055 6.5862217 55.092464
-1.9034786 7.403574 55.005371
-3.925962 8.0638657 55.001602
3.3956947 8.9922705 55.055817
-3.5498533 7.2978954 55.178082
0.32719684 8.2384806 55.169102
-0.67120218 8.3819971 55.114582
2.8133836 8.7701931 55.131451
7.7384105 8.8912668 55.143631
7.6996021 8.6248198 55.201443
-1.2973328 8.790885 55.267303
5.3499703 10.22537 55.32935
4.9823637 11.417381 55.343243
1.7094123 14.246401 55.347126
6.5240736 10.407885 55.403957
-2.4497926 9.023037 55.589821
3.0090675 9.2626915 55.554428
-1.3145776 14.033283 55.500126
7.0072656 7.633708 55.633259
4.2507553 9.3359861 55.600861
4.0626011 9.146574 55.711132
-1.0315682 14.232796 55.745197
1.3796413 5.7948375 55.841686
4.1058726 6.3879747 55.845757
-2.3629031 8.8146229 55.885448
6.0110035 10.437048 55.895397
-3.3463433 10.759859 55.891434
-2.0381019 13.911984 55.874603
-0.048580475 5.8096051 55.937767
-4.2278423 7.0380054 55.903778
7.0799847 7.9842262 55.920334
5.148221 10.456515 55.948391
-3.3235612 12.85037 55.942032
-0.050346434 5.8139973 56.021896
-0.0075873435 7.9738936 56.02433
3.6612718 13.831046 56.097157
0.26301062 5.7993321 56.190353
3.7192342 7.6039591 56.111431
7.1183376 8.6494408 56.160381
5.4078274 10.859724 56.304764
1.6222128 14.61718 56.36694
2.7864537 8.1362963 56.447388
5.0403347 7.3987679 56.539352
-4.9702086 8.0442514 56.579613
5.4894547 10.853351 56.510548
6.3437529 8.0122375 56.667641
3.6916521 8.2730818 56.608612
5.5216031 8.3919382 56.607033
5.5955291 8.8528967 56.631927
5.179584 12.584141 56.625011
-1.8991737 8.2638826 56.788799
-2.2397006 9.1072712 56.710732
4.8865366 9.9479599 56.735847
-1.9988933 14.190223 56.718788
4.9776096 7.3166981 56.830738
4.2094707 8.8071537 56.9543
5.5049577 11.849176 56.904625
4.1615057 13.732901 56.997147
-1.8379565 6.2194242 57.075935
0.14920178 7.7417669 57.015656
-3.4421105 8.1276207 57.072716
-2.3656628 11.034326 57.004639
5.4242215 12.350025 57.099472
0.62947094 14.813251 57.028198
-2.9712944 8.9651775 57.10635
5.195683 9.3387976 57.11525
-2.5318274 13.94589 57.110413
2.9786758 6.2880254 57.257507
-3.8029597 9.7483625 57.205269
-3.3982069 9.4718561 57.353004
5.1911387 12.732882 57.314674
4.303 8.7796822 57.569603
-4.1922054 10.405054 57.54496
5.5535145 12.071281 57.540985
-4.1830273 12.117636 57.519157
-1.1491939 14.60705 57.591141
-1.3773572 6.5557241 57.62582
3.3724308 7.1646357 57.683041
3.4005601 7.1567369 57.665367
-2.5733726 9.6157436 57.661644
3.2565591 10.441425 57.637005
5.8397231 6.282074 57.736504
-1.5241117 10.251754 57.793533
5.4457808 12.487289 57.785839
-2.0072992 7.6566277 57.826859
-2.3779645 9.1731863 57.834023
3.3225045 9.8333626 57.813801
1.629348 10.819853 57.851429
4.2214241 13.818624 57.834656
2.1271887 14.741445 57.820469
5.8815598 6.3565321 57.919533
-2.1727951 8.8600016 57.912781
0.88030088 7.8464327 58.0966
0.9025743 8.1827307 58.096603
2.208133 8.3448458 58.0966
1.2428715 8.5489368 58.096596
-1.8157458 9.501894 58.096596
2.6165984 9.5771809 58.050064
3.8008165 9.5695028 58.096596
-3.0174394 9.6966801 58.096596
-1.1689293 9.7464924 58.096596
-0.98417234 9.8085766 58.0966
0.88965237 9.8959742 58.0966
-0.450885 10.233012 58.096596
-0.2293762 10.379757 58.088322
-1.4247949 10.579756 58.096596
-0.74920708 10.579122 58.0966
2.3815215 10.936895 58.0966
0.85826862 11.05183 58.0966
2.1351388 11.197063 58.0966
-2.5125513 11.604654 58.096603
5.2254305 11.845986 58.0966
-2.1039095 13.23717 58.0966
3.5492597 13.728169 58.0966
-0.76218843 9.6151733 58.164459
-0.4018181 9.2080059 58.444778
1.6595228 9.3808374 58.48415
-0.12071805 9.0207357 58.656471
-0.083764613 7.8505764 58.812111
0.64338434 5.4017754 59.042583
0.75721395 6.0238123 59.040295
1.490788 8.7906151 59.074379
-0.089202285 5.4038901 59.245674
0.10246499 6.5391335 59.309742
0.52528119 4.6503139 59.45179
1.5136087 5.0979624 59.502716
-0.55637676 4.7931042 59.829521
2.0043235 5.4064269 59.812386
1.7354882 7.1194735 59.962311
1.3218722 4.3437777 60.035286
-1.0364069 5.7123427 60.088863
-0.18143967 4.2471571 60.160427
-4.0657749 6.978734 60.14864
4.9325151 7.4020901 60.141632
5.1714754 7.477067 60.121635
-0.11598626 8.1817055 60.101051
5.7418694 6.6355267 60.248772
-0.82910895 7.2547426 60.222198
-0.68288934 7.4794369 60.212078
1.3113317 8.0402842 60.207619
0.60708386 3.9116154 60.395283
-3.5184307 5.7406454 60.324699
4.863904 6.3293438 60.397793
5.1228027 8.0494957 60.30748
0.020798687 8.3351955 60.322445
-0.53215408 4.3399558 60.439297
-4.46946 6.8828673 60.476864
-0.3909243 8.1798449 60.401421
-3.5636292 8.2494822 60.432701
0.40167239 8.6646128 60.484074
-0.024777886 8.794323 60.432594
5.336237 6.3762908 60.590721
5.7418699 6.6012988 60.519089
-4.023488 6.7719102 60.569298
-3.8207839 8.3396597 60.589909
-4.2958555 4.6721272 60.683018
-3.3995938 5.0603848 60.661987
5.1583204 5.1165876 60.658958
-3.3893437 5.3601522 60.645756
4.7961898 6.7913322 60.617107
-3.5522652 4.5049372 60.736271
-1.4220837 5.9466887 60.712276
-1.047719 8.0618649 60.789562
0.45278853 9.8347692 60.749638
0.054490685 3.9311709 60.877411
-3.3840899 4.6834612 60.821815
2.1767623 4.7529926 60.822491
5.7418699 6.144649 60.897541
0.39184722 9.9339762 60.85788
-4.3297701 5.0622749 60.97015
4.7961898 5.2298779 60.906815
-4.3297701 8.0193233 60.942867
1.5896144 8.2676802 60.983768
0.46676308 9.3203669 60.969948
-3.3840899 6.2293901 61.020287
-1.4578253 9.2825422 61.092983
-1.2813853 9.3754721 61.067932
-1.7618451 6.7637596 61.149761
4.7961898 6.9868345 61.111271
-3.3840899 7.5656338 61.166576
-0.084462598 8.6093273 61.285507
1.9092005 9.0489283 61.214657
-1.264673 9.3068256 61.250553
0.73240697 9.3297606 61.23259
-3.3840899 5.2011251 61.34819
2.7841341 8.0980396 61.380619
-0.8785888 9.1249647 61.349239
5.7418699 4.706655 61.436909
-4.4431214 6.4823732 61.43486
-1.7162598 7.9309955 61.440655
2.5643473 8.6678123 61.468952
-4.3297701 5.5829735 61.5228
-3.3840899 7.3797665 61.53587
0.73240697 8.1698103 61.58532
-1.9894619 8.8568535 61.542656
2.1118481 4.4201527 61.604774
5.8815598 6.497714 61.628574
3.2340527 7.0482273 61.696404
2.7850821 8.6846113 61.673695
1.0966239 10.167397 61.681496
-3.3840897 5.2259417 61.739922
1.8279188 9.6775217 61.7141
1.9667612 10.105137 61.786739
1.5668424 10.307337 61.781303
-3.3840899 4.7456656 61.848679
3.2388043 7.6532807 61.822533
3.3832541 7.2563267 61.993149
5.7418699 7.3890753 61.920448
2.9017282 8.8789272 61.909962
-0.089742623 7.9756684 62.093323
2.0480525 9.7475414 62.010105
0.66396427 8.0702486 62.141399
-3.7223799 8.4210033 62.222351
-1.9206153 8.895031 62.271259
-1.1604403 4.4285035 62.385578
-2.317822 6.4166083 62.381622
1.9148611 10.065694 62.371288
1.3695004 10.466168 62.323318
0.65484726 10.680698 62.306664
-3.3840899 6.2812076 62.409756
-3.3840899 6.3470716 62.437553
-1.650934 9.7922478 62.463409
0.48997146 10.5222 62.414078
0.30944681 10.859145 62.453224
3.3986049 5.9744091 62.541016
3.445168 6.1477795 62.505882
-3.3840899 7.0862017 62.656689
-2.9282651 8.3591738 62.660034
-3.5737722 8.4336157 62.652359
5.3271031 4.6136737 62.74408
-1.4387062 10.302485 62.724739
5.7418699 4.6463957 62.892174
3.0983498 5.2000685 62.879238
2.7667904 9.7563562 62.882843
1.503576 10.633812 62.893547
0.76783919 3.7198114 62.932846
-1.762085 4.9618497 62.968178
4.7961898 6.084003 62.928452
5.7418699 7.5961447 62.978737
0.87819093 11.173113 62.978508
-3.3840899 4.747014 63.09288
-0.83087277 12.258678 63.077305
2.2584887 12.42117 63.068489
4.7961898 5.4754848 63.170605
-2.2822185 5.6932383 63.185436
-4.3297701 6.3874888 63.12254
4.7961893 7.0436993 63.152771
3.7396419 9.1684389 63.126049
-3.6024179 10.265512 63.185181
2.5284352 10.206366 63.163372
5.0791631 10.358749 63.180138
-2.9518487 10.463541 63.174473
-0.77459955 10.569062 63.157547
4.7074914 10.568533 63.168793
4.5064411 11.409292 63.123299
-2.4554279 11.583654 63.11385
-2.447258 11.719151 63.106518
1.6175448 12.104433 63.136501
-0.54787999 12.927662 63.116974
3.4556098 5.6467524 63.288738
4.7961898 8.2701712 63.251392
-3.0869412 9.8681583 63.206699
2.7512352 10.282732 63.298931
1.8930813 11.066504 63.296509
1.9843544 12.92897 63.206139
-4.3297701 6.1024914 63.382549
5.7418699 6.1326928 63.310696
4.955318 10.911648 63.319595
-1.5261469 11.611525 63.310993
2.5601885 4.5076532 63.459904
5.7418699 5.4535618 63.436729
-3.2278759 9.3638773 63.460407
-0.40599415 11.258071 63.412346
1.0303714 11.200212 63.483032
-1.3839927 11.686229 63.469849
1.7811445 12.974 63.495167
5.7418699 4.7661924 63.572174
-3.0823655 8.8021355 63.585167
4.5111647 9.8197994 63.572201
-2.1786742 10.124058 63.502228
-1.7059114 10.552983 63.540905
1.9236047 10.921368 63.527809
1.0820979 11.458364 63.545753
-1.4209877 11.67448 63.570545
5.7418699 4.9939284 63.662086
3.8411915 6.2266927 63.686817
-4.2912116 8.7643356 63.653782
5.6560855 9.0336533 63.601986
5.4486914 10.045838 63.650463
3.1475344 11.513172 63.657738
-0.53285372 12.082314 63.602207
1.8882833 12.094818 63.681786
4.7961903 6.4180279 63.768772
4.7961898 7.9609189 63.781307
3.913671 6.446713 63.83128
4.0001593 8.1523046 63.822914
2.594171 10.984863 63.81266
-0.88382244 11.01333 63.822945
-1.8090227 12.480473 63.89888
-0.68317986 4.0610776 63.924492
4.7961898 7.6319265 63.908134
3.7733471 9.1020908 63.92466
4.1010981 10.574093 63.937218
-3.4866481 11.047062 63.949306
-1.2782264 11.14769 63.954872
0.69783443 11.540558 63.948322
0.85815966 11.516827 63.972538
2.1730547 12.003603 63.980759
3.8413882 12.115648 63.937241
-1.3803331 12.684213 63.980488
-2.7442389 6.3458271 64.039818
4.5885167 7.827477 64.034744
-2.9115479 8.1185331 64.060028
4.7961898 8.2301474 64.071701
4.0331402 8.3120232 64.043541
-1.9420502 10.292541 64.122391
2.9351285 10.943548 64.114403
3.2006533 11.492258 64.166634
-0.87954456 11.50552 64.170456
0.89877439 11.620991 64.173775
2.7914159 12.691509 64.106453
4.7961898 8.3014784 64.214302
-2.8699589 9.1855049 64.288162
-3.0207741 9.994978 64.217361
4.3133187 11.701084 64.235268
-3.156034 8.7261477 64.343529
4.2766566 8.7363014 64.343002
5.5795178 9.5147734 64.339165
3.5474977 10.040918 64.337875
2.8328798 10.815112 64.34996
4.993742 10.898144 64.341187
0.20629191 11.685747 64.327003
-0.27127963 11.84381 64.352142
2.4125707 12.880268 64.339355
1.0580634 3.8162065 64.465805
4.9355206 7.3367424 64.495468
4.3257236 8.824028 64.451057
-2.8767569 9.8085279 64.428001
2.9919379 10.691565 64.49099
3.8503728 10.914566 64.448166
0.057086572 11.582492 64.473839
-1.6742026 12.571828 64.428223
-3.5327244 8.1730309 64.530281
4.0693631 10.664486 64.556664
-0.18237092 11.742919 64.561531
-1.5117565 4.5213604 64.669083
-3.5936799 8.1100426 64.674248
3.8286891 10.943336 64.614006
0.95404863 11.235435 64.676437
-0.56611449 11.331056 64.620834
4.3325005 7.4828815 64.71962
-4.3297701 7.8687258 64.769356
-3.3080778 9.0643911 64.752373
0.77082819 3.3297837 64.882957
-3.8559515 4.7258592 64.815552
5.4068747 4.7262406 64.822578
4.2550454 9.0698919 64.896561
-1.5217152 10.97407 64.829903
1.8741479 10.934903 64.852135
4.7038617 11.375612 64.806839
2.0742404 11.869568 64.861214
0.15349901 3.7234731 64.926498
-3.3840899 7.6077318 64.969612
-2.5886869 10.524508 64.926155
1.0248208 10.773116 64.94632
0.87522089 3.778183 65.043312
4.1460009 6.642683 65.089844
-4.3297701 7.50986 65.093681
-3.3840899 7.5511565 65.070618
-3.1429987 7.7404184 65.029816
-2.708796 9.8524113 65.027489
-2.5908802 10.595375 65.008499
3.7708616 12.24293 65.098854
4.7961898 6.2273579 65.18425
4.7301974 8.344799 65.1064
3.2191451 10.391601 65.170631
-1.8753524 11.463616 65.100502
-4.3297701 6.2280369 65.266846
-2.9418476 9.5722065 65.264977
5.5717664 9.611433 65.299362
-0.082028776 10.258455 65.246124
-3.8792627 10.416186 65.285675
-0.52490348 12.2562 65.290314
-3.0553708 6.8703547 65.315887
4.7961898 8.0886116 65.373116
4.2306376 9.4559593 65.384941
-3.2410474 9.6426449 65.382622
-1.6700687 10.053108 65.368645
0.41867074 10.054218 65.365074
5.3706541 10.279597 65.385994
3.3693471 11.400734 65.31926
4.26336 11.806545 65.340591
-0.37077865 13.073219 65.331787
-0.6490097 4.1079364 65.426437
4.4205103 8.0203285 65.472481
-4.221128 9.2672367 65.483002
-0.21048701 9.8369913 65.491982
2.519757 11.925741 65.4552
0.99115586 12.485132 65.425537
-3.3840899 4.9231629 65.550728
3.8607454 5.8982301 65.571823
-4.3297701 6.7939777 65.58992
4.8625855 7.4869499 65.52713
4.7031431 7.9038553 65.51963
4.6498899 8.2547388 65.512108
-3.1774662 9.171196 65.525307
4.6024675 9.694149 65.568008
-1.8025732 9.8283672 65.500122
1.7428467 4.0983353 65.619446
4.8237095 8.9343815 65.608177
-2.5667682 9.6445246 65.607658
2.1381066 9.6156425 65.622345
-2.9251671 10.513971 65.605469
-1.6008089 11.702456 65.630882
3.5227816 5.4019446 65.717255
-3.3840899 6.852972 65.757355
5.0379591 7.6940336 65.754074
-3.7475297 8.7382679 65.761734
-3.6438346 9.1318083 65.780243
4.8261242 9.1159077 65.78315
3.6170037 9.4502745 65.721298
-2.7093806 10.904299 65.728561
2.1111555 3.8347728 65.848373
0.84830999 3.9177063 65.822403
0.98283619 3.9461453 65.874557
5.7418699 5.6818256 65.882782
4.6273327 8.3803225 65.803246
-2.5242503 12.134153 65.879059
2.4434128 12.153324 65.82962
-0.11445842 12.553886 65.899536
1.3650752 3.8423469 65.900925
-3.3840899 6.4075966 65.925446
-1.6048763 12.041741 65.995041
-0.30796704 3.8687034 66.083824
4.7961898 5.7962766 66.015709
-4.0507965 8.0734606 66.023796
-3.3877003 8.0995083 66.095108
-3.3786473 8.6361628 66.064842
4.9134035 8.767664 66.037224
-0.31658003 8.859992 66.062607
-1.9514824 8.9644756 66.005478
2.3314204 4.4056149 66.19722
-3.3840899 5.5129128 66.17054
-3.3840899 6.7851763 66.137665
-3.6192441 8.1679459 66.168732
-3.4008222 8.1605482 66.153839
-2.5109334 8.7302017 66.142517
-0.74276221 8.7590971 66.122231
-2.3366315 12.321361 66.174019
0.77222127 4.1278076 66.239227
-1.6855658 8.5299358 66.259666
-2.3027961 12.354792 66.221115
-3.3840899 7.2269759 66.35424
-3.4533701 8.314539 66.385551
4.7961898 8.4997635 66.334702
4.7294307 9.0073032 66.39399
-2.7039566 11.211987 66.356392
3.5724378 11.270226 66.331696
-0.62256241 12.197655 66.375549
4.7961898 6.0077586 66.452866
4.9908204 6.7220311 66.494781
4.6361837 7.8962383 66.433029
-1.8955493 11.520821 66.497009
3.9574771 12.147022 66.472618
4.6661024 8.350379 66.540482
4.9474268 9.1667423 66.540909
4.0968132 10.724573 66.573936
1.8918872 13.122571 66.533905
0.60951805 13.278487 66.50518
-2.2889302 3.875767 66.651207
5.3471146 4.8232331 66.613525
-3.8543844 6.9063959 66.633865
2.584024 12.107582 66.668617
-0.1771276 12.590979 66.642403
-0.58521247 12.894641 66.625977
1.4043202 12.89857 66.625763
-1.0615039 12.968884 66.686951
-0.97761118 12.942733 66.623375
0.0592646 12.953701 66.62278
1.00595 3.9593546 66.704124
3.3376601 3.9255972 66.788101
3.3334384 5.1802759 66.778381
-3.3840899 6.0404754 66.700066
4.6096487 6.9858394 66.760994
-1.6239491 7.6308212 66.785622
1.5664499 9.9431534 66.78582
3.1702499 9.9123354 66.787483
0.90588605 10.081566 66.778328
-0.36940134 10.215925 66.771057
2.6215401 10.304261 66.766266
-2.566009 10.562145 66.752312
-1.6260474 10.630084 66.748634
-2.7795255 10.737696 66.742805
0.65906107 10.756838 66.741776
-0.7649315 11.509396 66.700996
0.74869072 13.282712 66.708389
0.11051821 3.9744961 66.817947
-1.0270447 4.4452381 66.850464
-4.0316458 4.8350115 66.831017
4.9072452 4.8372564 66.872475
-3.9971609 7.7404647 66.843193
-2.2389839 7.8742161 66.897888
-1.424154 7.8581462 66.898758
-3.5843639 7.9862499 66.891823
-2.8358636 7.9929161 66.891464
1.977371 8.0605469 66.887794
-1.518302 8.2332945 66.878441
-0.66789675 8.2690353 66.876503
-0.24814892 8.4400377 66.867241
-3.3840899 8.5840883 66.843925
2.7559526 8.5621901 66.860626
3.0507734 8.6725111 66.854652
0.94649523 8.727623 66.851669
4.3498383 8.8457041 66.845268
1.8879962 9.1278124 66.829987
-2.4276743 9.3084602 66.820206
1.0630232 9.3453674 66.818207
-0.6769067 9.4216614 66.814064
1.1207167 9.6013012 66.804337
2.2617064 9.6467085 66.801872
-0.1568597 12.23997 66.830345
2.9769878 12.717926 66.873459
4.6781359 5.9960585 66.999603
-4.1241546 6.2420125 66.986275
-2.3456862 6.211689 66.987923
0.16326964 6.3504081 66.980408
1.8888848 6.3781796 66.978912
-2.5146623 6.4059949 66.977402
-2.5937722 6.7353859 66.959564
2.7257795 6.7870646 66.956757
3.8162105 6.7971821 66.956207
4.698844 6.9519329 66.947838
5.3872719 7.0722823 66.941315
-0.12440576 7.2910967 66.97773
-3.9476659 7.3285937 66.96447
2.9055429 7.3518338 66.948685
4.999301 7.3175387 66.928032
-3.8933113 7.4522095 66.920738
0.9729805 7.5353575 66.916237
0.49609941 7.793489 66.90226
0.12144077 12.08777 66.918633
-2.1814485 12.425358 66.95549
2.8607178 2.6650834 67.069183
0.74526972 2.8762562 67.005524
-1.7735715 3.9710894 67.069298
2.2223349 4.0988579 67.081657
-1.6551052 4.3731489 67.087471
4.827877 4.7303467 67.068138
1.7313151 4.8620815 67.061005
-1.0455917 4.9738374 67.054955
-0.10493523 5.1567163 67.045052
-1.5171018 5.2356372 67.040779
0.92270774 5.5379519 67.024406
-3.4789257 5.6991472 67.015678
3.3179312 5.6454697 67.018585
-3.836519 5.7225723 67.014412
1.4849906 5.7398872 67.013474
-1.4176413 5.8364344 67.00824
-0.8185395 5.981319 67.000397
-0.76854223 5.9343886 67.002937
2.1645715 7.1818113 67.043869
-3.9107373 8.5215769 67.043388
-3.8012447 9.2928152 67.020813
-2.5466628 12.101226 67.056206
1.1840242 3.010303 67.161308
-2.5225227 3.609086 67.12886
-0.37488377 3.7996559 67.118523
-2.0657814 3.8369782 67.116501
1.2263269 3.9862359 67.108429
-0.44407868 4.0954013 67.102509
5.253643 4.1179919 67.101288
5.3767304 4.8502641 67.112656
-4.3019953 6.9416943 67.128296
5.1147251 7.4351058 67.198311
0.11007752 11.691447 67.148972
0.84631926 13.228321 67.177841
0.34517503 2.5979142 67.229652
-1.605664 3.3348982 67.212395
0.13426149 3.3641562 67.239273
3.8413539 3.3530354 67.280663
-3.3572557 4.8583951 67.262794
3.1796014 6.8343654 67.251434
5.1619964 7.9746675 67.212433
5.1769934 10.569006 67.272812
-1.4462044 2.5596821 67.32914
3.1083245 3.1839426 67.386627
-3.0332422 3.6055229 67.397812
-3.8879881 8.7891693 67.364006
4.9859276 10.89386 67.320374
3.1336186 3.4527416 67.44899
5.1033239 4.0068188 67.444183
1.5705458 4.2908173 67.418854
3.1995347 4.8687067 67.453194
-3.2276802 10.506739 67.409561
1.895339 11.126085 67.478149
3.3117409 11.10951 67.488899
2.8597856 11.892418 67.450027
1.8393164 12.410167 67.449883
-1.3401545 3.1332238 67.553024
0.48702091 3.5336185 67.554848
5.2462983 4.141449 67.576302
2.2084103 4.5361495 67.570297
-1.212311 4.8747559 67.56488
4.6711092 5.9076781 67.539818
4.088696 6.0963984 67.588875
-1.1828338 6.2878933 67.56855
1.582935 2.4450746 67.607269
-1.4085585 3.1614661 67.67366
3.2449064 3.2478342 67.689377
4.2543459 3.5673385 67.661057
-3.3336642 3.7727973 67.665062
-1.582986 4.8776383 67.618111
-4.2357116 5.759469 67.621727
1.9679663 10.882137 67.620026
-2.4791999 3.4629893 67.74295
2.4944572 3.6308811 67.735962
-3.1358118 4.887074 67.792336
-1.6434873 4.8828688 67.714684
1.3676081 5.9997501 67.732483
-2.4968646 6.0594678 67.704826
1.9474461 10.639283 67.761116
3.8942914 10.653641 67.753677
-1.0241176 10.741611 67.70208
-1.6500916 12.593061 67.719269
-1.4875712 12.665733 67.741791
2.5691094 2.3629835 67.810104
0.80245435 3.4338887 67.859932
-0.10845295 3.6732569 67.843933
1.0417463 4.2984028 67.894318
3.7269852 5.0673699 67.843857
-2.4736383 5.1819458 67.881119
5.6157551 5.1383142 67.863037
5.6196904 5.498178 67.818054
3.4099455 5.7902904 67.862259
-4.1097403 7.1089067 67.879379
0.22497982 12.32236 67.828728
-0.92163587 12.917619 67.831787
1.091898 3.0041461 67.932175
-1.1393669 3.9051635 67.949409
-1.8262837 4.1779494 67.925095
3.9210904 4.8979845 67.993744
-3.1425033 10.351948 67.928886
-3.0989342 10.377405 67.914108
4.2451148 10.52155 67.929375
-1.0881497 11.85151 67.924728
4.2096319 2.5653956 68.063766
0.95219016 3.005564 68.019951
3.2222683 3.2907391 68.080498
0.8500706 4.9002609 68.035828
3.4350429 5.5520964 68.00161
5.5898485 5.5990725 68.005905
5.2824831 6.119071 68.07312
-3.5525374 6.2141957 68.075264
4.8819304 6.6446314 68.024284
-1.3883513 10.064798 68.095673
-1.982142 11.499214 68.015106
2.4564753 11.630016 68.060127
3.062217 3.2646863 68.128448
-2.8327725 4.9051027 68.125229
-1.9796031 4.9086175 68.190125
2.8866084 4.9339924 68.177193
5.5678439 6.0722971 68.122826
5.0396991 7.4765792 68.119209
5.5406337 8.523653 68.166321
-3.5448289 10.732315 68.177017
0.78533685 12.089188 68.126953
-2.0313923 2.2542503 68.292923
0.46253619 4.3191452 68.287262
1.1348356 4.3713799 68.267487
4.4435654 4.9137597 68.285049
4.4376841 5.6386805 68.277817
-4.1194472 7.9820414 68.254517
5.508944 8.3871555 68.270584
4.8862581 8.9802446 68.265457
0.36674297 9.737072 68.284653
1.4085 9.8643694 68.210991
-3.7842014 10.298609 68.22506
2.8082912 11.378046 68.21418
4.8346844 2.7843902 68.387543
-3.0960155 3.7588506 68.326027
2.2463093 3.9455328 68.398659
0.32882684 4.030705 68.353012
-1.7224265 4.3466902 68.396667
5.3565168 4.4359865 68.316788
-3.9958091 4.5876265 68.367981
4.724297 6.762136 68.34877
-0.0086731017 3.8837531 68.464317
-0.059690192 4.278573 68.497353
2.9357991 4.2893753 68.463326
2.5679142 4.8141699 68.432274
-1.8284013 4.9205852 68.41111
-3.0694323 5.41362 68.420532
4.4004517 9.8459301 68.437027
4.9590611 10.624129 68.413902
2.8608108 2.1936457 68.551033
-3.9130325 4.4767003 68.58667
-1.7140346 4.9599547 68.527451
5.2133474 5.701942 68.535599
-4.0058308 8.9895515 68.525986
-0.32402802 9.2774763 68.552048
-3.5279474 2.8016479 68.601982
3.3582792 3.3891883 68.669281
2.3340077 4.0728154 68.623123
0.74521542 4.3043008 68.6026
0.84180087 4.4097786 68.657997
4.9460964 7.7711172 68.639061
3.375556 2.2092354 68.740051
-3.9004729 4.939929 68.768272
4.3321652 7.2635927 68.79834
-0.63846409 8.9732618 68.729019
-2.910562 9.8956461 68.7313
-0.53713226 12.768675 68.762093
3.7916112 3.5901706 68.898476
5.4114857 5.0397329 68.817047
-3.9613125 5.5069289 68.868408
4.3721724 8.0233517 68.828949
-3.9051676 8.2494936 68.832924
-3.6750154 9.772603 68.882858
-2.8599637 9.8578873 68.815765
3.1835005 10.629428 68.856598
-1.1858923 11.037506 68.870628
1.2442104 11.409629 68.8675
-0.89289594 4.1412535 68.949554
4.2976747 9.1552114 68.999176
-1.4093157 10.831645 68.956665
-1.7495568 12.181904 68.959763
5.020472 3.2845573 69.092995
-1.9911873 4.6912737 69.03434
-3.2378268 4.9559751 69.06456
1.6401119 4.9530535 69.010574
5.2397718 6.8315477 69.065781
4.1595864 8.4538298 69.031372
-3.6382313 9.4559078 69.088654
0.63465798 10.079989 69.007538
3.1188455 12.167611 69.036934
0.63671499 3.9436562 69.10479
-0.6780225 4.9587507 69.115822
-4.729516 7.5190649 69.165375
0.90805823 11.24927 69.126762
-1.8045464 4.9677863 69.282661
1.1131099 8.1258526 69.221222
3.7939405 9.5413895 69.249672
2.9860168 9.6333971 69.280563
-2.3864794 11.528808 69.24292
3.4500704 11.842038 69.232651
3.0546782 4.9700875 69.325058
3.8283792 9.2155199 69.377411
1.9531338 10.684177 69.357796
-1.0121756 2.1460297 69.490746
2.2646558 3.3843594 69.49707
-2.3898983 3.7759478 69.450607
2.2459106 4.5177007 69.456024
-4.6627641 6.6388106 69.438324
6.0757918 6.8668261 69.422844
-3.1551118 7.9281015 69.423866
4.9393015 9.2018261 69.421097
-0.39017016 9.4306259 69.404465
-0.22019944 10.806814 69.415398
-2.1258061 5.0927286 69.551208
3.516902 5.2469149 69.55909
4.9930363 7.0936823 69.548454
2.7184012 9.2349977 69.524078
0.74167889 10.615704 69.532242
0.090153784 3.3310103 69.626419
1.5920892 4.4311385 69.654045
-1.7983748 4.9146214 69.609123
-0.57738644 4.9868717 69.635025
5.8374414 5.9504452 69.601776
-2.9520044 6.6685753 69.624596
-0.18082827 10.376583 69.678383
-0.99464983 4.9935284 69.757927
-2.986289 5.9086361 69.749832
3.9855318 6.5829706 69.728447
-0.054594368 7.1866159 69.767014
-3.463378 7.8488193 69.74427
-2.0999136 9.105485 69.735939
-0.074382126 3.391876 69.828766
4.6214685 3.551919 69.817703
-0.64838201 4.6130152 69.878548
3.440614 4.995995 69.803467
3.4177246 5.3413906 69.821358
3.2336898 8.688798 69.857887
-0.55413294 8.723238 69.836868
0.37255388 10.057601 69.87339
1.3484292 2.2474077 69.993622
-3.3804531 6.2988477 69.995209
-0.56104165 6.8626156 69.955376
3.7369392 6.9369226 69.952042
-2.1476305 8.6117792 69.930649
4.3463221 10.242908 69.913628
3.5574625 11.248041 69.93367
2.8126233 11.835493 69.910522
2.5207226 2.2668066 70.089851
2.6385899 2.2488215 70.000641
4.4164324 4.3531976 70.031723
3.6065481 6.4809351 70.02092
1.9950773 8.3578072 70.060211
-1.1574873 9.1432552 70.086784
-0.59429932 9.7318611 70.051865
-2.2199137 11.023121 70.078453
-0.78620231 3.5380785 70.111969
4.6506085 5.9777422 70.17054
0.17773187 12.139133 70.149818
1.2408621 3.4849958 70.223785
3.5879056 3.9840455 70.253593
2.5079484 5.2661734 70.20842
2.6742189 2.3192768 70.350121
4.5360508 3.5192547 70.316307
-1.3202808 3.9392045 70.39666
0.44040263 6.1342411 70.37851
-0.26021108 9.1769571 70.352806
3.8941562 10.251537 70.339142
-1.5426286 11.333191 70.320068
-2.9925811 5.0295668 70.42337
0.097863324 5.1122756 70.473724
-2.9790933 5.9606409 70.437622
-1.0873909 7.8581467 70.493973
-0.53095448 8.3888407 70.492859
0.57885069 9.1268187 70.442345
3.7460189 10.323425 70.437996
0.11953493 2.3805401 70.59623
4.4039359 3.5346649 70.534317
0.65865785 5.8738379 70.529808
-0.42305186 8.2242203 70.54953
0.10501716 8.7882624 70.515251
3.8200836 10.023088 70.543884
0.48359314 11.864776 70.547043
-0.78739023 6.3885689 70.629974
0.16887236 7.3859558 70.654282
0.068916813 7.41187 70.638451
0.24549294 7.9704289 70.687271
0.52305877 8.2868109 70.648132
-2.3996534 9.7961006 70.668808
3.7055669 9.9785986 70.679062
-0.094358534 11.699381 70.654587
1.6936922 11.670871 70.655083
-3.1173131 3.0265803 70.77095
-2.0171819 3.761817 70.735268
-2.6573696 5.5994511 70.78727
-2.6191907 6.8993073 70.756035
0.078733265 5.0522394 70.841972
0.45050371 6.3045893 70.81794
2.0891411 2.5965242 70.998436
3.2037148 3.7241473 70.92038
-2.3429606 5.0602298 70.989487
0.10313034 2.6206894 71.043434
-1.5022233 3.708674 71.012566
3.4233415 9.2023582 71.083694
2.4074664 10.619461 71.097374
-0.97304761 5.068449 71.141266
-2.4275651 3.4917564 71.233955
-1.6024399 5.0727153 71.220024
3.1515024 8.7352505 71.233124
1.4137177 10.665051 71.297585
1.0101298 10.921735 71.208145
-1.9381044 5.355381 71.338249
-1.4939849 8.0125675 71.368477
2.6250036 9.4038973 71.373199
3.5714335 3.058414 71.478539
