# .PCD v0.7 - Point Cloud Data file format
VERSION 0.7
FIELDS x y z
SIZE 4 4 4
TYPE F F F
COUNT 1 1 1
WIDTH 1555
HEIGHT 1
VIEWPOINT 0 0 0 1 0 0 0
POINTS 1555
DATA ascii
-5.6565437 6.135314 1.76176
-5.7618299 6.7142992 1.7310917
-5.8660722 7.2880473 1.7171597
-3.6026297 6.1339636 1.8534553
-2.3171749 7.2913194 1.8939087
2.6229987 3.9211574 1.9386711
2.7436998 3.4453826 2.0766625
0.013471739 5.1980348 2.0442955
0.014164644 5.2835393 2.0571494
0.015126642 5.881227 2.1621649
-5.3428111 7.661499 2.1623702
0.24997631 4.0022988 2.2155395
-2.2896667 7.2754078 2.4712231
-4.6225681 8.3298817 2.4978073
-4.4173059 8.5059376 2.5844331
-1.2334716 8.7427378 2.5969424
-2.0042567 9.818327 2.5616791
-0.18690363 4.6174645 2.7773204
-0.010423675 3.7191551 2.9321485
-2.2370176 7.2819543 2.9813807
0.46115425 2.4730377 3.1910186
-0.28574058 4.7010565 3.2967224
-0.94753706 9.0817261 3.3867598
1.2607273 2.2250788 3.5804815
-0.16168925 6.2857552 3.549541
-2.8274097 9.412838 3.5446887
-1.710241 9.9084892 3.5065842
-2.4529908 7.0333796 3.6107805
-2.7086916 9.448864 3.8211646
-2.5207355 9.462059 3.8353627
-3.3219128 6.8259363 3.9757624
-1.0746858 9.1556187 3.922204
0.38498533 2.8676124 4.025784
-2.6223083 6.7508898 4.0922737
-3.5700045 7.1237168 4.0951095
-1.6230284 7.9102612 4.013339
-2.9120376 6.8373718 4.2166967
-3.1647451 7.0338516 4.2452812
1.5728848 4.6127577 4.5511632
0.99139619 5.9392085 4.6181912
-0.24889977 5.8764462 4.8460975
-1.9270816 9.2438736 5.1494713
-0.15100667 5.8995996 5.2811942
-3.4013107 7.6579857 5.4484081
0.42047894 5.9200349 5.5487819
0.73818964 5.9599237 5.5346394
-2.4121437 6.4209604 5.6221447
-1.9403497 7.1519289 5.6482954
0.21595284 3.4679279 5.7736173
-3.4290049 7.6760311 5.7129102
0.019029055 4.1289806 5.8478746
-2.3223755 6.4531174 5.8610072
-0.17006999 4.796237 5.9717407
-3.0965805 6.5630093 6.0264387
1.450527 5.1031528 6.1323786
-2.6287673 6.1967154 6.1407585
0.30833709 3.2689168 6.4277205
-1.4153054 4.5741186 6.4039793
0.0011669137 5.1010523 6.4056997
0.88674772 5.8695784 6.4821634
-1.7091357 7.9335151 6.4325957
-1.7180967 7.7838945 6.5533032
-2.8510528 6.0090032 6.6824036
-1.6974366 7.1003451 6.6847534
0.070384495 5.5441236 6.7280688
-0.006900046 5.0037827 6.8073235
0.73536354 3.265938 6.9206686
0.090720296 5.6570787 6.9884863
-1.7361052 7.8713408 6.9617786
2.6271431 2.9213514 7.0978279
-4.5125289 5.3913512 7.0270262
-2.5741336 5.7105594 7.0949173
-3.5559082 6.3062315 7.0074453
1.3226705 2.0114298 7.1359997
1.0794619 3.3283179 7.1407609
-3.000865 4.3447542 7.1956553
1.63905 5.0602117 7.1420903
-0.23754382 2.1971264 7.2543406
-2.6195037 5.6328969 7.2735252
-2.3449039 5.849575 7.2440286
1.0642856 1.975646 7.31638
2.6227982 5.690846 7.3521295
-0.86165136 3.1814282 7.524878
-2.2063899 5.9343638 7.5273747
-3.7392011 6.2491179 7.5078111
-1.6151851 6.8831844 7.5370059
0.66634655 7.1028738 7.5199833
0.53528249 2.0290232 7.6304502
-0.093844935 2.1300828 7.6558156
2.4047906 6.1307445 7.6947765
-0.27718771 7.2130852 7.6557908
2.6199257 2.6327786 7.7741957
-0.157912 4.4524174 7.8208213
-2.1847239 5.8240533 7.871141
-3.6727538 5.8223515 7.9717011
-2.9944327 9.3766994 7.9164934
2.6415284 5.7274351 8.0199003
0.52790213 5.8999672 8.0198498
-1.7184533 3.9949269 8.1184273
1.9814013 4.7941999 8.181921
0.22367506 7.0707941 8.1805182
-1.2738311 8.4762831 8.1188354
1.146628 1.8601428 8.2605858
0.0482582 3.4267244 8.2888498
1.4295466 5.5823879 8.2833767
-2.0251842 5.8833427 8.2904739
-1.6390913 6.787128 8.2298756
-2.4342723 3.9437203 8.3395243
-1.7926064 3.9043677 8.3777437
-4.1630216 6.3667684 8.3977957
-0.62141567 7.6065302 8.3101749
-0.81941116 2.7451675 8.4961777
-1.7337373 3.8725212 8.459549
-0.88622063 3.0256221 8.518034
-1.6403682 6.7241688 8.5354862
-3.7410944 9.1502619 8.5539837
0.73738086 2.9027469 8.6495457
-2.7610745 3.84636 8.608284
-4.4394121 4.0554113 8.6075554
-3.7251046 5.4788928 8.6200027
-0.11807597 4.6096101 8.8902302
-4.1744928 8.6046915 8.8711672
0.89616191 2.8751462 8.9548502
-1.0558151 3.349113 8.903019
-3.1420584 4.903883 8.9969034
0.52796483 5.9096937 8.9212303
-1.8471787 7.1656327 8.9489956
-0.23654526 7.1259875 8.9374542
-0.72184581 2.5037251 9.0698242
-4.6472154 4.420207 9.0162554
2.1756544 6.7064977 9.1178379
0.12080956 1.9207993 9.2601795
1.7082496 5.457778 9.3102398
-1.7426136 5.8819389 9.3358784
-3.9185438 5.1103129 9.5919094
0.11914207 5.5893164 9.5240602
0.14064085 5.7312689 9.5824585
-1.8667154 7.7067451 9.5828762
1.1488804 6.9899206 9.6179314
2.4059851 4.2363248 9.7698708
1.4854558 5.8454933 9.7756929
2.6629484 5.8760395 9.7842789
1.9653144 3.1740322 9.8351173
-0.053400636 3.3978891 9.8491001
-3.9043427 8.724494 9.8075905
-0.3883377 1.9310694 9.9252043
-1.5301583 8.2665749 9.9217739
-2.0064638 8.6431427 9.9686432
-2.0669763 5.0796313 10.090574
1.9396428 5.3247266 10.058875
-3.6722362 7.4432468 10.039632
-0.047179416 1.8326567 10.139378
-1.9552642 3.2640874 10.171221
-4.2639441 5.3283758 10.141696
0.15624963 5.7798162 10.149533
-1.1840332 7.922492 10.174517
-1.7620256 8.5635262 10.152308
-3.224071 3.1718431 10.292805
1.9800893 5.314908 10.275373
-0.71668565 2.2680135 10.495184
-0.53139555 7.2149472 10.415226
-3.5242903 4.2489605 10.502918
-0.91154337 2.565958 10.67946
0.78637564 2.5124831 10.64209
-0.14148925 4.6824608 10.682233
-3.2621241 8.595624 10.699324
2.9241865 2.2057176 10.879256
2.016295 5.4037833 10.863386
0.034030039 5.074265 10.987903
2.5653324 4.5880737 11.047711
-4.3872132 6.4563432 11.058917
1.801193 6.815146 11.040851
-3.5416472 8.4089813 11.041765
1.8523206 1.5395024 11.216239
-3.1784091 2.8275256 11.234088
2.346561 3.2791481 11.238695
-0.28825974 3.573889 11.221599
1.6286876 6.8554583 11.268534
3.0739846 2.4254599 11.328285
2.5389287 6.2741728 11.36537
-1.6131024 5.1706619 11.472008
-4.8132992 5.3618488 11.466281
0.8060829 1.5604136 11.557916
2.6666737 3.6500492 11.563749
-4.0383635 3.990335 11.531773
2.9445646 5.5788789 11.568096
1.8290488 5.8066778 11.554228
0.85846382 6.8913522 11.528107
-1.1414493 2.5804472 11.685412
1.8939729 2.5966451 11.608533
-3.6637263 2.7215667 11.668848
-1.3762884 2.8589482 11.706839
-5.17309 3.7535126 11.790633
0.13533013 5.4569368 11.87087
-4.9584827 5.5901179 11.863929
2.8274338 1.8030233 11.992567
0.83666581 2.2681088 11.910533
2.8386741 3.776557 11.958175
2.7190475 4.5694184 11.945827
1.3065355 6.8657484 11.96587
-4.4367509 7.7709804 11.997787
-4.9793234 3.2229023 12.120744
0.94016898 6.85818 12.150921
-2.0716598 2.5083692 12.279697
-2.0092258 6.9683676 12.203947
-4.4823551 4.1432924 12.389897
-1.3886628 5.1688266 12.323519
3.2597179 5.1371813 12.382653
1.7007458 6.7876716 12.370947
-5.1339731 5.3412933 12.543658
2.2685413 5.4321918 12.575423
-1.629019 5.8371596 12.538338
-3.7905922 2.3612418 12.645813
3.0375884 4.1947551 12.631146
-4.8401556 5.8163557 12.693672
-3.9270415 7.8353672 12.662618
-3.6336026 3.1767647 12.718498
-0.48883516 3.8330379 12.742454
0.98373067 5.9819956 12.765574
-4.5342684 3.9464736 12.802357
-5.2369103 5.2144713 12.994849
-1.4850476 4.6858668 13.098347
-1.3736626 4.8974156 13.008698
-1.8402071 6.196847 13.04711
2.290792 1.4225487 13.167596
2.7723298 3.2681954 13.193729
2.9365964 3.5286303 13.148841
-1.3511558 4.8851776 13.122002
3.0288141 5.6014032 13.168579
-4.1514854 7.6286201 13.128588
-0.96784258 2.1203141 13.292379
-5.1244431 5.4068575 13.254233
-5.4379969 3.3034129 13.333673
3.1974831 3.9762502 13.323345
-4.5403795 6.2688999 13.338219
-1.1470644 2.0645034 13.497301
-3.0471616 2.6892748 13.417949
-1.7131015 4.1963863 13.479686
2.622359 5.1000104 13.475199
2.9911609 5.6971788 13.494167
2.2324498 6.5490098 13.434311
2.5359914 2.800267 13.539824
-1.7682371 4.0869484 13.550312
-5.129108 6.4363847 13.552148
-0.42106318 6.7742743 13.569233
-4.5150957 2.2070489 13.633789
-5.1316686 4.3814678 13.670177
2.32865 6.5014625 13.696854
1.5821254 1.1999451 13.791766
-4.1841559 2.0481324 13.735678
2.8328271 3.1723421 13.756258
-4.6225052 3.4211822 13.777453
2.2771811 6.5193419 13.724928
3.0586727 1.7442117 13.849454
0.51667345 2.1611831 13.965126
3.1602573 3.6050453 13.927727
-4.1977897 6.7846193 13.987855
-4.6635389 7.1459641 13.911495
-2.5654624 2.7143509 14.063077
-5.3894386 4.5680285 14.046259
2.1798389 6.5422792 14.020535
1.4130242 1.9347126 14.178446
2.7648509 5.0340462 14.111282
-3.5111957 7.5965366 14.134051
2.4340541 5.592329 14.269916
0.54508168 2.0842662 14.310897
-4.2457504 2.5069954 14.365739
0.24081001 5.9298453 14.30901
-2.8720345 7.4897814 14.305889
0.074232489 2.7084863 14.565844
2.6732612 5.2971907 14.593428
2.9884481 5.8106699 14.56587
2.0538716 6.5670166 14.513332
2.8891425 2.9635403 14.640965
-4.8332543 3.1640658 14.673416
-5.5260806 4.3857756 14.649504
2.3714004 5.7910156 14.67513
-1.3805404 1.850015 14.715349
-3.2972088 2.0812864 14.765316
2.1656058 6.516367 14.71626
-2.1341221 3.0153716 14.855806
3.1965232 5.4945631 14.862893
-4.9217815 6.6027584 14.830807
-3.6962783 7.3344855 14.862059
-3.254858 7.3456106 14.952532
-3.0265121 7.319315 14.957031
-2.4952555 2.3999426 15.090189
-0.56464869 6.5914865 15.095817
-0.97212869 1.6585215 15.119063
3.4078128 1.9800234 15.187803
0.52459872 2.0244341 15.122278
2.6421113 5.5045047 15.232965
-3.8308141 1.9743612 15.31486
-5.027123 3.0826116 15.331868
-5.1991415 3.3790121 15.323294
-5.2299252 3.4118583 15.357101
-0.66776019 6.5754099 15.370358
0.049709324 6.5596237 15.480846
3.0868645 4.8831882 15.541546
3.5787537 4.9302225 15.569244
1.0505077 6.6428356 15.560912
-1.3593808 3.8238292 15.678448
-0.63296574 3.9846897 15.676003
3.6053698 4.896203 15.670338
-1.3152517 6.6894426 15.643881
-3.4271207 1.6785734 15.784616
-1.5089349 3.587291 15.784369
-1.9616804 5.8711224 15.813633
2.0458496 6.0870543 15.843363
1.7244503 6.6314859 15.806982
-3.0585129 7.0729332 15.825383
0.96820086 1.0076742 16.062801
-2.7313781 6.9762812 16.036785
-3.3208828 1.4904428 16.182184
-1.1102061 1.4391216 16.183237
-1.7066969 5.0142803 16.11269
-3.0333683 1.3718779 16.309347
0.072802857 6.505352 16.311993
0.30454251 1.0266632 16.496931
-3.118736 1.3266937 16.466867
-3.598911 1.4347676 16.472973
-0.25906086 4.8286629 16.463699
1.1526536 6.018332 16.478216
-3.3037179 1.318121 16.591181
2.9030976 5.2565618 16.546806
-1.9352227 6.7216301 16.527521
-5.6067038 4.0419917 16.677702
-4.4284272 5.8623667 16.687658
-0.80909336 1.2929091 16.732838
0.49503696 1.9058813 16.76091
-5.3090334 4.3342071 16.72377
-2.1409531 5.3958197 16.772846
-3.4033794 0.5909037 16.874664
-4.9905491 1.0277221 16.851189
-3.0441651 1.1578722 16.876423
-1.7572831 4.3008394 16.849413
-5.1308961 4.5163383 16.883169
0.26192105 2.219974 16.961655
3.1756074 4.6904564 16.908512
-2.1168878 5.1317902 16.94772
3.4980564 5.1628804 16.928295
-3.5175464 5.898809 16.910271
2.2753654 0.97467524 17.00617
-4.3900356 5.6570535 17.084688
-3.7162542 1.1680417 17.186543
-4.5644803 1.3913652 17.129309
2.3112433 1.5747617 17.153337
-6.017416 2.263211 17.163506
-4.54949 5.3337264 17.155079
2.1261377 6.4080806 17.148041
-4.143218 0.48273242 17.264322
-3.1957576 0.46648681 17.230183
-1.4268734 3.4755347 17.269218
3.1907017 5.6890783 17.276686
-3.4691973 1.045801 17.34527
3.8291349 2.1454577 17.357922
-1.5623262 3.2496016 17.389608
-1.9862646 4.3640761 17.317608
3.0248361 5.9689007 17.307993
-4.9709034 0.77547348 17.438551
-4.8959265 0.74889672 17.421858
-0.47301644 3.2386274 17.407684
-4.7949991 4.7243772 17.426508
-2.5965979 6.6586018 17.458448
-2.0911379 2.4097452 17.552572
-5.3557224 2.5974405 17.529808
0.94512182 6.4957962 17.508942
-1.4101268 0.84530056 17.623299
-2.7042317 1.4469864 17.661795
-1.8250515 2.8083358 17.645266
-0.22468475 2.8754523 17.658337
-4.5689011 4.9418244 17.67906
-2.4183869 5.1478839 17.622669
-2.8067386 5.3869891 17.68922
1.0328776 6.4941869 17.646116
-0.70045543 1.0551908 17.718018
-1.9786814 2.5512898 17.787588
-5.6987867 3.237988 17.794004
-4.8472266 1.3646455 17.881968
-4.8952289 1.4696978 17.878443
-5.3522635 2.480278 17.817711
2.8725612 4.7814155 17.864351
-3.4724994 0.12943022 17.945318
2.1955121 1.4417681 17.900824
-3.8739374 6.6816502 17.916246
-4.5739117 1.002113 18.032616
-6.0191221 1.7903882 18.027519
-0.28931171 2.9929113 18.004038
-0.10126668 4.2363267 18.04155
-2.9369578 5.1589766 18.062269
-5.3035851 5.6838088 18.180996
1.1545619 6.4707737 18.144098
-1.6730657 2.9411459 18.388514
0.47568208 5.2495699 18.30164
-1.6986132 3.155381 18.460388
-2.2371104 3.9331248 18.445637
2.9525123 4.4210773 18.460287
-5.240756 5.7616062 18.411501
-2.0329125 6.4021816 18.451374
-5.0757017 3.763952 18.595873
3.494966 3.8000422 18.554125
-2.2773237 3.9250867 18.552044
-2.7371106 6.4880199 18.52421
1.6081085 0.50233847 18.721821
-2.4887416 1.6303046 18.75186
-5.7259197 4.9820509 18.712193
-5.5785751 5.2102442 18.791359
1.5396618 6.4659853 18.713024
-5.3187437 1.8646972 18.826199
-2.0214696 2.3360829 18.872316
-4.1620836 4.6266789 18.820169
-4.0112934 0.39536735 18.955402
-5.4015789 0.43898797 18.900827
1.372352 0.48749393 18.966328
1.2500887 1.0986296 18.904102
3.4108582 1.063747 18.968227
0.50254989 1.8415171 18.922783
-2.9642684 0.21795201 19.18239
-5.1916151 3.411175 19.126881
-3.9018691 4.4450979 19.121771
2.653018 4.5988026 19.183449
-0.2627241 0.66556066 19.29163
-0.03195262 3.8782823 19.252666
1.1109164 6.3866382 19.309978
-3.3942647 6.4167333 19.367476
0.74511224 1.5045252 19.485439
2.0692434 6.3437891 19.436512
3.9544191 1.8409983 19.580898
-5.2422543 0.19820413 19.689537
-5.3532 0.26014236 19.649277
-1.1036731 6.0700951 19.610764
-2.5396137 0.90060353 19.736456
-5.7504487 2.5388813 19.797256
0.87909156 1.3235445 19.89502
-2.7185204 3.9804385 19.829111
1.3589683 4.9255304 19.866571
-4.0845246 6.3637757 19.879696
-1.8936805 -0.073908582 19.956398
2.6008501 1.1296083 19.933886
0.28435597 2.2309856 19.962847
3.3900208 2.6066997 19.953543
-4.2606096 4.3908491 20.056885
0.52757066 4.3528256 20.084818
-5.0822902 0.70806038 20.113056
2.2944665 6.1949348 20.136639
-6.0845785 1.0374384 20.228468
2.8369241 4.1471 20.246191
0.21693857 6.2643642 20.240122
-3.2618148 -0.47980189 20.376348
-2.4060481 0.92158222 20.354742
-2.0439668 3.0181789 20.377779
0.032425165 3.6111748 20.351402
-2.8618999 -0.45829204 20.497225
-4.6514273 -0.21494991 20.400972
0.42969799 0.36856079 20.401722
-2.3123662 1.0880184 20.489483
3.549355 3.3628058 20.494318
-3.5298595 0.19117855 20.525402
1.001285 0.64042294 20.555496
-4.831696 4.0746679 20.552382
-1.890449 2.0151618 20.638178
-1.1577799 0.17923962 20.799957
2.1506186 0.76076269 20.799618
3.576777 2.767879 20.770164
0.31738836 3.8619952 20.746723
-1.8385553 -0.21321696 20.814255
2.0748982 0.18842095 20.877665
-3.539376 -0.62307471 20.949045
-5.1263537 0.41796929 20.975109
0.051694021 2.5102134 20.924809
2.7099483 5.920568 21.046442
-5.165236 5.5308876 21.120018
1.0772524 0.11416033 21.203339
3.4569497 2.2839172 21.299545
-2.1401527 3.3402748 21.27364
-2.6706438 -0.5997771 21.331484
0.044001088 2.2913625 21.320391
-2.229461 6.0036469 21.322701
-5.1010485 0.27894101 21.484758
-6.2864566 1.0998752 21.406317
-5.3042164 5.3773594 21.418549
-1.0492635 5.904562 21.412987
-5.2508435 -0.1123735 21.502222
0.023698069 0.1736941 21.507246
2.5839024 6.0033121 21.5751
2.9377718 0.94366473 21.645552
-6.4243388 1.4431841 21.688869
-0.78380859 0.11352673 21.794903
3.4758766 0.60304379 21.736488
3.7978687 3.2683578 21.785685
2.8118539 4.4048786 21.784204
1.9648577 0.75913739 21.800758
-5.7709408 3.3439903 21.939205
2.3771505 4.7836843 21.912331
-4.1748724 -0.12095872 22.081303
-1.0750254 -0.027292745 22.072048
4.027935 4.425252 22.02426
-3.5081234 -0.25261778 22.16032
0.54869306 0.70456743 22.135719
-1.749043 2.8311996 22.173458
-2.2597628 3.702141 22.178574
-4.0104871 6.0061722 22.160786
2.4907737 6.0643253 22.1642
-6.120388 2.8664496 22.266829
4.1699858 4.1983228 22.268255
-6.1258793 2.8719871 22.328205
-2.7737134 4.3591304 22.371948
0.8497057 4.75632 22.332119
1.2389722 4.8552294 22.354837
-1.3494281 5.796124 22.379234
-4.0667605 -0.24746034 22.484661
-5.7313633 1.225404 22.483982
-5.7132263 3.516736 22.430412
3.6057253 5.1310625 22.420885
-0.15772107 5.9926672 22.437815
-1.9672623 -0.65038097 22.566544
-5.2322197 -0.29423252 22.503981
3.2106423 4.103693 22.592718
-0.88264346 -0.078044184 22.656908
-0.15504634 2.2797313 22.605793
-2.8662267 5.9311328 22.697803
-0.374367 5.9136844 22.795795
-6.2234864 2.8310931 22.847216
-3.7104998 -1.0392503 22.979347
3.736835 0.46701077 22.985352
3.9341974 2.6124387 22.932077
-5.9408045 3.3340344 22.922272
1.851842 -0.45206821 23.099049
-5.2111368 -0.0077851787 23.021671
-1.8368217 1.1938093 23.080299
3.4447885 1.4698799 23.089672
1.9711519 6.2124047 23.031178
3.3749194 1.2381775 23.261024
-1.6637111 2.4199066 23.259935
1.3233695 4.9032493 23.261982
0.56896502 6.1467381 23.291773
-1.5019593 -0.56881005 23.35428
-2.4735024 -0.41744536 23.389076
-0.74149162 -0.19549559 23.350807
-5.9391518 1.2996968 23.38908
-2.1074262 3.696564 23.487907
-2.6319609 5.8557315 23.468801
-3.1223817 -0.6079672 23.579109
0.18241976 1.070508 23.52457
-0.29174477 2.2375786 23.574686
-6.275032 2.915448 23.556166
-5.2243519 4.3090529 23.566151
0.60390556 4.5591574 23.525711
2.0342202 4.8914905 23.56599
-0.28446677 2.7909646 23.613359
-1.7143798 3.0615697 23.608353
2.2781513 4.8865867 23.654993
2.7612095 0.29279837 23.78093
-0.23069228 2.0174758 23.744278
-6.1591754 4.1963816 23.780117
-2.3819139 5.7967162 23.79398
0.35325286 0.49049675 23.857344
-1.9488378 0.61652815 23.895176
-6.5932584 1.362957 23.830692
2.4620054 4.8780146 23.899429
1.2205336 6.176209 23.85671
-1.4416525 -0.66057903 23.985704
-5.6530914 3.9310269 23.998602
1.7466314 4.927495 23.993797
-0.10591349 3.5721779 24.008026
2.1016631 4.9142895 24.016365
-4.3847713 -1.1347022 24.114416
2.787616 0.21866184 24.116293
3.2569211 4.3309779 24.138262
-3.6001892 5.9066334 24.115265
-1.005302 -0.42712873 24.224384
-2.1355298 3.8844447 24.256691
3.0363021 4.5996556 24.255943
1.4807323 6.1632967 24.252045
0.2645607 0.53000718 24.331688
-0.013514079 3.7542176 24.395363
4.1956663 4.2221193 24.396965
-6.0044875 4.4834061 24.34911
0.5251776 6.053184 24.35894
-4.8938837 -0.8824842 24.475735
-5.09027 -0.75518572 24.482803
-2.992475 -0.77763933 24.495968
-0.20972437 -0.53420353 24.48295
-6.8887224 2.1136892 24.41679
-6.284255 4.0470662 24.428509
-1.5822407 5.6140761 24.41461
-3.3487656 5.8979955 24.493771
2.4049859 6.1118259 24.462669
1.495504 -0.74645597 24.53327
1.1918283 -0.20564017 24.527628
-6.5598612 2.6603062 24.513298
-6.3381572 3.0498321 24.551947
-5.7467556 -0.41801208 24.677517
3.8679006 1.7197297 24.631165
-2.1760042 4.0238543 24.654606
-5.1370792 4.4543033 24.651533
2.3465376 4.9430304 24.69911
-0.89041185 5.6441493 24.695051
4.2580252 2.5114079 24.776308
-6.1198978 4.3521347 24.764713
0.7414884 6.0904713 24.708923
-3.3862481 -0.90967417 24.874847
-5.4975996 -0.57100457 24.849546
-6.4157143 0.51346338 24.891407
-6.8716416 2.9297371 24.813906
-5.5195704 4.2616048 24.823595
1.2641518 -0.3231611 24.941616
-6.4636526 0.65244436 24.925587
4.2418909 0.8968758 24.960642
-6.3183508 1.4470853 24.922028
0.94037455 4.6829262 24.965206
1.5748937 6.1430187 24.96489
-4.1596727 -1.488622 25.023479
-2.3244865 -1.3254694 25.099527
-5.2438359 -0.77238578 25.003073
0.072975725 0.75751424 25.004246
-6.7152967 1.3896211 25.07795
-5.657795 4.1697416 25.098328
-4.263195 -1.4577334 25.186888
-3.1742485 -0.9315508 25.12508
4.392633 1.2775508 25.178324
-5.3804741 5.2172031 25.129286
0.32115895 -0.7618041 25.206352
-5.236959 -0.49096829 25.220598
3.2015462 0.13525976 25.262646
3.5060296 0.35814404 25.240801
4.1872454 0.64908087 25.278643
-0.29974258 3.01454 25.277777
-5.2538705 5.2867889 25.280434
-5.0998073 -0.94682586 25.355391
2.4765732 -0.671736 25.347038
-6.0178509 -0.39997774 25.339994
-6.619472 1.0137799 25.357319
-6.2964292 -0.011372674 25.441254
-6.0388036 0.25787711 25.456944
4.4928532 1.4921484 25.462193
4.5444422 1.6500731 25.436764
-1.5229323 1.9156134 25.48798
4.6555376 1.9802217 25.417908
4.209455 3.2557831 25.43927
-5.6927013 5.0547457 25.423157
1.751242 -1.0197482 25.521603
3.065932 -0.00077554584 25.509579
0.13996573 0.30091554 25.576115
-0.016556859 3.8916898 25.588276
2.3172238 4.9922652 25.545883
2.4839432 6.0467663 25.508942
-1.5447987 2.1996367 25.656113
-1.6055429 2.8008461 25.653721
4.1690168 3.3672888 25.628967
-4.2556453 5.9051666 25.695084
-2.4593234 4.1884122 25.792299
-4.2834678 -1.1305544 25.89777
-2.4005744 -0.98179162 25.893673
-5.74191 -0.36316344 25.892132
-6.69274 1.968493 25.856331
1.7414616 5.0311327 25.816893
-4.7241573 -1.3218533 25.921818
-1.4586265 -1.1003197 25.959162
1.9550847 -0.54883385 25.961205
0.17864376 0.010860845 25.923416
-7.0169311 2.7018106 25.922882
-6.4542007 3.7891097 25.906677
-6.0166378 3.93784 25.934179
3.9160495 4.7377415 25.975084
0.83140755 -0.52066189 26.014801
-6.4633389 3.196331 26.034143
0.019699901 4.0016499 26.064054
-5.2840905 4.5003653 26.089153
-4.2341461 4.9102497 26.075024
1.9086528 5.0368023 26.037083
2.3357852 6.1143212 26.055689
-4.1129742 -1.2365944 26.186777
-5.2690153 -1.0164666 26.152153
-6.3575306 0.78898722 26.117935
-6.6266809 3.4689512 26.185841
3.9268742 4.7244515 26.101711
-5.3098989 5.2770233 26.109898
-4.7885275 -1.3532294 26.246454
-6.1168022 -0.050778016 26.294573
4.7509093 2.0171471 26.292797
-0.30714542 3.1728303 26.272863
-6.3203106 3.4855201 26.214611
-0.066808999 3.8963532 26.248821
-6.3194914 4.0677567 26.28701
-3.1401081 4.5097752 26.277145
-1.918931 5.6674213 26.241726
-2.2499547 5.7328157 26.266052
1.2431297 -1.1435016 26.316048
0.56132704 -1.0698429 26.344128
-6.8474483 1.4427124 26.342682
-0.41278508 1.4496319 26.324852
3.7834158 4.970015 26.377369
-3.9426887 -1.7356836 26.402153
-0.28966647 3.4706683 26.457951
0.09824951 4.1685147 26.495115
-0.66705489 5.5450177 26.468416
-4.3506689 -1.7189946 26.592005
3.6375685 0.030190483 26.535782
4.3736539 1.9772179 26.557734
3.9875889 3.8874762 26.579121
-5.9104371 4.2398129 26.673429
3.5089471 -0.083973631 26.713371
3.7673841 0.16531359 26.715027
-1.5768902 0.38724858 26.724981
4.4445357 2.0248623 26.799314
-1.5615106 2.8100288 26.76786
-6.8633404 3.0380611 26.744646
-1.7223461 3.6999097 26.891994
4.5364242 2.1545105 26.975765
-1.5349027 5.5768147 26.912193
-1.0899501 -1.0618058 27.049137
3.3774059 -0.23252825 27.016163
4.1648235 0.10163507 27.020565
-6.9836998 2.0705881 27.049507
-5.3499041 5.2787948 27.074852
1.0377313 -0.83042049 27.105148
4.9087925 2.8664417 27.131332
0.1365205 4.1956215 27.130787
-4.9960842 4.7076812 27.191568
-2.8784626 5.8246422 27.15481
4.1735606 0.070514746 27.225449
-6.7560925 3.2709937 27.279503
-6.6179585 3.5377536 27.272583
-2.9922566 -1.8384182 27.346302
-2.8630705 -1.347129 27.366009
0.12286045 -0.49721652 27.304237
-0.41606921 1.0524557 27.346825
-1.4766402 2.2053235 27.359398
-7.1562691 2.5035918 27.325453
4.3036051 4.0428863 27.372458
4.2315831 4.1831117 27.334408
-4.6364193 -1.3529133 27.492191
-6.9139314 1.2997819 27.42738
2.3044419 5.1036239 27.499603
-4.6443233 -1.3749069 27.572639
-1.631748 -0.069182873 27.561674
-6.929462 2.9675376 27.528658
0.091751695 4.1560974 27.529018
-2.2593424 -1.3406751 27.70537
-2.1385372 -1.3543718 27.791405
0.10061304 -1.358173 27.733555
-0.23380111 -1.2750864 27.753719
-0.358008 2.8478525 27.778732
4.5132003 3.6338358 27.778568
-4.0262752 -1.6428802 27.812523
-3.6516926 -1.6037171 27.831614
0.20457084 -1.3950146 27.838562
-5.4950037 -1.2796971 27.899912
-1.1245804 -1.2522306 27.809902
4.5480909 0.98822272 27.867905
-1.7678708 3.8461273 27.894718
2.1363409 5.1302948 27.848833
-4.755126 -1.4484917 27.982344
-5.6730247 -0.92892647 27.982567
-6.481596 -0.34315732 27.994188
-6.7244263 0.41984582 27.982433
0.060999878 -0.65340406 28.008303
-0.26759487 0.32721815 28.07119
4.4363708 1.1935627 28.079021
4.2216225 3.756654 28.04126
-7.3286095 2.2877483 28.196571
-6.9384966 2.8147991 28.176764
-6.1886492 4.1000333 28.141891
-4.4130764 5.0183311 28.163614
-4.9904146 -1.4162436 28.282291
-6.8309541 0.88135326 28.361403
-3.9652324 -1.8109925 28.405588
-1.3775432 -1.6358507 28.422173
-0.79851085 -1.2959237 28.45785
0.014387786 4.077961 28.437679
-7.2470846 2.5571613 28.516216
-2.2923369 4.1214118 28.58053
-6.1362081 4.6428738 28.577679
2.6149116 5.9256625 28.586246
4.1817122 0.15470998 28.60836
-6.912168 1.006812 28.673731
-6.1705937 4.5811429 28.602135
2.5830162 -1.4662211 28.724159
2.9574351 -1.2513297 28.797449
-1.6518815 -0.89035559 28.79155
-0.4274348 0.46133053 28.798267
4.7679839 1.7082839 28.789299
-1.286005 1.9742466 28.740906
-0.38585472 2.7063386 28.740585
-0.37311676 2.8953173 28.769518
-6.8055239 3.1257219 28.75034
-3.3097558 4.5902028 28.731853
3.8705237 -0.71599263 28.873785
-6.4876003 -0.41112715 28.814617
-5.9231558 4.3918858 28.845539
1.6486108 4.8546343 28.832451
0.68626434 -1.2793496 28.974731
4.0883594 -0.61436504 28.975655
-0.50969356 1.0020381 28.961084
-7.0826826 2.9462006 28.984116
-2.0411079 4.0061378 28.927197
-5.1106815 5.3898745 28.993023
-0.33736166 5.4336195 28.929405
-0.41622213 -1.5356508 29.043541
1.5973231 -1.4688125 29.0763
-5.8969946 -1.3012109 29.071533
4.167387 -0.10613217 29.039022
-6.9644876 0.68322903 29.055643
-0.75680351 5.4360433 29.010303
-0.10335541 5.5014896 29.022594
-2.1562104 5.650074 29.086857
0.0023647635 -1.1050912 29.121086
-1.3073975 -0.33127248 29.102005
4.392767 0.088200718 29.166782
-6.6027808 3.855406 29.143003
-1.6659083 3.8459525 29.131695
0.90763474 4.4793272 29.195814
-4.4761972 -2.1705093 29.259108
-3.2289801 -2.1894217 29.247864
-6.6041646 -0.63127446 29.290016
-7.251708 2.6915362 29.277618
-1.1481164 2.6771448 29.293047
-7.023087 3.1064663 29.256264
-3.1567352 5.7622747 29.299271
-1.9880401 -2.1081915 29.313049
-0.17789948 -0.77402264 29.39608
4.7353373 3.0913177 29.335297
2.1027377 5.0362034 29.401049
-0.21827945 5.4661412 29.410145
1.5523208 5.9594917 29.426844
-0.30972794 -0.19516104 29.572691
4.8046889 1.4776523 29.507021
-4.2458658 5.0222511 29.515812
3.3250024 -1.2289237 29.664503
-1.1299818 -0.38562909 29.650585
-7.3531423 1.9995916 29.691158
-1.7286806 3.8987803 29.670261
-4.1403756 4.9763842 29.605755
3.8816984 5.073822 29.661316
0.1147115 -1.8163393 29.779827
-0.015834378 -1.3285691 29.76745
-0.53923178 1.3882753 29.759483
-0.51167816 1.9834679 29.774044
-3.3992677 4.6552477 29.772366
1.5134834 4.7160883 29.748608
0.9791714 5.80756 29.768541
1.0637096 5.8367033 29.73863
-1.268811 -2.1665709 29.819313
-0.89792895 2.0545349 29.836372
3.1862483 4.8790512 29.881138
-1.4547694 -1.1436325 29.979694
4.103744 -0.65126336 29.953001
-6.7133398 -0.51797009 29.999783
4.7697425 0.89569485 29.947857
4.9350424 1.6954789 29.939547
-7.0757637 3.1419053 29.936701
-2.2276218 5.6924143 29.923096
4.1953621 -0.52348423 30.007078
4.4140162 0.088168085 30.011631
4.6861038 0.90198112 30.012701
-0.4237648 3.7622805 30.047192
-5.628746 4.561378 30.072954
-2.6784623 -2.1362357 30.166771
-0.0076091774 -1.000847 30.138243
4.9542127 1.6726222 30.1339
-0.49758804 2.3544519 30.152836
-6.4191132 3.9936876 30.145964
-5.5370355 4.6014719 30.119274
4.903132 3.2475033 30.217438
2.180089 5.919034 30.225494
0.54590195 -2.0032692 30.386286
4.0038972 -0.99557054 30.319393
-5.7439227 4.5181293 30.31019
-0.71195883 0.18803456 30.490595
5.192883 2.3622212 30.449524
4.8360186 3.446588 30.447369
-6.3180294 4.2192349 30.462376
2.676857 -1.796361 30.500751
-7.5298057 2.0499232 30.536572
4.9961176 2.7780344 30.586559
-7.2179189 3.0283074 30.508387
1.0868459 -1.9090159 30.665737
1.1916008 -1.9279013 30.677486
4.8948498 2.9868011 30.62394
0.4586446 4.0606651 30.693176
2.2798991 -2.0704703 30.78447
4.6189375 0.13223985 30.768295
0.87287635 4.2403603 30.786709
1.9016104 4.738348 30.74527
0.0031180126 -0.65021968 30.881254
-0.46816611 3.1072822 30.822115
-0.82354587 5.5542173 30.815945
-3.3383992 5.745688 30.886431
0.92323095 -1.9618405 30.905197
-7.4149623 2.6395421 30.900908
4.8011894 3.6119342 30.914616
-1.9797523 5.6569891 30.925262
2.9085271 -1.7594807 31.016609
-0.56522882 -0.55942559 31.06139
-6.9229574 3.3336082 31.000206
-1.5121018 3.929929 31.082548
4.1555777 4.4114304 31.024258
-4.6444473 5.6618729 31.089272
-0.62599039 -2.3194056 31.169598
-0.37738708 2.3323002 31.139286
-1.2663517 3.9791074 31.150578
2.9362304 5.0840988 31.181261
-1.0676577 5.6316719 31.18907
-3.2359357 5.738338 31.158371
-6.1310859 -1.5053546 31.218494
5.0583863 1.292412 31.244186
-6.8250275 3.5367455 31.226215
4.8641305 3.5211639 31.237091
-6.5814114 3.9432387 31.270664
0.7472049 5.7005873 31.267685
-0.54275817 -2.2902455 31.325092
0.7724967 -2.0928369 31.383644
-2.7280893 4.4508038 31.373352
5.0866556 3.040107 31.444857
1.4620165 4.4711308 31.470945
-0.75160348 5.5996995 31.449137
-3.1645846 -2.5566244 31.555311
4.6407433 -0.044203594 31.559271
4.9905281 3.2903419 31.555527
-1.6291919 4.5639863 31.589928
0.055758335 5.666162 31.608028
0.72816354 -2.1977913 31.732391
-1.9186959 4.8150573 31.763479
-0.011805391 -1.7423382 31.889458
-7.5750847 2.2635021 31.84433
5.3631821 2.3786755 31.875393
-6.6395779 3.961545 31.864357
2.7787392 5.1204538 31.865353
5.0126867 0.94325316 31.978947
-7.5417867 2.3518958 31.973028
-0.94045782 4.7327466 31.988146
-2.2294502 -2.5528698 32.028366
-0.5941695 -1.9196531 32.065498
-6.5867729 -1.3911555 32.032021
4.3421221 4.8343368 32.069588
-2.4670749 5.860301 32.029716
1.4010239 -2.4024439 32.135422
1.8703455 -2.3842945 32.120224
-6.6491604 -1.3676233 32.132099
5.3599081 2.3870757 32.12207
5.0236545 2.9924312 32.182255
-4.9793806 4.9390755 32.135864
-3.7553382 5.8922739 32.174442
-1.6693854 5.8643556 32.130676
4.8526716 0.38727659 32.251064
-7.0291424 3.2256351 32.237442
4.6061363 4.3381624 32.215729
-5.6435461 4.6824117 32.374397
-9.9334583 5.0062571 32.342213
-1.7587708 5.4107299 32.374313
-3.7712679 5.9271879 32.334198
0.674151 -2.4735134 32.445454
4.6085205 4.3846674 32.4561
0.64927518 4.6792564 32.485191
-1.5449609 5.3810024 32.450073
-2.9446983 5.9442596 32.403915
2.0204842 -2.4442706 32.55407
-0.35846454 -2.2416606 32.559959
0.3878895 4.8242216 32.576714
0.48523772 5.8636556 32.589325
-10.410969 6.8665729 32.52211
-10.377169 6.8839817 32.577408
0.30905959 -2.4213097 32.667721
4.4438281 -0.9568336 32.682571
2.3003957 5.7808166 32.68969
-0.59476888 -2.6872854 32.750866
4.2454839 4.4188228 32.707424
0.42153808 5.8968263 32.779591
0.81262457 -2.525676 32.824558
2.1558309 -2.483619 32.847015
4.6796217 -0.31492406 32.893711
4.7042885 4.2515192 32.881535
-4.2460775 5.433928 32.886536
-2.0258992 5.6934075 32.868511
-3.4061007 6.0316095 32.805031
2.6780767 -2.2443101 32.984348
-5.9547353 4.9035439 32.95599
0.41646066 5.9245 32.957394
-2.0192482 -2.6972506 33.026981
-1.20961 5.5861068 33.028595
-1.3533633 5.661231 33.078499
-10.081734 6.0002003 33.021271
-0.90591162 -2.7603211 33.153404
-0.55349541 -2.6113958 33.178196
2.3775146 -2.4428797 33.149471
-7.6863832 2.0238373 33.192101
-7.5486889 2.1903975 33.132969
5.2420244 2.7904532 33.12252
-9.6581221 5.3523517 33.104469
-9.5634069 5.367538 33.115685
0.74841118 5.366909 33.122601
-0.39532802 -2.5979841 33.270699
-0.11699605 -2.5357683 33.214069
5.1645021 2.6690457 33.289764
1.066391 5.400012 33.223175
-0.48850262 5.5541296 33.231071
1.9373168 -2.4859178 33.311768
0.59683061 5.5364904 33.325634
0.75160193 5.532588 33.358727
-2.1805885 5.9339862 33.368313
-9.7208366 5.3059106 33.45829
-2.2454543 6.0842104 33.441273
-0.51046491 -2.7864432 33.589958
5.3869925 2.0081208 33.502132
4.8201723 3.6288135 33.68026
4.6469674 4.0082197 33.64991
-9.4615002 5.8990779 33.636715
-0.88659084 -2.7588792 33.749069
-4.7045107 -2.5587399 33.789001
-4.9827991 -2.4147229 33.7533
-7.1708078 0.23368052 33.705639
2.9681301 5.6065273 33.721409
-0.22543362 -2.5970054 33.85231
-5.1143789 5.3120537 33.840813
1.8744626 -2.6432643 34.004955
-6.6954398 -1.3474345 34.082603
-5.9497938 4.9705038 34.013096
-9.178709 5.042429 34.019638
-9.4500227 5.5490236 34.081177
2.3598559 5.7372513 34.023251
-3.7762656 5.9420347 34.03183
-1.2641981 6.0700283 34.089272
-9.7854614 6.6661119 34.038868
-7.3720145 0.92496884 34.135666
-7.6018319 2.4074531 34.122089
5.0376287 3.0228779 34.198895
4.9537601 3.7946928 34.174885
-6.4686737 4.7589903 34.130272
4.2307863 4.9076452 34.183006
3.1411676 5.3825321 34.146542
0.31695592 6.0931568 34.164806
-9.5744352 7.118968 34.138786
4.5660906 4.280055 34.267288
2.2702241 5.6993566 34.224075
-9.1561861 5.4199948 34.380566
-4.4125633 5.7030878 34.398762
-9.7370615 6.7094498 34.305424
3.299396 -2.0675979 34.419807
4.8083673 4.3043003 34.463791
-9.4946775 6.6434484 34.470432
-1.6455629 -2.8510423 34.572495
-1.9291365 -2.7673306 34.546658
5.150712 3.0944555 34.557774
-9.5905685 5.0908737 34.505264
-1.5260625 -2.9032331 34.677841
-3.3852756 -2.7067215 34.69408
-7.5562744 2.6245594 34.606655
5.1631355 3.04934 34.655762
3.9141033 4.9373212 34.613846
-4.6183147 5.6406245 34.61018
-1.5885277 6.1166687 34.683002
-7.6845179 2.3344135 34.871521
-3.9365392 6.0034313 34.886265
-9.1340961 7.5886202 34.894989
-6.3344016 4.888195 34.922955
-5.5900383 5.2340326 34.90929
-4.7385139 5.6375747 34.943275
-3.4844613 6.2238779 34.967957
0.22014165 -2.7436504 35.044331
-5.9694958 -1.8890628 35.016724
-0.37372512 6.1396742 35.099655
-1.9053816 -2.8442101 35.152943
-1.7762034 -2.8864758 35.156296
2.3050675 -2.5190461 35.172291
-5.2061782 -2.3282704 35.173676
-1.0407141 6.1277156 35.152622
-9.1772537 7.375659 35.153988
3.770927 -1.7595826 35.215221
5.1039333 0.81401902 35.207211
-1.5994358 6.1469893 35.256676
-9.3146687 7.3350406 35.216583
4.1836762 4.7664957 35.333275
-8.7221737 6.2992721 35.385788
-8.8525515 7.6736732 35.385654
-5.6376266 -2.0663905 35.438316
-6.5955877 -1.4568975 35.486557
-7.2460952 4.1577449 35.473564
-7.1936884 4.3221083 35.440128
-6.2593913 4.9080482 35.490219
-0.51828861 -2.8299117 35.559868
0.03569144 -2.7544398 35.594021
-4.5252566 5.8387728 35.579369
-1.1511502 -3.0542083 35.620735
-2.5448513 -2.7163799 35.646275
-9.3943958 5.2361174 35.602604
-8.6630325 6.1142955 35.616463
2.0453298 5.7446499 35.703445
5.416388 1.8502911 35.808746
-8.5834112 4.5205326 35.873932
3.5094388 5.0409861 35.868313
-1.2322506 6.1667466 35.802269
-2.9902511 6.2479095 35.894665
-2.2460189 6.2079234 35.823204
2.2772102 -2.4931467 35.918739
4.8503928 0.45243356 35.9165
4.9283032 0.69371074 35.995293
-0.64473164 6.1903472 35.950829
3.905488 4.8266177 36.092018
-0.70004421 6.1986513 36.094101
-9.6255026 7.0261669 36.013397
-4.1728792 -2.599617 36.165588
5.3311739 2.2365057 36.113213
-8.7998686 4.9304066 36.108353
3.5048652 5.0197988 36.105324
-4.0732546 -2.5933135 36.338943
5.2294064 2.2702789 36.392578
-4.6837521 5.5042582 36.379929
3.3259046 -1.8405372 36.422417
3.2043223 5.1280136 36.487
-8.6136322 7.6216927 36.440895
2.3831844 -2.3935111 36.561657
6.1016822 1.9628924 36.598202
4.5734634 4.142992 36.529358
3.7859268 4.8365755 36.578918
-3.7688448 6.0618372 36.564171
-4.9923229 -2.3442931 36.629906
-6.4578772 -1.5329368 36.670971
-6.7464514 -0.80157995 36.627769
4.3052349 4.5679502 36.74609
4.0423412 4.6920285 36.782059
-9.6168079 6.3022723 36.725395
-6.3300467 4.4261084 36.858681
3.2030618 5.0901771 36.876301
-0.86664218 -3.0129268 36.927048
6.1722169 1.3749769 36.924347
-2.5220881 6.0012302 36.998253
-8.4954453 7.3964305 36.924152
-5.3208389 4.9182992 37.087246
-9.431942 5.5077391 37.04731
2.5921717 5.3644295 37.102348
2.6939209 5.3060846 37.156242
2.1657238 5.537817 37.198074
-4.7272186 -2.4456973 37.278957
6.7942362 2.4534183 37.28973
-0.58621061 -2.9830463 37.360149
4.9431372 1.8829417 37.362442
-6.9032774 3.8481627 37.344231
-1.1973413 5.9989138 37.357658
-9.3025646 7.7114935 37.346989
-2.4002934 -2.9323888 37.56498
3.6135507 -1.599384 37.57663
-6.8475704 -0.33776319 37.539753
6.9938736 2.201273 37.542572
7.2406445 1.9614775 37.677872
4.834692 2.179132 37.650772
4.4435525 3.7173567 37.61787
-9.3893051 7.4805431 37.605778
-7.1434474 0.60410857 37.723289
-7.4036388 2.364615 37.786266
-7.301868 2.6783719 37.701233
-8.5124435 7.6543851 37.71841
-0.07004264 -2.8525667 37.913868
4.293725 3.9134321 37.951015
2.7896006 5.0714025 37.996937
-8.4445152 5.4527063 37.959492
4.5366139 0.9168002 38.027946
7.2692146 1.622191 38.005432
-6.8028488 3.6741972 38.019131
-2.9450903 5.7603359 38.013168
0.62541509 5.9354963 38.061333
4.1928697 3.9351368 38.269775
-9.1905031 5.8475566 38.229115
0.088679254 5.8970604 38.22155
3.9039135 -0.72876519 38.321342
-2.7699475 -2.8978932 38.403751
-9.2929039 7.4104753 38.444263
5.362329 1.2084444 38.571884
3.2021329 -1.7685659 38.603127
2.2681353 5.1507511 38.696011
-2.6593597 5.6590805 38.640625
-1.763463 5.7233515 38.610001
-9.0731373 7.5349355 38.64463
4.7048659 1.3456426 38.793953
7.0723977 2.7001514 38.7939
-6.5557895 -1.0477726 38.868069
6.0374055 2.1993291 38.875271
-8.9460735 7.5629683 38.827469
-2.7302642 -2.9197638 38.926048
4.9900475 0.87653869 38.984756
4.4811068 1.2928765 38.985638
5.2460704 1.5300891 38.93375
-5.3867464 4.4894657 38.934959
3.0298898 4.6296883 38.950832
6.0655832 1.4957147 39.009338
5.249279 1.8541846 39.055168
-8.3843164 7.2375493 39.069023
-5.2742653 4.5374813 39.162815
-8.8791561 5.7977662 39.115932
-4.1369286 -2.5183868 39.212517
1.2139581 -2.5197723 39.288353
3.471 -1.5628703 39.264496
5.6949921 1.506207 39.280895
7.0673618 1.8546594 39.237041
-4.1811781 -2.4925897 39.34042
-6.0071378 -1.6639221 39.302223
3.9008176 4.5681462 39.374359
-9.4093046 6.4678183 39.382359
-4.6260986 -2.3659067 39.428959
-4.7706766 -2.2926331 39.403454
4.0465331 0.037257195 39.454865
-7.2928033 1.2187454 39.468582
7.3748341 2.109725 39.482044
7.8034515 2.4478388 39.411041
-8.9453592 5.7778149 39.495712
-8.2301722 7.0409703 39.462112
-9.1211567 7.6107059 39.452862
1.0906403 -2.576117 39.555984
4.9686537 2.0415974 39.51841
7.8541551 2.6263964 39.511215
-4.3153424 5.1891026 39.515377
0.130445 5.5742569 39.512817
4.1726699 2.7272213 39.637115
8.1221752 3.4206457 39.691643
-6.0532556 -1.630766 39.716743
-6.742372 -0.5230906 39.793571
4.5211973 3.6385198 39.792881
3.4085016 4.0494037 39.70882
3.8945796 3.2807987 39.841572
6.1722693 3.6652257 39.864796
1.6865668 5.0583062 39.86924
5.8823948 4.085197 39.979485
-4.1195931 5.289978 39.977535
-2.7223823 -2.8376727 40.094563
-2.428107 -2.874697 40.025856
0.71321505 -2.6515584 40.078148
3.5078306 3.8348889 40.045498
-5.1261969 4.5659609 40.09293
-4.1428933 5.271462 40.001537
3.9474053 -0.11777931 40.101803
-6.8127074 2.8993483 40.155693
7.4520683 2.903424 40.173073
4.9796925 3.437886 40.11869
6.3468962 4.3389111 40.102589
6.5331106 4.3336091 40.116501
2.6569111 -1.8809003 40.294903
4.2918339 2.2233844 40.205341
7.924377 3.5899096 40.21719
3.6521852 3.659883 40.232166
8.003417 3.7341089 40.276611
6.5468574 4.4518714 40.20871
-8.5609798 5.678957 40.240364
2.9605992 -1.7307737 40.303005
-7.0294166 2.364073 40.312439
5.4816031 4.4830122 40.360542
-4.5631099 -2.3795447 40.475925
2.6766286 -1.8586941 40.443935
2.8685431 -1.7635683 40.45208
6.6233425 4.4403381 40.432644
-0.28453678 5.4463792 40.45282
-6.1109409 -1.5773768 40.591541
3.4304633 -1.4741105 40.523388
-7.1125565 2.0730083 40.537945
7.7023029 3.51389 40.629841
-4.1227093 5.2292733 40.687572
-2.5583954 5.4161558 40.650883
-8.78158 5.6803193 40.626728
5.9503474 3.0280058 40.77462
5.7671065 3.196981 40.778942
6.8615551 3.1985583 40.710728
5.7891192 3.7073684 40.772236
-4.9149237 4.6589847 40.784145
-2.6100101 -2.7828219 40.81842
6.1525059 4.072845 40.875862
8.5583916 4.9958282 40.830757
7.6012878 5.1887913 40.802402
-0.15490991 5.4109178 40.859131
-3.7770276 -2.4877696 40.959206
-6.8020716 2.7715311 40.961014
7.9652052 4.0787606 40.983269
-8.9979668 5.6831956 40.908066
-4.1454825 -2.4332356 41.041832
4.0183978 0.49339932 41.078037
6.5541286 4.0370808 41.002079
-1.610738 5.4339962 41.035759
-1.8081728 5.4192214 41.102943
0.38463694 5.3240075 41.235477
-9.4226761 6.457757 41.201729
-9.4398546 6.5012183 41.217228
-3.4071732 -2.5660729 41.374119
-6.6765537 -0.80602914 41.329041
-6.5885887 3.1766088 41.399445
3.5156412 3.3880272 41.353577
-6.8424587 -0.23877323 41.44392
-7.2405643 1.4377892 41.431892
3.9280317 2.4058108 41.429993
3.7680335 2.7658582 41.43895
8.0041733 6.1263309 41.490303
-7.9134979 6.4542184 41.495232
-8.636858 7.8611751 41.47226
-2.6750066 -2.7089896 41.529308
-0.86630839 -2.7703068 41.541931
-7.0969639 0.86520445 41.579948
-6.7449336 2.7604012 41.540291
8.1907463 4.6374602 41.561008
-4.7001443 4.7447109 41.594158
1.5048854 4.8417816 41.566212
-4.2014451 5.1039629 41.530266
-3.6264355 5.2039948 41.5905
-2.776278 -2.6870289 41.64093
2.462549 -1.8619303 41.612606
-7.1508226 1.6329775 41.662342
-9.3305397 6.2112827 41.669308
-9.2948465 7.4048181 41.705025
2.1652811 -1.9885082 41.877537
-6.9344893 0.24543324 41.872921
-6.8077898 2.4844391 41.897224
0.59515142 5.2214894 41.806507
-9.3632259 6.291225 41.812126
-2.2401133 -2.7178197 41.964649
-2.9935749 -2.6348319 41.93475
1.695812 -2.2181814 41.912231
1.7445283 4.6300926 41.900452
-4.5829449 4.7954278 41.965549
-6.4299731 3.4088824 42.07177
2.9310415 3.7573743 42.035507
-5.6302142 4.006319 42.05349
1.5808403 4.7065043 42.09819
-2.6508546 5.2580824 42.099209
-0.80003512 5.3146238 42.065979
-8.2390461 5.4499984 42.073093
4.0280466 1.6533511 42.11747
1.889982 4.4846764 42.148083
-3.4983885 5.1484184 42.15844
1.6276207 -2.2247577 42.233841
2.4771516 -1.783314 42.27409
2.6830688 -1.678537 42.249855
-7.7424741 6.496851 42.236435
-8.0572205 7.7791004 42.264736
2.6231074 -1.6966538 42.372372
3.966825 1.2391477 42.384338
-0.91780835 5.2806368 42.376526
7.1387453 5.3437767 42.336079
7.7490778 6.772398 42.361366
8.2074194 7.14013 42.323811
-1.6273086 -2.7375956 42.48238
-3.1310599 -2.5618563 42.476627
-4.4575124 -2.3695352 42.464848
3.6446886 -0.095197141 42.428459
-7.03966 0.81924838 42.454655
-6.825809 2.2783556 42.422939
-3.1598718 5.1469135 42.497063
-8.6105137 5.505538 42.480751
-9.2304821 5.9358149 42.498375
0.17995387 -2.5212057 42.537819
-6.7655725 -0.32345957 42.514633
1.2080758 4.8859215 42.51474
-1.0004013 -2.6580586 42.669243
3.1483395 3.4559247 42.673935
-0.40014282 -2.5882335 42.778576
-6.5307717 -1.2923777 42.797958
-6.7441082 -0.39439484 42.778599
3.6360638 0.1157904 42.717682
1.3295641 4.7600803 42.722301
7.9506421 5.0968494 42.756004
8.7921772 5.9305458 42.738838
-6.105711 -1.5079387 42.864635
3.1351335 -1.3817201 42.818913
-0.57282948 5.1848798 42.858158
-8.0460377 7.9242001 42.86248
0.94081229 -2.3942266 42.986179
3.4039135 -0.65080345 42.977161
3.789361 1.6635025 42.974556
-0.22614452 -2.5302792 43.08654
-7.0760713 1.5067978 43.048733
-6.3099346 3.4409468 43.088581
-0.069350362 5.1215267 43.01561
8.3816261 5.5970573 43.09425
-6.1760573 -1.4533584 43.159611
7.9638448 5.3270369 43.17186
-9.0519848 7.9843502 43.170998
8.8229704 7.7223401 43.269699
-5.6940475 -1.6984591 43.308548
3.4920673 0.086483061 43.399559
-6.9432383 0.48998329 43.38382
-3.5212023 5.0569596 43.330711
-1.876803 5.2443676 43.381901
8.8889513 7.8190022 43.383274
0.67629313 -2.3592999 43.483604
8.5679398 6.0013561 43.494316
-7.4268303 6.6476369 43.460785
-0.7791326 -2.5043609 43.597488
-5.1538296 4.3831959 43.587738
1.3097199 -2.2184992 43.626629
1.6168971 -2.0578496 43.644737
-6.3343959 3.3746412 43.66737
-3.3213587 5.0630002 43.637947
1.5390267 4.4864635 43.795578
-9.4085197 6.3588281 43.787758
9.0970726 7.8381081 43.756149
-5.6106601 4.0575933 43.84993
-4.3643422 4.9500027 43.980888
7.2218647 6.3193984 43.955643
0.041870564 -2.3567076 44.090729
-5.4750481 -1.7674248 44.090046
3.2581825 2.454191 44.000107
7.1624641 7.8406434 44.02594
-6.666646 -0.63595676 44.17572
9.1536951 8.1286278 44.10696
-5.9345369 -1.5223619 44.291786
2.387115 3.8018866 44.274269
-4.3814073 -2.2158751 44.313805
-7.2557707 7.1992221 44.358604
2.9051228 3.1879506 44.42765
-6.8803892 1.8405204 44.528946
1.5841589 4.4031959 44.599342
-0.48932108 5.0500269 44.596058
-7.2693758 6.5055952 44.504333
9.0698509 7.1167455 44.589638
9.1743488 7.7785339 44.564178
-4.0270176 -2.2131081 44.659927
-6.9415388 0.69335926 44.60918
2.5765731 3.5114987 44.691532
-5.3260927 4.3133917 44.619968
1.2877623 4.6228352 44.643406
7.0061841 6.443388 44.6329
7.1395426 7.3615561 44.637375
1.4530287 4.4935069 44.730442
-7.2946863 6.2948756 44.801842
-9.5031948 6.9289813 44.827614
-2.8759718 -2.3044882 44.978661
3.2317882 1.9263179 44.970932
-5.2370677 4.399992 44.976727
-7.0341167 6.8577633 44.948593
-1.1241863 -2.3277321 45.074921
-1.0452143 -2.3208034 45.085907
-2.9599035 -2.2896495 45.056107
9.206543 7.614686 45.001186
-4.0657392 -2.1669855 45.178169
-6.5479183 2.8025417 45.149372
-6.8183994 1.8899373 45.247593
-3.8001499 4.9499531 45.253979
7.0846586 7.6416721 45.294724
3.023139 -0.42733234 45.357174
-6.9265666 0.76881236 45.300041
-6.0477362 3.5339887 45.558701
-6.6942978 2.2214217 45.654778
-6.1627994 3.4110909 45.627182
7.0324211 8.392458 45.646729
7.7506924 9.9260283 45.629059
-6.7025747 2.175591 45.732841
-1.8938661 5.1113091 45.71851
9.3446798 10.067224 45.712757
-3.5656965 4.947876 45.833572
7.4700308 9.8363667 45.815315
-4.8124394 -2.0047634 45.992336
-6.8770871 0.65204531 45.915688
2.5339973 3.2313466 45.99929
7.6879597 7.0036941 45.921001
-6.6481338 2.2904842 46.076904
-9.4810362 6.8898301 46.064651
0.096670628 -2.1034031 46.148209
-6.7617865 1.9004362 46.115555
7.0426559 9.3039579 46.120316
7.0099854 9.6673861 46.227898
-4.3076143 4.8810415 46.363937
-8.7762442 8.3492537 46.36779
7.0454464 8.5590897 46.39019
-6.8129091 6.9224634 46.401237
-6.8151264 1.6946057 46.548241
1.8691037 3.8838398 46.52198
1.6238136 4.1349001 46.582108
7.0557132 10.090398 46.598831
0.27626356 -2.117662 46.636986
0.82296354 -2.0806372 46.692078
1.4893625 -1.7062949 46.604115
-5.5446072 4.048708 46.63414
-2.4506302 5.0482192 46.647285
8.0063019 7.3427596 46.650776
-4.3729167 -2.1017246 46.768089
0.25091591 4.9259634 46.771622
-7.1417828 7.4649601 46.794346
7.05163 8.3679485 46.763695
-0.75731051 -2.1967542 46.848003
7.082221 9.263937 46.892143
2.8175964 2.339323 46.989655
-8.6376762 5.5214567 46.961918
1.4175059 -1.7349017 47.044754
-6.6802254 -0.15747781 47.02499
-5.4800158 4.1357622 47.066044
1.3337343 4.4564409 47.00285
-4.1061735 4.9317245 47.055
7.3522372 9.3185902 47.084969
9.4087858 10.327915 47.000793
-6.6728315 -0.14531426 47.110889
-9.1113148 5.8795309 47.162727
-9.2260323 7.3510246 47.159393
-2.1000023 -2.2750533 47.281311
-6.666173 -0.12050492 47.219841
-6.7870708 0.32254621 47.279106
-6.6628346 2.2600393 47.260117
-5.8564539 3.7680357 47.245697
7.9741201 8.7089443 47.287632
-6.9300799 0.98619366 47.323292
-8.6927643 8.2355213 47.36972
2.8367677 2.3523629 47.41684
-5.6571059 3.97333 47.439205
6.9110956 10.16235 47.437725
-7.9413042 5.4626751 47.54586
-8.7531767 5.6653605 47.679829
6.7840929 10.120961 47.666031
-4.5240407 4.9202166 47.781162
7.8787417 11.064866 47.745346
-6.1709905 -1.2003099 47.882568
-5.5881534 4.0553474 47.806999
-4.9408312 4.7024145 47.849903
-2.7137036 -2.3342967 47.959038
-0.41578534 -2.3582766 47.976196
-6.712357 0.28515261 47.991501
3.0271256 0.52280939 47.944027
-4.0489311 4.9632411 47.956642
8.5547647 8.2447233 47.935333
8.9499044 8.8432045 47.926777
2.1628599 -1.4307029 48.0877
2.8211012 -0.25832808 48.050419
2.7562287 3.1723301 48.043278
-8.8444471 5.5218182 48.032295
-8.7662477 7.953877 48.035858
8.8419228 8.8001509 48.044666
6.6309357 9.3158569 48.088009
-3.5717516 5.0050306 48.100609
-9.2085543 7.0900455 48.15081
-5.438827 -1.6691623 48.29512
-8.6874104 5.368782 48.237305
8.1649475 7.6292505 48.212509
-4.7995768 -2.0808239 48.380989
1.6523656 4.3834419 48.343426
0.16902965 5.0431519 48.325581
7.0491772 6.9538021 48.316933
2.7530661 3.4297955 48.421036
-5.0744438 4.6198912 48.456512
-7.9782019 5.0118909 48.486183
-7.2683873 5.4336615 48.450592
7.3186226 10.398219 48.460697
-6.769578 6.1139717 48.586243
9.2117348 9.7114935 48.506557
2.9611635 2.7334671 48.635399
-8.5432491 5.1040764 48.677486
-1.7512701 5.1515212 48.605717
-4.1992002 -2.5561404 48.77639
8.322793 7.6493177 48.744743
6.3556166 8.5712442 48.708092
-6.5780382 2.8342125 48.844048
2.6562016 3.6752162 48.858166
2.7117603 3.6204584 48.840385
-8.7660561 5.3896351 48.82299
6.5432434 9.2774715 48.896027
2.9564009 3.1401029 48.965271
-6.9656167 5.6914687 48.919544
6.2567263 8.0776119 48.979996
3.065748 2.5979414 49.014236
-6.4314394 3.4442201 49.056549
-0.10805386 5.1537971 49.023773
6.137826 8.6127796 49.061485
7.2679529 10.050858 49.094971
