# .PCD v0.7 - Point Cloud Data file format
VERSION 0.7
FIELDS x y z
SIZE 4 4 4
TYPE F F F
COUNT 1 1 1
WIDTH 1611
HEIGHT 1
VIEWPOINT 0 0 0 1 0 0 0
POINTS 1611
DATA ascii
104.77299 71.624153 9.538702
114.9642 64.982788 9.698864
115.47007 65.045128 9.606369
116.04029 65.559685 9.6685495
109.48729 72.558014 9.6614017
106.03444 68.027542 9.749114
105.55826 68.409637 9.7541685
109.72201 72.367714 9.7762051
105.57295 68.400078 9.8873367
114.85777 70.455727 9.9671021
108.94374 68.170258 10.002132
109.33792 72.674561 10.063476
106.54019 67.664055 10.174075
111.26964 67.731392 10.122973
107.4288 67.807343 10.155964
104.63339 70.73143 10.192951
110.11813 71.943375 10.18485
110.11163 72.01815 10.135621
113.11538 70.287033 10.258779
108.73541 73.157341 10.227348
116.32915 65.886414 10.381334
116.75739 68.620728 10.318214
112.86283 70.256561 10.321348
110.12935 71.822433 10.308863
110.11787 71.987846 10.377593
109.17909 68.431076 10.41326
109.68253 69.038971 10.476234
109.39356 68.664879 10.851174
112.18893 69.759941 10.846233
111.48778 66.186401 10.97696
110.20781 70.967026 10.958145
105.06659 71.915611 10.99243
104.78727 71.575714 11.027029
108.65605 73.214157 11.031595
107.3678 67.736626 11.140059
116.72906 68.787308 11.187378
115.50652 69.913429 11.139061
110.17566 71.405922 11.109645
108.68256 73.191986 11.13184
106.71719 73.227066 11.153169
111.4194 66.614746 11.287771
109.82535 69.149956 11.330303
115.66934 69.775414 11.483131
110.2888 70.090691 11.478251
109.11982 72.838226 11.40703
116.92815 66.508789 11.600433
112.59473 70.182419 11.64945
113.14053 70.238327 11.642563
116.84323 68.20903 11.752035
105.51785 68.342804 11.70759
105.30916 68.482162 11.895712
111.88022 69.344841 11.804152
110.29588 70.115891 11.826487
104.83904 71.642395 11.911899
105.10088 71.958374 11.951776
107.02792 67.557899 12.034965
107.61276 73.346352 12.057194
112.10054 65.611259 12.197984
107.90189 67.647026 12.195721
106.01389 73.084091 12.284303
107.19997 73.300659 12.247258
106.39422 73.2034 12.533377
108.10954 67.607048 12.688621
116.45419 69.185516 12.608859
104.66469 71.448097 12.63375
111.229 68.518394 12.755342
105.96438 67.770737 12.861625
113.50253 70.291977 12.802486
115.33614 64.647079 12.952001
112.85892 70.227371 12.930067
106.26928 67.440857 13.230169
108.04758 73.433647 13.214781
112.99066 64.759453 13.530704
106.43221 67.253304 13.546032
110.31155 69.494492 13.588748
110.31557 69.502167 13.56374
104.76537 71.590958 13.643589
104.61627 68.745689 13.755046
109.68652 72.410149 13.73025
105.78524 72.870911 13.762763
113.38046 70.297318 13.805508
111.27263 67.217705 13.988301
114.09773 64.3489 14.186429
115.04175 64.440468 14.103931
112.37851 65.184135 14.174989
117.07237 67.741478 14.154871
116.41445 69.231773 14.145339
110.31513 70.493263 14.156539
106.36856 73.230965 14.116294
110.35065 69.989281 14.235808
104.4773 70.426918 14.253687
106.69577 67.162415 14.428751
104.52079 71.31337 14.422965
111.21452 67.520294 14.55794
105.62866 67.745628 14.690453
104.48674 69.886353 14.681854
114.14478 70.374809 14.698452
107.2852 73.36866 14.675901
112.55386 64.96254 14.873325
109.04798 67.716248 14.952524
106.19592 67.234222 15.016358
115.33325 64.346054 15.138546
117.21759 67.191185 15.127661
104.4017 70.960983 15.113199
113.27683 64.341515 15.215193
111.36269 66.541672 15.254
111.2368 67.319046 15.282898
105.50095 67.807861 15.213274
107.59129 73.407578 15.361334
112.85964 64.660637 15.426415
111.29935 66.921211 15.479404
110.37524 69.897156 15.453307
104.44241 70.104424 15.444453
105.02431 71.985077 15.487495
104.82307 68.355789 15.543716
104.42587 70.275047 15.593143
112.36202 65.04882 15.601128
117.26875 67.030258 15.682465
111.36946 66.474861 15.707088
110.35174 70.321007 15.899455
114.77869 70.412239 15.907709
111.22598 67.345047 16.028759
104.47264 69.22496 16.037302
111.79802 69.232758 16.018627
117.14861 65.895538 16.2845
117.10775 68.176682 16.256796
116.12163 69.51445 16.292126
115.73264 69.824799 16.238443
108.47833 73.416031 16.331989
115.79236 64.273346 16.405251
112.80699 64.606956 16.435219
106.39371 66.96048 16.462793
108.81145 73.128975 16.480724
113.96132 64.087929 16.554609
104.98813 68.125748 16.549187
110.3441 70.564606 16.599165
104.60535 71.485481 16.503939
104.84649 71.792908 16.599722
104.94945 71.92215 16.571697
116.92389 68.880264 16.662355
115.72812 69.835327 16.686127
107.36723 67.074669 16.742886
111.21504 68.395355 16.831472
115.94453 69.664749 16.849543
109.38223 72.631531 16.862358
109.48891 68.05751 16.960007
104.4489 69.01783 16.938887
117.0625 68.776108 17.057005
109.29889 72.69236 17.088814
108.03018 73.419418 17.078842
108.22681 67.146637 17.139166
110.02404 68.716972 17.197216
111.87035 69.253586 17.143946
114.62428 70.360046 17.140137
116.6692 65.106339 17.411884
106.13232 67.07988 17.430332
109.23589 67.672775 17.495922
117.27563 65.905678 17.523193
106.2337 73.177322 17.567959
111.42654 65.833565 17.649151
109.75392 72.286392 17.616056
113.51076 63.923828 17.732573
116.91668 65.400131 17.710308
115.125 70.334526 17.769287
114.24065 70.299591 17.830963
115.15199 70.314629 17.878574
111.4376 65.709473 17.992052
117.49785 66.254723 17.954432
108.90119 67.195618 17.921265
111.19807 67.392235 17.955435
111.37675 66.123863 18.07884
106.72952 66.880493 18.023319
104.3587 69.542274 18.004028
106.71393 73.226715 18.088924
116.13914 64.299583 18.172335
112.711 64.51828 18.182541
112.3958 69.884979 18.126949
104.25567 70.787498 18.124203
111.44907 65.584328 18.321568
105.71143 72.934578 18.380995
107.53471 73.323059 18.32937
113.66008 70.220802 18.441624
113.49142 63.83403 18.599365
111.54538 68.720825 18.550257
110.21813 71.850723 18.665588
104.33539 69.492302 18.734919
104.72714 71.635162 18.785431
112.15067 69.496346 18.989471
114.36398 70.280205 18.93824
110.47459 69.045975 19.003263
104.98257 71.900208 19.029062
104.98691 67.783096 19.23781
109.56995 67.828705 19.253119
113.48691 70.132385 19.244102
112.40678 64.600655 19.351316
110.12659 71.707352 19.4953
112.03933 69.122314 19.59893
116.4166 69.132164 19.587788
110.36928 70.426392 19.527662
116.57092 64.429085 19.620449
117.35363 67.659241 19.625994
104.39641 70.968033 19.613665
117.50568 65.632683 19.791321
116.95305 68.640862 19.787687
109.8544 71.863091 19.783045
117.20756 65.215279 19.826954
107.62866 66.728134 19.821072
111.15039 67.83712 19.802319
111.32195 68.061569 19.827713
109.16939 72.442909 19.813763
115.91368 69.474861 19.912489
114.41502 70.060593 19.981707
114.60123 70.089905 19.913197
104.97646 67.646637 20.000553
115.2146 63.663788 20.109146
116.51562 64.176201 20.234108
104.22553 70.468719 20.280243
109.8491 71.71553 20.344511
108.92383 66.908432 20.499632
107.14947 72.921463 20.416458
114.61494 63.524498 20.533464
117.56306 65.448174 20.577587
109.89988 71.609848 20.573679
114.06232 63.457005 20.62616
117.48753 66.963112 20.670273
108.84464 66.792458 20.715076
104.26858 69.767082 20.717047
116.20599 63.614883 20.820372
117.05856 68.318474 20.807684
116.40811 68.853081 20.853294
109.25278 72.120117 20.875305
116.58279 68.690331 20.907892
113.40137 69.749054 20.942045
117.61955 66.19796 21.055956
111.43826 67.736206 21.153881
113.24557 63.67704 21.251333
110.38506 69.272789 21.366982
115.43173 63.40728 21.491755
105.4162 67.007751 21.524309
112.96714 69.582214 21.504091
113.73999 63.244556 21.688608
116.26991 63.455574 21.681301
111.59537 65.401321 21.600403
107.33974 72.674698 21.615627
116.36497 63.505852 21.842991
110.25653 70.933159 21.941217
117.5314 66.845581 22.064598
109.36981 67.225731 22.068443
117.11005 64.363487 22.180162
109.99342 67.890831 22.263315
110.07917 67.989388 22.243284
109.24599 71.805428 22.290096
106.95613 66.261032 22.397964
105.77362 66.579872 22.347317
109.59627 71.443413 22.333889
109.30268 67.085739 22.484753
110.27885 68.273003 22.695518
108.54739 66.346573 22.735601
109.42687 67.172241 22.756443
116.00323 68.874252 22.774797
116.08746 63.326191 22.809061
111.72218 65.307114 22.922283
110.06448 67.842163 22.94384
113.04228 69.309494 22.975792
104.74963 70.634743 22.945961
113.66839 63.359756 23.075588
110.23389 68.121223 23.049177
108.76573 66.295517 23.137922
111.52465 66.703506 23.144068
110.14049 68.7351 23.17425
106.86687 65.817062 23.264957
107.20992 72.205986 23.540113
107.74118 72.290131 23.542408
114.81726 63.126408 23.661552
111.93201 64.855728 23.651926
109.5789 67.167488 23.680872
115.66328 69.296951 23.638334
108.8808 71.581535 23.705074
112.30005 64.619637 23.885239
117.8252 65.042915 23.855989
108.56035 65.785614 23.875479
112.88668 68.95726 23.81992
116.93396 63.720703 23.907963
116.31914 68.477638 23.949421
113.17017 69.054024 23.936348
109.89767 69.996475 23.929266
107.42737 72.139519 23.97451
115.44892 63.14566 24.038998
108.97827 66.301064 24.082165
109.45946 66.961647 24.075523
111.81745 68.149246 24.023586
105.69821 65.553085 24.283634
112.26681 68.535339 24.203835
105.03255 70.792519 24.232693
109.29463 70.974678 24.279045
117.6969 66.981773 24.342831
109.79642 70.128387 24.382114
114.34093 63.189228 24.58173
117.81856 64.568863 24.559856
104.02044 67.260162 24.576284
117.3708 67.477768 24.573944
112.71011 68.616173 24.599838
115.25225 63.087627 24.646376
109.97146 67.993828 24.61582
115.4973 69.267242 24.660286
109.75777 69.813034 24.631248
111.60522 67.352341 24.779011
113.08585 68.729431 24.79969
108.31415 71.562698 24.74966
116.44024 68.731644 24.81649
109.19954 66.342438 24.948809
109.83728 68.628929 24.957424
113.14313 68.706268 24.960596
111.57826 67.732933 25.058828
114.69337 69.439034 25.047014
105.71313 64.962685 25.106873
116.48662 68.820526 25.133636
117.4936 63.984169 25.264637
111.9317 65.08773 25.211216
105.4774 65.166107 25.242603
105.03687 65.673012 25.246342
108.93033 65.852486 25.224035
108.68402 71.021233 25.264084
108.94794 65.687386 25.489582
109.34569 70.455231 25.421747
117.86534 64.818527 25.52722
109.61404 66.610779 25.535213
112.94788 68.661568 25.52972
117.89098 64.661354 25.690771
117.86543 66.207954 25.604378
108.05714 71.385002 25.618811
113.54657 63.464783 25.766466
108.87434 65.515869 25.750448
103.84301 69.191055 25.760138
108.5255 65.119675 25.832466
108.69402 65.299545 25.848595
117.42114 63.881485 25.979889
117.91544 66.333298 25.962748
112.55415 68.342346 25.923912
116.93742 68.388733 25.909752
105.45387 71.386406 26.045103
112.80699 63.798515 26.203531
112.24315 64.261742 26.321884
103.99908 68.523964 26.391499
108.23981 70.851151 26.383795
109.89316 67.95089 26.456158
105.32719 65.138969 26.575996
112.94418 68.477905 26.544727
108.69258 65.245094 26.699959
104.08351 66.609657 26.674212
108.09444 70.764343 26.638027
114.45778 62.573326 26.709019
105.49981 64.963043 26.784981
104.03928 67.109077 26.764454
116.24313 62.755653 26.891323
103.94318 68.606194 26.886236
105.56789 64.880669 26.947453
105.249 70.620293 26.971607
107.76625 64.711807 27.048376
114.511 68.94487 27.06164
108.7753 70.15094 27.028023
117.51675 63.799213 27.144939
117.87334 66.046661 27.121258
112.75941 68.35778 27.170376
109.00752 65.576935 27.230713
117.78899 66.567322 27.281834
105.94611 70.87764 27.22921
106.21146 70.832024 27.314207
115.23766 62.301361 27.414722
111.60698 67.048866 27.432627
113.53534 69.118958 27.52528
109.33023 69.754471 27.57844
105.42658 64.88237 27.653629
108.6669 65.211426 27.828747
114.86128 68.951813 27.837868
113.78926 62.397083 27.918098
114.62448 62.315208 27.950523
117.75579 65.061584 27.998421
105.01212 65.101791 27.962147
112.34169 63.734703 28.099056
103.87346 66.188499 28.050262
111.57857 67.321793 28.080244
117.4798 63.62756 28.15122
114.55259 68.999878 28.170372
112.67544 63.28875 28.219959
109.97198 66.542068 28.324024
106.10798 64.634445 28.414623
114.57947 69.020966 28.416168
108.12092 64.606194 28.540014
117.82524 66.197159 28.507341
109.25063 69.939117 28.503304
111.54431 65.181259 28.646135
116.42548 68.493431 28.615236
109.85939 69.174347 28.636391
112.8214 63.011032 28.749723
107.59274 64.548111 28.728804
116.63638 62.788689 28.860027
106.08932 64.507988 28.84243
115.39941 68.95446 28.878698
109.28027 69.952187 28.896561
115.74519 62.062992 28.970333
116.46057 62.618172 28.985167
111.6852 64.43309 29.075321
112.03075 67.952118 29.030617
103.72454 68.582985 29.055639
108.95243 70.308487 29.062103
112.94087 62.772285 29.246508
107.40417 64.3993 29.229778
104.81689 64.719566 29.409184
109.98975 66.594391 29.489786
116.01479 68.927399 29.499722
104.12594 65.161369 29.579943
112.58653 63.166969 29.616634
113.85131 69.281219 29.607025
109.8829 66.410431 29.702089
115.85096 68.956909 29.756287
109.90648 68.959648 29.888369
109.16731 65.43956 29.962559
112.94209 68.970543 29.903997
117.7346 65.434769 30.082504
112.14033 68.285645 30.082115
113.21246 69.252838 30.046518
106.68364 70.920067 30.023941
116.88086 67.781372 30.275795
112.52116 63.138557 30.313837
106.17694 63.926754 30.397999
105.15914 64.081512 30.300636
116.79482 67.89743 30.418613
109.95584 68.443848 30.462936
108.18913 71.002357 30.426283
114.24444 62.088802 30.520069
114.10744 62.0965 30.61742
111.81726 63.969826 30.606838
112.22085 68.536537 30.630955
115.7477 61.846943 30.752056
117.6848 63.688595 30.795553
111.27625 65.734024 30.777969
108.9687 70.296669 30.990402
107.65491 63.859283 31.061436
111.54426 64.08268 31.028904
106.45038 70.832184 31.085175
113.58867 62.140224 31.116467
104.32896 64.35276 31.137867
103.79242 68.592575 31.168129
117.16208 63.118607 31.205288
111.29509 67.528351 31.297241
112.58955 69.088158 31.296284
108.47327 70.736603 31.203602
111.13814 64.250664 31.363146
109.96296 68.580933 31.324677
117.68572 64.802856 31.469944
113.19329 69.601051 31.456228
104.75399 69.880051 31.454691
109.90025 65.680527 31.873993
111.65643 68.659821 31.862545
108.80949 70.426392 31.837914
105.85883 63.218788 31.995636
109.79993 65.523682 31.972277
105.59261 63.133511 32.079865
108.13821 63.573624 32.035568
110.08643 67.159836 32.036709
103.42908 67.242966 32.050842
104.00876 64.348892 32.198689
113.00168 69.709999 32.127678
106.63908 70.82402 32.191326
106.71415 70.839706 32.153481
112.74995 62.366234 32.216141
108.60364 63.99173 32.251133
104.67469 69.746925 32.248268
115.40791 61.771446 32.376656
104.17851 69.067841 32.397713
106.56271 70.8041 32.333214
105.55109 62.964138 32.4785
118.06474 60.798248 32.552246
110.90045 65.440453 32.580006
103.4188 65.90023 32.556755
109.54194 69.403168 32.59798
119.03763 59.880013 32.620335
105.79074 62.921757 32.696983
111.81845 63.140305 32.640686
117.59529 65.609962 32.646999
103.40767 66.650986 32.60918
110.87733 64.541313 32.745979
104.53014 63.651558 32.863979
107.46445 63.156689 32.920647
106.19706 62.856918 33.073936
119.69278 60.804268 33.171158
114.40042 69.546036 33.174324
119.12202 60.264313 33.231487
104.02173 68.820992 33.262253
104.6365 69.656578 33.224186
103.36125 65.721039 33.300919
118.47884 59.571892 33.497345
110.04517 65.280914 33.419384
109.9287 68.653778 33.501076
108.63994 70.370705 33.540924
119.5706 61.476486 33.732979
110.41586 66.038963 33.879498
110.0172 66.144669 33.823814
112.38905 69.570175 33.806316
104.9205 62.98703 33.905685
108.93736 63.279743 33.921738
104.37488 63.485756 33.996048
110.61906 67.344223 33.962051
105.97051 62.501301 34.079399
116.21413 62.384354 34.100677
117.4724 65.975258 34.150383
110.61147 68.278694 34.10894
109.59336 68.947525 34.125961
109.31751 69.304138 34.181557
106.74348 70.750816 34.133373
106.87362 70.772781 34.16349
104.01422 68.794304 34.200562
117.46198 66.777771 34.370804
106.57204 62.406487 34.492195
111.21124 63.255959 34.436005
117.43611 64.898811 34.488941
106.20629 70.616035 34.490585
115.82251 62.042393 34.542759
104.06522 63.637745 34.514412
104.14345 68.966499 34.59494
108.22145 70.692352 34.522743
107.80695 70.87159 34.599785
120.27979 62.577095 34.678917
103.916 63.750607 34.619598
117.40929 63.704887 34.669025
103.23326 64.784622 34.617588
115.98148 68.779007 34.771057
109.44832 69.428665 34.845547
113.6272 61.657806 35.066666
108.18433 70.605484 35.094269
113.06921 60.201973 35.116531
115.02688 61.604874 35.161633
104.66458 62.887787 35.147717
105.01125 62.51915 35.279137
110.03767 62.667503 35.22747
103.21583 62.72327 35.234463
103.32276 64.128967 35.288345
116.19016 68.489189 35.273506
104.35274 69.2453 35.247913
114.87115 61.593899 35.390877
116.90505 63.129959 35.32423
113.8734 69.84034 35.337006
104.94654 70.047394 35.330524
105.23367 62.252602 35.470367
117.37535 64.371819 35.469006
104.08657 68.886246 35.48172
111.46486 69.429108 35.429016
112.14875 69.75753 35.439289
118.97285 60.196507 35.544167
113.38591 61.557735 35.591194
105.25625 62.211494 35.590469
110.75274 69.652412 35.508133
118.84303 60.522778 35.623318
106.33141 70.52063 35.692829
105.78716 70.424286 35.713638
107.36852 60.170227 35.880447
117.59323 64.07589 35.800064
104.49738 62.824715 35.962734
117.49272 63.486275 35.978695
117.36742 65.620018 35.965115
116.35579 68.257904 35.916138
108.80223 70.648308 35.904522
108.08197 70.735687 35.902683
110.72206 62.014511 36.016567
107.42037 70.611725 36.17561
108.36561 70.738548 36.147194
113.13482 72.050011 36.16618
106.48689 72.042854 36.205967
113.60547 60.520599 36.354797
110.00139 61.771229 36.383133
111.95535 61.751869 36.396446
120.27026 62.624554 36.309776
115.10999 69.672256 36.315868
114.99397 70.720642 36.303772
118.57613 60.746098 36.457329
114.4068 61.560005 36.47327
116.64359 62.965088 36.471966
106.39093 60.762337 36.550873
102.82846 64.413025 36.553604
117.13354 67.202477 36.573833
112.0313 61.520077 36.658203
105.85143 70.324959 36.641827
118.90555 61.111404 36.724491
116.87 62.41048 36.762424
117.44476 63.569672 36.744171
117.52252 63.952271 36.775436
119.81868 64.034103 36.774086
111.69827 70.336327 36.752907
103.13783 65.350197 36.858994
113.5997 71.756279 36.889816
114.10884 61.538933 36.936375
110.03815 61.624298 36.974342
116.33403 62.704815 36.920383
117.70896 66.358078 36.920452
103.07596 67.149185 36.9347
103.19547 64.53743 37.054024
103.18285 64.967339 37.085426
116.8604 67.567513 37.007767
117.2358 67.81517 37.026337
117.29408 65.132919 37.14032
115.70586 69.091362 37.129181
112.92382 60.221153 37.200188
117.28841 65.132057 37.241203
113.08898 70.219063 37.270588
107.28139 71.92424 37.213192
108.30812 61.650219 37.339424
108.869 61.615532 37.356365
107.76042 61.799335 37.364124
117.25964 63.719082 37.341534
111.19315 72.02626 37.304962
103.11607 63.073212 37.474358
119.05844 63.089615 37.488876
103.26258 64.322464 37.459553
109.04176 70.79303 37.437561
107.15571 60.324291 37.530556
116.15218 62.045773 37.513226
116.87337 63.256401 37.504288
120.61794 63.480675 37.528999
103.2597 64.523727 37.53389
102.5958 65.412575 37.570518
105.88865 71.538727 37.505291
112.26147 61.437756 37.637123
103.14907 67.437943 37.670784
112.3932 70.358292 37.669949
112.63375 70.327705 37.671219
110.92455 70.553024 37.670193
105.72142 71.351089 37.657021
108.43736 61.581043 37.798759
103.27818 64.85421 37.770447
114.62832 61.096668 37.872982
116.78042 62.62616 37.801704
117.8786 63.465569 37.883392
119.75591 64.814064 37.807732
117.14828 65.834671 37.883904
114.21733 70.095062 37.825027
113.72847 70.197655 37.831188
106.50311 60.704399 37.973351
119.05765 62.770287 37.928974
103.20108 68.185135 37.998096
106.87003 60.484112 38.013809
119.82845 61.569782 38.093735
116.94189 62.828236 38.067379
103.50452 67.860832 38.050285
114.09984 60.83931 38.161858
102.04439 66.216904 38.123718
106.68925 70.444382 38.154049
117.04671 66.838249 38.241684
103.23305 66.979935 38.263935
115.8394 69.849213 38.260609
109.23576 70.858406 38.234554
107.66613 71.793289 38.233067
120.68446 64.078789 38.309746
119.76806 65.202042 38.367508
105.28999 70.828606 38.310802
106.28579 71.745415 38.353794
106.67773 62.020622 38.418324
118.0037 62.920391 38.460007
116.05659 68.425705 38.457813
103.39993 68.616714 38.423195
115.00834 61.432034 38.591728
114.32887 61.663269 38.504147
103.27046 62.919464 38.587738
118.03146 64.435669 38.591408
115.32156 69.076927 38.564575
115.06926 69.306053 38.58371
114.16291 70.168518 38.562527
109.20116 61.310295 38.623539
113.87072 61.646702 38.686825
120.6777 62.809174 38.637886
103.34856 65.854271 38.661526
116.87424 67.335693 38.75441
107.18665 70.52388 38.736565
114.0381 60.833408 38.839447
117.78879 64.096519 38.877396
102.48257 65.993706 38.887379
105.08714 69.548538 38.856049
109.32333 70.906921 38.892208
112.43983 71.925201 38.815598
104.23774 62.959679 38.97506
102.06376 63.828293 38.901203
117.0675 67.871002 38.923054
103.55833 68.899101 38.995628
106.60819 70.38472 38.913082
120.20653 64.597496 39.061172
102.74938 64.640747 39.067543
102.55357 65.514381 39.042999
101.88696 66.664543 39.046997
103.32369 66.998764 39.098412
107.68617 60.217857 39.269623
104.6232 62.020584 39.290741
118.87082 65.663429 39.226162
112.53358 70.485382 39.267616
110.81326 70.756401 39.227592
116.9564 63.449154 39.392235
112.41136 60.156639 39.454742
107.26354 61.765343 39.419273
102.24924 62.870438 39.418076
116.74452 64.354462 39.455227
116.7448 64.584442 39.440838
108.54027 70.755692 39.448696
102.58932 63.178192 39.572235
116.69434 66.135979 39.548313
111.37804 71.756737 39.565762
106.99309 60.535118 39.688999
119.89016 63.263023 39.604424
117.88242 64.717285 39.616699
102.88809 64.153923 39.702854
117.2236 64.418457 39.74855
110.41832 71.664597 39.732368
108.99634 61.229267 39.891453
114.97775 62.370544 39.887428
103.31522 62.992668 39.847797
117.93311 63.468647 39.846657
116.6375 67.012825 39.889732
114.99643 70.359642 39.830902
108.63881 71.584709 39.875969
108.96422 71.594261 39.893127
109.62827 60.764496 39.920773
102.62585 62.563759 39.961689
103.2478 63.073143 39.93837
120.6432 63.388107 39.90366
104.01144 63.765083 39.927742
103.53648 64.741859 39.909248
103.55953 67.619812 39.915398
107.73979 71.568283 39.968819
113.25899 71.853416 39.985092
119.629 63.495544 40.005104
118.45129 66.023575 40.082001
102.67641 66.436768 40.087273
111.81316 71.76973 40.055157
113.85247 61.813519 40.171623
104.07503 62.397636 40.167297
102.09903 63.434456 40.166481
102.88412 63.575684 40.180298
102.59154 66.21315 40.152832
117.32755 64.866203 40.26725
103.47654 65.459564 40.238762
109.09681 61.188293 40.361301
102.81135 61.530807 40.377495
114.15496 62.020649 40.322739
120.52828 63.502136 40.372738
103.48 67.136024 40.337173
103.33159 68.123337 40.399433
110.02415 61.177235 40.474976
118.1818 65.687424 40.404819
114.61302 69.412445 40.487209
106.63414 71.58017 40.468185
113.83443 61.071968 40.504322
109.70343 61.183548 40.582932
108.65907 61.238503 40.536011
112.91383 61.409645 40.528713
115.7513 62.119545 40.553551
109.98367 70.81723 40.553581
113.43203 71.801727 40.501011
115.36516 61.805672 40.690067
106.41706 71.602066 40.630291
112.57005 71.848129 40.650887
112.93291 71.850914 40.687141
112.44264 60.153404 40.711018
120.06452 63.001518 40.754257
120.01585 66.448914 40.792542
112.29948 70.327202 40.749012
113.51508 60.957806 40.810825
111.12641 61.168381 40.86388
111.21663 61.174477 40.824753
103.43959 66.083466 40.840389
116.25121 67.495361 40.838539
106.8297 70.065216 40.826569
111.84862 59.978035 40.982395
104.06206 63.975288 40.916206
103.43997 66.081894 40.908966
115.16839 68.980003 40.956444
116.8744 63.486759 41.061157
103.76358 68.984909 41.025436
103.00781 59.55434 41.162674
103.02003 59.70166 41.143341
108.42579 59.97916 41.151577
106.09197 60.954334 41.123962
115.44083 61.812469 41.162212
103.04314 64.052376 41.121037
114.91029 70.439049 41.134235
115.97 64.044113 41.27021
108.67236 70.493782 41.259315
104.76364 70.01268 41.415951
103.53046 59.003006 41.556938
114.68385 62.661484 41.550621
104.72433 62.82093 41.556465
115.9174 69.510658 41.507923
114.12019 61.221157 41.612476
104.09389 64.141891 41.68792
117.47911 66.582802 41.696068
107.14282 61.69149 41.720146
117.90558 64.94931 41.72427
101.52512 66.575768 41.780052
115.46315 68.543015 41.777386
102.59486 60.658604 41.869553
102.43649 66.019463 41.872604
101.51194 66.646599 41.885685
103.73355 66.601479 41.855133
101.75353 67.755447 41.845291
104.24098 69.47554 41.877674
108.71219 70.362625 41.875496
107.69031 61.459354 41.973442
104.50043 62.246658 41.919983
104.93798 62.684132 41.911476
115.89397 64.824547 41.998985
105.50818 69.085663 41.92271
106.48625 69.544212 41.98558
102.73566 61.918289 42.044662
103.37033 63.338612 42.029655
103.86929 66.798576 42.152988
115.93364 67.358444 42.127205
116.13248 69.312408 42.166267
111.72347 60.541729 42.216442
113.82649 60.594368 42.209499
109.27945 61.290524 42.273476
103.59406 63.165947 42.246368
102.04928 65.708054 42.249207
103.45741 68.461426 42.210609
112.79831 69.779312 42.203209
102.74706 56.512012 42.330627
102.57848 60.740623 42.335434
107.61053 60.986179 42.325191
119.71487 63.870083 42.35918
102.66519 66.05957 42.33334
114.36845 62.59412 42.471489
103.55057 63.24221 42.438206
103.97961 64.503586 42.458862
104.18832 67.748154 42.417187
110.86305 70.214699 42.494122
106.38003 60.723068 42.58279
112.5905 61.640827 42.536934
102.59989 62.658615 42.58424
118.21353 66.856773 42.51049
117.31197 67.069801 42.528088
104.23154 67.831459 42.545723
102.04934 68.147789 42.524536
116.61846 68.864403 42.526157
102.1064 56.990208 42.616394
108.95694 60.480652 42.655422
117.16528 67.481079 42.645668
114.8167 68.645111 42.694183
102.97098 56.725506 42.786369
117.02821 67.865326 42.780602
115.0367 68.506111 42.794678
103.61109 57.064724 42.852982
106.34589 62.097504 42.815376
103.41781 63.458473 42.87606
115.57995 64.312988 42.82069
101.96283 66.174004 42.887581
120.1032 67.638657 42.869389
115.70331 69.708023 42.836029
111.05574 70.136871 42.874737
114.29916 71.002396 42.832981
103.53215 54.645958 42.987473
103.66329 56.773773 42.982998
103.62231 57.40667 42.926746
102.48151 61.264542 42.995361
116.91026 63.966053 42.962856
102.05782 65.647644 42.960358
101.55029 66.41494 42.948391
101.36563 67.435486 42.941338
117.14891 67.526947 42.973778
105.44556 68.657181 42.923347
115.27431 70.120193 42.98893
114.27253 71.056801 42.985657
107.2123 71.840134 42.997154
112.31683 60.20974 43.093563
109.38945 60.351372 43.031311
108.99188 60.4235 43.005661
113.97153 60.630806 43.025402
107.16438 61.227253 43.038757
103.29541 58.803459 43.179974
103.02784 60.687256 43.19828
113.07671 61.961327 43.145767
118.99036 64.203102 43.190376
117.84699 66.41272 43.16666
101.46001 66.909958 43.156563
102.25952 66.9748 43.132736
114.32726 68.736015 43.151955
113.00343 71.847763 43.106918
103.35838 55.590202 43.228306
103.74363 56.729244 43.299423
112.50614 60.267479 43.267841
107.18594 61.21883 43.213882
112.45913 61.640064 43.271854
107.09717 61.781769 43.223049
102.29231 62.304943 43.286858
103.33843 58.967358 43.377029
112.07469 60.481857 43.338932
102.78372 61.629044 43.315102
103.58076 63.371426 43.357136
102.22661 64.706863 43.388519
103.09808 64.828217 43.397995
115.06812 70.40435 43.35627
107.45493 71.831375 43.342644
103.05031 54.79641 43.422977
101.45113 57.011585 43.466522
100.38214 58.51545 43.483639
106.82633 60.576897 43.45187
108.33502 60.629795 43.444386
102.95666 61.075111 43.497375
111.39695 61.507233 43.418957
114.0598 62.572517 43.418037
115.48621 64.318726 43.478561
102.03175 65.782532 43.457714
120.73944 66.613419 43.458599
104.08259 66.855385 43.484779
101.41662 67.143517 43.490623
105.57716 68.492638 43.411243
102.9805 54.312683 43.533188
107.96931 60.820438 43.577
104.15137 64.272621 43.567459
115.87268 65.471512 43.519123
102.01205 65.89006 43.529202
119.57716 68.349754 43.551178
103.2039 55.028389 43.63229
101.52905 58.828331 43.641235
115.8708 65.812454 43.627686
101.60471 68.545135 43.61898
106.28452 68.743729 43.631046
102.00523 55.156067 43.764076
104.22873 56.078323 43.71471
101.47873 56.186413 43.735771
103.11452 60.198433 43.721928
108.00714 60.804237 43.791626
107.70014 60.96172 43.737305
102.17496 62.945457 43.731621
117.1735 64.8946 43.745193
114.76976 68.325516 43.762665
106.05231 68.557579 43.778397
116.09489 69.547379 43.774406
109.38023 69.928864 43.773354
104.90182 70.66053 43.712399
102.94231 60.742744 43.842705
114.36869 63.054852 43.880363
114.18842 68.574112 43.867538
107.36564 69.550011 43.853653
105.95449 71.668121 43.895657
104.00082 54.419907 43.989365
103.90814 57.845844 43.974594
104.42561 63.738716 43.920753
103.94332 55.207169 44.001629
104.06699 56.966629 44.033478
103.3396 58.94825 44.057339
111.7211 60.367256 44.02515
108.50027 61.664291 44.087097
119.39572 64.830231 44.098824
116.96845 68.537804 44.090538
105.40016 71.223679 44.098267
110.99649 71.820869 44.060238
103.40711 56.129906 44.142849
106.02093 62.353859 44.179501
99.456223 62.870907 44.184422
103.33527 68.485634 44.101089
108.25121 71.80983 44.102238
104.7495 53.747337 44.240654
104.38588 54.030334 44.293686
100.74772 58.220932 44.239269
109.47615 61.592937 44.261703
101.80403 64.986267 44.249531
117.45129 67.170265 44.293476
103.42613 68.823227 44.280602
111.67084 69.848076 44.213017
107.83205 60.272221 44.315086
113.71182 60.704502 44.306038
112.20358 61.809315 44.350624
104.71367 63.182945 44.334808
100.32713 63.869774 44.389923
102.90933 65.496498 44.313759
116.92998 68.803848 44.373161
107.0186 69.250664 44.301086
109.90344 69.82959 44.368839
104.36517 55.311272 44.419632
102.22873 58.984596 44.497196
101.02162 60.583344 44.45586
110.89409 61.677055 44.459099
115.42659 61.627846 44.412872
105.52631 62.093506 44.433285
102.20003 64.834213 44.443901
102.63091 64.898117 44.431274
116.59418 62.847965 44.547569
114.39645 63.333454 44.504612
100.61842 63.991653 44.554657
117.12437 64.641335 44.586082
114.50352 68.210457 44.525047
104.16428 56.416939 44.68708
102.33938 59.019386 44.690514
103.13943 60.044239 44.616688
113.73647 60.794403 44.679203
105.70759 61.308769 44.687706
101.70885 61.626831 44.614128
98.837769 63.128868 44.61562
102.27879 64.39444 44.681595
105.20386 67.697762 44.696823
119.47238 68.889252 44.614841
103.11285 59.783031 44.768017
107.0265 61.324581 44.740517
101.52708 62.819733 44.776058
101.1841 63.939953 44.73695
104.47268 54.709072 44.853283
105.29616 62.888931 44.898834
103.14964 64.696068 44.813583
102.76802 65.788994 44.89669
99.013016 65.836494 44.849564
101.63609 65.90403 44.820183
114.47014 68.17424 44.873966
116.42699 69.493813 44.810123
103.36029 53.937691 44.990738
104.46554 54.746708 44.951538
101.69902 58.538582 44.997078
113.01222 60.901611 44.925751
103.25227 61.454643 44.902302
114.93735 61.653255 44.942657
102.58073 62.721046 44.929718
98.415146 65.296791 44.96722
98.656998 66.24276 44.989979
114.55097 68.115524 44.951977
106.76598 61.464058 45.073273
104.51305 65.112869 45.068031
103.22522 59.154354 45.174896
107.74239 60.962345 45.192429
102.83817 61.293442 45.182632
101.17043 65.459221 45.197315
106.26977 71.728348 45.102791
101.67444 56.400547 45.286205
103.43835 58.381153 45.20491
116.22884 62.303646 45.210449
102.89767 63.409065 45.224274
101.5227 64.255875 45.267326
100.52393 66.67807 45.21505
118.20172 68.244194 45.254238
116.83842 69.219101 45.25425
106.10164 61.225353 45.383125
114.72019 61.362751 45.334908
102.92279 67.440598 45.334408
103.20419 57.227325 45.426693
115.86119 61.886604 45.403885
102.31531 64.178146 45.457214
103.24434 64.295502 45.429306
102.72975 64.333336 45.443207
117.93327 66.73568 45.437145
115.1012 70.5905 45.487576
105.06473 70.771446 45.479607
102.49707 56.441475 45.556633
103.44487 57.93425 45.504139
115.46561 61.730347 45.534466
102.03134 65.745064 45.599586
117.90138 67.114044 45.521446
115.32176 70.453537 45.561096
103.42866 58.42609 45.671196
110.09706 59.855785 45.680794
103.08877 60.305805 45.60997
112.68993 60.545616 45.659206
106.41501 61.102543 45.601974
117.89547 67.271286 45.653275
103.01122 67.899666 45.694084
98.477348 68.454514 45.642956
118.25558 68.641647 45.69099
101.61754 57.610325 45.759716
103.96515 57.497196 45.814903
99.963028 58.092609 45.828598
111.22192 60.235588 45.879391
102.53907 60.893616 45.863541
104.82603 61.951412 45.830303
97.906471 67.465317 45.869354
120.6412 67.450714 45.881493
103.24145 68.84343 45.814713
103.31013 58.669762 45.996826
102.10469 59.349827 45.955345
102.08051 59.418419 45.988449
101.80105 62.984917 45.903278
100.48533 68.192238 45.9487
112.86623 71.808205 45.972679
103.3903 60.670944 46.038887
115.30331 61.775055 46.079086
102.44194 63.466568 46.090317
120.09706 66.30529 46.011066
101.15256 68.554565 46.034721
115.00688 70.593719 46.060974
110.58365 71.85981 46.055717
101.03642 60.563221 46.195766
102.79408 66.666809 46.167965
97.825348 66.771133 46.107086
100.3942 58.639244 46.260345
99.602356 60.014854 46.294544
101.51828 64.807091 46.223488
118.83843 65.873703 46.223396
118.71697 65.988091 46.253098
102.92778 67.39566 46.265934
120.62644 67.674683 46.225117
97.989532 68.620804 46.292919
104.31361 55.560402 46.392551
102.97346 58.484913 46.35717
103.22047 59.563965 46.360054
99.75695 59.733612 46.334663
112.6016 60.650398 46.3349
104.66283 62.559498 46.304142
102.83235 66.865616 46.322014
118.00841 68.817619 46.477783
103.04337 60.538536 46.586876
114.30802 61.523861 46.559628
115.65585 61.987076 46.595901
103.24377 64.059547 46.598389
98.111305 68.900192 46.523151
107.74234 71.832886 46.575825
100.99624 59.735268 46.685806
103.50089 63.286461 46.677731
117.57992 66.183075 46.631779
101.17766 66.337715 46.641056
120.14851 66.830902 46.653442
117.96811 68.859322 46.62598
103.9316 55.62645 46.739208
108.28979 60.243073 46.745667
101.09122 60.983078 46.759552
105.77923 61.542133 46.785599
101.09375 68.86599 46.776283
103.51529 57.519325 46.889977
103.79209 58.435108 46.845375
100.58246 60.577042 46.874664
101.20006 61.970016 46.813148
115.98012 62.108459 46.896358
115.02043 70.548477 46.819122
101.35323 70.752182 46.879246
103.63188 57.278904 46.961906
103.53167 59.872913 46.947472
108.17307 60.326756 46.921844
115.33484 62.066959 46.985954
103.45374 60.301552 47.063034
107.23764 61.227104 47.058044
100.94334 63.032406 47.065765
100.98295 64.36808 47.056835
103.28596 69.314781 47.031555
100.97289 70.080116 47.083977
107.25423 71.824226 47.088074
103.2359 59.059116 47.1241
100.41476 61.731636 47.123932
99.927261 62.611496 47.145699
99.404137 63.632103 47.190754
117.02269 63.905533 47.141903
103.24023 69.275665 47.136299
100.95166 69.825241 47.103287
108.57541 71.891815 47.116806
103.28516 58.784531 47.253883
107.605 60.590614 47.208622
113.21004 60.893009 47.29055
107.07816 61.307396 47.277111
103.26193 63.8405 47.240227
101.50928 68.599724 47.25819
119.30337 70.030167 47.297691
100.2372 62.838646 47.34581
100.61533 64.105919 47.356808
103.34384 63.543407 47.45343
100.41205 64.138252 47.437546
100.4364 64.453331 47.466316
102.44283 65.883469 47.424137
100.82829 66.398125 47.448799
100.47676 69.047989 47.493355
115.85914 70.09713 47.409981
114.50246 70.909653 47.486412
107.72675 60.506111 47.510452
100.19073 64.084625 47.511208
102.98405 64.562904 47.598595
99.353683 64.951653 47.541664
117.58731 66.176941 47.513168
119.99789 66.81562 47.568287
110.08875 71.920319 47.511929
103.40644 60.553234 47.604614
116.95759 63.706562 47.669971
117.07883 64.070709 47.620148
103.75384 69.656212 47.68557
115.42359 70.377274 47.676083
103.70142 56.473782 47.794861
113.27138 60.888031 47.772774
106.45029 61.126877 47.792664
114.63509 61.476669 47.715008
103.32341 63.515015 47.788597
99.892982 65.220848 47.75441
102.9551 67.889641 47.716663
104.43723 70.145271 47.796909
114.1443 71.144226 47.757881
110.58238 71.912643 47.762775
102.04154 66.051895 47.868599
119.79011 66.578827 47.898796
117.62593 68.226532 47.882538
97.798592 69.233871 47.884476
118.60973 69.80703 47.877136
113.93884 61.571907 47.918659
102.76819 66.906914 47.927029
120.5723 68.487045 47.921909
102.92216 64.614212 48.093643
117.25656 68.447296 48.063568
99.666275 69.606903 48.049259
106.28613 71.53849 48.059151
103.0855 59.871105 48.16468
107.9041 60.367077 48.157249
117.63759 67.150337 48.191559
118.01693 69.118858 48.165096
99.431877 69.723022 48.185158
110.15541 60.364414 48.244408
102.38109 65.733727 48.255795
101.24883 67.355492 48.244919
105.72299 71.11895 48.247059
109.80017 71.954193 48.264526
111.39662 71.903191 48.274967
103.29587 58.705551 48.318672
111.23001 60.564575 48.327892
101.82246 64.809998 48.300583
101.66688 67.024261 48.323753
104.78199 61.970329 48.458897
102.11972 63.164185 48.44593
104.0778 56.825478 48.505077
103.66119 57.086735 48.585457
106.46887 61.056992 48.579346
114.03963 61.169724 48.509613
112.96098 61.277626 48.554085
103.2329 63.567814 48.596703
100.30034 66.157333 48.559513
120.23163 67.269859 48.597198
117.41574 67.308685 48.513405
103.25719 56.875126 48.620514
117.51613 68.27079 48.626163
98.172974 69.436295 48.65741
108.74294 60.460285 48.721569
111.18145 60.602123 48.726265
111.64023 60.786377 48.752937
114.63844 61.516247 48.77039
105.04668 70.615448 48.746357
109.0425 71.965607 48.721462
103.69771 58.920483 48.842674
113.24786 60.805305 48.892281
117.75653 66.095779 48.897614
102.34238 66.412521 48.864246
110.3802 71.955154 48.864567
103.66815 56.636147 48.952171
107.69161 60.977478 48.940094
105.46078 61.582623 48.9804
102.85349 64.419701 48.995178
101.57688 66.409927 48.994499
101.40399 68.081078 48.950676
103.05811 60.005211 49.098019
104.67307 62.012974 49.089012
117.43094 68.347855 49.062653
103.97823 69.974838 49.018692
104.61269 70.301559 49.008606
111.26506 71.911324 49.004677
103.66013 59.122238 49.1726
99.539658 66.166893 49.192848
103.55123 59.722595 49.266891
108.45511 60.609795 49.298477
112.87497 60.622463 49.245354
115.3409 62.737034 49.267662
117.22485 68.48954 49.291664
117.17291 68.891479 49.249973
98.257683 69.383461 49.259892
119.95998 69.574394 49.378674
116.68259 69.803612 49.327354
119.60913 69.880814 49.372074
109.17585 71.99192 49.346882
114.6767 62.4123 49.448765
116.49203 62.927479 49.490131
102.42339 65.141396 49.4217
97.96167 67.697685 49.447742
97.936783 67.745766 49.438961
117.20004 68.648926 49.472584
119.88152 69.620575 49.488457
113.24614 61.632202 49.562695
102.27275 62.297966 49.554344
102.30576 64.683456 49.545425
117.69794 68.845535 49.577122
100.5853 69.296844 49.521706
107.13778 61.256592 49.667145
103.06947 62.378578 49.661575
102.24859 65.429726 49.606651
101.09218 66.104477 49.675125
108.23575 60.149357 49.776466
112.10368 60.310165 49.765686
112.72156 61.392811 49.76424
114.56853 61.575394 49.702057
105.19401 61.708298 49.748878
117.32655 67.14399 49.745701
100.32854 69.417572 49.722027
104.1106 70.156029 49.760521
103.33649 58.453491 49.800446
103.51713 59.899681 49.893196
106.40166 61.754669 49.825104
101.86092 66.696968 49.845898
117.3936 68.436836 49.845493
119.36478 69.929909 49.885818
102.77771 59.500053 49.918987
114.30431 61.441986 49.915531
104.4194 63.188034 49.925125
116.60385 63.282318 49.930531
118.88307 65.92131 49.962349
99.492104 66.099808 49.956123
98.147949 68.882576 49.969757
117.69049 68.896988 49.914883
107.47959 60.442318 50.064583
116.54948 63.179272 50.075752
102.43987 64.872353 50.016293
99.770821 65.967636 50.052635
117.31516 68.389145 50.006001
116.64111 63.418606 50.170757
102.14017 64.353958 50.289688
100.84584 65.891159 50.22039
118.82807 65.858276 50.231056
120.41078 68.286392 50.205715
101.32166 68.850342 50.27219
110.65584 71.948318 50.237576
117.48594 65.496262 50.379566
119.95709 66.716438 50.309265
101.48467 68.499207 50.324181
98.938942 69.885956 50.393188
111.54285 71.86512 50.372356
112.6085 61.538307 50.482258
102.76109 63.830276 50.44294
103.0765 59.876434 50.559586
107.61028 61.006149 50.512165
114.54858 71.124657 50.522041
111.77796 71.840866 50.552639
108.93907 60.978546 50.617142
102.87579 61.389256 50.655006
98.40097 66.959267 50.685265
110.07742 71.994751 50.664703
112.94158 60.58152 50.776875
114.28855 62.575218 50.761772
117.28869 68.448761 50.761738
106.30196 71.350266 50.753212
105.59152 61.434238 50.86657
113.17839 61.96756 50.842426
103.62423 59.288654 50.93655
120.38828 67.849808 51.059914
117.40414 68.652679 51.011589
109.3768 61.032406 51.109356
118.72528 65.604805 51.1726
120.35611 68.142868 51.193245
117.7066 69.130196 51.135483
103.38625 58.557533 51.217335
102.97864 60.404751 51.233948
115.774 62.239269 51.281219
117.29553 68.499557 51.201366
113.5011 71.464859 51.218609
102.61148 60.393433 51.305325
107.40518 61.193932 51.363861
116.55156 62.990135 51.389572
118.94455 65.659302 51.326073
118.37749 69.588318 51.352486
106.80589 71.58847 51.399803
110.58546 71.94014 51.358398
107.86089 60.380432 51.461281
102.84526 64.102524 51.465393
117.2043 64.622459 51.427769
119.98888 66.607658 51.467785
108.08665 60.326855 51.650391
116.46693 62.850918 51.688538
118.87196 65.566162 51.6759
119.24706 69.776649 51.652473
116.95444 69.858299 51.62912
116.86533 69.937256 51.647438
104.68362 70.815811 51.601063
102.94067 60.605545 51.722252
113.12505 60.714851 51.721542
106.23943 61.003555 51.797699
116.85622 63.719528 51.785183
98.433098 68.879448 51.7239
101.28634 69.163025 51.728424
119.24901 69.759888 51.771397
110.89884 71.906998 51.799431
115.68147 62.095497 51.802498
116.92511 66.606941 51.87244
116.89148 66.769646 51.982052
99.385094 69.574364 51.926434
103.25542 59.266052 52.002728
106.97473 61.539513 52.063599
116.21065 62.605717 52.092731
102.77002 69.94928 52.034878
113.69148 60.930405 52.189922
120.29464 67.964531 52.16003
119.2897 69.658966 52.188225
102.762 59.544903 52.202282
103.12328 60.764668 52.261227
114.0553 61.050758 52.264862
114.92774 61.554893 52.228077
105.29964 62.781517 52.232834
118.63339 65.353745 52.255005
111.68887 60.319817 52.42548
109.70814 61.065964 52.457916
107.47777 61.319126 52.43972
102.9229 63.565208 52.413589
116.78887 66.85434 52.461777
107.21558 71.822899 52.428619
103.27058 59.172234 52.544724
102.97266 63.270199 52.562248
117.94544 66.609482 52.519032
120.34756 67.052284 52.555698
120.22205 68.573044 52.511795
102.81358 59.292667 52.66507
112.04148 60.138561 52.606339
106.30054 61.021069 52.618721
115.38898 70.910034 52.660156
114.94601 71.141907 52.659592
110.14823 61.080887 52.750645
114.05162 61.088123 52.745808
117.90474 66.339661 52.714046
119.97569 68.799179 52.762486
118.87917 69.759094 52.782375
102.96431 63.141853 52.870155
120.23721 66.770798 52.85656
101.11343 68.343018 52.864887
101.54169 69.037315 52.863651
117.77866 69.356544 52.878719
112.83661 71.845398 52.849735
114.18173 62.635914 53.075542
117.48853 65.244766 53.062786
100.79361 69.419708 53.033707
100.0196 65.291191 53.124886
120.05996 66.546249 53.117428
101.27442 68.815895 53.142151
115.07753 71.13298 53.144524
113.70159 62.33387 53.202171
117.10056 68.504204 53.224815
120.30656 66.802666 53.32132
116.57536 70.280807 53.382969
104.09369 70.818657 53.32859
112.34632 72.009476 53.395634
111.98819 60.191818 53.425713
106.91241 61.737801 53.40387
118.19542 67.982819 53.458359
107.29738 71.86969 53.442535
104.13123 62.114925 53.566196
102.33061 70.060898 53.591751
103.91073 70.776619 53.574257
110.01044 71.971008 53.500858
109.27808 72.000839 53.597588
115.1514 61.612495 53.625755
103.84882 62.285706 53.601318
117.47162 64.665184 53.601997
98.741409 68.073761 53.60984
102.09616 69.895027 53.688129
109.87337 71.982277 53.627026
116.85422 63.230904 53.781704
115.35318 63.873016 53.705147
109.83214 61.090393 53.813099
112.4228 60.252625 53.974281
102.53945 64.67424 53.971313
114.84239 63.335503 54.013855
117.86372 64.692902 54.062992
102.37241 64.831848 54.044903
118.34002 64.945129 54.044083
98.814423 68.050636 54.04554
107.56748 60.889366 54.135109
116.73831 63.12077 54.181267
117.29416 63.820141 54.181953
106.1161 71.579758 54.197884
106.41356 71.657104 54.194126
111.84674 72.024422 54.104797
110.55502 71.944916 54.278008
114.83236 63.461189 54.383453
112.88142 72.021187 54.36657
107.68433 60.912201 54.40802
111.00807 61.16597 54.482784
117.86078 69.208557 54.405468
107.38615 61.698074 54.554672
98.863129 66.949715 54.571041
118.39612 69.557312 54.541565
105.06163 71.372116 54.575897
113.50323 71.856209 54.510353
103.61869 62.388691 54.62281
108.46959 71.930618 54.601593
115.22594 61.899422 54.777294
105.06174 64.019394 54.758202
102.65059 70.220322 54.727531
103.14674 70.554787 54.775612
103.88547 62.355515 54.886585
106.28407 62.309669 54.806362
105.22775 63.760368 54.856194
99.710373 65.045929 54.898087
98.938416 67.022644 54.941704
120.12891 67.503235 54.92704
106.24004 71.691055 54.973988
112.26752 60.658554 55.057648
107.70065 61.041656 55.015068
99.170273 68.290253 55.068565
111.22087 61.517475 55.177296
119.53683 69.109779 55.122246
117.30365 69.74781 55.154778
117.07584 69.934303 55.153954
111.57037 61.746288 55.374077
106.842 71.90683 55.388775
107.44183 71.921799 55.34301
113.57214 62.64629 55.43589
117.28818 63.654278 55.437119
119.17333 69.444206 55.466377
105.28632 61.992378 55.531258
112.30418 72.161575 55.57534
99.69426 65.453224 55.624306
119.3602 69.298538 55.636986
113.27634 62.646461 55.772305
120.02941 67.401276 55.759495
112.46301 61.235603 55.940117
117.1315 63.55843 55.984573
117.6746 64.010567 55.996021
119.04163 69.453018 55.999435
102.45174 63.973351 56.018795
103.51463 70.709991 56.038525
113.53903 71.94117 56.190613
111.66323 72.130371 56.156914
113.04508 72.140556 56.148422
108.40411 61.191528 56.206738
100.82489 64.480164 56.275948
101.28278 69.128815 56.255878
113.88081 71.787827 56.272369
108.14162 62.082901 56.346481
118.16116 69.509674 56.316296
105.41331 71.559013 56.351242
111.6125 62.179008 56.449089
99.819611 65.523605 56.48645
119.70929 68.043671 56.490189
99.799149 65.636551 56.576351
115.07512 62.300217 56.646072
115.64597 62.518425 56.638901
104.05608 70.886902 56.679085
107.6078 60.91787 56.785919
111.66781 61.398685 56.71479
112.76309 61.503925 56.743698
100.09379 64.803673 56.752655
99.805984 65.7052 56.743507
105.05843 71.394691 56.746941
106.8995 71.818611 56.781395
99.834641 65.674759 56.854378
99.681053 66.263206 56.889999
114.83224 71.264175 56.830673
107.62894 62.571487 56.96209
102.21398 63.979801 56.99688
120.00841 66.739258 56.950195
109.37939 62.146553 57.020519
104.04697 62.854435 57.098839
113.32026 63.126938 57.036133
119.23772 65.553192 57.009819
115.26054 71.040344 57.041348
112.66542 61.604828 57.107544
105.49094 63.781296 57.117249
99.511917 67.152916 57.134193
108.6868 62.371986 57.265083
105.52896 63.742119 57.237862
119.69456 67.683151 57.272293
99.608536 66.972801 57.305695
107.08518 61.018925 57.448212
118.29431 64.386383 57.470161
100.59291 64.556557 57.421272
106.74818 71.641609 57.434818
108.57684 61.78912 57.593735
109.48798 62.352184 57.512562
113.89369 63.514912 57.581341
116.10349 62.943176 57.650684
102.62234 63.794201 57.692455
118.09726 69.615692 57.673523
118.88136 65.159019 57.974548
115.34499 62.751915 58.061977
101.91199 64.169434 58.034008
117.67298 64.177956 58.098763
101.73218 64.262642 58.036812
118.24317 64.430046 58.079296
101.20361 64.514694 58.001423
100.20227 65.993317 58.099064
105.82658 71.288734 58.08213
107.1685 71.63768 58.016617
107.66367 62.15398 58.147774
106.6098 62.328583 58.184921
102.71292 63.778812 58.153259
110.8896 71.660141 58.187691
116.25709 63.153679 58.266869
104.88936 70.855194 58.207565
104.75998 63.031708 58.370636
105.86697 63.798229 58.320518
111.61397 71.677422 58.35503
116.19994 63.260735 58.427696
102.3317 64.209915 58.588326
102.63074 69.271294 58.524223
106.38893 62.836494 58.652225
107.03932 64.558228 58.689201
105.85854 63.042557 58.710159
101.68748 64.638687 58.738789
100.19158 67.245911 58.706398
101.18247 68.39267 58.716446
107.44118 62.607605 58.826935
113.96668 62.961578 58.889511
109.19437 63.004082 58.840706
118.98708 65.815071 58.890015
103.55507 69.783226 58.844025
107.41 71.539375 58.815434
112.18414 62.708839 58.95694
105.59648 63.314285 58.917191
117.46027 64.373474 58.991653
105.73223 71.051941 58.968277
108.70396 63.174187 59.047058
104.31918 63.732285 59.058403
102.84775 64.242424 59.07349
112.64803 64.209099 59.080345
106.02503 71.121552 59.090824
104.47427 63.764679 59.141388
100.77354 66.196411 59.101868
112.89844 62.653545 59.295528
106.70161 62.878029 59.250191
107.32258 71.429176 59.231327
105.57214 63.701859 59.350979
118.07552 64.857506 59.330429
118.57272 68.567085 59.323647
105.21006 70.618301 59.348625
109.40411 71.497383 59.31657
