# .PCD v0.7 - Point Cloud Data file format
VERSION 0.7
FIELDS x y z
SIZE 4 4 4
TYPE F F F
COUNT 1 1 1
WIDTH 1612
HEIGHT 1
VIEWPOINT 0 0 0 1 0 0 0
POINTS 1612
DATA ascii
31.249786 48.022484 68.888481
27.179729 45.925652 68.993988
16.709616 50.140804 68.958923
22.655214 50.847878 68.972504
17.576464 44.160103 69.045578
16.146145 48.102745 69.070518
11.18088 40.694649 69.167183
18.607775 47.139057 69.198929
31.659729 48.51384 69.132385
18.397083 49.492203 69.142212
29.612352 55.425922 69.100616
31.605347 48.438927 69.2724
31.703388 48.559464 69.277145
12.778634 48.920811 69.242584
28.840199 55.976395 69.257988
27.93005 46.179005 69.332825
10.114095 46.885925 69.329895
18.434635 43.611965 69.477272
18.383524 48.845032 69.507271
23.132397 51.913734 69.567787
24.654295 54.247662 69.564964
9.3216686 43.765411 69.645912
10.964223 47.781441 69.717422
12.313788 48.639503 69.739136
23.503773 47.681866 69.892853
14.606627 49.815701 69.880302
27.894184 46.175289 69.994987
30.293148 46.963131 69.990616
32.957043 50.705296 69.979988
32.192085 53.038521 69.95089
18.207113 48.292877 70.089943
24.18445 53.53323 70.034637
29.50271 46.705318 70.137863
11.500837 48.095295 70.118729
23.546623 52.559105 70.252586
9.429163 46.313919 70.403816
27.125965 55.590279 70.571396
17.563377 42.23806 70.61895
24.425453 53.908684 70.677979
17.962044 43.753567 70.76844
18.228968 47.010826 70.732956
25.755199 55.00742 70.793167
25.493404 46.402802 70.825027
22.833092 50.356903 70.876801
9.9975815 47.414642 71.016495
25.61088 46.34631 71.170715
9.0866146 46.544979 71.198517
29.025234 46.548317 71.183029
29.919718 55.384766 71.182869
26.741096 55.440933 71.125641
23.00032 49.757717 71.302963
32.817646 51.468475 71.327072
17.295374 48.567066 71.460922
8.6802139 41.968048 71.531715
23.218052 52.067741 71.524696
16.91757 49.338997 71.628998
13.902798 39.310051 71.766083
12.235445 48.803261 71.798874
12.414434 38.926437 71.817032
15.074698 49.387691 71.806778
23.606003 47.613964 71.908813
32.82341 49.689568 71.952774
31.313004 47.816975 72.002106
31.963795 54.087193 72.052399
8.060564 44.335583 72.133545
15.333407 49.257988 72.160553
29.55817 55.646046 72.298096
8.5465298 40.624641 72.451843
22.81432 50.48896 72.480392
22.957781 51.654922 72.455925
31.433002 47.889198 72.505173
7.5094934 43.379234 72.742439
28.867289 46.371201 72.70417
7.4681759 42.337601 72.876259
9.2742996 47.212334 72.880791
32.701385 49.420612 72.885269
7.5530024 43.8908 72.911652
12.795986 38.680843 73.049332
7.4811044 44.607178 73.386154
31.196991 47.47242 73.371201
8.2423458 39.764854 73.461502
31.879539 48.310139 73.448067
31.374577 47.657608 73.5868
33.372383 50.185593 73.581192
11.603353 48.547428 73.659576
32.252876 48.758339 73.651161
31.361301 54.546909 73.694443
32.440605 48.987549 73.721962
31.110233 54.69574 73.925713
13.96508 39.358429 74.017303
8.8758116 47.108856 74.006638
7.584168 40.1926 74.129929
16.064644 41.967846 74.117004
16.08572 42.24778 74.29451
11.46054 48.5061 74.234085
7.213305 40.5994 74.396713
7.6036129 39.655128 74.457977
13.154795 48.575939 74.44268
15.406645 40.541615 74.5793
16.186237 46.228653 74.528633
23.262009 48.742207 74.585258
31.32593 54.560143 74.509247
26.648026 55.315559 74.518723
12.057576 38.230709 74.602669
7.108182 40.495346 74.617699
13.093206 48.498497 74.665268
23.208408 48.961441 74.698944
32.557632 53.103992 74.636932
30.678232 46.760487 74.778473
15.602846 47.511322 74.890572
33.298065 51.060658 74.853043
7.2855449 46.329655 75.025528
31.275227 54.580235 75.047493
28.857376 56.035141 75.16774
7.5575647 38.298698 75.472641
30.268547 46.465092 75.467072
10.839533 37.760773 75.542267
28.259039 45.725372 75.595154
33.126514 51.720291 75.626709
29.891541 55.402737 75.619049
15.502192 42.215538 75.71637
30.509691 46.507145 75.718407
23.581686 52.550995 75.755295
15.035175 47.52322 75.858559
32.541481 53.39312 75.820023
27.840734 45.4757 75.994064
6.5781002 45.982769 75.914993
23.353138 48.374348 75.935555
26.247366 55.079891 75.964127
15.62973 45.004604 76.09314
33.086021 51.914749 76.023514
30.586128 54.991241 76.122604
30.829876 54.852646 76.238052
5.3049989 42.025372 76.380722
15.200294 45.903755 76.381996
30.987829 46.59396 76.362831
33.244884 49.603409 76.304688
5.3658838 41.349815 76.454414
8.6913214 47.110237 76.403473
9.5655546 47.571171 76.416138
14.6828 47.537788 76.455841
5.6151648 44.304646 76.57695
6.9896274 46.218323 76.561157
29.852345 55.421364 76.558899
6.7741899 38.017277 76.742867
14.103128 47.664581 76.733521
14.855376 41.647255 76.865868
30.355297 46.232262 76.802292
29.908121 46.030037 76.968819
30.123299 55.285088 76.946793
24.549326 46.447136 77.089691
11.356993 37.741074 77.177071
7.6830931 46.602085 77.196312
14.849812 45.449989 77.209335
11.539629 47.608208 77.259277
5.9994364 38.747543 77.365601
23.454885 47.749058 77.486229
32.656853 53.511257 77.529083
8.6006212 37.257206 77.622643
14.570003 41.860794 77.781265
28.522818 55.916302 77.753326
14.130183 46.482407 77.866203
4.6302571 44.0783 78.268127
24.628405 46.308777 78.271515
27.267218 55.465935 78.250732
27.356972 44.883499 78.39119
13.653742 46.951263 78.348923
22.716484 50.965324 78.421387
25.903919 54.965744 78.444534
27.308893 55.492096 78.465897
31.536631 54.647221 78.52623
4.6417646 39.621288 78.635178
26.252403 45.067398 78.677353
33.350281 49.388142 78.664932
4.1880059 43.017738 78.779739
25.033356 45.990654 78.771408
33.256927 52.188187 78.750137
23.864571 52.870514 78.798424
11.538787 37.794804 78.841591
33.360188 49.374599 78.87899
7.2519274 46.354362 78.912498
23.347446 48.317013 78.95417
22.85326 50.425465 78.964844
12.2654 38.213142 79.018539
4.8040066 38.514359 79.10955
13.368738 45.846931 79.178543
29.792633 55.717747 79.124237
22.859184 50.42485 79.279732
31.090752 54.990299 79.285927
14.215517 42.830673 79.392426
24.548244 46.332603 79.358154
33.220566 52.429733 79.30278
33.116875 52.737305 79.377174
5.0973363 37.226582 79.515808
32.08461 47.538704 79.543282
9.2436142 46.800545 79.617188
13.331675 44.61692 79.710732
32.260605 47.765953 79.726242
32.942596 53.297325 79.764458
25.018555 54.578037 79.773369
12.979212 45.495731 79.860077
25.223152 45.796768 79.810776
22.872211 51.350697 79.822975
6.7740407 36.504105 79.94268
3.9228439 38.731369 79.975433
5.0992618 45.258976 80.05423
33.606804 51.446175 80.011795
26.670208 55.328735 80.102203
5.3731132 36.505405 80.209473
31.833614 47.126442 80.236374
33.961582 50.062496 80.367874
23.152889 49.230812 80.456268
22.836458 50.582821 80.477562
6.8969269 36.137665 80.580536
3.1487043 39.30513 80.522888
5.6157761 45.489429 80.507942
7.5428762 46.416336 80.692703
24.105473 46.61071 80.696594
32.513878 54.283752 80.739304
12.452348 38.986206 80.836998
2.9758422 43.474899 80.851181
2.8300021 42.980679 80.994232
34.080235 50.178757 80.906601
2.5086439 41.600555 81.086258
2.7927756 42.845516 81.012215
29.16206 45.367126 81.034973
33.348709 52.366539 81.027954
30.272432 55.644653 81.155968
31.4813 54.944447 81.299156
29.187851 56.274105 81.205376
23.273891 48.719814 81.342262
12.190421 38.903549 81.430595
33.144939 53.065697 81.429649
2.2876811 39.158871 81.568428
2.0451248 41.020794 81.637085
31.271387 55.098225 81.664551
6.5535827 35.49427 81.771423
8.9501438 36.179871 81.757111
26.646605 44.630512 81.791679
6.1616354 35.46809 81.867859
9.6437426 45.795349 81.887184
33.955379 49.922462 81.845917
2.3130126 38.490692 81.912025
2.7335868 43.57093 81.991241
2.8593903 43.614784 81.979294
32.961975 53.723721 81.92366
8.6337299 35.980869 82.051712
33.685127 49.534458 82.003983
2.5648253 43.456017 82.167908
31.545086 54.971188 82.137825
3.0706654 36.605354 82.268791
3.2961528 36.022747 82.396683
3.6133726 43.735249 82.315422
5.993082 35.137367 82.479019
2.3151436 37.568169 82.499336
1.3884031 41.809425 82.494743
2.8600559 43.505138 82.498146
7.511332 44.945435 82.555008
2.1863644 37.607719 82.621613
4.0003829 35.511753 82.73793
3.408443 35.698303 82.795166
23.099913 49.4748 82.766464
27.678543 55.812958 82.701523
5.6918497 34.880829 82.974724
4.6982036 44.209213 82.98542
33.171577 53.279682 82.965309
25.078587 54.642681 82.995995
10.658015 45.220791 83.003822
23.458204 47.950584 83.084091
31.699574 54.923378 83.09877
11.181877 44.134018 83.103828
33.890804 49.71236 83.136749
11.372877 43.467873 83.267891
8.6223803 44.310596 83.25235
10.787354 44.737488 83.283485
31.691917 46.603031 83.232597
23.505945 47.723541 83.336182
5.6435137 44.249023 83.474289
26.772758 44.425823 83.476463
23.398268 52.02404 83.440994
3.9317985 35.048119 83.559654
2.43206 35.852013 83.507729
0.5117116 39.113663 83.582245
25.822214 45.147648 83.549789
25.581757 45.332752 83.54731
22.965 51.349968 83.507614
5.904469 44.193787 83.604797
10.167667 38.700806 83.784149
11.132067 41.147919 83.751244
22.988398 49.853737 83.733879
34.101627 49.97612 83.743736
9.6286106 42.184647 83.861931
31.571621 46.375717 83.885666
5.9902525 44.773937 83.999435
4.7097216 44.653442 84.006348
4.7797484 34.403446 84.111671
10.012109 39.312019 84.118546
9.7703047 40.071213 84.297234
29.346294 45.204231 84.230141
1.1361002 42.802185 84.361176
33.529785 49.111271 84.325363
5.070838 34.115616 84.418106
9.2146034 43.779057 84.441727
29.215855 45.126637 84.494812
10.243045 43.954659 84.693481
2.8666191 44.295017 84.614532
10.089927 42.194534 84.748894
3.8978343 44.738518 84.702988
10.520258 43.108757 84.880081
8.7991533 43.345314 84.831184
3.8214884 44.808331 84.874176
10.210379 39.992214 84.984131
26.514687 44.424805 84.96978
8.4507103 45.460175 84.989204
9.350935 37.347488 85.022484
30.349846 45.540035 85.164841
2.2049844 34.674477 85.268341
7.2445264 46.168865 85.202522
22.790052 50.394798 85.276535
0.35464975 38.609699 85.301979
2.1979518 44.460381 85.341446
4.5222006 45.351017 85.388977
25.501268 54.92017 85.378136
33.505878 52.437046 85.451042
2.9404559 34.549709 85.686478
11.65892 44.256771 85.732567
25.40184 45.185707 85.718124
23.417702 47.612465 85.739334
28.054239 55.908783 85.843292
0.56608415 38.433506 85.989311
0.42684513 39.06723 85.990341
2.0062428 43.973648 85.936852
27.892473 44.395443 85.900009
8.4930496 46.717865 85.971939
5.2118034 34.002926 86.062233
27.367634 44.147217 86.03492
31.556602 46.164429 86.035385
33.318687 53.040134 86.002029
4.1141143 45.612358 86.156586
8.5621033 46.969746 86.244827
29.024305 56.287216 86.249664
25.606068 44.944057 86.339378
25.98904 55.08551 86.302223
9.2398157 46.873337 86.428391
32.284813 47.172508 86.425201
9.3802738 36.486343 86.504112
6.7441945 46.874535 86.509125
10.023794 37.462769 86.686142
30.040674 55.962536 86.635544
0.7067526 38.635754 86.726555
3.079634 45.527405 86.74382
25.062147 54.463215 86.777626
7.050662 34.88102 86.971054
8.9010153 47.570698 86.96714
23.242233 48.11985 86.935791
22.877222 49.684437 86.962807
11.891926 46.429771 87.055389
1.8125813 43.060307 87.110481
33.270344 53.211044 87.130859
31.942047 54.793861 87.118698
27.489208 55.665016 87.121246
5.758842 34.510075 87.260368
12.795732 43.615932 87.359421
10.375175 37.622288 87.438629
1.1411166 37.655422 87.596687
1.3197954 41.899414 87.570145
2.3368297 43.810028 87.552261
12.933249 44.274063 87.525894
33.990284 49.564602 87.52092
22.739023 50.177135 87.512764
23.027847 51.077503 87.501488
31.410944 55.128902 87.580414
6.8455982 35.01519 87.674805
12.968563 43.334946 87.612793
11.115521 47.330215 87.626541
26.666767 43.963634 87.740402
32.546207 47.467854 87.75267
32.882935 54.218025 87.766457
29.720989 44.98254 87.965118
6.3438969 34.952641 88.095436
13.290834 43.893799 88.047668
32.816296 47.830956 88.251945
7.8643284 48.084328 88.228485
6.2325759 34.989922 88.319603
23.734547 46.156639 88.302368
9.5073891 48.710407 88.322128
22.855469 50.669342 88.336945
33.83646 51.362785 88.399521
33.509037 52.414597 88.557236
11.911827 48.07769 88.654282
22.876534 49.40176 88.669693
13.792447 44.142799 88.7397
13.05264 41.099873 88.862564
1.3282789 41.214005 88.846519
31.580307 45.996132 88.875008
12.705526 47.987064 88.869499
33.435478 48.690285 88.893883
5.3265448 47.468494 88.927116
30.260071 55.862808 88.967667
2.1010036 42.661827 89.034767
9.7736301 36.960094 89.218384
4.9231739 35.30402 89.340347
14.228897 43.30719 89.393951
25.677113 44.582886 89.348694
29.636345 44.830673 89.363129
30.512318 45.231148 89.484634
23.555841 46.411186 89.467819
1.8466551 41.957485 89.558548
10.648614 49.502064 89.549011
32.42971 54.501385 89.574501
13.883873 42.09734 89.613792
6.5490294 48.240051 89.672821
33.134895 53.891197 89.664314
13.167872 40.888691 89.707825
28.609997 55.934105 89.794014
7.833312 36.328995 89.87204
12.128304 39.110069 89.894753
5.4900522 47.969864 89.955994
23.937632 52.198936 89.904816
28.464508 55.861534 89.995049
2.860667 43.480293 90.187744
2.2222683 38.235313 90.291885
3.7522264 45.032181 90.278511
7.7868595 48.954422 90.271835
3.6635094 36.556847 90.349541
26.166233 44.093498 90.474403
8.8732147 37.060593 90.546677
13.871175 41.613518 90.509193
3.0241416 43.627438 90.501923
5.5137639 36.296158 90.662643
10.063264 37.628593 90.624596
6.8522921 36.215878 90.739281
28.492655 44.187012 90.976013
12.299076 38.782291 91.041351
15.340492 44.033211 91.05217
4.4172387 45.826691 91.052399
31.895603 46.314404 91.029495
32.342758 46.968224 91.044884
14.872935 49.441608 91.095047
24.98204 53.732506 91.038597
28.245201 55.694817 91.07608
31.906689 46.32502 91.113815
5.2438135 36.874195 91.249527
26.283548 44.019241 91.280022
33.56321 52.486313 91.207649
14.13092 41.562157 91.356201
15.560284 48.611774 91.358826
7.2722349 49.238079 91.378204
22.932985 49.232838 91.332138
3.739219 37.511051 91.495758
10.132322 37.961941 91.472763
15.597902 45.580826 91.438911
8.8972416 49.916008 91.595078
7.1636682 36.678833 91.611816
26.170338 44.1772 91.699982
23.105858 48.684128 91.60498
8.5025902 49.787262 91.628387
24.995321 53.34293 91.604431
23.064863 50.404675 91.736076
23.005922 49.565781 91.885056
22.909548 49.999779 91.832306
10.589998 38.297997 91.919113
30.24052 44.989403 91.925682
15.672286 51.470863 91.931091
4.3416324 45.206985 92.079948
24.080048 51.723549 92.066879
31.738323 29.776331 92.193573
11.217457 38.65519 92.169266
16.169609 46.979877 92.170837
33.313858 48.332321 92.165504
21.675158 51.44651 92.131363
5.1433487 37.74844 92.233589
10.821588 38.494087 92.224937
25.785702 54.202103 92.218582
26.18228 54.577389 92.294037
14.124978 40.98185 92.385643
17.08769 48.654716 92.390259
34.152924 49.549458 92.319901
20.841702 51.221268 92.333061
15.850326 52.735058 92.337357
24.99531 52.910858 92.379173
6.8020139 49.172039 92.493904
21.193668 50.184238 92.407631
20.592657 51.129131 92.408836
19.858706 51.883636 92.439522
32.547691 30.608534 92.595016
19.509911 51.61414 92.560287
23.16674 55.444901 92.583084
33.190777 31.244701 92.606621
19.547316 52.0891 92.604362
33.417496 53.672012 92.63562
34.296726 30.592079 92.765602
27.454121 43.727013 92.767288
17.326084 49.337749 92.745094
19.066658 51.185921 92.702789
21.06097 54.532562 92.716568
34.567379 30.685591 92.858795
11.603872 51.59314 92.83522
8.0153732 37.545334 92.908691
27.796501 43.888008 92.987259
19.87077 49.714851 92.942673
33.521488 30.200974 93.026756
17.324244 50.245892 93.0364
17.085903 51.04583 93.012924
19.567596 54.631107 93.080574
21.36132 56.240265 93.091576
14.007961 40.372299 93.14045
34.177219 49.557549 93.146881
15.04788 42.018803 93.259483
19.463802 55.063469 93.213737
28.594982 55.404045 93.207825
32.908615 29.339373 93.386169
8.6198168 37.957817 93.39505
15.13545 54.257175 93.323547
28.140675 55.75021 93.376923
4.2502327 43.403786 93.41452
20.236353 45.743221 93.407265
31.923294 46.274994 93.475723
19.744781 46.462666 93.436829
18.097483 48.849079 93.460159
31.627195 28.049051 93.619659
33.620735 30.220894 93.617355
30.43869 45.115459 93.641075
31.103584 45.419006 93.658455
16.842316 45.567802 93.631973
33.449303 48.486393 93.646759
11.876577 52.619091 93.667122
13.492939 53.073776 93.646873
12.366173 39.736206 93.747559
32.396088 54.716759 93.741074
18.500189 55.748196 93.701561
26.565039 57.423527 93.759277
32.156536 27.98893 93.86071
26.078777 44.45079 93.884705
16.924843 52.558327 93.875175
13.090078 53.402267 93.819656
18.705189 56.940529 93.89859
32.403973 28.381069 93.929123
20.579514 44.647308 93.903427
15.869574 54.62207 93.93029
30.217907 56.761612 93.944618
35.607101 31.353115 94.098083
8.1881542 38.35392 94.002968
6.2571449 38.945251 94.021149
4.5751109 39.955975 94.043304
13.120335 40.202408 94.008789
33.631401 28.974148 94.162506
15.780672 42.921707 94.121902
29.077793 44.488411 94.123909
10.958525 52.224106 94.109978
32.53223 55.016319 94.173889
25.58765 57.776192 94.184616
4.7061257 40.619049 94.237663
15.202909 41.714523 94.272575
25.255959 44.965096 94.215042
31.755108 46.011341 94.260162
34.040329 51.640121 94.217545
19.00182 45.618088 94.378319
33.606228 48.691948 94.312637
24.27401 44.836269 94.491959
16.092945 54.658936 94.492645
26.705181 57.781441 94.437683
31.960674 28.725906 94.519592
34.936516 30.78764 94.522026
34.249287 50.371178 94.543579
11.329952 39.570747 94.699928
33.093464 29.050735 94.752914
28.30452 57.678772 94.792023
33.695168 29.868023 94.839615
16.032965 43.036514 94.829254
5.1481371 45.082352 94.829201
32.920677 28.513103 94.906357
33.379238 48.327316 94.98455
33.762051 29.880417 95.011047
8.3019915 39.122128 95.031403
18.332998 43.953857 95.008995
17.251741 46.006912 95.062531
7.5460224 49.197071 95.058395
15.935425 57.807411 95.053177
30.275524 29.437077 95.105331
7.3785 39.477669 95.139076
5.8086891 46.252636 95.194756
9.5629072 51.921871 95.196671
9.5521612 39.027023 95.388504
25.911919 43.929577 95.379295
33.895195 49.04509 95.384323
17.56761 58.340862 95.329224
23.797489 58.622669 95.323067
16.505434 43.88467 95.521973
33.681217 29.962944 95.637115
19.653633 43.158344 95.62825
17.511415 43.372124 95.656898
5.5913844 44.588123 95.605385
8.7772274 50.892059 95.693512
30.434072 29.559984 95.770645
35.475986 33.217743 95.702583
35.262459 33.571625 95.86882
12.855994 55.631828 95.880257
18.892679 58.772331 95.807159
30.473124 30.130016 95.918152
33.314472 48.14883 95.999855
27.8055 58.048386 95.904671
23.151628 58.715946 95.95636
29.729298 29.347992 96.093925
14.031584 41.382935 96.088989
15.091906 58.18755 96.010872
34.251144 50.901157 96.186783
34.034142 52.636909 96.141525
12.448544 54.563709 96.188751
17.683235 58.735569 96.18354
21.249691 58.832066 96.292824
25.817734 43.479294 96.371521
31.981081 56.049171 96.388031
17.235996 58.662174 96.300156
6.0822744 41.448208 96.596893
35.041542 33.987778 96.651711
6.1559467 42.932564 96.647415
23.598101 43.528519 96.663918
27.985079 43.926853 96.625336
32.858864 28.239609 96.736115
29.657312 31.835703 96.832672
31.731979 46.265766 96.838356
6.2812691 42.135437 96.906883
6.31668 42.286034 96.955544
20.661442 43.268692 96.981659
20.805473 58.872574 96.988464
35.169121 33.058929 97.047989
33.895443 29.307922 97.119865
31.534147 56.337212 97.142441
15.043359 58.342674 97.150375
34.493973 30.766212 97.28653
32.580208 33.545876 97.232857
7.6184521 40.994831 97.262833
33.140884 54.528061 97.334702
33.050713 54.801624 97.306038
6.7578306 45.668991 97.41832
10.001688 51.746075 97.473579
17.276278 58.636028 97.402489
34.691265 34.324566 97.640144
32.64241 47.532776 97.687027
24.521959 58.615326 97.695869
30.921791 30.650776 97.758102
34.757015 34.055923 97.740204
6.8658314 42.709415 97.83551
7.0918427 46.946415 97.834663
11.813355 53.802757 97.846481
34.30555 49.501381 97.946518
11.890327 54.362469 97.961594
12.6824 55.739952 97.942078
33.434261 30.044914 98.02124
34.431976 32.499344 98.014206
11.55556 40.771305 98.048119
12.368208 41.156837 98.009071
33.187157 54.154388 98.016853
14.930222 58.024834 98.090698
8.9318581 41.373047 98.188278
24.464172 43.227558 98.142792
32.812748 29.605885 98.227783
14.166323 42.395172 98.253944
26.95503 43.253342 98.290817
8.3005676 48.570881 98.256615
11.17938 53.322983 98.358002
31.47312 35.288097 98.432175
30.309343 45.134087 98.440369
33.032413 30.828974 98.619423
7.436862 44.157642 98.670952
33.757736 48.918873 98.644615
25.608772 58.416771 98.634926
33.372948 36.642807 98.795906
14.742266 42.869762 98.716881
14.876137 43.722401 98.726776
7.8709869 47.767563 98.703812
32.79689 36.719147 98.877174
12.79995 41.823219 98.89212
30.227262 34.429001 98.951706
34.127617 50.915359 98.996536
10.323012 51.717651 98.953545
11.017741 53.222385 98.93708
12.712242 55.364471 99.036514
20.995661 58.750679 99.124344
22.384209 58.613483 99.28109
30.445869 34.82888 99.397415
20.631235 58.746109 99.387283
8.7849636 42.422211 99.465088
32.789497 37.279991 99.508553
30.529488 56.666344 99.598351
30.472706 56.730812 99.631279
30.807701 33.879852 99.746048
30.982922 35.642075 99.779892
8.9158268 42.678291 99.8209
14.863856 57.07354 99.902809
18.477186 42.823273 100.09081
8.584486 44.60104 100.09821
32.357277 47.36718 100.07056
10.833926 52.27774 100.08395
31.527552 33.613194 100.14185
25.803865 43.05735 100.16509
13.820177 43.955009 100.11621
33.666515 52.256599 100.15813
24.838644 43.018776 100.20712
34.190594 35.314903 100.37434
10.050291 43.10667 100.30805
31.19561 46.201752 100.30499
17.277428 58.263073 100.38308
19.276363 58.648499 100.37394
31.047787 35.059368 100.40244
31.099283 35.468838 100.4691
29.957184 57.020607 100.45837
31.241503 34.607376 100.50937
31.558105 36.784569 100.51052
31.564072 36.82851 100.56023
21.707527 43.142941 100.56271
23.95245 42.926224 100.65662
20.561459 43.033859 100.67361
31.231092 36.102409 100.75383
31.552536 36.930214 100.77834
10.73509 43.5476 100.78297
28.872061 44.311249 100.71601
10.0842 48.565125 100.70996
33.286175 53.352024 100.74161
17.477316 58.242275 100.72728
33.116196 38.719975 100.83887
13.430556 55.508141 100.86917
22.935421 43.037617 100.91847
30.842081 56.138882 100.96252
32.175358 46.914001 101.01918
13.814813 43.536705 101.11073
29.423512 44.729992 101.10267
17.652767 58.181396 101.21873
20.150091 58.529167 101.29231
27.0037 43.209045 101.31197
12.580533 44.130692 101.32676
33.409668 47.836403 101.35256
25.111597 58.08596 101.32838
31.301569 46.105534 101.4108
33.926208 39.909473 101.59223
25.27306 43.07019 101.596
11.878007 43.786995 101.50309
31.932049 54.769413 101.59243
17.025091 57.975525 101.59634
15.75001 43.483986 101.61089
33.657825 35.246822 101.71381
29.674175 44.977543 101.78226
11.655512 50.394257 101.70721
32.045723 38.811058 101.87274
9.9778309 45.3312 101.89772
32.914742 35.192848 101.96051
30.139881 56.804768 101.98225
29.598883 56.996246 101.98169
12.307856 44.359669 102.09468
25.229591 57.9594 102.0817
12.732227 44.396267 102.28896
10.566839 46.374271 102.24009
17.550104 57.933044 102.26952
21.467545 42.976067 102.31318
10.794242 44.762585 102.42683
31.000507 45.724342 102.41754
35.098621 40.863102 102.5806
34.44693 41.117306 102.59624
25.720814 43.125736 102.62991
14.891678 44.106907 102.66203
33.921658 48.338306 102.77071
34.010277 48.457405 102.76088
21.968046 58.094925 102.72397
13.064284 54.834923 102.88787
32.650486 36.174046 103.05664
12.166018 48.301483 103.07874
31.842131 37.361187 103.1636
11.626595 52.687283 103.18091
34.112431 49.84227 103.2504
35.335041 37.209068 103.37285
35.630585 37.819942 103.37288
32.74424 41.169922 103.38084
19.532097 58.138206 103.38329
11.827953 46.654724 103.46874
28.588448 57.190086 103.46544
33.230766 36.376049 103.58418
36.264164 39.41827 103.58472
12.063184 45.453213 103.67989
36.333195 40.936932 103.75042
25.284081 42.976658 103.7988
11.743912 52.483086 103.73859
25.413137 57.69693 103.773
23.871113 42.862595 103.82666
12.302921 51.008831 103.85231
33.196518 36.737236 103.9791
31.843605 39.357838 103.96381
12.885238 46.363739 103.95708
24.089409 42.850071 104.12337
34.139584 43.001186 104.18091
26.950754 43.332748 104.11921
12.208237 51.227104 104.15526
31.928555 38.88665 104.27647
33.446442 42.510971 104.22826
16.468172 44.189507 104.245
14.626381 56.023441 104.2505
33.2603 42.545372 104.37517
24.505915 42.832581 104.32373
33.211281 47.208717 104.36386
14.779655 56.139378 104.32985
30.067781 44.732079 104.47123
27.757893 57.380367 104.45727
26.126221 43.108757 104.68785
13.750595 47.853264 104.61519
13.732704 48.044716 104.63271
13.234221 53.537067 104.65155
32.343277 41.767624 104.89183
36.696495 42.438499 104.83994
14.550978 44.842411 104.81927
34.136341 48.35038 104.84531
36.914291 40.964203 104.98368
16.099304 44.490089 104.94429
31.53759 45.372681 104.91103
33.350178 47.368176 104.90016
12.235556 51.376518 105.07274
15.485275 56.598652 105.01553
14.831222 46.100357 105.23647
16.401026 56.972168 105.29913
35.96888 38.459793 105.47681
19.397894 43.498241 105.529
34.112621 48.802292 105.59898
32.217426 41.830135 105.62005
33.819191 44.352554 105.60831
35.113987 45.051723 105.61711
34.664703 45.20697 105.69236
13.261763 53.724903 105.6638
32.733932 38.566269 105.76789
37.09388 40.86116 105.7607
15.787487 56.614994 105.77623
32.535667 46.26722 105.86044
32.372787 42.798904 105.98161
29.911373 45.642822 105.98865
30.409042 54.943443 105.95811
29.897369 43.865685 106.00534
35.277451 45.431946 106.06851
34.807808 45.520512 106.08213
12.519288 50.226147 106.28219
29.062717 56.54546 106.20643
36.824951 40.149727 106.39026
34.022682 38.554749 106.40775
17.500814 57.03513 106.4179
24.034866 42.773979 106.51041
15.387484 46.567966 106.52271
15.811511 56.322807 106.57458
28.047024 44.957787 106.67464
30.207161 45.899506 106.63848
37.345665 41.351196 106.73561
26.494791 44.303577 106.7399
28.303724 45.02412 106.77884
32.172226 45.347702 106.70139
16.227192 45.435402 106.7012
33.826378 48.03616 106.73234
13.544376 48.855671 106.75558
28.819599 55.701908 106.77606
25.507368 43.877609 106.86949
33.560482 51.347607 106.87238
31.13555 55.282001 106.80977
24.921667 57.275208 106.81937
17.885115 44.149166 106.91817
27.394398 44.58522 106.91864
12.38878 50.354607 106.92609
21.601364 57.333878 106.98038
33.376419 45.392609 107.0395
31.908775 47.378353 107.03847
33.495586 51.483078 107.02643
33.153744 45.904003 107.19112
32.647423 52.889126 107.14849
22.941374 56.698399 107.12019
28.199686 43.035683 107.23114
33.830635 46.543373 107.21143
33.209053 52.386818 107.22271
19.859533 56.496792 107.29507
19.268883 44.835915 107.37315
15.118397 46.665291 107.30262
26.695684 57.078232 107.31265
32.307884 42.562023 107.46106
28.226519 44.81646 107.45558
33.803329 47.779312 107.47654
31.204556 43.833244 107.59847
13.973079 48.062756 107.52338
32.478718 42.213223 107.68454
33.839729 46.629715 107.64766
33.76482 50.251942 107.69771
16.283758 56.08382 107.66723
28.578514 44.895248 107.70434
19.008711 44.918137 107.74644
18.486084 45.093273 107.77317
19.415804 57.198204 107.75111
26.768148 44.081409 107.88171
32.583752 44.412636 107.80114
17.965519 55.769066 107.83479
26.578754 56.33992 107.80496
18.068481 56.695271 107.83449
19.262571 57.153564 107.8718
21.418091 43.777954 107.91748
18.538155 56.893482 107.92587
23.274294 56.619019 108.03102
32.617744 44.649097 108.1219
34.568989 46.752369 108.10245
15.958317 55.715759 108.2206
28.153978 55.995567 108.3475
26.62303 56.305725 108.34867
19.287186 43.073112 108.46351
29.721125 55.44603 108.4462
37.922974 43.222572 108.68645
20.158007 44.214439 108.6573
16.206688 44.720322 108.60097
21.996954 43.562962 108.77274
22.415745 57.066788 108.79681
37.260223 45.939636 108.81885
14.348946 52.970688 108.86897
14.251333 46.295094 108.98171
14.126298 46.468201 108.93159
13.345953 47.39727 108.92328
23.355442 43.303196 109.05087
24.905832 43.391903 109.0183
33.296883 48.746677 109.03949
25.702402 56.900314 109.02189
33.350502 48.808983 109.10849
14.695799 54.539471 109.13381
20.012722 56.907066 109.13755
14.604282 45.72979 109.28268
23.974594 56.502926 109.27003
22.239805 42.523235 109.38333
13.702676 51.086128 109.37711
14.169913 52.378941 109.37365
25.84721 56.828541 109.38936
25.733923 42.38929 109.45911
33.063541 48.021397 109.42112
24.238556 56.462837 109.46523
25.285767 42.374489 109.5199
29.002987 42.622513 109.56252
32.229736 43.684158 109.54916
34.012901 51.000813 109.5789
33.278481 42.266052 109.66764
24.754559 43.265457 109.62094
32.653847 43.933136 109.62534
32.060398 54.249641 109.66222
30.925682 45.688217 109.79635
13.234671 47.472618 109.82804
19.779766 56.097065 109.82638
21.040205 56.250893 109.83231
38.116386 43.509541 109.9022
29.11175 44.303509 109.98842
33.468567 44.372383 109.91471
14.339213 52.632961 109.98254
31.797466 43.275703 110.03821
22.073984 43.325615 110.09698
17.139347 45.933708 110.1037
16.890575 55.084663 110.12813
26.399208 57.573799 110.11346
37.584549 45.995716 110.27884
26.564064 56.310898 110.28281
17.816549 55.395222 110.37808
17.752333 45.411221 110.52981
35.032616 47.3941 110.58428
25.594597 57.497707 110.53439
19.05788 44.473217 110.69741
25.586359 56.643002 110.63704
21.312866 57.704437 110.62923
19.488972 44.21529 110.70081
34.642769 47.374115 110.76379
21.683632 56.658272 110.75879
33.526943 42.65554 110.81863
31.44647 42.843868 110.80229
22.643219 43.163891 110.82465
35.298161 47.503456 110.86294
27.895586 42.195885 110.96565
16.282202 43.646488 110.91759
15.65024 53.959198 110.90948
31.31986 45.162487 111.03419
17.001165 43.33548 111.17127
38.013264 44.374153 111.16252
32.083824 43.123684 111.26243
32.971691 43.355179 111.27987
13.862001 50.261543 111.27381
34.256439 51.719421 111.2446
14.391657 52.461639 111.22932
26.040951 41.96154 111.35268
26.801741 41.996651 111.39169
15.516741 44.133266 111.31458
37.89645 45.105953 111.4313
32.019974 45.611565 111.44376
23.243557 56.395733 111.45627
18.708282 42.762146 111.56464
25.510529 42.940182 111.55209
34.851025 47.550133 111.50354
18.526428 44.572472 111.62199
14.136969 51.576458 111.63751
23.276192 42.984306 111.77121
28.414129 56.181782 111.77552
30.469318 42.205608 112.04991
25.778236 56.353344 112.05398
19.712711 42.455379 112.15944
33.79063 42.730858 112.13025
37.628223 46.444496 112.17757
20.722685 42.268196 112.25484
34.01136 42.541363 112.25242
16.775131 43.359444 112.29471
14.831008 48.41563 112.21379
21.292881 56.226204 112.29818
26.007795 41.737568 112.34218
27.36916 41.82695 112.33376
17.726017 45.074787 112.32327
21.941469 57.175018 112.38529
14.06555 50.334671 112.4477
34.337589 42.276253 112.54604
21.556339 43.16011 112.59584
20.402601 43.420704 112.59572
24.322395 41.806862 112.68468
29.052561 43.147762 112.6636
18.320511 44.477928 112.60772
32.423489 45.704376 112.69603
14.206036 50.03236 112.66697
32.420784 54.912731 112.61986
30.723644 55.558285 112.68204
22.437033 56.315277 112.65342
32.374146 42.802811 112.72382
30.854319 43.747639 112.75334
14.949993 48.317154 112.83159
29.103836 41.648712 112.96348
28.702633 42.949615 112.94315
17.652649 43.101959 112.99558
34.142338 47.98671 113.01523
22.928915 56.327057 113.09929
21.419586 42.027603 113.24361
16.331829 46.516079 113.23701
34.633282 49.082214 113.36798
35.058178 50.70826 113.32037
14.420088 52.05122 113.31454
17.775982 55.498951 113.34106
21.249666 56.229889 113.37299
27.816425 56.994095 113.38446
37.886932 44.142014 113.49648
17.600414 44.945324 113.48566
16.600986 46.023571 113.43701
15.973512 54.492069 113.46307
33.436768 46.166756 113.51067
14.384958 50.230091 113.57184
31.962114 43.995068 113.65111
37.198544 47.200508 113.8713
28.124941 56.232086 113.82042
35.15659 50.057583 113.92573
20.632669 56.20015 113.95419
30.607325 41.641266 114.0765
33.921364 42.400192 114.08059
20.046329 43.294376 114.09332
33.059441 43.273346 114.04707
27.464008 56.308022 114.03201
35.28553 50.947578 114.11649
16.25037 54.750896 114.1534
16.6779 55.075409 114.11607
28.34384 56.192596 114.19632
32.051857 42.020199 114.31961
27.005848 42.314838 114.37905
32.121208 43.737213 114.31905
20.248926 42.089119 114.48985
17.355766 43.13538 114.41101
36.922024 43.114433 114.48302
32.697296 44.495728 114.46007
15.083719 48.576382 114.49641
27.271399 56.318733 114.44867
21.269121 41.866421 114.51782
32.47868 42.132271 114.58177
25.461796 42.439365 114.59842
15.888943 47.017273 114.56067
34.295132 48.075043 114.50071
37.256973 43.500214 114.64877
33.182899 47.343769 114.66191
32.942287 42.264297 114.76985
34.990299 42.240868 114.75205
16.957737 43.230198 114.76942
23.577026 56.337524 114.78669
22.428728 41.676247 114.86909
21.863997 41.747677 114.8754
30.690327 42.545837 114.82632
27.818768 56.843277 114.83458
18.184818 42.718498 114.93985
34.590855 47.423038 114.9733
20.284752 43.044861 115.14377
32.084164 43.225792 115.19141
32.364719 43.609909 115.17766
24.856268 41.329082 115.25423
27.066833 42.10421 115.27364
22.290678 42.642227 115.22435
36.563122 42.714199 115.23487
18.162388 44.006584 115.21702
34.955544 48.108604 115.27356
29.0182 41.002148 115.32339
35.113121 48.400806 115.30513
35.207844 48.430176 115.35667
17.246721 44.877815 115.40111
33.49725 47.944489 115.44173
29.593008 56.600426 115.4875
26.642912 41.028564 115.54889
27.434711 41.998116 115.5648
29.901463 55.924755 115.56834
37.986656 46.163986 115.65213
37.378281 47.432453 115.60876
14.948772 50.231293 115.64967
31.525494 55.464485 115.63531
27.943953 41.894115 115.78685
35.065239 48.47654 115.72563
35.868389 51.358582 115.79379
30.469603 41.185181 115.80382
36.025261 50.330292 115.84381
24.948566 41.209732 115.97205
33.467449 44.793495 115.94242
32.144577 46.456219 115.97061
19.423977 56.417736 115.96368
23.628691 42.338509 116.18083
21.898952 42.593697 116.13802
32.96928 47.490654 116.10509
15.938415 54.843014 116.18462
36.698971 42.90144 116.29655
15.235151 44.360931 116.27362
19.828304 56.503086 116.29483
28.775419 56.607903 116.26524
21.181362 57.388241 116.21996
18.712158 43.413067 116.35547
32.256676 44.551121 116.35275
35.157532 48.631516 116.36008
33.650215 44.769474 116.49604
33.709286 48.351379 116.44335
30.606434 41.029732 116.78128
17.993435 42.655212 116.7419
15.166647 53.613678 116.76264
23.345232 56.594223 116.70328
21.442904 41.531685 116.88338
33.610531 42.423126 116.88092
26.771427 56.306252 116.88845
28.962528 41.570122 116.99452
19.751015 42.94413 116.96096
14.842829 51.913658 116.96344
33.942112 54.773407 116.97465
29.261042 55.997437 116.91364
29.214947 56.001274 116.98997
20.621838 56.673542 116.964
32.909527 43.207401 117.05807
16.451256 45.497982 117.01109
33.697887 42.374546 117.14339
15.253292 48.910473 117.18426
15.134405 53.450241 117.17085
31.292747 56.11512 117.26604
23.587627 42.069061 117.3497
36.767616 48.372272 117.39362
16.959137 55.777187 117.39666
21.016596 56.773689 117.39704
23.585106 56.700428 117.38573
31.413601 41.364521 117.48148
20.749908 41.690273 117.43806
17.479523 42.855759 117.42127
14.803884 52.543816 117.48208
21.116673 41.557648 117.51555
32.046059 45.717735 117.55887
15.330426 53.916416 117.57933
24.949757 56.633305 117.54422
21.945852 56.842155 117.59173
37.845123 44.363258 117.60133
35.317581 47.570362 117.61865
33.196106 48.375458 117.67067
27.77389 40.413364 117.78484
32.966267 43.241005 117.74675
17.041531 55.91568 117.71962
27.3011 56.239311 117.78325
25.092983 40.913879 117.80762
14.899376 51.860596 117.88241
15.647593 54.743065 117.90033
33.827099 54.921902 117.95884
38.048531 47.295937 118.00616
15.34322 53.913727 118.05703
31.542366 41.909988 118.10374
18.866177 43.064133 118.16784
35.283844 47.097446 118.13863
28.922455 40.259457 118.32689
37.961807 47.752995 118.40173
31.873724 55.869865 118.41475
30.720562 40.763538 118.55495
20.364456 41.678242 118.52901
35.356091 51.949776 118.62898
17.67312 56.402287 118.76629
19.624987 41.82159 118.81731
38.326866 46.60051 118.83273
34.626907 50.545975 118.82385
19.283535 41.890419 118.92186
37.963955 44.584595 118.93293
36.347439 49.668915 118.993
35.807129 52.385174 118.96097
27.141752 40.22234 119.06056
25.969624 40.475128 119.05595
32.62064 43.811195 119.02295
35.625214 52.272236 119.07557
35.149284 54.006729 119.07738
32.365528 55.349957 119.03033
34.765171 46.230335 119.18156
15.734144 47.536636 119.25114
34.906696 50.273914 119.28477
33.115017 55.16333 119.29073
22.495525 57.064476 119.27347
35.312607 50.089371 119.38844
35.172203 51.998432 119.3904
26.28735 41.171768 119.45872
24.130634 41.475315 119.41117
23.906973 41.511723 119.4498
20.087076 41.658672 119.43246
24.225368 56.981121 119.52358
22.499384 57.479939 119.56381
29.302744 39.98595 119.67094
20.796707 41.408211 119.6178
18.700737 42.059059 119.69302
18.307713 42.260139 119.63345
35.657372 52.445667 119.6638
31.32588 55.65453 119.67879
17.762627 42.691639 119.722
21.621216 57.611462 119.74046
37.5942 44.406956 119.86052
34.803139 45.726196 119.82996
36.537418 50.234741 119.82027
32.090172 55.656105 119.8196
20.588589 41.437305 119.96895
33.617352 45.360313 120.05396
22.829189 57.458054 120.08107
20.375811 42.309967 120.13505
35.249023 52.248848 120.14581
22.318832 41.774418 120.25366
18.914755 42.766411 120.23309
33.244148 43.080978 120.25826
32.062538 41.608131 120.39278
32.41642 41.82708 120.33537
34.010353 44.704273 120.33207
30.972076 55.727222 120.35716
29.886644 40.055408 120.44137
38.81789 46.207283 120.4214
33.743484 44.127838 120.59612
25.034239 56.908592 120.50919
21.726387 41.980961 120.6017
17.983175 42.589756 120.88729
16.092695 46.675568 120.86446
38.709133 48.212933 120.82057
34.308647 44.866329 120.92153
30.233994 39.052475 121.06588
31.464615 55.472401 121.05038
17.312868 56.321152 121.05659
18.195898 56.842583 121.06087
22.770382 41.579006 121.16683
32.979248 42.567966 121.12787
16.827293 55.98148 121.10503
33.402241 42.99332 121.27457
21.865831 57.300362 121.29587
27.895573 40.884274 121.32529
28.441261 56.202858 121.33864
25.66663 56.830929 121.36966
27.409416 39.673172 121.4952
19.842857 57.251144 121.41202
35.788979 43.595749 121.69211
29.977392 55.818913 121.69177
15.015292 50.497635 121.74899
15.587877 54.993244 121.79723
31.816332 55.226158 121.72826
22.977695 40.597038 121.86745
34.108608 43.196968 121.87515
17.80859 43.70108 121.81633
33.061863 55.124435 121.84837
26.155354 56.669388 121.8707
19.94294 57.27869 121.88091
29.018454 39.496033 121.9958
14.999388 53.610439 121.97719
19.047375 57.200653 122.08337
29.559269 39.476624 122.1034
20.578796 41.175591 122.10242
17.660175 43.88195 122.18823
18.315405 56.795979 122.12059
37.792675 49.956131 122.28969
27.243301 56.383781 122.24738
32.454353 54.856892 122.35616
15.351454 48.805321 122.42111
17.236725 44.3512 122.58781
15.590159 55.135994 122.84257
29.824297 39.839714 123.06416
16.80962 44.906174 123.07678
15.087353 49.741707 123.02221
22.652384 57.138618 123.02542
39.188141 46.841431 123.10546
14.527217 50.974468 123.12275
27.313103 41.276581 123.29468
15.078978 53.926521 123.23381
15.677711 47.965847 123.37988
15.04272 53.853615 123.39433
29.850327 55.644993 123.31372
39.098194 46.974419 123.59645
14.327554 52.123829 123.55312
17.947454 41.608807 123.60231
38.348389 49.745625 123.71371
29.758297 40.186115 123.85899
26.414881 41.478584 123.82713
36.969299 44.545567 123.87297
16.618799 45.528629 123.9267
33.749222 43.379093 124.05276
35.406937 44.020466 124.06754
37.194805 51.272953 124.00087
19.25219 43.345146 124.11407
16.048532 47.03849 124.16434
28.748241 41.634548 124.2222
37.577393 50.774101 124.25952
31.945477 42.766083 124.31216
16.285889 46.423405 124.32874
26.638226 56.320953 124.3258
19.252876 56.580193 124.49585
31.088224 40.292511 124.58681
17.659897 42.27932 124.68146
19.026445 43.598969 124.60611
14.799129 53.385666 124.69847
20.356049 56.576096 124.63251
25.806808 41.982841 124.71609
15.72584 54.46917 124.78969
22.152723 57.593845 124.73721
31.815231 42.940945 124.80118
16.723036 45.334431 124.87083
35.4907 51.74807 124.86144
26.960037 56.212593 124.87532
30.270864 42.183571 124.90614
15.332975 48.396317 124.95066
15.063623 53.609566 124.98329
36.078815 45.096581 125.03528
31.182116 40.937481 125.18959
18.438833 42.539867 125.17344
22.593727 42.888515 125.31657
18.511841 42.680145 125.40668
17.860977 44.885277 125.44849
14.628723 52.852913 125.52079
24.906033 56.739849 125.51169
28.111601 55.71722 125.64188
24.613138 56.811283 125.69705
34.716015 44.811993 125.71322
29.253853 42.528946 125.87569
31.802065 43.492973 125.86218
22.174532 57.531948 125.83566
19.820814 44.194832 125.95462
16.13685 47.04068 125.9466
33.610298 52.682865 125.9398
16.306795 54.610676 125.92828
21.409632 56.444 125.96297
22.764601 56.681252 125.99187
35.431084 45.416229 126.02593
16.115505 47.091362 126.05446
35.842319 50.376404 126.04722
30.798941 54.260185 126.05915
37.967117 47.556152 126.12839
35.675709 52.696236 126.17482
19.236284 44.715706 126.28536
33.174309 52.810509 126.22369
34.047043 45.283691 126.3528
13.854354 51.239403 126.34035
31.901932 43.879021 126.47186
20.906511 44.192772 126.46728
35.819859 46.06089 126.4698
18.091658 45.037254 126.59465
35.394547 50.19503 126.56125
33.411804 45.239548 126.69852
33.802132 45.580025 126.69717
13.80865 51.157455 126.64541
18.917374 43.461937 126.7207
31.568123 42.42865 126.80775
14.01576 48.377495 126.80499
23.61451 57.24654 126.98934
28.552525 54.745926 127.06207
17.292919 55.21299 127.08752
23.055895 57.326981 127.09913
28.032106 42.8046 127.19026
29.219007 43.240353 127.29499
23.356627 43.605106 127.27167
18.998856 45.291393 127.23669
34.564522 46.537914 127.25618
34.838165 50.118309 127.28217
14.239816 51.568333 127.29991
17.862019 55.48645 127.26635
17.897648 43.865131 127.36293
35.32056 47.251385 127.39261
13.591652 49.677704 127.56998
16.612757 54.186302 127.59351
16.528063 46.14122 127.67126
13.657385 49.06929 127.69449
24.255062 55.791218 127.69854
31.666058 44.546955 127.7438
24.199747 55.741684 127.77545
19.873379 45.400085 127.83348
33.32766 45.630375 127.81657
29.112545 54.003666 127.86008
20.490517 45.249821 127.96745
16.394495 46.456005 128.05093
27.142456 54.645275 128.00845
23.068333 44.042568 128.17075
29.31024 43.711807 128.29324
19.39546 44.058357 128.2296
13.96702 50.88316 128.23686
21.469513 55.611595 128.27853
33.823147 45.803234 128.39053
15.694645 45.936256 128.3111
25.065861 55.113754 128.35051
17.968918 44.07806 128.43681
20.111727 44.060314 128.49507
30.905661 44.52837 128.42206
34.123516 46.605808 128.47302
32.932709 50.493294 128.48163
31.394014 52.46199 128.45674
30.658175 52.827953 128.49937
29.607285 53.40078 128.47041
31.443275 52.394485 128.52107
19.433624 44.139225 128.68686
21.997322 44.952969 128.69756
13.493197 48.960228 128.62115
14.03579 46.385292 128.7879
19.240953 43.819386 128.82764
25.713245 43.358246 128.96384
34.276268 50.206863 128.99881
26.160313 54.37709 128.95613
19.534016 44.118896 129.07036
31.499302 51.749054 129.09238
27.495331 43.370964 129.10596
18.726751 43.836468 129.14182
26.57452 54.168118 129.12753
33.430191 46.901608 129.26419
15.849146 44.502056 129.34441
20.765253 45.643791 129.38048
22.26285 56.255775 129.33542
25.470087 43.491943 129.42426
17.058445 45.27602 129.4229
29.284927 44.14962 129.50714
32.932705 48.442528 129.56215
32.042393 49.81152 129.54156
27.170685 53.724056 129.56613
22.687801 54.64994 129.50455
31.416519 51.114056 129.60042
21.945408 55.960594 129.68195
26.318653 43.441673 129.76509
16.055025 52.885864 129.94257
16.403479 53.268135 129.92914
20.614056 54.138546 129.9899
22.003696 55.813938 129.95877
32.334908 48.389412 130.03827
29.750679 52.076851 130.07257
19.517361 43.767612 130.15186
21.723362 46.703873 130.20036
32.22871 47.101887 130.31854
32.399559 47.717129 130.34526
23.636271 53.588036 130.39932
22.61487 53.583481 130.42221
19.321848 53.556915 130.51555
32.070354 47.296936 130.65085
30.529324 50.849686 130.6548
25.625259 43.777386 130.75023
31.890894 47.32415 130.7661
31.106125 49.87326 130.79886
15.96767 52.662746 130.73546
22.556002 53.198997 130.7486
25.026169 44.052795 130.8773
20.709755 45.778278 130.86916
13.834492 49.013748 130.83392
18.909355 53.355934 130.94322
31.068842 46.778259 131.00537
23.263905 52.586674 131.04343
13.884232 48.765018 131.271
23.61784 45.538773 131.37006
22.761757 47.366383 131.3443
24.498425 44.553551 131.42657
14.427851 50.524109 131.41542
19.793709 44.924782 131.50258
25.69252 52.278965 131.5444
30.014547 46.224026 131.70207
13.941666 48.487259 131.7673
22.090034 51.602249 131.85327
18.416452 41.360962 131.9196
30.428719 47.667015 131.93057
19.611078 52.168133 131.97903
14.097947 48.750313 132.14151
14.45531 49.932396 132.17009
29.567358 50.060486 132.11795
19.679329 41.91996 132.20563
29.884527 46.062431 132.2928
20.297174 51.665066 132.21036
23.21719 48.396751 132.30563
14.923314 50.430702 132.39166
25.659435 51.417667 132.37508
22.516968 52.216003 132.38602
20.731585 43.751835 132.46913
30.115089 49.168407 132.44183
29.894585 49.371758 132.50504
21.82428 52.386635 132.67822
24.091278 48.743797 132.75951
22.502712 48.580864 132.88475
21.2817 52.672848 132.8812
20.049694 44.629051 132.91254
28.159657 50.585991 132.96294
21.470594 52.199596 132.92841
19.270617 40.915375 133.0732
24.302732 46.053856 133.18004
21.764156 46.766312 133.15936
14.181481 47.224884 133.12779
21.712534 48.624302 133.19302
14.080422 43.462372 133.24789
20.223217 42.436981 133.32919
21.712267 48.085339 133.33612
14.476054 48.44099 133.36963
17.349541 50.948864 133.39545
20.706474 48.932632 133.48572
26.544081 43.444145 133.52129
18.07164 51.182671 133.51045
19.416786 40.494003 133.67068
14.314076 47.154335 133.63779
21.443836 50.062408 133.62018
19.840624 41.128716 133.78943
27.868113 43.441196 133.73038
24.660889 44.828735 133.7551
14.351683 47.485828 133.79507
21.896473 47.729019 133.73552
17.362129 39.081902 133.98639
14.71909 39.290848 134.04228
27.064594 42.969948 134.29993
19.68762 41.055351 134.38728
20.108231 45.759483 134.3963
14.478201 46.277851 134.37311
20.679073 49.118782 134.34448
16.212601 38.348938 134.49347
13.537249 40.962585 134.49629
13.974545 38.904839 134.50732
30.71685 48.854317 134.50349
13.899981 43.516052 134.659
20.337002 44.449356 134.67172
14.62484 45.923996 134.64348
13.648789 38.954288 134.73245
25.416567 43.036186 134.77527
19.993643 45.078205 134.81514
15.088288 46.410572 134.8237
30.737408 46.992531 134.83635
18.123722 38.826443 134.95908
25.1399 42.755619 134.96251
19.692348 49.039551 134.96854
31.186626 50.147083 135.0773
13.267023 39.16304 135.17989
13.094708 41.40332 135.1792
25.528824 41.978439 135.1516
14.137961 37.931141 135.21497
29.724901 42.990055 135.26807
14.662249 45.20163 135.26297
18.16288 38.652809 135.31432
13.281569 42.013599 135.31613
30.294758 44.521179 135.35684
24.390003 44.256897 135.41745
30.578766 45.136787 135.47563
17.209169 48.564217 135.43625
30.535164 44.808144 135.59424
30.756653 45.313236 135.66403
13.907827 37.075794 135.82736
18.072151 38.347218 135.81804
12.673448 40.504837 135.83894
27.205103 41.436821 135.84486
19.543604 47.189846 135.89944
16.002613 37.423439 135.98401
25.039303 41.98238 135.94545
19.528526 44.797592 135.93112
19.251797 43.723064 136.35817
31.301043 44.893978 136.33388
18.930012 45.914913 136.47026
12.276184 39.76548 136.65472
12.528989 40.538105 136.69444
32.230228 46.119522 136.74522
32.572735 46.719337 136.79742
14.807692 43.949593 136.82866
16.986769 45.100502 136.86154
32.151817 47.237679 136.87531
18.754225 43.566391 136.93524
32.682995 48.256313 136.90663
15.715577 44.541351 137.05814
31.302877 44.287922 137.19843
31.618795 52.378811 137.1702
13.293941 42.293011 137.29552
25.759739 52.194187 137.2505
28.697712 53.024746 137.20326
16.861998 37.079906 137.36661
27.620008 53.113525 137.36276
14.241827 33.810516 137.49902
26.700386 42.100399 137.44797
14.204536 42.840584 137.51846
23.825603 48.504395 137.51602
13.298896 41.91835 137.76079
27.642483 42.003277 137.79543
32.040947 45.952209 137.71109
24.761017 49.391884 137.70007
17.066141 37.820396 137.81876
32.086781 45.860565 137.8943
32.777374 46.320663 137.87247
13.700814 33.547485 137.98019
12.327438 33.702423 137.93861
23.862431 49.216606 137.94543
30.734266 53.11911 137.98166
28.325035 53.52869 137.98727
11.065611 36.564865 138.07718
27.274754 41.866913 138.01816
32.498646 45.822166 138.12199
15.963018 33.824444 138.27332
32.492195 52.219448 138.28148
25.305138 51.971161 138.30635
27.204977 53.440086 138.37503
12.811249 33.248913 138.40768
16.632387 36.880882 138.41129
17.530369 39.574524 138.45389
33.505226 49.409054 138.46169
31.945034 44.806961 138.58591
23.902599 46.441002 138.51848
16.130966 42.242397 138.6833
24.251036 47.586609 138.65857
24.098928 49.41058 138.65002
