# .PCD v0.7 - Point Cloud Data file format
VERSION 0.7
FIELDS x y z
SIZE 4 4 4
TYPE F F F
COUNT 1 1 1
WIDTH 1537
HEIGHT 1
VIEWPOINT 0 0 0 1 0 0 0
POINTS 1537
DATA ascii
-2.7768776 1.9227254 5.5756578
5.2182593 1.9934672 5.5666847
-5.1228743 -3.6380954 5.6686554
5.8421135 -0.70218503 5.6493545
7.5966067 -0.55004334 5.6921153
5.7349377 -0.41535026 5.6508098
-5.9486685 1.8564146 5.6637268
-5.7961617 2.1284404 5.6447272
7.5145917 -1.4611959 5.7313647
-3.4517953 1.1272206 5.7925205
-3.8528805 -1.2917342 5.8001246
7.640687 0.043119583 5.8331804
8.4613838 0.56354117 5.8870687
-6.2613959 -2.5036962 5.9039521
5.8296194 -0.73835653 5.9516778
5.4037123 0.19088513 5.9972153
-6.3612919 0.3688944 5.9365826
-4.8367367 1.2839601 5.9509239
8.1590519 1.7330918 5.9395571
6.8749323 -3.7951427 6.0430269
-4.9905734 -3.6025658 6.0861239
7.2804046 -3.5025649 6.0179005
-3.4689782 -0.32339174 6.0008345
7.6781492 0.47982141 6.069685
-2.6830332 -1.1099769 6.1690083
-3.638356 1.8530662 6.1436977
5.4194221 2.0335898 6.171701
6.1120172 -1.5614882 6.2401795
5.6770086 -0.42793727 6.2759399
5.7422695 1.514081 6.2227736
8.2546577 -2.5943689 6.3520045
-3.380064 -0.24333982 6.3194289
5.1511898 0.91071844 6.3179173
-2.7484064 1.1340997 6.396873
8.2586098 1.222031 6.3442202
-5.3337831 -3.3028917 6.4479499
8.4005251 -1.670702 6.495676
7.643168 0.52160287 6.4134316
-6.2888889 -1.5782456 6.5937667
-2.5854712 -0.75771374 6.5239973
7.98704 2.0527842 6.5387454
7.567338 2.2353878 6.5763669
-4.4043736 2.4902167 6.5586967
-4.4325371 -3.8759212 6.6892495
8.2892141 -2.5577857 6.650928
-3.6005774 -0.82297558 6.6998158
5.7120051 -0.61174011 6.6645079
5.3220835 0.14398468 6.6960182
5.1888175 1.205538 6.6590276
5.1991205 1.3106096 6.7387786
-2.7698715 1.5442433 6.700429
4.88272 -0.75721431 6.8128991
-4.8701439 2.2986979 6.8591928
-6.2587609 0.45455098 6.9005184
7.0064421 1.3236858 6.9430757
6.4429379 -1.5023352 7.0934672
7.7683463 2.0959446 7.0457606
6.0001197 2.2915897 7.095705
6.5463567 -1.4614999 7.1736374
-2.8220706 -1.7549243 7.2488127
4.8320804 -0.74326575 7.2019758
8.5389948 -0.34146795 7.2930503
5.4560866 -0.28259885 7.2483306
4.8304529 0.55337536 7.2758789
5.9736609 2.2476785 7.2994146
5.5312715 -0.46716774 7.3733697
5.3284316 0.22723377 7.3129711
-6.1455212 0.77062231 7.3172479
-2.5516233 0.88619334 7.3173552
4.9687428 0.85955292 7.3055949
-3.1274033 -2.6521697 7.4107342
5.8574529 -1.1479051 7.405653
7.3106771 -0.90195799 7.4604282
7.3713088 -0.47762707 7.4221635
7.4500179 2.1184664 7.420588
-3.4228227 -0.68560433 7.5288377
5.5202045 0.68061727 7.5211325
5.0712852 -1.9263551 7.642045
5.0087199 -1.6731873 7.6416836
-5.0644298 -1.0753579 7.6999688
5.7599044 -1.0670881 7.8840523
7.2474861 -1.0035013 7.8364949
4.7456884 -0.79686642 8.0235643
8.3270073 -2.275624 8.1160641
7.6664348 2.0219016 8.152916
-5.8994751 1.4667063 8.2910099
8.4654312 -0.73737991 8.3117628
-5.831049 1.6340114 8.3694239
-2.586947 -1.5012906 8.5637026
8.3849773 -1.5164238 8.5042877
4.5399718 -0.17375746 8.6623812
8.408452 -0.083931193 8.6909962
7.5489025 -3.1213832 8.7469225
4.9563675 -2.0136459 8.7675161
7.0150208 2.1890032 8.7859097
4.7676868 -1.3149765 8.8986025
-2.1780279 0.092950553 8.864418
-2.1787202 0.16895258 8.880352
-5.8243046 1.7351189 8.996706
-5.7215662 1.9195902 8.9179821
-2.7145798 -2.0605092 9.0134258
7.9184608 1.9393468 9.1644201
4.4666009 -0.24578126 9.4079075
5.5403628 1.9288921 9.4368458
-5.5089364 -3.0185785 9.5262785
-6.1500359 -1.7559667 9.6534691
8.3886337 0.80641299 9.6433392
8.2743826 -2.2240088 9.7365589
-6.0999074 -2.1998663 9.7131386
-4.4630895 2.2402189 9.7505836
6.3613353 2.338702 9.8341274
5.0166245 -2.6164918 9.9690676
8.2595787 -2.3118191 9.9198685
4.5322113 1.2617782 9.9261856
-6.1106453 -1.9932382 10.03106
-2.1749089 -0.75422728 10.032781
7.1430531 2.0999105 10.030979
5.9896345 -3.5604377 10.149954
-2.503531 -1.8335868 10.195726
-3.5473762 2.1760263 10.174276
6.4635143 2.2933888 10.173473
-2.8126149 -2.6499543 10.240906
4.3541565 1.0401056 10.241557
-3.9895751 -3.7510405 10.300095
-3.4008725 -3.2084692 10.345936
-6.0848408 0.46110258 10.389041
-2.7542579 1.8578879 10.379217
-2.3290665 -1.3736353 10.421322
8.3208237 -0.22368029 10.4849
4.3305211 0.97251415 10.491543
8.0168209 -2.7544136 10.523365
-6.1742716 -1.2298887 10.548043
-3.846839 2.3654933 10.5135
-3.9588804 -3.7590432 10.655136
4.5415506 -1.2442065 10.618781
4.3129644 0.74476159 10.716509
4.4606323 1.5722053 10.840719
5.6559153 -3.3264861 10.900145
4.4462028 -1.0508283 11.010622
-1.9891813 0.026310384 11.076516
-5.4436355 1.9573368 11.001052
-6.1338539 1.2036057 11.101618
-3.9391966 -3.8151944 11.37857
-4.658061 -3.5544033 11.300765
4.5974746 -1.8593175 11.411886
8.3295155 -1.0018516 11.437672
-5.9628067 0.4390325 11.445399
-5.7805853 1.8752838 11.468405
5.3675504 -3.1667142 11.606747
8.1175232 -2.4273634 11.695538
8.3078108 -1.1415172 11.677348
-1.9702911 1.1918397 11.669777
-2.0701489 1.671304 11.610133
-3.9346766 -3.8478241 11.736465
-2.1420355 -1.2687856 11.734731
-4.3901119 2.1869583 11.760575
-5.9950771 0.89972359 11.870909
8.1380119 0.97472769 11.8918
-3.724144 2.2985914 11.886033
4.5784187 -2.0456359 11.948895
-4.9928451 -3.3265831 12.067383
4.5256858 -1.9019912 12.09079
-2.0496902 1.7846476 12.039289
7.8108354 1.9106431 12.016497
6.1905384 -3.9539955 12.149768
6.0844646 -3.8646524 12.242907
-5.3262186 -3.0950506 12.267246
-5.9997058 -2.2458353 12.250261
-6.0327349 -0.14601651 12.271839
-1.8776438 -0.054778755 12.369795
-5.6505265 -2.8464236 12.403989
-5.9519625 0.07931225 12.473463
8.2214069 1.5544102 12.421553
-3.7601836 2.324959 12.429387
4.8259983 -2.757376 12.531239
-5.8036642 -2.5505848 12.593302
-5.9068661 0.82597864 12.544928
7.8228931 -2.8272474 12.66936
7.1191111 2.0556731 12.693384
5.6612444 -3.5209472 12.738291
4.7469015 -2.6646936 12.848408
-2.85637 2.0483618 12.819414
-3.4889154 2.2245197 12.974602
6.5290604 -3.7405958 13.010359
4.6474476 -2.5008032 13.013494
-5.9423466 -2.2475517 13.042696
4.0924621 0.32107851 13.002917
-1.8102551 -0.0666219 13.162954
4.0783825 0.26345292 13.155674
-1.9727995 1.8181208 13.137725
4.1439104 1.8146349 13.117999
-3.7769594 -3.8604028 13.283423
-2.1246634 -1.7512571 13.215277
-2.8023181 2.0547183 13.203915
4.0753546 -0.57707435 13.371747
8.133544 1.6853843 13.354499
-5.2960868 1.9432131 13.388
-4.8189788 -3.4198043 13.548088
-2.4121873 -2.5231745 13.51046
-6.0070081 -1.6840841 13.791926
-6.0846796 -0.97622263 13.758943
7.4787273 1.9097916 13.85777
-3.9428968 2.2301061 13.872626
-4.2080126 -3.8184431 13.908838
-1.7365007 -0.35819781 13.942626
3.9711199 1.3551061 13.980768
-1.767674 1.0015645 14.005488
3.971035 0.65768099 14.135912
8.1488438 -1.8440326 14.286297
-5.719224 0.43298227 14.244435
7.7509508 0.51527745 14.26024
6.6238308 2.0872784 14.215231
-3.3828402 -3.6034746 14.347097
-5.6243992 -2.6493704 14.330604
-5.6450882 -2.5939283 14.478638
8.1611109 -1.6538645 14.447036
-1.8296517 1.4971967 14.440115
-2.0812166 1.6872665 14.487527
-1.7865263 1.3721718 14.508851
-5.7365246 1.5771145 14.536295
-5.7954502 -2.2998161 14.6933
4.2080631 -1.8869184 14.678833
8.1612473 -1.5743934 14.654831
7.9020228 0.022843987 14.679471
4.3068061 1.671556 14.618673
-2.0694876 -2.109714 14.798607
-2.2367778 1.7465017 14.729961
-1.6509823 -0.64713746 14.862247
4.5052495 1.7519782 14.940348
5.9601927 -4.0385242 15.054001
3.8691089 0.98784113 15.076416
-5.3510003 1.6952772 15.000175
5.538249 2.1140127 15.221622
4.3612485 -2.4033403 15.335255
-2.1149075 -2.3160176 15.378086
-6.0084181 -1.1310661 15.392826
-2.5560513 1.8512362 15.336232
4.8384666 1.8666277 15.595927
-1.6482178 0.8725884 15.600166
-4.5942364 1.9422629 15.690887
-3.1554236 2.0313807 15.740861
-4.9418612 -3.2893231 15.896198
4.7359509 -3.2773671 15.979506
-3.577235 2.1360683 16.090458
-3.4403374 -3.8380184 16.106762
7.8294077 -2.3768635 16.138468
4.1420727 -2.1327953 16.1464
7.9604225 -2.1433635 16.145622
-5.9187565 -1.6995701 16.168026
3.790693 -0.52821052 16.191597
-5.519104 0.92225009 16.159332
4.5718017 -3.0538666 16.483955
-2.0884922 -2.489682 16.49511
-5.97579 -1.0833421 16.429779
7.1832085 1.5002143 16.445969
-2.7068768 1.7691656 16.471781
-5.2357864 -3.0557787 16.57518
7.2850604 1.3977962 16.562122
-5.0785036 1.4745474 16.52849
7.9454784 -2.1099823 16.619268
3.8395991 -1.3663391 16.65534
7.9059181 -2.1652799 16.737335
6.2929964 1.9816748 16.738188
5.9430761 -4.0792446 16.921034
-4.1082859 1.9684998 16.916918
3.7809403 0.45659319 17.077374
-5.2827225 1.2288239 17.005318
8.084012 -0.98479247 17.169085
6.5351114 -3.6680565 17.371136
5.1433406 1.767007 17.353527
-2.2345219 -2.9633572 17.419296
7.4149375 -2.9527304 17.403013
7.6064682 -2.6030774 17.479084
-2.0530748 -2.6299024 17.534149
-5.67097 -0.22441286 17.55336
-5.6364479 -0.12979278 17.646317
-2.4409308 -3.4367409 17.754372
-1.4081018 -0.19716811 17.877277
-5.5210323 0.21604824 17.838324
-5.4112062 0.58537865 17.859051
-2.1485586 -2.9003191 17.943827
7.7945395 -0.36819524 17.931578
-4.0588727 -3.8567691 18.016846
4.4050727 -3.0512693 18.103939
7.6860275 -0.13081655 18.187531
-1.7562912 0.87448353 18.178099
-1.8049494 -2.2863803 18.248127
-5.8817692 -1.1285903 18.299788
-5.1560063 0.98444229 18.323851
5.9212675 -4.071692 18.468977
7.5047455 0.27306741 18.580072
6.1735597 -3.8930697 18.656693
-1.6246097 0.44820917 18.781118
4.1505718 0.88506311 18.719053
4.9737568 -3.811204 18.884438
3.5692377 -1.373335 18.898716
3.5586023 -1.2905153 18.817533
3.8903255 0.30461067 18.948763
-3.470741 -4.1973543 19.056768
6.5883331 -3.5976396 19.054174
-5.2251425 -2.7627792 19.043509
-1.2885652 -0.82831931 19.090593
6.7319312 1.1888367 19.044537
-2.5855706 1.316222 19.078476
-1.6129322 -2.0946722 19.167738
4.0138655 -2.5387459 19.405527
7.7275839 -2.1352232 19.477869
3.958287 0.40947241 19.421719
6.647193 1.1964381 19.410698
5.250597 -4.0773773 19.584227
6.5157704 -3.668329 19.516291
-1.4720874 -1.8857832 19.504219
-5.2829199 0.58254778 19.518158
6.0187016 -4.0461435 19.642523
7.1540513 -3.1867728 19.684895
-5.6748381 -1.8871292 19.654114
7.8496981 -1.8784248 19.794125
-5.7686472 -1.7037745 19.786947
3.5039237 -1.5063841 19.708508
-5.7965884 -1.1872059 19.70504
-5.0711317 0.84969294 19.809219
-4.9821463 0.89997792 19.817362
6.0619092 -4.060039 19.937372
7.9559584 -1.6700346 19.950211
-5.7649627 -1.1289096 19.904465
5.6069713 -4.3618484 20.000828
-3.6394911 -4.2993307 20.066113
5.1429739 -4.1084757 20.02948
7.8792782 -1.7953563 20.035679
4.4002304 -3.511348 20.191586
-5.1969924 0.68690246 20.162663
-1.6663136 0.33495182 20.209751
-2.1200495 0.9003824 20.274544
5.4289417 1.5551863 20.282469
-5.5605631 -0.56266332 20.430641
5.2881908 -4.2872591 20.506062
-5.2359042 -2.6443598 20.648701
-5.29494 -2.4871995 20.678099
-5.6723514 -1.7646106 20.658661
7.8831615 -1.181708 20.689899
3.9009166 0.20325541 20.62196
-1.9027692 0.73518962 20.664463
-3.4183884 -4.5380511 20.861538
3.7200131 -0.26027203 20.875757
-4.4491448 -3.7293749 20.995457
-1.660388 -2.5864389 21.004616
-5.5488424 -1.9391809 21.012699
-5.5160451 -0.59141487 21.074781
-4.1378589 1.2391466 21.032652
4.6312833 -3.7906365 21.119801
-1.350736 -1.9814148 21.158855
-2.5065198 -3.8596706 21.254864
-5.2401667 -2.7354493 21.20513
7.4079618 -2.7774808 21.258533
3.5823321 -0.62483311 21.291737
7.2174749 -3.3065085 21.3829
-2.3496571 0.9202069 21.338818
-3.0077217 1.2812333 21.486736
-1.6212349 0.0059579089 21.580761
-1.1949039 -1.0714302 21.658689
-4.2999992 1.0652777 21.696411
3.6192486 -0.55673009 21.740803
-3.6094675 -4.665246 21.958397
-5.6050367 -1.1022317 22.011293
-5.0077252 0.62062895 22.000633
-2.8408208 1.1310976 22.008022
-5.1303592 -3.1548133 22.11619
3.8883133 -2.9079983 22.141449
7.7311249 -0.92538494 22.135094
-1.1088424 -1.1622273 22.217648
-3.4860263 -4.6814733 22.376862
-2.1633217 -3.5911088 22.363367
-5.3086805 -2.6570878 22.368187
-5.1985407 0.18786287 22.355692
6.8122783 0.82182449 22.358734
7.1248684 -3.5437799 22.447443
3.6155088 -0.33220175 22.459139
5.0628667 1.1274955 22.441635
-2.0191426 -3.5441761 22.596346
-1.79419 -3.1334915 22.552841
3.6695099 -2.4527967 22.632557
-1.0078098 -1.7674286 22.662897
-5.6917872 -1.6494843 22.600889
-2.3637784 0.8759523 22.653772
3.5494871 -2.3224962 22.771786
3.1109943 -1.4465139 22.735426
3.2032068 -1.1676365 22.739717
7.7336044 -0.91130972 22.764687
3.3017161 -0.87408811 22.863003
7.5375495 -0.28755105 22.861679
-2.1315322 -3.6876519 22.980682
5.4977398 1.4109387 22.999037
4.2503572 -3.6429036 23.010889
4.9965625 1.1494026 23.017626
-3.7496431 -4.4023948 23.187092
5.2966423 -4.3530998 23.164242
4.9324007 -4.1045532 23.166285
6.9448729 -3.7870612 23.10961
3.4299054 -2.2877045 23.157776
-1.0429001 -0.78640443 23.289383
-3.3869936 -4.5989017 23.356869
-2.3455603 0.92144966 23.356911
7.7148881 -2.120785 23.486504
3.1514301 -1.959144 23.412544
4.7283545 1.0559731 23.499865
-3.8994703 1.1942658 23.412001
-5.0592561 -3.3607266 23.500637
-2.3102527 0.92154276 23.595736
-2.1583586 0.84360236 23.623573
6.4961219 1.0152802 23.646082
3.9572635 -3.3190026 23.73979
3.0653512 -0.98551536 23.768414
-5.3045964 -0.10445857 23.722673
-4.6042275 0.79660165 23.839153
3.8323987 -3.2113838 23.957333
-1.1765664 -2.5245655 23.961971
-5.3877506 -0.35931006 23.950226
-1.3071439 0.17650695 23.980648
-4.2694817 0.97958779 23.920322
6.1044707 1.2343578 23.975719
7.4921293 -0.10279065 24.040297
-1.6239885 0.59676337 24.057644
7.0360231 0.72767448 24.077139
-2.3194888 -4.0247312 24.167856
-1.0176787 -2.3667917 24.18
7.917542 -1.6193089 24.111073
3.1720886 -2.2996712 24.216286
3.4921961 0.24397795 24.216585
-5.6828871 -1.277644 24.303722
-2.7390826 -4.3328428 24.41114
7.622282 -2.4241004 24.460579
-0.795506 -0.77263397 24.490589
-3.6527083 1.3094478 24.42128
-3.3801479 1.4587712 24.471439
2.9799826 -0.79575181 24.561407
3.0067754 -0.72541153 24.575695
-5.2117858 0.19028968 24.579317
-3.6606061 1.3027012 24.536386
-3.2547798 -4.711998 24.712795
7.46984 -2.8478966 24.860512
-1.2218696 0.3877652 24.811741
-4.5984406 0.81009728 24.815369
7.5608544 -0.28924218 24.931158
2.9229991 -2.2561378 25.095602
3.3410468 -2.9026217 25.111902
-4.5029092 -4.0934935 25.298197
3.0959396 -0.20020419 25.213032
5.5596051 -4.7361803 25.395756
3.3040414 -2.9516459 25.386929
-0.62492442 -2.2183251 25.346024
3.1534698 -2.7952285 25.579937
-2.6677661 1.2669709 25.596985
5.9133019 -4.5607285 25.679745
3.5680099 -3.4510801 25.63459
-0.51635408 -2.1849132 25.68816
3.516448 -3.4329777 25.792955
-4.8988152 -3.8881931 25.80468
-0.54803777 -0.65070462 25.910574
-4.2802038 -4.2834678 26.089983
-5.4413342 -0.46524772 26.015057
-4.9870648 0.46719798 26.050667
-2.0976162 -4.2938499 26.142136
-4.7711096 -3.9886947 26.136791
7.788394 -2.0828409 26.113323
5.2047029 -4.8273869 26.219435
5.0403223 -4.7229629 26.21821
4.8444796 -4.596992 26.20805
-0.59168184 -0.39018488 26.229685
-1.9480498 -4.314332 26.318764
4.5426459 -4.4400506 26.400063
5.3029175 1.6471448 26.435558
-1.1999198 -3.5664117 26.574598
-0.82523823 0.3293469 26.575001
-1.8697717 0.9309392 26.672724
3.81323 -4.3595786 26.710979
2.811363 -0.053083181 26.872974
5.2447901 1.6586163 26.86202
7.7717276 -2.1766577 26.956116
-1.8446594 0.93684101 26.915699
4.8433199 1.4574225 26.961254
2.4583697 -1.3997277 27.05418
-1.3279698 0.68646419 27.178265
-1.1257727 -3.7596445 27.223953
-0.21664554 -2.2789528 27.223549
-0.21371117 -1.9202946 27.24789
-5.4620943 -0.49278224 27.259607
-3.1152818 1.546811 27.269436
3.0287862 -3.2873132 27.357208
7.5158787 -2.887326 27.408398
-0.1864301 -1.5975792 27.431177
-3.4833152 -4.8465447 27.567982
7.7673931 -2.2233126 27.557865
-3.277612 1.4504385 27.597929
-4.6319695 0.89315271 27.680269
-0.14176998 -1.457961 27.725674
-0.58825427 -3.1283877 27.853617
-0.43873608 -2.8902876 27.826092
2.3410826 -1.6599939 27.826508
2.3460245 -0.81357419 27.805845
2.6970918 0.17597637 27.883896
-5.4981613 -0.58586919 27.932632
6.1948624 1.2494967 27.939932
6.4348903 -4.4422727 28.091341
2.5672829 -0.044182658 28.059084
-3.2027369 -5.0509863 28.168926
2.5343471 -2.845531 28.177959
-0.078385562 -1.0054909 28.14727
3.2897975 0.67821491 28.161863
-1.9277688 -4.7051821 28.27416
7.8638954 -1.1330746 28.236713
-3.6809573 1.2154007 28.20118
-0.04972294 -1.2042493 28.332153
-0.81703252 0.50985396 28.342154
-4.6210136 0.91289425 28.533379
6.7094607 0.9780494 28.515533
-2.8988478 -5.2018018 28.697874
5.9788418 -4.760972 28.684658
-4.190217 1.061944 28.6943
7.355732 -3.3931327 28.794359
2.1954794 -2.009656 28.78492
-4.8760056 0.48389435 28.704079
-1.9745256 -4.8330851 28.887386
-4.3565092 -4.4261279 28.821636
7.9906845 -1.6956604 28.80209
2.1895742 -0.61285496 28.843849
-1.5757084 0.94898552 28.867424
4.4911442 1.4562054 28.827271
-4.3320179 -4.4595823 29.090294
-5.5307522 -2.4263256 29.175564
2.255245 -0.23111576 29.173668
2.979363 0.58778965 29.178173
4.2848697 1.3714681 29.136238
-5.3929601 -0.40060094 29.28693
7.5981383 -2.7834973 29.368923
2.1121857 -1.4079574 29.344587
6.2532568 1.2402399 29.330212
4.7137437 1.6228738 29.331642
3.2988362 -4.8511553 29.41428
-5.0486383 -3.731534 29.473221
2.0974679 -2.6416249 29.424427
2.0899172 -2.4432063 29.477205
2.9774463 -4.3352947 29.504393
2.9062791 -4.2178249 29.586084
-0.81896544 -4.5314183 29.650269
-4.860425 -4.1760101 29.628075
-5.7927094 -1.7661598 29.705536
7.5024185 -3.0720425 29.907337
0.20295022 -2.2743533 29.971745
4.2136836 1.4029404 29.916996
-2.9295232 -5.358036 30.093594
2.1919463 -3.0514021 30.078074
-3.0403399 1.5295203 30.094112
5.0350289 1.8134331 30.169044
2.6351814 -3.9642715 30.209717
7.5009985 -3.0986462 30.299046
8.0365915 -1.6563678 30.247238
0.23535536 -1.1290784 30.20034
2.0845683 -0.105246 30.245472
-3.8909028 1.2035091 30.216019
0.19950163 -0.19794643 30.370518
-4.5900865 0.85129702 30.334324
7.9350548 -1.941061 30.450735
4.4865184 -5.202703 30.570745
-0.68678367 -4.7492118 30.507368
-0.28127298 0.40256062 30.55497
-0.84127116 0.69428825 30.529831
1.9828857 -2.9638505 30.683342
0.30725068 -2.1086359 30.657223
1.8990362 -1.4715916 30.753986
-5.6706972 -1.0416192 30.80858
4.8801761 1.8558187 30.808266
-1.591084 1.1216786 30.964741
2.286263 -3.6447921 31.023422
-4.7675271 -4.3394585 31.17548
6.9100451 -4.3676448 31.144173
-4.7660408 -4.3473773 31.276903
9.0433474 -2.666636 31.307194
6.6925879 0.93865508 31.353472
-5.6556282 -2.2179537 31.405865
0.31908441 0.058294393 31.455177
8.8818932 -2.7356243 31.535307
-7.1577206 -1.9863186 31.517958
3.5499682 1.1565784 31.533546
-2.7420199 -5.5882506 31.656244
9.0159254 -1.6385306 31.616522
7.847156 -0.97721696 31.683628
7.1870213 0.11023462 31.626469
2.3500321 -4.2278805 31.720112
1.7419131 -2.2499976 31.782522
-5.8211617 -1.8011956 31.748344
0.47282478 -0.71204758 31.761599
3.9624729 1.4225736 31.713058
0.48346788 -2.3535955 31.807854
9.1741543 -1.9786513 31.809145
-5.6938491 -1.0831743 31.839531
-5.3657875 -0.51852918 31.892181
-3.3531296 1.4210101 31.819349
-7.1253061 -1.9527936 31.92852
5.2205973 1.7494584 31.94595
-1.383992 -5.4086084 32.046669
2.3228567 -4.3397007 32.003746
-7.0701036 -3.257966 32.094418
-7.8891697 -2.4442778 32.030369
-7.7601385 -2.109971 32.010468
-1.1848158 -5.4071894 32.139065
6.6181693 -4.6150413 32.143181
7.3411837 -3.6363916 32.160416
-5.6958823 -1.0811611 32.116428
2.1598275 -4.0980825 32.235161
-8.0760784 -2.2676177 32.342995
-7.817842 -1.328969 32.389896
9.7233706 -1.2164266 32.336197
-8.1185331 -1.7844243 32.481136
10.078395 -0.98286223 32.415665
-0.34787935 -5.2208557 32.562538
-7.4510117 -3.0606999 32.512276
0.59681177 -1.1595999 32.567253
-5.4963174 -0.77183813 32.519905
3.1179054 -5.4779043 32.623772
2.5443695 -5.2926826 32.695831
-7.4253974 -0.97055978 32.668976
2.2900906 0.49835449 32.602806
-1.8801872 -5.5997987 32.750443
9.8856544 -2.5558906 32.790176
-8.2978249 -2.3966069 32.715572
2.772387 0.79967672 32.71117
-5.1052608 -3.7758501 32.843544
9.9595051 -1.8236825 32.859509
-1.0192442 0.96760637 32.822678
-1.2840627 1.1050878 32.804752
4.368257 1.7804848 32.899395
-7.9642596 -3.5214205 32.912117
6.3140321 -4.8616133 33.024181
-5.5467367 -2.6041663 33.095699
6.2914534 1.2801176 33.064224
-2.1334724 1.5696076 33.047218
-0.99212497 -5.5843325 33.116936
-4.5807462 -4.5923452 33.191868
-7.7194309 -1.531571 33.184288
-0.24599308 0.58902669 33.16621
1.5141457 -3.1895249 33.276188
-8.2773209 -2.5057437 33.224209
10.073131 -1.9141626 33.24786
2.455411 0.66408229 33.295021
-3.4333024 -5.2982192 33.326305
1.5137436 -1.2721949 33.306107
4.8705621 1.9209129 33.33786
1.6177728 -3.5873883 33.476112
7.4654875 -0.45538083 33.417049
2.1291988 0.48516691 33.482857
6.1528282 1.3482046 33.411461
5.0582247 -5.6602111 33.531467
-5.8775911 -1.6081579 33.59787
0.9275527 -1.66716 33.529778
1.4360429 -0.97799742 33.544762
9.7422094 -0.50595999 33.57148
6.9123321 0.44650245 33.523521
2.2908468 0.58531964 33.510368
-1.7747943 -5.7671099 33.63578
-3.7797546 -5.11271 33.684921
-8.0971346 -3.413383 33.611721
-5.6823969 -2.2746379 33.696644
10.025803 -1.1013482 33.699112
10.538225 -2.4263825 33.705128
0.51475626 0.56814808 33.703133
2.3514481 -5.5225043 33.80064
0.75940377 -3.977463 33.864094
-8.1923933 -3.1563993 33.814415
0.15967618 1.1206932 33.874973
0.40014493 -4.3481436 33.958405
10.341528 -1.0080373 33.959568
-1.1912339 -5.7947888 34.064949
0.23850468 -4.803566 34.094635
-4.5101414 -4.6931429 34.029301
1.7708914 -4.2777147 34.005402
-5.0018015 -4.1221275 34.014263
9.7521791 -3.1557665 34.018986
9.8258877 -2.9563479 34.024666
7.7363324 -2.6826289 34.018494
3.0542705 1.3805807 34.059067
2.1876502 1.775478 34.025959
8.6802673 -4.2232466 34.157669
-8.0649557 -1.6469145 34.116325
8.0960121 -1.66264 34.122692
7.1262894 0.056073964 34.169556
-3.8400679 1.3476274 34.159218
-0.80805063 1.7970849 34.168278
5.3110852 1.732296 34.123302
4.6472845 2.0296204 34.164223
7.2463608 -4.012444 34.244503
-8.1633959 -2.4247315 34.237965
-8.3642378 -2.3645005 34.227867
-1.6051147 1.718154 34.275654
10.630713 -2.160809 34.30529
10.627347 -0.98876178 34.389694
4.9336338 1.9030089 34.300514
0.24149324 2.2826447 34.344528
1.7057601 -5.0477448 34.460487
-7.6113882 -1.295138 34.404053
7.5164142 -0.59862518 34.402279
-2.095423 1.8660954 34.423241
9.6785583 -2.355175 34.534126
4.493608 2.0983145 34.595909
3.1993937 2.254575 34.520077
5.1025934 -5.6385612 34.670395
8.2785559 -4.1115417 34.64637
9.5667582 -3.2761202 34.695766
-5.6447463 -2.4286134 34.602264
9.6162853 -2.0321069 34.655075
1.382022 -5.685482 34.763878
-7.4738569 -0.53488714 34.781189
-7.6611996 -0.11244853 34.733921
-5.1525493 -3.7658684 34.852154
-7.5682507 -3.289438 34.894974
-5.7026196 -1.2576562 34.882133
2.9888897 2.4777961 34.899162
4.5987377 -5.8370585 34.976994
3.3431129 2.4470379 34.908386
0.22135641 -5.8661633 35.034389
9.1720066 -3.6581731 35.006344
9.4132814 -2.1697109 35.046539
-0.1386921 -5.8445363 35.108017
-3.853858 -5.104085 35.132984
6.9632201 -4.6166668 35.156116
9.1955156 -3.6376736 35.127937
10.430479 -2.538677 35.10107
-8.3512287 -2.0725226 35.143742
6.5881 0.88588047 35.114777
4.5027552 -5.8251967 35.220791
10.247073 -2.7148476 35.357861
10.414021 -0.38525361 35.361622
2.0328748 -5.9062753 35.435211
-2.0073481 -5.8164988 35.427307
-5.2852049 -3.4430361 35.429489
10.188265 -2.7781527 35.426403
-3.1096466 1.7258972 35.424858
3.7218623 -5.8138371 35.538742
-7.576261 -0.039302275 35.57782
-0.71647763 2.740262 35.50816
-6.1794615 -3.0003774 35.692722
7.6470137 -3.0169983 35.64027
-3.7192497 1.4568356 35.623116
8.4594812 -2.3995571 35.737122
9.851306 -0.055540785 35.782597
5.5955281 1.5993053 35.749958
-0.88019109 2.7004616 35.767197
8.3882866 -2.9205072 35.845253
-8.3398409 -1.362812 35.849213
-1.1791542 -5.7942009 35.965015
3.2040668 -5.7952361 35.966072
5.0356908 -5.5954018 35.945091
-4.7179527 -4.5258803 35.916897
9.5373068 -3.2767367 35.952011
7.1113448 -0.013265803 35.922287
3.4501448 -5.789484 36.048409
6.4919944 1.0097184 36.038712
5.5040226 -5.334743 36.127228
7.0487385 -4.1154461 36.153229
8.5398512 -2.9943936 36.103161
-7.9857693 -2.3856206 36.184898
-2.4032755 -5.7731094 36.227459
-3.1228764 -5.422832 36.273872
5.9709845 -5.0796738 36.230736
-4.8025427 -4.1480803 36.292645
9.8933783 -2.8542469 36.201553
9.3977451 -1.1769421 36.258682
-0.71902072 2.7740104 36.27145
7.5767241 -0.80239785 36.365913
-7.5006437 -0.032761268 36.342556
-2.2922177 2.0764551 36.314167
9.0827236 -1.46769 36.414108
6.8143759 0.45961413 36.435558
4.6079903 2.0291235 36.439533
9.538641 -2.9363947 36.574501
8.8064585 -2.368012 36.596291
6.7960477 -4.4049611 36.66885
7.1944675 -3.5225661 36.687366
10.105927 -2.3058255 36.648399
-0.088627525 -6.0185823 36.741718
-0.27077216 -5.9748349 36.729942
-2.5296979 -5.7099915 36.738579
4.8641148 -5.6400928 36.700291
4.9216013 1.8876399 36.778221
-1.9474869 -5.745451 36.824356
-7.8828001 -2.2435956 36.801514
-6.7757401 -2.2033772 36.889423
10.303495 -1.8949726 36.82814
0.76665783 2.7291131 36.811527
7.7603779 -2.2131805 36.968452
6.5137806 0.93640411 37.003563
0.80288732 2.7345648 37.04763
10.448606 -1.5001342 37.141853
9.2836485 -1.4192822 37.211765
7.7419472 -1.235912 37.292717
-3.0661187 1.7284131 37.295639
2.804034 2.8245273 37.264996
9.2830334 -0.99390012 37.326939
-5.0783229 -0.34345216 37.360954
-4.1516609 -4.6977148 37.426033
6.5763783 -4.4786592 37.464558
4.7045937 1.9778111 37.408363
5.7025676 -5.0948968 37.571568
-7.7578197 -2.0424781 37.569263
9.3450613 -2.0784686 37.541595
-8.1489592 -0.41097111 37.540756
0.68996787 -6.1298113 37.65535
-5.1297302 -2.8248158 37.667198
-5.3040338 -2.5116625 37.659225
3.1405702 2.6728771 37.633289
2.1339695 2.8758049 37.604973
-5.4229674 -2.2775915 37.738026
-4.3545475 0.84114563 37.780087
3.5142281 -5.8530283 37.885246
4.1466112 -5.7066855 37.896847
6.8030686 -3.7616475 37.894745
-8.2513475 -1.0696622 37.856785
7.0391455 0.030581951 37.893024
4.627326 -5.6855321 37.937393
1.7001786 2.7915974 37.997932
3.4712276 -5.8827763 38.071945
3.8736105 -5.7868729 38.052948
-2.1674478 -5.6807308 38.063332
6.220645 -4.6687069 38.195496
-0.799335 2.8337967 38.147579
-6.9616747 -0.098727241 38.256462
-1.2574906 2.6125522 38.278332
1.6160696 -6.1754389 38.358784
-1.7565439 -5.7979231 38.338074
-4.0904007 1.2574933 38.348259
3.4204063 2.5450625 38.387478
3.0040765 -5.9983883 38.428303
-5.2999167 -1.0761807 38.451591
4.0791683 2.2509015 38.405342
-1.7915066 2.3531337 38.401764
0.56383908 2.8990135 38.428345
-1.794426 -5.7748427 38.588394
-8.2345629 -0.78286499 38.567966
6.6768785 0.60709691 38.528091
9.0350904 -0.093942702 38.680614
9.164505 0.22985059 38.684074
-1.6033958 2.4582176 38.615894
-5.3654575 -1.3135227 38.774563
6.3652058 1.1168762 38.716774
0.90045446 2.8257291 38.790367
0.37060174 -6.1534009 38.869167
2.428134 -6.0604382 38.884949
-6.9808817 -1.8011808 38.881207
9.929594 0.47567546 38.808662
-2.7912643 1.8808575 38.884666
9.6446705 -1.7368779 38.923904
-5.3255763 -1.2706876 38.910038
-6.7755423 0.068294615 38.962326
-4.6548424 0.12614208 38.977882
-6.6455107 -0.44615725 39.073338
-3.6101363 1.4835887 39.083897
9.2259836 -1.7573202 39.123352
7.2493587 -0.75792623 39.133018
6.7158313 0.35244542 39.18895
10.159635 0.54583383 39.107147
5.0155597 1.8300291 39.146454
-3.9410052 -4.5519462 39.244797
-5.4810991 -1.6883779 39.200893
-4.6886172 -0.021309495 39.226498
-0.13962869 3.1394973 39.290905
-0.92982948 -5.8528976 39.3969
-2.9702127 -5.1633539 39.318363
-3.7531123 1.4263675 39.34697
-0.62440324 -5.9040694 39.491829
6.9198341 -3.0159068 39.56134
3.3390057 -5.7945685 39.610107
7.2939925 -1.315276 39.630974
0.90101278 -6.1156216 39.74411
-8.1700077 -0.75409156 39.798206
6.8739872 -0.56812274 39.778057
-4.2000256 0.48288241 39.768726
3.2614882 2.4280779 39.71254
-2.8123679 -5.1472354 39.980675
-4.2434797 0.21380711 39.918472
6.061892 -4.3364658 40.029133
10.025247 0.97546339 40.073837
3.1381593 2.3444726 40.022163
0.91911137 2.5728073 40.020298
-5.1138077 -1.5278107 40.114784
10.392237 -0.058683962 40.143627
8.9627504 0.76672453 40.105896
2.8107862 2.3545055 40.156597
4.7656317 -5.3031192 40.261097
7.1822624 -1.4083103 40.255974
9.5526972 -1.4416933 40.277412
-1.0069289 2.347122 40.201942
-0.63464689 2.415441 40.243393
2.3857062 -5.9016008 40.337936
-2.9915495 -5.0134935 40.326805
-4.9013181 -2.3739271 40.312084
-7.3220596 1.0799284 40.306309
3.1315529 2.1298308 40.392914
6.9842005 -2.4884286 40.433247
-6.2942343 -0.0018309653 40.434425
0.63469934 -6.0301661 40.568825
-5.0384903 -1.9785095 40.535946
10.199729 -0.96506208 40.591694
8.9524078 1.0154529 40.556416
4.5473366 1.5197318 40.534306
-1.3799762 -5.6913838 40.694878
9.0463905 -1.4717373 40.61837
4.0989094 1.6731756 40.632591
3.472569 1.8741496 40.672977
2.1833832 -5.9055147 40.864243
5.855907 0.41155592 40.848846
-0.02675572 2.1734347 40.84251
0.19812286 -5.9275331 40.903625
8.4450531 0.016190231 40.93697
4.8582397 -5.161149 41.073204
4.7336473 -5.225419 41.156349
-4.5988674 -2.5405896 41.101513
-2.7560785 -5.0893936 41.234138
-7.8915291 1.0753673 41.263351
-0.5826152 -5.6563587 41.319733
-6.6536474 -1.1246259 41.374725
-8.0320463 0.7381295 41.393276
-3.2547157 0.50358653 41.529308
-6.441896 1.177892 41.573391
2.6017814 -5.5691018 41.605713
8.7769814 -0.82913333 41.652752
-6.1690779 0.0028101504 41.642365
2.6607306 1.5412825 41.619175
-7.4983459 1.600932 41.627357
6.7832603 -1.3634093 41.766033
9.9167471 -1.0794653 41.729347
-0.51350117 -5.5382571 41.886097
-3.2034106 0.35000741 41.819252
-2.1289086 0.95782495 41.855747
-6.8077698 1.700651 41.822815
9.5040264 1.7011936 41.892467
-0.69929498 -5.5142288 41.92704
5.8909297 -3.4091892 41.922649
6.494401 -2.6229262 41.909664
-4.1908574 -2.4789429 41.991814
-2.9565616 0.63988751 41.97295
-2.474669 0.7851131 41.981476
8.5281897 1.207021 41.945923
-6.5744381 -1.0672836 42.069313
6.0121918 -0.701249 42.055649
-3.439271 -0.042551756 42.041973
9.551609 1.7525793 42.023605
-5.9061451 0.44397324 42.150276
10.318881 0.66270638 42.140358
-5.8974147 0.71297842 42.162354
-1.8090334 0.76940966 42.193932
9.7343893 -0.98870713 42.206169
-3.7836843 -3.0867987 42.394104
6.1857357 -2.717598 42.373077
3.5884681 -5.3177238 42.489174
-1.9187788 -5.1041741 42.430981
-4.3611135 -1.6292604 42.447105
10.395665 0.19882768 42.410278
-0.70275581 1.023066 42.411411
-0.58036751 1.0372263 42.496571
2.4542375 1.1322792 42.467117
6.3841476 -2.3087125 42.509418
8.8853569 -1.090012 42.541725
2.0512578 1.2179577 42.575871
-0.78072894 -5.4393682 42.692627
5.0933499 -4.4720635 42.647034
5.6221647 -0.58489507 42.603157
8.5580788 -0.58834171 42.670746
1.7982264 1.2559509 42.686569
5.5625906 -3.7191825 42.778042
-1.5578032 0.72134602 42.707775
-5.9899693 0.12735164 42.816303
9.3500395 2.0878136 42.864777
-6.4383345 -0.82986927 42.914356
8.1248341 0.255146 42.959129
10.333968 0.2171714 42.960018
-1.5626582 0.87068218 42.975086
10.218082 1.0630751 42.963593
0.49334553 -5.5795002 43.018387
-5.9655466 0.13165075 43.036049
3.2009654 0.78602231 43.089703
-7.8214445 1.5555906 43.003006
8.9433498 2.1673024 43.054176
2.8449857 -5.9748979 43.182976
-1.8348156 -5.6559248 43.1478
-4.050746 -1.5831087 43.132721
8.9264011 -0.95881146 43.111343
5.6927633 -0.67631745 43.192764
-0.36458853 -6.0403724 43.200222
-0.08451581 -5.4956961 43.283783
4.9891262 0.23974311 43.210773
3.2400336 0.97944504 43.219864
1.1739498 1.5050269 43.279537
5.8870621 -3.5156929 43.36705
6.4147978 -2.3270993 43.388573
-3.4704695 -0.99507368 43.356003
-5.7772589 0.45981646 43.342159
-0.048100829 0.96459597 43.396336
0.92054093 -6.3316803 43.400154
-3.1271353 -4.5389543 43.426071
6.1793108 -2.3080847 43.456184
-2.3940449 0.26688516 43.444828
3.4067512 0.91771817 43.429684
2.4208591 1.1690125 43.413754
9.9780893 1.7660342 43.476227
8.4193783 1.9272883 43.448048
-2.3733177 -4.6134028 43.572754
-3.3508141 -3.4700541 43.596615
9.639802 -0.70813298 43.597313
5.4843559 -0.54623902 43.593842
-3.1305852 -0.32099012 43.541161
4.9664536 -0.25801367 43.584473
4.8448086 0.32255155 43.577641
-5.6849179 1.2104769 43.527725
2.1942666 -5.4754305 43.679615
-3.0902004 -0.68393618 43.658905
-3.2063708 -0.46413055 43.663834
5.2388239 -0.22778279 43.603493
9.9200191 1.9380002 43.611107
-2.3137374 -4.5567827 43.899605
-4.103416 -2.5218825 43.83157
5.2091141 -0.68672562 43.867287
-0.16223866 0.82204461 43.834152
-7.6833954 2.0488074 43.898903
-2.392807 -4.4771223 43.937981
5.8192258 -3.584322 43.949413
6.1523347 -2.0505338 43.903389
-7.1264834 -0.67828774 43.975464
10.309808 0.48212403 43.916336
3.2372894 0.58670413 43.922043
1.9296894 0.88304937 43.977127
-1.5556067 -5.0122237 44.016846
-3.459857 -3.11058 44.068439
5.3601885 -0.55201161 44.066116
3.2016909 0.56181872 44.074303
-4.0719242 -2.2180872 44.194611
8.9186783 -0.72496092 44.100754
4.5181189 0.01050441 44.182438
7.6806908 1.012732 44.122017
8.6663103 2.5612402 44.137245
2.9901092 -5.1845698 44.219421
-3.3095348 -4.2446256 44.253147
6.3259764 -1.8753617 44.226303
5.5865574 -1.3158414 44.23513
-5.6336322 0.61490762 44.28112
-0.3716976 -6.0369143 44.342049
3.6327038 -5.0028348 44.332794
-3.3508294 -4.1448231 44.302086
6.0160694 -2.0537617 44.389442
5.5525169 -0.90869743 44.359016
-5.8242846 0.20127288 44.327854
-2.47649 0.31851357 44.383072
3.7329898 0.7459389 44.38945
-6.1433716 2.221302 44.316856
-6.8549218 2.6343725 44.342522
-6.7857652 2.6396878 44.359215
9.1476707 2.6271644 44.337936
3.3254752 -5.0626049 44.443237
4.969543 -4.736979 44.481689
5.799624 -3.5625858 44.406719
5.9836226 -3.140872 44.465004
-3.9161224 -2.6552799 44.402496
-7.8177042 -0.022723243 44.431267
-1.0613879 0.85711575 44.49353
-8.0893936 1.0180906 44.462646
10.277592 1.0684355 44.489258
1.2314143 -5.5324345 44.559105
5.0307283 -0.25153241 44.589935
-5.8659825 0.087468594 44.506065
0.093765683 -6.1437836 44.648777
-0.46021113 -6.0086641 44.696056
5.2293854 -3.697011 44.639019
-3.8710675 -1.6801894 44.629398
-0.78308684 -5.1036749 44.727074
5.2039294 -3.6800408 44.777935
-3.3959727 -2.9437354 44.70491
5.9223962 -1.5502743 44.797932
-7.7947927 0.16763949 44.869343
-0.62719756 0.94613826 44.858761
8.125206 2.0961897 44.836632
9.7538366 2.2988248 44.827126
6.0015945 -2.4315903 44.943237
5.256331 -1.2434604 44.93528
-2.8213584 -0.34404686 44.951267
-2.2770934 0.42513278 44.95443
2.4455166 1.0415142 44.936337
5.6012082 -3.9205599 45.016815
5.8984847 -1.6036626 45.035347
2.2898269 1.074644 45.051056
-6.5676451 2.8675909 45.066105
-3.2752688 -4.1499248 45.173393
-3.5403738 -3.3401947 45.175312
5.4633555 -1.0459663 45.183167
-0.78280485 0.88489121 45.122337
3.7938151 -5.7214808 45.258884
7.9078665 0.35997316 45.261398
9.7772923 -0.067171574 45.370903
9.9847679 1.7683563 45.368015
8.069191 2.2642241 45.381962
-7.3590841 2.6226125 45.365608
-2.4801195 -4.8931036 45.456066
4.6888771 -0.0099696219 45.432686
-7.6642289 0.13216048 45.438435
-0.48970535 0.97226751 45.494545
-7.7445126 1.8231145 45.446529
3.7822549 -5.7257338 45.501431
-3.5008519 -1.4716884 45.575645
-6.028676 -0.40530023 45.537746
1.4587066 1.3103549 45.648727
-1.5094278 -5.7629204 45.773094
-6.67699 -0.1865803 45.718452
0.13805604 1.1572663 45.730743
5.9274902 -1.9234905 45.841484
-5.9729347 -0.33046636 45.832977
9.1506138 -0.047015876 45.891804
7.3702669 1.3424107 45.999161
7.6532536 2.0138025 45.945168
1.0481678 -6.3537803 46.013317
-3.5309424 -3.0596836 46.093346
5.8750229 -2.2687063 46.047031
4.8055396 -0.25339398 46.002518
8.7996969 -0.1069074 46.002365
0.48972437 -6.2519474 46.276031
3.6003933 -5.8194985 46.278488
7.8054819 0.46523839 46.238869
-5.4693151 0.72487283 46.201054
0.9839465 -6.3363371 46.393299
5.8163204 -2.5183334 46.383308
4.7170753 -0.096589416 46.312546
9.0661335 0.12495503 46.375427
9.3322754 0.19280204 46.350578
-1.8352926 0.64397717 46.307968
-7.9351425 1.4466188 46.387428
7.6885033 2.2217705 46.353264
4.9017401 -0.42096841 46.449696
-2.6707652 -0.36574903 46.412956
7.2065001 1.5574858 46.493988
9.9769316 1.8642707 46.401031
5.7972279 -2.4747331 46.589798
5.8068209 -2.368439 46.585823
-4.9630108 1.6061178 46.553741
7.2822175 1.7362986 46.541016
-7.2743292 2.7495985 46.564873
-0.21738297 -6.1221323 46.661934
7.4205971 1.2005868 46.638229
-2.575609 -4.9201832 46.743477
9.0773363 0.32036003 46.725765
3.1655607 0.90921903 46.702637
9.6506042 2.4061813 46.756947
-3.5859323 -2.341047 46.829346
-3.1987715 -1.2119491 46.859779
7.9999084 0.14952269 46.851357
4.1339669 0.64799231 46.801971
0.063025653 -6.1642776 47.078415
-5.8655944 2.9827366 47.014488
8.0415478 2.9447877 47.077797
-2.8027294 -0.56051689 47.136749
0.15678138 1.1922141 47.176315
-6.6673584 3.1247363 47.175045
-1.8914754 -5.6690173 47.269993
-3.491008 -2.9507492 47.212784
-6.1076555 -0.0078182267 47.272636
-2.1718993 0.55748659 47.219398
4.3710203 0.62177229 47.498543
0.67375195 1.3264724 47.496601
9.4596844 2.4266834 47.411396
2.8445845 1.0035572 47.541885
-7.56494 1.813329 47.515228
9.527523 2.2257931 47.585686
9.0584507 3.0497377 47.583
-6.454505 3.107713 47.579884
-0.064560473 -6.1334262 47.60128
4.1557469 0.68744308 47.664112
-4.9136462 1.5478935 47.706898
-7.0683966 0.12773311 47.823185
-7.5155716 1.8007179 47.850967
-5.9773049 3.0995851 47.875
-7.329463 0.64377373 47.971294
0.53381431 1.4096014 47.991802
3.8383746 0.86631781 48.045818
-3.2636776 -1.1685632 48.136856
-2.39291 -5.2641959 48.252628
5.6224418 -3.5397048 48.247398
8.9867001 -0.059906032 48.352318
-2.3529978 0.56653273 48.355999
7.4738922 0.91901636 48.320419
2.7512627 1.212754 48.311928
1.7342992 1.4572002 48.34549
9.6963129 1.7014644 48.360874
-7.3125525 2.0231099 48.303249
3.3019571 -6.076827 48.413292
-2.111028 -5.6360493 48.409023
-2.3869498 0.5450756 48.444092
8.3666821 3.089824 48.496597
5.5304341 -4.2623329 48.541584
5.6104069 -4.1665974 48.51738
-3.5846872 -1.9554932 48.589142
-1.2196195 -6.1134033 48.68203
-3.5781801 -2.1253514 48.673676
-7.0730209 0.31925565 48.620316
-7.3507099 0.76722562 48.626835
3.6281853 1.0689869 48.627926
-1.126479 1.1414711 48.61779
-6.1466851 3.091351 48.614742
-2.9707351 -0.35796529 48.758778
2.1551206 1.4542871 48.766823
5.5978079 -4.2787151 48.889801
-6.9483275 0.12528068 48.814381
7.4073925 1.7833056 48.826672
-6.19874 3.0886879 48.852165
4.7251115 -5.2672205 48.940399
-6.6943212 -0.17058775 48.988533
9.755125 1.414011 48.986965
-0.47882849 -6.3247366 49.096405
2.0528202 -6.3667617 49.060036
8.8608046 -0.19211534 49.077709
-2.4727447 0.64067382 49.008068
9.5138044 0.74260819 49.036442
-7.0983763 0.43255699 49.15271
-5.1839781 1.701808 49.178917
7.8452625 2.704567 49.187618
4.2272463 1.0773292 49.260529
1.8448312 -6.3917727 49.363907
3.559808 -6.2106347 49.309608
9.5806589 1.6229064 49.317482
-1.1556979 -6.2703986 49.419327
4.2825079 -6.0467443 49.47023
4.4961929 1.0919682 49.587135
2.6563706 -6.3758841 49.675571
5.8205872 -2.9534247 49.613033
9.2419682 2.1804171 49.69556
7.9863901 3.0704591 49.61554
5.4116507 -0.34474108 49.702812
3.7588348 1.3115894 49.707573
1.4617851 1.7071595 49.712395
7.6285696 2.1752162 49.779041
5.5164227 -4.612443 49.812077
7.3914371 0.88114148 49.999386
1.9710039 -6.4242802 50.053383
-0.37147194 1.5881186 50.082863
1.0769131 1.8095766 50.030872
7.6346235 0.32105845 50.185661
7.3603315 0.91301686 50.179161
9.280776 2.0026014 50.128853
-5.5022578 2.5111499 50.102821
3.833936 -6.348443 50.240295
-6.8562746 -0.35639995 50.208656
-0.51475215 1.5961872 50.286148
5.7113361 -4.5413074 50.369232
5.9340782 -2.2858577 50.300499
-5.447526 0.20967191 50.317238
4.2778172 1.3507689 50.380577
-2.8785992 -5.3848162 50.469364
-3.7678628 -1.948392 50.437107
-1.787647 -6.3702302 50.55814
5.9209175 -3.3772335 50.509037
-7.045495 0.18432012 50.594971
-0.54834986 1.6353066 50.579887
6.0153308 -1.4154199 50.681095
-2.941474 0.51877338 50.621483
7.2300406 1.1672299 50.681126
7.8418345 2.9704466 50.675697
-0.85357386 -6.417737 50.734917
-3.8413579 -1.2017155 50.792919
7.9565291 -0.62291044 50.743374
5.3710155 0.17810741 50.783157
5.9294853 -4.2151461 50.813473
-3.8438127 -1.4373386 50.87888
-5.5956345 -0.32817301 50.869644
4.5042577 1.3993192 50.86298
-3.8121021 -0.79998064 50.992989
-4.9861512 1.262707 50.920822
-6.6478033 -0.533126 51.054794
9.2841015 1.9000288 51.009171
-5.321867 2.1819642 51.070805
-3.784802 -4.0366869 51.161713
5.7742982 -0.26135248 51.100685
4.7383361 1.4382014 51.140228
-2.0132945 1.5128835 51.109287
-5.497057 -0.38873512 51.282394
1.8551915 1.9287636 51.253609
7.1335497 1.3419815 51.304356
-5.4511423 2.6842389 51.334991
5.1364622 -5.9050436 51.458603
-2.3667068 -6.4209781 51.59005
4.7534261 -6.2570667 51.590748
5.7194386 -5.243227 51.582352
6.0660434 -3.4038916 51.565372
-3.9052358 -2.5700614 51.582649
-1.1980726 1.7815368 51.576378
1.8499002 2.0150411 51.547264
1.6678486 -6.5874286 51.640472
5.6690936 -5.3936319 51.639931
6.037251 -4.3310242 51.677551
-3.9204822 -0.25890791 51.625694
-3.3852072 0.68058121 51.618484
-6.7810163 2.8246307 51.704006
8.0016069 -0.67816591 51.845013
5.7702131 0.57096088 51.813305
3.4244604 1.850584 51.823635
6.1675415 -2.3547764 51.955025
-3.982512 -2.1513 51.977768
7.6317983 -0.58640677 51.902824
2.486062 2.0291047 51.923615
2.8194194 -6.724546 52.01186
-5.7710791 -0.68180436 52.084026
-4.1704698 -0.22474869 52.037277
9.3357849 0.48525375 52.089684
-7.2345252 0.93942326 52.015785
5.0723119 1.5321186 52.018238
-3.8611479 -4.3411784 52.174206
-3.9984722 -2.4120364 52.148651
9.0229559 -0.50497365 52.172817
-3.7753005 0.63910055 52.178932
-2.116163 -6.6660762 52.209404
0.15013082 -6.6387672 52.271145
7.2126741 -0.023965826 52.293518
6.2006831 -3.1076434 52.363602
5.5338707 -5.8219833 52.492859
6.2488155 -2.1873085 52.439789
-7.1065736 0.51520741 52.438683
-4.6424475 1.5459584 52.471642
4.9815016 1.777667 52.449192
2.4877481 2.156229 52.419003
3.4823613 -6.7716775 52.514927
4.961731 1.8101727 52.503067
1.1125962 -6.5581045 52.629196
9.0272608 -0.35490587 52.606182
7.2203779 -0.23751584 52.681908
7.5892477 2.8531716 52.695595
-0.79672194 -6.7190051 52.797558
1.7737156 -6.6189346 52.717083
6.0436654 -4.8665295 52.763119
6.2422738 -3.5753219 52.753799
-4.1692157 0.54986525 52.704002
-4.3355575 -1.5272757 52.883461
-5.2084336 -0.68173087 52.851368
-5.0024633 -0.30414182 52.842468
-4.4789848 -0.12772039 52.846558
6.8092399 0.46277207 52.850517
-5.8120656 -0.70339119 52.95285
7.7484341 -0.71151102 52.905682
-3.4540584 1.4495351 52.987823
6.9836931 2.1159148 52.949158
8.8971252 2.5653145 52.995968
8.5793419 2.8998551 52.991501
3.3789897 -6.7612371 53.012047
-4.0642686 -3.6665776 53.044838
-2.5323272 -6.5032067 53.145435
6.4110112 -2.3484094 53.116966
8.4131393 -0.68500298 53.124306
6.6924825 -0.27876341 53.163132
5.9094467 1.299459 53.140205
-3.1559796 1.7430322 53.116844
-0.039355852 -6.6350207 53.207317
-3.9977467 1.0963752 53.209892
6.0280256 1.263495 53.291584
-6.4805388 -0.66174603 53.311584
-3.9764371 1.1773171 53.369659
-4.6932106 0.52641183 53.48468
-6.6690512 2.404882 53.418709
-1.7143624 -6.6023555 53.59433
-2.1124527 -6.5903921 53.508713
-5.8559513 -0.71872008 53.582939
6.6864581 1.7912762 53.52821
-6.8580012 1.921941 53.523907
-2.1387188 2.2127068 53.530804
-6.5194869 2.679806 53.569908
6.3789306 -3.3014326 53.658138
6.7321315 0.84276545 53.670731
-6.9999838 1.3755611 53.66766
4.4135017 2.2460072 53.701942
7.2808666 2.6920221 53.783417
-4.132957 1.2474962 53.865074
2.7961116 -6.3721061 53.923771
-4.3977261 -2.5206344 53.969868
-6.880702 0.21258479 53.975037
0.40052289 2.6252084 53.967445
6.7526517 -1.858723 54.009464
-4.155797 1.2998123 54.027229
-4.1621761 1.4276687 54.031372
1.5267191 -6.0793343 54.163738
-6.6147113 -0.17462185 54.165398
-7.0228505 1.1369983 54.112125
-4.5553093 2.0733716 54.175667
-2.8107066 2.286669 54.152508
4.6694069 2.3174772 54.111122
5.1444831 -5.7835655 54.211998
8.5304632 -0.65468591 54.236584
-0.8424626 2.5306835 54.220974
4.5129652 -5.9751816 54.397652
6.694303 -0.148931 54.381397
6.9362688 1.0326362 54.342888
-6.5803032 2.1602879 54.398949
4.4918265 2.3764057 54.369801
-4.7939076 2.4789145 54.32238
0.67096007 -5.9007249 54.46183
-6.2051458 -0.72757649 54.469017
-6.0349889 -0.73586559 54.403137
-3.9982917 0.71408182 54.416569
-4.8713617 0.94268692 54.413303
6.3027105 1.4242589 54.49543
1.0791191 2.7755857 54.446518
3.0603175 -6.0788727 54.534733
-4.645339 -1.8194487 54.548695
6.8834953 -0.98276001 54.570324
6.9377451 -0.63023347 54.552139
6.8181992 -0.49971268 54.584064
7.0265751 2.5565405 54.525383
-4.5688443 2.211237 54.681389
0.35623658 -5.7785988 54.759724
7.1442695 0.57738644 54.754059
-4.1400528 0.6822834 54.703896
-6.3488884 2.5264697 54.762184
-0.91547525 2.5919065 54.759949
-0.48415095 2.6476631 54.792549
-1.1815209 -5.8393178 54.820541
-6.9782648 1.0353091 54.834816
3.0832005 -5.787838 54.960495
9.138339 0.61262608 54.974247
-6.2155294 -0.92815721 55.002213
-4.2026477 1.8899236 55.058022
-1.7786162 -5.4420342 55.157455
9.0970192 0.6054157 55.163635
-4.5664144 1.7075019 55.170391
-2.4158759 -5.1855826 55.20224
0.78349376 -5.1314297 55.231953
-4.6406999 -0.51236939 55.243637
8.7715759 1.9637655 55.246437
-6.4622893 2.4106879 55.275848
0.57579416 2.8250289 55.249287
7.0868177 -1.0370485 55.392921
-4.8382688 2.678133 55.378983
2.4677794 2.7491124 55.378551
-4.5280938 2.4294899 55.453918
-0.47951263 -4.9199238 55.60928
0.25154191 -4.6777339 55.664047
-4.2307739 -2.8858328 55.652233
6.7086754 -2.3719633 55.641685
7.0568056 2.6561897 55.662704
7.8917418 2.7440858 55.697784
0.65084982 2.8561196 55.622211
-0.23727566 -4.7481346 55.704346
-1.5281601 -4.6370969 55.779694
1.765536 -4.5641708 55.741318
5.0897622 -4.2185993 55.71558
-4.9590783 -1.3108337 55.761402
4.1043472 -4.5004587 55.88525
-4.574471 -2.2093384 55.885071
-4.7421484 -1.6779333 55.821415
8.0562601 -1.0872723 55.807957
-4.5505877 -2.2490821 55.993366
-6.8775244 0.37003189 55.966331
-1.7515584 -4.3168879 56.023659
-1.2980131 -4.2885733 56.04287
5.5968008 -3.4617188 56.090149
-6.5293379 1.9615694 56.094395
3.712347 2.6853461 56.032887
3.4213705 -4.2112188 56.101212
-2.1312871 -4.1831317 56.126995
6.7123051 -2.3133638 56.165833
8.0972071 -1.156481 56.135925
0.22373694 2.8869357 56.16074
3.94998 -4.0196495 56.249161
-3.3219061 -3.3893318 56.235813
-4.6377902 -2.0693638 56.225899
6.1175103 -2.7908158 56.384995
-4.2338767 2.4530969 56.326534
5.3645201 2.4747548 56.366627
1.0539269 2.9280729 56.408043
1.6735098 -3.6664915 56.542076
7.8237996 2.6685767 56.542454
-4.1081486 2.4890699 56.67218
0.035190016 2.9217005 56.669495
1.3646173 -3.5124896 56.797535
-0.82572442 2.8651986 56.783257
-0.75898123 2.8646626 56.71769
-2.3781447 -3.3716719 56.801895
0.2035352 -3.3467398 56.866196
2.9483254 -3.3935521 56.834663
4.2717547 -3.3456252 56.805626
-1.5620511 2.7874022 56.861599
0.28342289 -3.2727757 56.97419
-6.4037914 0.15310456 56.964977
8.9181414 0.74707192 56.923035
-4.8636818 2.4924848 56.970608
-2.4368234 -3.1249721 57.031559
-2.3461328 -3.147114 57.014797
-5.4406495 -1.41608 57.092617
-5.7277145 -1.0265137 57.000256
-4.261816 2.4948773 57.01078
-2.8158875 -2.8032899 57.191147
-5.6146884 -1.0613999 57.190845
-5.9369001 2.1394396 57.109337
-2.4271607 -2.9227254 57.222446
2.9354758 -2.918011 57.284889
7.4148436 -1.5690324 57.228874
8.4478121 0.13859016 57.339714
6.9859014 -1.802147 57.463108
-6.2331233 0.82330477 57.669544
-4.418067 2.5060377 57.607712
5.7095838 2.5961926 57.674789
-0.75755072 2.9764974 57.63829
-1.2431989 -2.3579826 57.791954
-4.8662224 -1.4492013 57.714775
-5.1769056 -0.88929594 57.787682
7.726017 2.0097833 57.751522
4.5380721 2.7662034 57.701504
-1.83836 -2.2696638 57.847179
-4.2236462 2.5426514 57.877426
6.039783 2.587009 57.881874
6.4702349 2.535182 57.881386
-3.6740189 2.6046135 57.806995
-4.0699868 -1.5543 57.945831
7.1282339 -1.0211449 57.981445
7.635931 1.7912521 57.981213
5.9076595 -1.5567837 58.031914
-2.9526629 -1.7223779 58.135986
-3.5508299 -1.4290183 58.197445
-5.181674 -0.40432471 58.148643
-1.98875 2.8807306 58.176605
1.6003168 3.0487971 58.108505
-0.98160958 -1.919054 58.21162
-4.9043541 -0.70118487 58.232662
7.6454544 0.0272879 58.2337
-1.7826644 -1.7107763 58.350182
6.9877653 1.7485952 58.456974
0.23428306 3.0676751 58.472076
-4.6538925 -0.34739473 58.567955
-4.2046194 1.8840437 58.534485
-3.3539457 2.5235014 58.574673
0.45445898 3.0804083 58.56102
-1.3637731 -1.379681 58.690578
-4.8751831 1.2146167 58.661797
-4.1763287 1.5412099 58.681389
-1.2699974 3.0253694 58.641006
5.8577867 -0.64842761 58.763786
-5.2643728 0.42942598 58.715706
7.1300669 1.0598817 58.725677
