# .PCD v0.7 - Point Cloud Data file format
VERSION 0.7
FIELDS x y z
SIZE 4 4 4
TYPE F F F
COUNT 1 1 1
WIDTH 171
HEIGHT 1
VIEWPOINT 0 0 0 1 0 0 0
POINTS 171
DATA ascii
-0.65435427 -0.39637274 -0.0091784988
-0.11389557 -0.25912058 -0.0022145587
-0.14264105 -0.17825191 -0.0013451582
-0.64429623 -0.34110075 0.023074927
-0.59756964 -0.31708294 0.054252647
-0.62128437 -0.25805223 0.053983204
-0.58941764 -0.25611603 0.054314584
-0.1283713 -0.25058395 0.04262067
-0.086573415 -0.26574734 0.015564336
-0.13532038 -0.16745006 0.049447957
-0.57158166 -0.30413753 0.16936903
-0.60977626 -0.26543224 0.12745668
-0.57368964 -0.2643058 0.14825393
-0.14191782 -0.20911388 0.14976297
-0.13865715 -0.17619362 0.15939626
-0.54856968 -0.31440735 0.25659069
-0.49907482 -0.32466978 0.29408255
-0.55041128 -0.27193949 0.24496806
-0.48864561 -0.27868152 0.28292161
-0.13913245 -0.21655217 0.2470589
-0.13091387 -0.16630211 0.24772561
-0.098489672 -0.19686784 0.27620623
-0.53213704 -0.3273727 0.34797028
-0.47036776 -0.3188495 0.34519488
-0.54003507 -0.2682595 0.35086939
-0.47305346 -0.27260476 0.3450242
-0.1522231 -0.23166917 0.36262095
-0.15243769 -0.16278891 0.34084991
-0.51181483 -0.33933309 0.42205179
-0.44969982 -0.34283838 0.46122798
-0.46424296 -0.2878792 0.46833935
-0.39754367 -0.28930497 0.49295479
-0.20366961 -0.21275923 0.4847596
-0.15485089 -0.24360147 0.45532838
-0.15397732 -0.18585901 0.44973263
-0.43998981 -0.34634742 0.54555881
-0.37885803 -0.32707781 0.55692858
-0.46015993 -0.27034688 0.54330367
-0.36993688 -0.25607678 0.55961764
-0.22168447 -0.23247398 0.54627752
-0.13391791 -0.25745445 0.54707915
-0.20637219 -0.18252529 0.54943758
-0.15885331 -0.17846166 0.56401688
-0.43854901 -0.32745239 0.64069337
-0.38026699 -0.328262 0.63724971
-0.15507929 -0.30297518 0.67721123
-0.44975442 -0.23507199 0.65967029
-0.33018363 -0.2599346 0.65189707
-0.25358856 -0.23792757 0.68009239
-0.11481041 -0.25212404 0.65411758
-0.097205997 -0.2511315 0.6613993
-0.41989005 -0.18570384 0.67009389
-0.36220449 -0.17961672 0.66606104
-0.22037874 -0.17149085 0.64135075
-0.1573168 -0.15129086 0.65592182
-0.42944428 -0.32175714 0.75549245
-0.37451389 -0.32572296 0.73969549
-0.15532476 -0.30159825 0.76305455
-0.44029632 -0.25798506 0.74374664
-0.33549473 -0.27387801 0.76317507
-0.24924015 -0.24652456 0.75402462
-0.1395248 -0.27454123 0.76034081
-0.097393915 -0.22826436 0.7601651
-0.41857627 -0.15732294 0.76966941
-0.36729804 -0.1264478 0.74941373
-0.25158697 -0.16296691 0.74716985
-0.14572233 -0.13889734 0.75880009
-0.32008773 -0.097122736 0.78625882
-0.17009905 -0.088616319 0.76965958
-0.43455744 -0.30639869 0.83160388
-0.3821387 -0.31964481 0.81471699
-0.4318524 -0.25938305 0.8625021
-0.3607842 -0.27339149 0.85524583
-0.24432558 -0.27930272 0.85084033
-0.13900146 -0.26367503 0.85331231
-0.097671635 -0.20259738 0.81606448
-0.421747 -0.15009381 0.84933591
-0.39050993 -0.11090177 0.85706735
-0.25392875 -0.11334709 0.83604401
-0.13810368 -0.13192636 0.8510772
-0.34735861 -0.091033883 0.8515088
-0.22739466 -0.094500959 0.87637436
-0.1522405 -0.063587055 0.86032009
-0.43464702 -0.22351189 0.92701179
-0.34754762 -0.2813082 0.95402139
-0.25201738 -0.28714406 0.94295335
-0.16721898 -0.24779372 0.93755215
-0.50553578 -0.12838389 0.96609545
-0.45563599 -0.15888953 0.94808728
-0.3591477 -0.13682586 0.95463169
-0.25106049 -0.12216975 0.95463449
-0.16526265 -0.16081958 0.94977432
-0.50388694 -0.079209797 0.9911958
-0.47465286 -0.086462237 0.98179752
-0.32987463 -0.097149163 0.90507448
-0.23399439 -0.09744142 0.90486294
-0.13711654 -0.05585368 0.95000702
-0.40556681 -0.22528864 1.0383102
-0.34981254 -0.28609005 1.0419804
-0.23646148 -0.27414003 1.0552955
-0.19453923 -0.21241334 1.0400491
-0.50072777 -0.13007274 1.0005364
-0.44406417 -0.13104205 1.0580672
-0.34951895 -0.15010087 1.0528485
-0.23790443 -0.15685323 1.0526848
-0.19307363 -0.1860656 1.0936178
-0.50437003 -0.066693008 1.0361522
-0.46491539 -0.062508121 1.0576884
-0.13676456 -0.054312341 1.0489659
-0.34199139 -0.30571297 1.1736615
-0.40855938 -0.23428139 1.1496332
-0.37297422 -0.28669593 1.1402168
-0.23106605 -0.28851524 1.1531701
-0.16510944 -0.25018167 1.1653962
-0.44475397 -0.14052503 1.1637634
-0.35474983 -0.11189944 1.1386864
-0.24007553 -0.10638963 1.1036708
-0.16467138 -0.13534367 1.1425741
-0.45914474 -0.069628887 1.1449041
-0.31929815 -0.085867159 1.183794
-0.23810191 -0.075959109 1.1555984
-0.15038644 -0.063491665 1.1501428
-0.098055243 -0.093631178 1.1905748
-0.33958238 -0.32437202 1.2353431
-0.24405837 -0.30520815 1.2169784
-0.18384361 -0.3106961 1.2184392
-0.40837738 -0.24363036 1.2353468
-0.35397398 -0.26752034 1.2843232
-0.27090436 -0.26832044 1.2618039
-0.16055955 -0.25104538 1.2427485
-0.45082819 -0.14067581 1.2413821
-0.14344323 -0.14788675 1.2599653
-0.096500628 -0.10255572 1.2542783
-0.45454231 -0.08551351 1.2393508
-0.34497914 -0.071083821 1.2618942
-0.26074418 -0.05417601 1.2440667
-0.15051895 -0.060516518 1.2448763
-0.095228806 -0.076553598 1.209095
-0.42191875 -0.20094439 1.3021367
-0.34447101 -0.21983719 1.3137904
-0.28409475 -0.20391978 1.3190023
-0.45175493 -0.16057301 1.3317356
-0.34813154 -0.14796779 1.3704065
-0.24122919 -0.16014384 1.3565263
-0.17909704 -0.13340726 1.3344817
-0.41917336 -0.093974337 1.3040483
-0.33630091 -0.06923265 1.3602189
-0.25910136 -0.05795072 1.3572887
-0.17788598 -0.076152816 1.343369
-0.27590203 -0.21793866 1.4751626
-0.33550137 -0.14708997 1.4501687
-0.22768857 -0.14167239 1.4514471
-0.19284064 -0.11461399 1.4585087
-0.33606288 -0.056367986 1.4538996
-0.24418835 -0.045620181 1.4458573
-0.19325776 -0.076561727 1.4600959
-0.30639488 -0.20649268 1.5517118
-0.25417024 -0.21116158 1.5516514
-0.34791252 -0.15697254 1.5458739
-0.22090828 -0.16271544 1.5514917
-0.19182557 -0.14259079 1.5567923
-0.34401888 -0.05507217 1.5366051
-0.24441366 -0.021412365 1.5441885
-0.18734182 -0.078346282 1.5346141
-0.32971901 -0.20264784 1.6085311
-0.25586215 -0.21169278 1.6079941
-0.33082137 -0.13659503 1.6330553
-0.24361493 -0.16236915 1.6314967
-0.19898228 -0.12063406 1.6004897
-0.33292869 -0.080991141 1.619751
-0.24126339 -0.069791682 1.6279919
