# .PCD v0.7 - Point Cloud Data file format
VERSION 0.7
FIELDS x y z
SIZE 4 4 4
TYPE F F F
COUNT 1 1 1
WIDTH 1551
HEIGHT 1
VIEWPOINT 0 0 0 1 0 0 0
POINTS 1551
DATA ascii
-22.127682 53.989334 -12.127207
-17.662413 54.883141 -12.107032
-7.0493374 57.98138 -12.012352
-22.298553 54.638809 -11.920679
-19.527046 59.728325 -11.900996
-10.991167 55.51033 -11.8766
-9.3096676 50.761627 -11.78694
-6.2881379 52.965107 -11.777617
-9.5882645 57.767151 -11.723698
-18.335201 58.372765 -11.680883
-8.0565424 50.885742 -11.486027
-17.544456 56.883884 -11.470098
-6.6498404 51.626511 -11.314749
-21.190468 52.814392 -11.327232
-17.566986 55.291176 -11.367105
-21.800102 59.107712 -11.357434
-9.3058052 50.611549 -11.245148
-22.495726 55.449207 -11.200285
-17.536873 55.396759 -11.129322
-8.1185226 50.74585 -11.012857
-21.481853 52.898495 -11.046925
-8.1208687 57.930153 -11.035872
-6.503139 51.864773 -10.892062
-20.253181 52.378643 -10.841324
-21.206749 52.766415 -10.8833
-10.523325 56.18354 -10.869738
-18.412296 58.365463 -10.889787
-10.689723 51.132278 -10.723545
-10.717613 55.887642 -10.708136
-17.498192 54.402843 -10.614238
-17.487427 54.993332 -10.631798
-9.8350039 57.055656 -10.603966
-10.363569 50.447182 -10.570983
-6.3649077 52.699226 -10.53967
-6.7976789 56.519138 -10.590279
-7.2309027 57.59684 -10.577232
-19.147034 59.094955 -10.508012
-18.66139 52.228706 -10.473946
-17.463951 55.178703 -10.465563
-6.6541924 56.057148 -10.49588
-6.5819106 51.490982 -10.381259
-7.741374 57.604996 -10.38761
-21.685333 52.880573 -10.228013
-9.3612671 57.498646 -9.756485
-17.394205 53.338943 -9.6219187
-22.118942 56.727718 -9.5835037
-11.185785 54.079315 -9.4342909
-10.610876 50.118652 -9.3690596
-10.790039 50.242188 -9.3684521
-11.044392 52.405712 -9.2050152
-21.20068 58.769451 -9.2870007
-17.332315 53.509609 -9.1273355
-22.271542 54.890709 -9.1499195
-22.163002 56.330441 -9.0213022
-7.1567802 56.632828 -9.0393496
-20.842937 58.788361 -9.0693569
-10.900273 50.502621 -8.8039389
-18.995569 58.664124 -8.8827457
-11.007771 51.315235 -8.6604509
-7.3634748 56.834858 -8.6501083
-6.2828059 53.467548 -8.5110111
-10.533249 55.547806 -8.5996771
-17.197262 56.437126 -8.4195843
-17.910532 57.445736 -8.4447212
-17.544098 52.010155 -8.3432407
-9.0395813 49.766315 -8.2153091
-10.848959 55.043671 -8.2521505
-7.9950228 56.773331 -8.2394943
-21.900507 56.958389 -8.22612
-22.304026 55.13028 -8.1926441
-17.718603 57.188908 -8.119442
-6.5389423 52.072121 -8.0208435
-18.60256 58.102833 -8.004405
-9.1122036 49.682724 -7.907814
-11.395141 54.260056 -7.9736013
-17.610891 57.055237 -7.999651
-8.8797779 49.654568 -7.8256507
-22.26296 55.021004 -7.8722181
-22.060184 56.220772 -7.862195
-7.3895416 50.393517 -7.7466159
-22.242832 55.489292 -7.71345
-18.382952 51.779022 -7.6103477
-20.499672 52.096741 -7.6800423
-20.647511 52.14653 -7.6158943
-20.8304 52.225719 -7.6837826
-17.820328 57.209728 -7.600215
-20.693806 58.472908 -7.694983
-10.464522 55.343441 -7.5305924
-6.7710919 50.83345 -7.4742603
-7.8209963 50.074333 -7.3651528
-17.099073 53.710388 -7.2109632
-21.942501 53.923523 -7.2723665
-22.06889 54.386864 -7.2719703
-17.078655 55.59441 -7.2643495
-21.468578 58.155937 -7.2056799
-10.454092 55.258358 -7.1713133
-11.375277 52.643719 -7.024601
-21.937157 53.926727 -7.0915432
-6.526659 52.326752 -6.7269363
-10.292542 55.368034 -6.7728395
-6.6389394 51.700485 -6.6613512
-21.845993 53.648888 -6.6446962
-21.968937 54.104118 -6.6084852
-11.009585 54.421795 -6.6741734
-10.358154 55.24884 -6.6366897
-10.825985 54.612473 -6.5004416
-6.4397693 53.300011 -6.4480019
-17.198122 56.367317 -6.4951344
-7.3928976 55.819942 -6.3957138
-21.594227 57.306293 -6.3811722
-21.903385 56.120659 -6.2572241
-20.523132 58.128769 -6.2112703
-7.8044348 49.852528 -6.0375061
-11.329115 54.128429 -6.0542293
-19.066343 51.376724 -5.9051666
-10.333908 55.36536 -5.9914026
-19.994585 51.655972 -5.8621697
-9.570507 56.35603 -5.8390613
-11.536205 52.098396 -5.5104752
-9.7051611 56.293064 -5.5663776
-20.559685 58.032166 -5.5175571
-20.887985 51.984833 -5.4966221
-7.1446352 54.963272 -5.4050488
-7.2242785 55.180443 -5.4854908
-16.862576 55.751591 -5.4838734
-10.06432 55.912933 -5.4368949
-18.176369 57.430527 -5.3844733
-18.364113 57.628391 -5.3680215
-9.3940935 49.307697 -5.2607207
-16.860264 53.151371 -5.2076044
-21.752466 53.54192 -5.0335159
-6.7013578 53.753311 -4.9447279
-11.370534 49.465927 -4.8823605
-11.389663 49.63377 -4.8389311
-6.4969416 53.192211 -4.8508639
-11.453979 50.334446 -4.7992282
-7.1992292 55.026581 -4.6006203
-17.792454 57.179924 -4.6665006
-8.4997425 49.64777 -4.4457245
-21.031195 58.002701 -4.4006901
-17.835281 57.305073 -4.2577763
-6.7000895 52.650917 -3.9870603
-16.843454 56.339848 -3.9707119
-8.5262976 56.47691 -3.9501657
-11.570102 50.058731 -3.899138
-17.586773 51.425591 -3.8679943
-7.3658819 55.389797 -3.852572
-11.609253 49.994011 -3.6234031
-16.642311 52.06181 -3.5436912
-20.594217 58.181755 -3.583977
-16.731878 51.442795 -3.4313214
-11.978128 53.605453 -3.4748828
-19.166967 51.289459 -3.3149529
-6.7902575 52.580193 -3.2569711
-21.474789 52.780659 -3.15732
-21.374683 52.481674 -3.0952361
-21.494349 52.863964 -3.0651374
-16.538349 54.540489 -3.0475681
-12.066625 53.804359 -2.9916539
-21.955044 54.56039 -2.9018729
-7.1874075 54.832306 -2.9607253
-17.837795 57.559711 -2.9797206
-11.258965 55.567322 -2.8150814
-16.662663 56.396545 -2.821353
-22.046398 54.918922 -2.702275
-10.222417 56.760918 -2.781956
-11.885719 51.587421 -2.6493666
-10.165533 56.858158 -2.6697445
-11.840708 50.860744 -2.565105
-12.09338 53.512505 -2.5869417
-17.528584 57.325394 -2.536767
-16.454782 54.242813 -2.4215078
-19.171406 58.676144 -2.2204137
-10.949013 49.536026 -2.149405
-18.316532 51.209492 -2.1251025
-11.971532 51.74028 -2.1513886
-7.0438862 51.830517 -2.1485124
-16.834192 56.700413 -2.1524174
-8.8908138 56.890167 -2.1153016
-9.1451292 56.937202 -2.1602831
-17.727367 51.277172 -2.064415
-6.9695945 52.331902 -1.9895853
-19.184021 58.701836 -1.7928853
-17.563354 51.264664 -1.6165133
-12.214119 54.926823 -1.5873516
-17.046879 57.027767 -1.5661167
-21.142656 58.007523 -1.5174168
-21.611408 53.496731 -1.4989383
-12.27823 54.91901 -1.4210491
-10.537593 56.899403 -1.4752673
-10.295856 57.142334 -1.483375
-18.250587 58.293243 -1.4374793
-7.5673251 55.673706 -1.389899
-12.021656 50.495544 -1.260444
-19.424551 51.330254 -1.2433808
-18.64851 51.100967 -1.1917095
-21.761055 54.08226 -1.1852431
-8.6495562 57.007492 -1.1832571
-10.217392 57.336327 -1.1581528
-17.935835 58.031532 -1.1041832
-12.101948 51.162598 -1.0610294
-16.321814 56.431053 -1.0105579
-11.302644 49.610039 -0.99386263
-18.670784 51.08094 -0.95393729
-7.066268 52.345531 -0.92731094
-17.000034 51.221008 -0.82688665
-8.1452093 56.983444 -0.71387839
-7.1735401 52.042641 -0.56013918
-12.456131 54.309586 -0.59276175
-16.217083 51.743237 -0.47673249
-7.3009396 51.457272 -0.36170232
-6.930687 53.120712 -0.35799563
-21.051857 58.122627 -0.22126651
-12.190668 50.412186 -0.15982127
-16.202452 51.144474 -0.13403872
-17.622934 51.141754 -0.027223825
-16.126369 52.997734 0.046304226
-12.481417 55.342251 0.17441589
-7.1776419 52.350719 0.28805655
-7.4072275 55.197964 0.28178191
-11.543396 56.497822 0.29291785
-10.926391 57.146324 0.35327649
-17.635452 51.095062 0.59356141
-11.904869 56.212002 0.5855062
-19.379038 51.266258 0.65903354
-21.835882 54.591217 0.60561633
-12.255573 49.741329 0.73763371
-7.207623 52.386574 0.70557356
-19.950621 58.682255 0.75051194
-10.413833 57.748333 0.82070684
-16.002701 53.202126 0.96757489
-6.9638577 53.497818 0.98856568
-7.2437878 54.820477 0.90118909
-7.3697886 51.855633 1.0634608
-21.914112 54.931374 1.0270097
-12.27025 55.974854 1.073927
-7.7934766 56.048485 1.1754365
-20.946201 51.884037 1.2699137
-21.820017 55.666313 1.2620604
-16.180061 56.751873 1.2500963
-17.04133 57.602867 1.2896296
-15.956434 51.819077 1.3762938
-21.383511 53.214249 1.4008694
-21.624895 53.951797 1.4942274
-21.403358 53.308117 1.6200974
-10.714393 57.827892 1.6801994
-15.896761 52.478462 1.7368194
-11.53551 49.741276 1.8003724
-18.063925 50.952637 1.830533
-20.194359 51.530338 1.9356028
-15.873799 53.72876 2.0386941
-15.892872 55.650364 2.088197
-7.2599969 52.716019 2.1344113
-19.990862 51.446205 2.2619491
-7.2286382 52.883759 2.2357991
-15.859914 54.436813 2.2218242
-16.469889 57.234276 2.2277565
-12.733792 55.956272 2.3667305
-17.348118 58.14859 2.4971063
-12.606262 56.186852 2.5487418
-12.708073 51.320885 2.6768429
-12.860313 53.500374 2.6362886
-8.588747 57.700863 2.6971679
-10.895319 49.676834 2.8090565
-7.4617977 52.170609 2.8820508
-10.05716 58.037025 2.8247662
-9.9164448 58.005264 2.8138185
-7.629818 55.650986 2.9013071
-8.3711109 57.349991 2.9768667
-8.2384109 50.432732 3.097096
-7.3907857 52.526852 3.0497487
-21.523251 53.896889 3.082828
-15.752843 54.705997 3.094038
-7.485651 52.158695 3.1082013
-12.899389 53.010921 3.105969
-15.740644 54.117184 3.1289592
-12.999136 54.202644 3.1875336
-20.842346 58.352829 3.1032848
-8.4599028 57.558296 3.2268627
-12.949614 53.11174 3.3755469
-7.6649084 55.720455 3.4249458
-9.1940384 50.072414 3.7695723
-21.070578 57.651672 3.7316628
-16.892315 57.950066 3.7150095
-8.7120056 50.288414 3.8618295
-8.5252895 50.365582 3.8156981
-13.095707 54.189671 3.8005548
-7.8195095 51.091499 3.9128239
-20.223837 51.488041 3.9381208
-15.664943 56.170685 3.9394445
-10.353837 49.63031 4.0732799
-17.086105 50.79549 4.0707769
-13.164846 53.944023 4.3476238
-21.747292 55.704361 4.3001375
-19.581438 51.243126 4.4913902
-13.231159 54.545349 4.4892588
-18.460722 59.33503 4.4820414
-9.0742769 50.189613 4.592988
-12.827334 49.959679 4.6080194
-8.1183434 50.608719 4.6595101
-7.7692146 51.597813 4.6975222
-20.123108 51.430237 4.7999344
-21.111523 57.432571 4.7250152
-20.0275 59.038849 4.9614072
-11.151926 49.753468 5.0192575
-20.382803 58.971642 5.0537577
-10.679911 49.696545 5.2789154
-21.262297 53.44886 5.2061071
-21.413467 53.906639 5.2382884
-15.589974 56.994045 5.2824125
-8.1433105 50.64904 5.3037143
-19.823078 59.12413 5.434618
-18.442129 59.415424 5.4153399
-20.993572 52.709362 5.6216936
-8.3878813 57.310028 5.7529349
-13.51218 55.520653 5.8560543
-8.0456648 50.902611 5.937273
-21.297058 56.7882 5.9376826
-13.57248 56.105804 6.0114665
-21.251827 56.898788 6.0808411
-21.073706 57.394543 6.0760298
-16.231085 57.776344 6.0440121
-20.193331 51.456017 6.1933355
-15.375287 54.451637 6.1484933
-21.591869 55.9459 6.1510434
-15.752327 50.6035 6.2959733
-19.946047 51.372322 6.215085
-15.373256 54.85347 6.2226477
-17.436096 59.019936 6.2838407
-16.255629 50.610382 6.3329296
-17.637058 50.630352 6.4435167
-17.542482 50.628254 6.4209223
-7.4170184 53.563835 6.4051838
-13.643296 56.035545 6.588419
-7.4028535 53.672215 6.6432495
-10.301607 58.989914 6.7296648
-11.928837 50.018013 6.8609405
-9.2166719 50.410717 6.8510885
-16.1031 58.004543 6.800036
-19.906326 59.246532 6.8273263
-21.811687 55.253258 6.9600315
-8.2890587 57.116901 6.9039426
-18.472309 59.56871 6.9334502
-13.515984 53.291435 7.0333939
-21.268177 53.730515 7.0788832
-15.291904 55.009796 7.173996
-19.324883 59.418987 7.1901832
-13.337225 50.45118 7.2335825
-19.075373 51.19223 7.2106304
-13.485866 52.530411 7.2129116
-7.259367 54.392525 7.2650852
-15.196534 51.226994 7.3357935
-15.299671 57.432148 7.3918509
-12.425444 58.256001 7.4945168
-20.885956 52.655991 7.6567163
-7.7311478 55.883137 7.6518011
-11.338356 50.039757 7.7836046
-13.605233 53.191154 7.7170229
-15.261686 56.638069 7.7262373
-11.557497 50.081535 7.8947802
-13.803925 55.985363 7.8435488
-17.763268 59.835369 7.8048105
-16.544582 58.957642 7.9490852
-11.153737 59.573936 7.9336224
-7.9024401 52.140774 8.0791731
-9.5028887 59.076927 8.0590048
-16.724371 59.18071 8.063755
-15.175859 53.4678 8.1217527
-7.2232018 54.755058 8.1403341
-13.552324 51.355202 8.2899132
-18.362787 50.960468 8.3363781
-13.75704 54.256554 8.3324986
-20.416054 51.810013 8.4084091
-20.655533 58.83263 8.4914494
-8.0656548 51.75827 8.5089817
-12.071836 59.034866 8.5118542
-9.5908279 59.216438 8.5679455
-18.033201 60.153847 8.5268583
-8.1506615 56.96114 8.7276392
-9.8570766 59.413246 8.9400845
-18.482975 51.058475 9.014184
-14.9743 50.894714 9.1386099
-7.4175406 54.695202 9.1399698
-13.890215 54.42469 9.2702093
-6.0616355 54.991531 9.2016296
-14.10976 57.802052 9.2951651
-15.550217 50.469681 9.3111286
-17.082855 50.678848 9.348835
-21.651939 54.821762 9.3947363
-11.251048 60.070507 9.3766193
-11.564059 50.203007 9.4042101
-21.278221 53.876671 9.4247847
-20.598141 59.137714 9.4641523
-21.093525 53.408165 9.5664272
-21.621416 55.991226 9.5486774
-14.157203 57.853973 9.6331234
-9.1626673 59.225559 9.6563969
-15.060223 55.954887 9.7837238
-12.322683 50.217255 9.8780918
-6.0004849 52.405548 9.8338261
-7.433835 54.304398 9.8189526
-15.0641 56.500587 9.8991861
-13.075023 59.046898 9.896965
-10.924255 60.08643 9.8324785
-9.7999601 59.589005 9.9895248
-6.2262049 52.266983 10.061388
-9.1562424 59.292431 10.018477
-16.522926 59.727055 10.188608
-13.846785 51.811844 10.219338
-4.0115037 54.885105 10.283933
-15.062054 58.125393 10.200619
-15.064204 58.626556 10.239463
-13.796576 50.480721 10.481984
-21.053391 53.296555 10.459728
-8.4177732 57.731529 10.492647
-13.077829 59.35001 10.454811
-4.8611612 55.204685 10.508961
-10.877785 60.220787 10.587475
-21.02235 53.196632 10.678044
-3.8610129 54.871868 10.652552
-4.5677891 55.763489 10.663575
-14.949261 55.836979 10.696928
-13.40954 59.206947 10.617821
-14.825645 52.105682 10.734572
-14.894116 54.128265 10.701694
-16.759371 60.018555 10.720043
-7.2926736 54.881512 10.844452
-20.805637 52.574368 10.994917
-5.3529243 52.682777 10.972106
-4.0794935 53.350964 10.912556
-11.541314 60.429893 10.993403
-9.0100584 51.245975 11.078424
-6.3265152 51.810951 11.087952
-4.7558422 54.937935 11.001913
-14.82317 50.256618 11.169996
-9.6821327 59.789078 11.145654
-21.687447 55.823029 11.265105
-14.903831 56.453938 11.229114
-8.8217926 58.972149 11.246222
-21.060007 57.872143 11.372688
-10.070492 60.007286 11.312481
-14.879425 57.40741 11.426317
-8.0261059 52.579796 11.552399
-21.367445 53.909946 11.518117
-21.58003 56.199348 11.575193
-4.6358175 55.269928 11.641905
-4.2549081 55.657738 11.619101
-20.909092 58.384666 11.637956
-14.517406 50.422543 11.757219
-6.2695141 52.444283 11.746438
-16.091127 59.96949 11.751313
-19.02462 51.279121 11.865141
-21.386847 53.891659 11.848213
-14.471912 54.165794 11.89738
-20.609732 52.025558 11.973197
-16.27804 50.338684 12.03902
-5.6174402 52.226921 12.034039
-8.7665558 58.994705 12.06959
-15.630009 59.854935 12.065474
-18.509943 50.969368 12.155136
-14.2839 51.259281 12.204741
-14.292143 51.376583 12.200008
-7.3098068 54.771763 12.239343
-14.506008 56.119225 12.266003
-14.221272 50.165497 12.307236
-20.158251 51.674831 12.433223
-14.253816 49.876999 12.535533
-7.7571974 53.373486 12.531389
-20.832066 58.725697 12.589053
-8.740468 59.028378 12.554181
-20.120476 52.414364 12.637259
-20.250357 59.970093 12.633583
-12.060184 60.278694 12.626072
-6.3365054 52.768013 12.74579
-6.1599016 52.968163 12.7565
-10.566927 50.345509 12.800959
-5.1112561 52.179928 12.887527
-5.0403361 52.242577 12.818677
-14.423199 57.3484 12.818008
-21.732746 55.410862 12.903317
-10.487371 50.404602 13.06523
-15.669544 60.417053 13.033486
-8.4535227 51.619625 13.192703
-17.775208 50.450653 13.239164
-7.4446135 55.083042 13.263543
-13.976515 59.905762 13.264889
-8.8735418 59.645645 13.363404
-12.185491 60.382652 13.333786
-22.398802 53.730713 13.474785
-7.4012566 54.373028 13.43541
-4.0588789 55.433773 13.461368
-16.426462 60.689571 13.466751
-18.769217 50.953098 13.518856
-9.0691414 51.270359 13.564793
-14.465427 59.379318 13.524415
-5.8554802 53.912247 13.641715
-3.9460919 54.942726 13.669436
-13.814961 49.807739 13.725183
-21.652233 55.607956 13.728881
-9.1913891 60.086021 13.70947
-13.234254 60.311314 13.7317
-10.534599 50.410919 13.80198
-9.471962 51.043297 13.826672
-15.881626 49.948738 13.91114
-8.8892336 51.395576 13.936307
-20.760422 51.656483 13.970079
-21.095158 53.414219 13.964427
-4.0616479 55.411755 13.997082
-15.439732 49.85017 14.069142
-19.036154 60.512558 14.01573
-11.554489 60.653038 14.055387
-15.336906 49.826279 14.116145
-15.846218 49.922523 14.119199
-20.417648 52.905628 14.293837
-5.4661179 53.250626 14.237404
-7.4006376 54.45993 14.236589
-8.0580101 57.143871 14.27247
-20.964535 58.226669 14.252308
-21.52792 53.98325 14.343874
-10.900305 50.225471 14.483156
-21.397814 52.299107 14.484112
-7.9587064 56.842903 14.503959
-19.626621 60.417091 14.501448
-13.883241 49.705364 14.658858
-4.100214 53.947617 14.72116
-15.358054 60.423859 14.762224
-5.7870731 54.664917 14.841703
-18.887186 51.010757 14.972855
-8.1119671 52.517414 14.953932
-21.946201 52.967216 14.924701
-22.579975 53.803406 15.091296
-21.448866 54.049358 15.078807
-8.5291233 58.875 15.061283
-10.502302 60.125153 15.095671
-7.7244511 53.642406 15.150302
-21.65007 55.135166 15.157003
-8.7446718 59.699165 15.180878
-20.94376 57.414665 15.269051
-8.9052811 59.694687 15.274895
-9.507513 59.778931 15.253632
-14.712484 49.595089 15.320076
-19.53653 60.305676 15.351762
-16.857187 50.096848 15.415179
-21.618885 54.421967 15.483595
-15.090464 49.640724 15.59758
-7.6037855 54.028427 15.575478
-6.0052748 54.050488 15.578608
-13.166056 59.903267 15.548887
-22.35906 53.599129 15.684252
-9.924674 59.796494 15.675227
-13.908285 59.951813 15.660939
-12.154404 59.964706 15.756706
-20.28194 53.377876 15.849038
-22.605852 53.96973 15.871613
-21.496544 54.444595 15.838123
-7.6246347 54.007759 15.93508
-9.1027927 59.54599 16.093327
-10.218861 59.791107 16.040455
-12.083398 59.859398 16.078121
-8.2580004 52.214108 16.194654
-9.081172 51.412727 16.236439
-21.594368 54.353195 16.298094
-7.341711 54.844048 16.284569
-8.1178265 57.64616 16.211758
-21.910656 52.88224 16.328861
-6.0750465 54.196976 16.338718
-21.080917 53.146282 16.458485
-14.965841 60.095795 16.566626
-19.478893 52.897697 16.698902
-22.506824 53.631294 16.646809
-20.654808 54.099506 16.624975
-20.304161 58.707123 16.69799
-7.6821055 53.925842 16.728563
-4.5943437 56.373665 16.767788
-20.69981 54.137424 16.821892
-20.369726 51.757988 16.934967
-21.93684 53.067501 16.953075
-22.088999 53.206333 16.922392
-10.152859 50.804649 17.094749
-4.0430861 56.09383 17.081738
-5.4716702 56.493511 17.084961
-9.8971796 59.433517 17.030453
-14.40564 49.360775 17.199646
-8.1263199 52.680477 17.105898
-6.0316095 54.941498 17.153154
-7.7674055 56.584248 17.178314
-8.1882143 59.136078 17.181738
-8.3214178 59.266125 17.116524
-8.2046213 59.221802 17.169313
-13.124912 59.640404 17.139023
-3.593513 55.395344 17.464195
-20.152122 58.497967 17.50021
-20.652811 52.277161 17.614975
-7.3299088 55.068588 17.641722
-5.2104349 57.237358 17.604061
-6.0303369 54.372734 17.724831
-7.8098221 57.519005 17.796501
-10.042236 50.9202 17.905003
-7.9643555 53.234451 18.019817
-4.5546808 56.839584 18.047678
-11.418837 59.327728 18.060129
-13.324666 49.566879 18.185421
-20.766666 52.891853 18.152672
-3.5101919 55.141354 18.223787
-5.9772172 55.941437 18.272821
-20.97467 53.527702 18.361315
-3.7151754 56.387314 18.349585
-7.8769164 58.540745 18.357733
-21.368666 53.380707 18.485519
-21.56568 53.257919 18.537094
-8.0634146 53.311745 18.515453
-3.6708305 54.758774 18.595886
-23.707573 55.109528 18.509348
-21.759779 55.453403 18.565781
-20.630098 57.205643 18.551376
-11.257241 59.235786 18.539227
-18.280718 60.466896 18.564276
-7.4886107 56.695091 18.693178
-15.870185 59.404488 18.678431
-11.826748 59.870342 18.656002
-19.751022 59.976692 18.677149
-11.25806 60.099556 18.669693
-16.764448 60.111725 18.683081
-21.252321 54.146996 18.73885
-23.272064 56.097939 18.781378
-7.5405335 58.536121 18.700497
-19.917601 60.10083 18.750418
-17.351198 60.108002 18.704508
-17.500494 60.51593 18.736269
-15.406295 49.608139 18.87126
-10.721045 50.376667 18.863321
-21.337681 55.601048 18.833481
-6.9190998 56.714966 18.8174
-17.197916 59.357094 18.801321
-11.506866 60.309444 18.805784
-16.369337 49.767876 18.950464
-7.8724976 54.124287 18.981537
-23.784697 54.808125 18.987312
-20.317335 58.432007 18.932467
-15.085269 59.362694 18.922548
-12.504273 59.305588 18.99865
-15.211485 60.486874 18.961784
-18.834808 51.463505 19.053034
-21.114788 53.700035 19.067362
-7.7496281 54.319443 19.004337
-20.108644 59.537186 19.065861
-14.133771 49.189693 19.167294
-10.918195 49.588707 19.133648
-16.264759 50.322281 19.194532
-17.290812 50.769951 19.166641
-21.278725 52.975967 19.183681
-8.0935516 52.979126 19.107559
-14.979769 59.311035 19.192039
-9.9450674 49.458996 19.257854
-19.394611 50.323387 19.223021
-19.873425 50.425423 19.251524
-8.6628342 51.982731 19.298208
-21.119587 52.703495 19.25098
-5.9392381 56.53611 19.246864
-14.634288 59.330288 19.294771
-21.30147 54.683731 19.324446
-7.4226732 55.011078 19.368061
-23.992353 55.586494 19.338221
-21.127357 55.896935 19.307514
-7.1200705 57.591576 19.354156
-9.479167 58.924591 19.345724
-19.849491 59.097015 19.389362
-19.646107 59.256443 19.300167
-15.786772 49.075706 19.404348
-18.488987 51.043251 19.477966
-8.2436876 53.461071 19.461199
-23.283384 54.095818 19.467985
-21.21707 54.157806 19.447029
-21.608406 54.517578 19.461826
-21.5175 55.32106 19.498087
-23.090406 56.564938 19.434792
-4.7021065 57.528572 19.492971
-8.1095123 58.787159 19.483601
-8.9215975 58.980007 19.469683
-22.381008 53.951744 19.538572
-5.2300329 54.634575 19.524178
-21.796476 55.474167 19.57692
-7.0485196 56.992256 19.59457
-7.8990073 58.672562 19.543545
-11.367139 59.105553 19.508503
-16.637718 59.229675 19.520586
-7.6429176 50.94334 19.690416
-20.749954 52.195515 19.630102
-13.08954 60.390953 19.637943
-18.590488 51.7201 19.700356
-20.895973 52.806213 19.747131
-21.188576 54.281227 19.745401
-24.404995 55.386307 19.777828
-20.185925 59.121033 19.782715
-24.430059 55.597752 19.844624
-12.41545 59.212605 19.829247
-20.008072 59.54353 19.809219
-15.938642 60.522289 19.84428
-7.064292 56.871254 19.921846
-9.6385088 60.055752 19.983578
-24.548067 55.439796 20.09004
-24.67577 55.712402 20.18503
-20.290813 58.742638 20.171783
-14.724978 60.45536 20.168392
-20.6973 50.748493 20.305706
-3.641546 57.1772 20.397085
-14.234112 49.229691 20.559515
-21.394016 54.244991 20.588963
-19.862835 59.649635 20.579103
-22.156143 55.881813 20.60416
-3.3242993 56.077415 20.695982
-7.248992 57.527634 20.639412
-15.049777 49.319271 20.79722
-6.4280014 55.396961 20.714447
-3.3241892 55.821224 20.721991
-7.7486887 59.747658 20.750586
-18.989191 60.34922 20.734074
-15.853639 60.534676 20.720556
-4.8077898 58.112762 20.845333
-15.474449 49.383801 20.988918
-17.207981 49.490067 20.908489
-5.6655364 57.897701 20.963305
-18.205791 60.487473 20.980389
-18.132351 49.893768 21.053768
-6.4902387 55.374813 21.098574
-13.666623 49.402569 21.164116
-20.470823 51.07592 21.210846
-6.2719288 56.461975 21.2174
-3.2688701 56.720947 21.226355
-9.195035 59.90691 21.21615
-12.773375 60.38229 21.236818
-12.287768 60.377281 21.214506
-11.03645 49.466396 21.322842
-17.837818 49.824284 21.300285
-20.677706 57.156754 21.338612
-14.941065 49.469341 21.483728
-7.1829138 53.903854 21.429852
-22.820154 55.050682 21.408504
-22.561459 56.351379 21.430325
-10.846012 49.572041 21.586746
-8.0239887 50.711517 21.512295
-7.5916872 52.800365 21.514385
-23.213568 57.101471 21.597395
-8.6819792 59.790192 21.569332
-13.950483 49.480148 21.605267
-20.51017 51.835327 21.678833
-20.779613 52.874596 21.696369
-4.4126639 54.906784 21.643524
-13.719664 60.396263 21.695997
-23.223093 57.114738 21.710814
-6.4938045 55.898148 21.878183
-6.3931465 56.361851 21.894054
-18.981213 50.545113 22.016497
-20.466763 52.203568 22.0863
-21.070892 54.685646 22.059099
-15.589624 60.542389 22.092369
-19.828444 59.197346 22.117855
-8.4478912 59.710709 22.115852
-10.366462 60.274868 22.170513
-21.042196 55.128048 22.245316
-3.8419521 55.342392 22.235735
-4.7258329 55.093681 22.341934
-20.986916 55.223118 22.336689
-6.6340065 55.569206 22.340521
-20.172928 57.886353 22.322025
-12.42466 60.374893 22.355541
-16.803909 60.640099 22.316858
-23.967381 57.831646 22.5399
-10.312671 60.259197 22.549089
-19.93784 51.080189 22.692305
-7.2320995 53.865364 22.642073
-25.541689 55.624947 22.648413
-6.5265918 56.274109 22.675333
-10.538984 49.879211 22.781267
-7.3037586 56.297401 22.772034
-5.9408903 58.087456 22.796265
-19.420424 50.96833 22.834349
-23.459026 55.577454 22.885138
-5.9235778 58.150738 22.861958
-17.82926 60.41431 22.867983
-9.5805674 50.2547 22.951778
-20.394505 53.053627 22.946177
-6.3694878 57.147045 22.998608
-14.106814 49.796513 23.085762
-4.1164837 58.571541 23.007143
-13.420403 49.805935 23.190222
-11.014472 60.354275 23.176258
-23.451885 55.887585 23.245461
-10.784061 49.910568 23.368048
-10.405216 50.044228 23.362394
-17.553297 50.244423 23.345766
-8.2936382 51.040314 23.379021
-11.847053 49.776257 23.423855
-17.908852 50.441475 23.488405
-19.806728 51.453869 23.455997
-20.677931 55.37936 23.451075
-26.074099 56.083931 23.404423
-3.0680554 57.660728 23.40835
-20.08733 52.49762 23.533735
-3.0712004 57.016792 23.632107
-24.765923 58.631317 23.680264
-18.820656 50.891239 23.789831
-17.24498 60.501602 23.72154
-19.891361 51.832458 23.839203
-8.3093596 59.604881 23.962688
-20.169724 57.368649 24.036018
-7.9746847 59.161053 24.14286
-8.0620537 51.839241 24.232025
-7.7747145 52.615955 24.22826
-7.2066603 55.093933 24.281616
-4.0246487 55.52285 24.289639
-7.8313446 58.423775 24.249731
-7.4273167 56.280643 24.385897
-20.109995 57.681728 24.308905
-20.700785 54.67873 24.468929
-20.65251 55.849411 24.434479
-6.2546163 58.074894 24.430679
-11.366001 60.36084 24.438925
-20.02701 52.453625 24.534449
-27.264433 58.611275 24.589943
-12.83066 49.81863 24.659966
-20.021593 58.132362 24.681244
-20.608852 54.373589 24.715593
-5.9345732 55.578178 24.774168
-26.450197 56.124798 24.740475
-20.032904 58.133472 24.788145
-25.183874 59.119522 24.713606
-19.520054 59.880009 24.707481
-16.339745 49.942299 24.888325
-7.3317223 53.959148 24.835934
-7.259305 55.288521 24.826664
-3.4578848 58.870567 24.812456
-19.783937 59.003773 24.811623
-15.420884 49.830315 24.926296
-16.567093 49.970459 24.935848
-20.497746 56.575768 24.923019
-24.873611 58.925888 24.907722
-7.3666368 53.910774 25.037264
-7.1754122 54.792324 25.051472
-6.3230181 58.199574 25.09108
-3.6139152 59.061039 25.024405
-19.203892 60.310356 25.039722
-13.429419 60.775074 25.085371
-6.6717777 55.868191 25.107264
-20.725365 54.708183 25.295595
-7.5066948 56.471069 25.241373
-7.8105855 57.885643 25.260799
-2.9695501 58.729233 25.272718
-27.127171 59.776569 25.265156
-5.6388168 59.721909 25.280491
-12.644424 60.70734 25.299845
-12.975616 49.753899 25.485481
-20.783072 55.79892 25.481627
-7.6673017 57.126629 25.421413
-2.9251199 57.374641 25.46471
-11.427351 60.556046 25.428593
-7.2921968 54.242924 25.591417
-7.6923971 57.174664 25.523365
-13.1406 49.733505 25.678425
-5.980463 59.168411 25.667444
-20.172935 52.964737 25.745501
-5.3783507 55.606979 25.749523
-7.5621872 56.45118 25.720993
-27.863981 57.555916 25.737862
-18.45211 50.812904 25.813507
-17.119534 60.660316 25.879698
-16.888441 60.665565 25.845589
-19.847874 51.937965 25.985538
-7.2952437 54.345127 26.018923
-3.6478601 55.94117 26.052361
-24.558813 57.173428 26.00732
-8.4334621 51.372135 26.121811
-7.9429607 57.884174 26.189011
-11.634399 60.615768 26.178036
-11.671529 49.796108 26.243767
-10.953792 50.024078 26.295073
-8.137064 58.748894 26.221926
-19.573931 60.317677 26.270287
-19.377686 60.621212 26.223917
-10.193239 50.361923 26.37257
-3.4891772 56.117607 26.316051
-25.68281 59.782753 26.362335
-10.095226 50.407784 26.40259
-20.511955 57.105804 26.449526
-6.8107491 57.314484 26.400333
-20.146355 58.409832 26.483589
-13.041621 61.000828 26.48912
-6.6921206 57.86005 26.572893
-11.178373 60.464851 26.548485
-16.655682 60.749912 26.591206
-11.8821 49.79644 26.618275
-18.348837 50.710838 26.685719
-7.6852303 56.662682 26.657621
-28.871561 58.908127 26.699316
-5.0690112 60.214588 26.646179
-12.094048 49.806095 26.769127
-19.085022 60.696583 26.768209
-2.8133945 58.096779 26.876736
-19.860779 59.593681 26.821564
-20.05521 52.633652 26.958954
-28.007938 57.192066 26.919703
-10.168781 60.142231 26.958031
-5.5185351 60.273884 26.90358
-14.279078 61.152924 26.952488
-8.7681713 51.054699 27.030991
-19.747002 51.655312 27.053978
-20.95797 55.823727 27.007107
-11.441788 60.547489 27.059887
-14.420078 61.155899 27.052551
-20.458464 53.813644 27.173851
-7.5749731 53.926792 27.100964
-7.8469753 57.443283 27.169617
-12.95409 61.031898 27.163124
-19.48325 51.471199 27.227959
-20.570095 57.297791 27.216457
-26.5516 56.651115 27.340433
-10.468846 60.276794 27.343002
-20.636749 57.159279 27.401472
-25.702244 57.541702 27.427254
-19.825544 60.046101 27.449945
-14.357011 61.251846 27.484776
-11.340151 49.86808 27.565424
-20.673508 54.236736 27.520523
-6.4079261 59.026535 27.515575
-9.0756836 59.85466 27.562563
-14.576832 49.832413 27.663563
-20.896646 54.86824 27.690014
-28.778723 60.482998 27.684345
-13.729482 61.295078 27.684284
-15.222902 49.863201 27.731541
-20.789362 56.828911 27.780859
-3.1250951 59.433956 27.736818
-10.501745 60.326431 27.730686
-20.35441 53.317665 27.845594
-20.994911 56.136425 27.820393
-2.8698053 58.828461 27.859406
-10.13271 50.498497 27.915043
-5.4157801 55.814346 27.93074
-20.760967 57.00407 27.92202
-26.077702 57.769215 27.945221
-28.812328 60.695526 27.929781
-19.497227 60.845947 27.988647
-12.619715 60.988571 27.940273
-26.490295 57.430664 28.077295
-9.4542923 50.854706 28.172001
-5.2870774 55.774891 28.1045
-20.413877 58.358257 28.192013
-18.894714 60.882954 28.190243
-7.921154 53.549919 28.242682
-7.9476528 58.268341 28.274429
-26.310776 60.471336 28.280029
-19.629116 60.873962 28.225353
-14.176045 61.332504 28.272928
-15.436829 49.916477 28.383297
-20.726028 54.012558 28.311859
-7.1561217 57.30756 28.352348
-28.222898 61.660614 28.450596
-17.954866 50.531387 28.512161
-8.1715384 53.042034 28.556145
-3.0207803 58.328602 28.551842
-6.6920042 58.68462 28.513252
-20.258133 59.107594 28.574924
-20.171621 59.407043 28.563972
-4.8407192 60.144291 28.576242
-8.3982029 52.483635 28.69125
-20.517323 53.347443 28.668503
-20.882698 54.901596 28.637241
-19.990532 60.112976 28.692545
-5.2645121 60.258785 28.641151
-29.148624 60.914299 28.664394
-20.384304 52.985447 28.756462
-7.8441396 54.015442 28.786797
-21.043486 56.4487 28.707428
-20.082232 59.804688 28.721617
-28.512617 61.544075 28.776312
-4.4311237 55.526039 28.892813
-5.1183801 60.214375 28.804783
-10.930127 60.577324 28.881504
-15.255564 61.169724 28.812691
-11.381842 49.953407 28.953419
-20.104691 52.22213 28.946747
-21.10911 56.340626 28.928461
-3.0447376 59.011124 28.969444
-18.547438 60.98848 28.989996
-11.594198 49.850391 29.000893
-7.7903728 54.293697 29.06986
-21.067545 56.035248 29.064259
-11.357189 60.717232 29.001499
-21.021152 55.779346 29.192923
-4.7523661 59.974495 29.114964
-26.199875 60.421066 29.138273
-16.539598 61.080345 29.138004
-16.357536 50.096764 29.206329
-9.1146049 60.096607 29.270107
-18.864727 51.271339 29.305237
-20.637598 58.191963 29.322533
-4.5455213 59.826393 29.335026
-20.088877 60.108086 29.341499
-26.678205 60.8927 29.308914
-20.912586 55.177734 29.471066
-7.5680141 56.779049 29.490887
-28.993711 57.801495 29.490623
-12.222301 61.006363 29.484894
-4.8531151 60.385578 29.569489
-18.769804 61.048603 29.501423
-15.113807 61.272308 29.519579
-5.1513476 55.682297 29.664577
-7.5970922 56.528275 29.617313
-20.486973 52.776779 29.786842
-6.8579664 58.645454 29.795483
-6.9059658 59.330112 29.731201
-11.777859 60.902058 29.710539
-19.856691 61.047379 29.74596
-21.065048 55.88681 29.809143
-25.810743 60.297226 29.847782
-11.111852 60.730652 29.866188
-20.429892 52.569511 29.941435
-7.6625948 56.130875 29.968107
-20.68288 53.899624 30.016869
-21.182119 56.24625 30.074841
-14.372274 61.414257 30.051561
-20.429073 52.480057 30.138266
-20.686375 53.940685 30.186611
-7.4415045 54.924877 30.172165
-7.5851722 54.503036 30.272411
-7.4986243 56.281517 30.230694
-27.445919 57.253994 30.210964
-7.7646661 57.943691 30.218401
-20.723999 58.754448 30.26841
-24.257534 58.843292 30.297302
-16.181046 61.237518 30.29678
-7.8064141 58.181995 30.329214
-7.990912 59.223366 30.331657
-8.3963022 60.082481 30.493374
-21.117025 55.701939 30.508488
-6.5132465 55.906666 30.507889
-3.9523935 56.348869 30.518419
-27.644184 57.333748 30.509708
-21.161352 57.558571 30.532097
-24.070019 58.335506 30.579649
-24.211348 58.671852 30.503681
-3.0651116 58.892578 30.56205
-7.6062493 59.062115 30.591875
-19.018818 51.243996 30.672939
-19.897329 51.612522 30.634922
-5.2106495 55.324181 30.626898
-7.5926647 56.984379 30.693413
-28.806341 58.661644 30.687561
-28.986942 60.196579 30.649065
-26.156483 60.883194 30.647602
-5.859602 61.018307 30.629356
-26.589081 61.249622 30.692049
-20.568836 53.152309 30.727016
-20.719915 53.8176 30.729891
-4.6102691 55.266235 30.790434
-4.7932491 55.551582 30.713085
-4.4413996 55.543983 30.750237
-19.723063 60.935703 30.742994
-7.1754971 55.47226 30.876732
-21.167091 55.693886 30.895149
-7.1054163 55.713882 30.869797
-8.030941 55.856075 30.868374
-5.7069035 55.406414 30.920479
-7.3187003 56.518047 30.925537
-25.342714 56.906944 30.974987
-20.775932 59.271637 30.989191
-14.8265 61.291077 30.944403
-20.994858 54.818459 31.089333
-8.3953705 56.053768 31.018248
-29.075096 59.685986 31.005787
-14.633748 61.310177 31.056345
-7.1942167 55.287952 31.115318
-28.378178 58.522423 31.15749
-29.138304 59.24601 31.11982
-20.791918 59.320839 31.191706
-13.652561 61.494087 31.16394
-8.0649452 52.733406 31.227535
-7.7048273 53.591713 31.260536
-4.8155918 55.538422 31.231642
-27.872454 57.716465 31.229507
-3.6780405 58.204586 31.263885
-20.625275 59.783333 31.25119
-20.59396 59.886063 31.297592
-16.525366 60.993706 31.236732
-28.342434 61.163116 31.207291
-20.269154 51.699047 31.346224
-20.859987 54.091949 31.310566
-24.99192 56.880417 31.350075
-7.583292 59.122478 31.367897
-8.774765 60.314987 31.335258
-7.1238527 56.55529 31.455627
-19.921227 60.873135 31.401428
-19.884136 51.508156 31.59836
-25.817877 61.759598 31.590937
-26.234173 56.674118 31.612564
-8.2560329 57.046021 31.644842
-25.971199 60.965519 31.641453
-15.440393 61.080864 31.669062
-14.396034 50.478672 31.775524
-25.345737 56.596371 31.78907
-25.365889 56.627151 31.73893
-22.579201 57.780704 31.751884
-12.385118 61.195335 31.727108
-27.643278 62.349476 31.782196
-12.540281 50.361832 31.851788
-12.006015 50.331001 31.896568
-7.5333853 53.782623 31.812923
-7.9251113 55.498291 31.86651
-21.505293 56.627632 31.839251
-18.256426 60.70026 31.846699
-14.679501 50.520805 31.916702
-7.4959955 53.863956 31.903267
-22.592457 58.406723 31.989826
-8.0026989 59.328339 31.923847
-23.658955 59.820885 31.949318
-16.938198 60.790039 31.938293
-14.833101 61.304348 31.962658
-23.417425 59.485054 32.057255
-18.302345 60.669369 32.006256
-14.728953 61.348015 32.092266
-25.693802 61.636173 32.043167
-9.0356932 50.834351 32.15543
-28.325294 59.599243 32.15675
-16.62602 60.790726 32.143478
-16.302176 60.835045 32.147114
-16.920139 50.703671 32.250511
-5.7974119 55.202976 32.297054
-27.004316 57.137936 32.258556
-3.1498489 58.42741 32.275501
-20.155661 60.793953 32.223625
-28.959373 61.40799 32.225582
-20.69544 52.052097 32.387341
-4.833148 55.028038 32.379929
-28.269554 58.126423 32.369114
-20.596771 60.355476 32.358555
-24.268936 60.635475 32.303249
-11.031647 50.41132 32.442833
-20.749842 52.28952 32.412785
-26.993896 57.356468 32.437195
-3.7954535 56.893921 32.528133
-21.516806 58.048775 32.579144
-15.621332 61.081978 32.586658
-27.717304 61.873676 32.640053
-11.642406 50.449238 32.789692
-21.542044 56.917191 32.750072
-7.4267216 57.875923 32.793938
-8.1659737 60.27063 32.784019
-21.21842 58.967003 32.886169
-7.0862103 55.769409 32.99741
-4.4547029 55.750889 32.969067
-25.348795 56.02747 32.953686
-7.0513449 57.368717 32.907051
-21.623255 57.524586 32.965405
-27.699087 57.662155 32.932899
-20.653219 60.477077 32.957642
-16.355839 60.862701 32.989079
-7.157321 55.081234 33.098427
-6.6317387 60.425915 33.08997
-16.482956 60.822044 33.018658
-8.0502892 58.23724 33.188103
-7.8960276 58.700039 33.166992
-21.314621 58.830334 33.141834
-17.826433 60.488224 33.19886
-28.133781 59.370037 33.273689
-4.8750448 60.646034 33.27475
-27.583521 58.395187 33.329693
-27.93445 59.59845 33.355526
-4.2150588 60.020157 33.331223
-17.109493 60.498161 33.390659
-5.9155455 54.992188 33.445454
-21.379194 58.813877 33.480995
-3.8733335 59.566185 33.53648
-19.99131 51.3536 33.6436
-21.104259 52.482555 33.654144
-21.442553 56.621506 33.636494
-21.515234 57.360054 33.604416
-19.179293 60.539154 33.692482
-9.8568316 60.887047 33.698219
-19.004782 51.206432 33.784485
-20.998985 51.865009 33.730526
-21.736795 56.009396 33.797649
-4.1423397 56.425613 33.72765
-8.1246262 60.060509 33.746845
-23.489841 60.279961 33.797131
-18.63373 60.489872 33.734032
-18.903362 60.50396 33.799438
-21.281307 55.161034 33.821045
-23.414339 55.523857 33.808792
-21.697813 58.085697 33.824326
-9.5707512 50.693016 33.940746
-25.097977 55.891914 33.950249
-3.4205685 58.499153 33.906612
-21.019926 59.976593 33.977806
-23.456055 60.266144 33.910912
-20.216255 51.458519 34.092815
-7.6992908 52.940956 34.040291
-22.615026 59.55315 34.012428
-27.822763 60.20607 34.06691
-6.1075478 60.371132 34.050209
-12.12579 50.699482 34.11557
-13.703868 50.821827 34.159439
-7.6753068 54.093899 34.182568
-8.0582037 57.934612 34.275898
-10.833634 50.704418 34.376793
-20.748459 54.066574 34.314091
-23.128071 55.286312 34.375492
-7.843739 59.487358 34.312054
-18.026464 51.143742 34.485764
-25.09181 55.907078 34.417534
-8.2800493 56.110546 34.456741
-15.370527 50.984657 34.503643
-21.822212 55.598358 34.567825
-7.9812479 57.453102 34.53598
-7.65485 57.862732 34.533836
-3.5722594 58.311188 34.565472
-21.045612 60.163525 34.543282
-9.1844673 50.852837 34.617115
-18.773521 51.358139 34.695095
-27.553944 58.648224 34.614307
-21.36433 59.429672 34.673092
-8.0572691 60.04686 34.672752
-16.976973 60.668743 34.636971
-24.257107 60.897919 34.674332
-24.288776 60.916435 34.656059
-4.2622633 59.707848 34.7771
-11.835555 50.89819 34.81152
-9.0486889 51.034546 34.89043
-16.585629 51.232372 34.863926
-6.619813 54.291641 34.807243
-3.7971926 59.181755 34.820393
-24.550941 60.900948 34.817791
-13.180563 61.326038 34.902416
-19.917316 60.41824 35.059441
-14.72341 51.254791 35.110752
-8.2640381 60.785313 35.16544
-9.8629503 60.935246 35.12698
-24.602135 60.600086 35.290916
-24.033396 55.238247 35.375435
-3.7028394 58.539627 35.39016
-10.120453 60.95639 35.330452
-8.661869 51.330284 35.440632
-7.8573804 59.985378 35.446171
-20.299372 60.385872 35.491333
-10.514196 60.986748 35.477516
-8.2410526 51.407059 35.576679
-22.535383 54.891441 35.529251
-25.159592 56.039452 35.500416
-6.0714378 60.248192 35.502472
-5.1379123 54.490932 35.66275
-26.711784 58.430672 35.686081
-22.540941 59.763077 35.638042
-26.005198 59.854008 35.75898
-22.228661 54.845577 35.817982
-4.7601748 59.802975 35.864868
-25.112118 60.294472 35.814804
-10.723173 51.657391 35.995056
-14.923077 60.632618 36.005104
-11.124697 61.037807 36.037148
-14.642457 51.885201 36.210629
-4.0631185 57.05529 36.2701
-22.202559 59.425858 36.296715
-19.624493 60.116043 36.36602
-6.3382525 60.143448 36.317852
-19.889635 52.584679 36.418461
-25.549803 57.023018 36.400532
-25.437458 59.475506 36.457901
-8.2465057 52.542286 36.593918
-22.660154 55.276756 36.644936
-12.478611 52.127075 36.758373
-8.2894382 52.673241 36.851246
-7.4981098 60.267895 36.930737
-11.51539 60.921448 36.946758
-15.384204 52.425674 37.08004
-22.297821 54.855484 37.039066
-19.073706 60.047806 37.051201
-16.127911 52.429893 37.245003
-22.187395 54.976437 37.286423
-4.5340672 57.729282 37.232498
-18.51721 60.161549 37.254814
-18.018785 60.231544 37.249271
-9.5060816 52.248276 37.378532
-8.3296261 60.413933 37.332039
-9.2099104 52.267506 37.427635
-17.3964 52.465664 37.453552
-21.844124 54.513805 37.627388
-15.714619 52.735958 37.880417
-11.602444 52.810352 37.865765
-6.1534452 54.070621 37.824303
-20.072348 59.724182 37.862053
-21.628662 54.474579 37.969582
-12.859827 60.624146 37.955692
-11.505058 52.883087 38.081116
-12.697359 52.93454 38.063854
-5.909225 54.678596 38.018646
-13.267185 60.501289 38.087219
-21.021135 53.897079 38.174168
-19.96611 53.858253 38.119949
-17.179028 60.05307 38.100662
-17.407906 59.970531 38.24955
-12.989459 60.509644 38.312031
-17.618633 59.865612 38.470642
-12.016389 60.080353 38.419456
-17.810341 52.967636 38.564922
-10.987951 52.969765 38.532955
-6.0050001 56.081116 38.570351
-17.31749 59.891266 38.51561
-23.105736 57.495979 38.629692
-22.366467 56.566216 38.801727
-10.067802 59.938507 38.800926
-20.408264 54.083267 38.911606
-15.084208 59.932114 38.941681
-14.860796 53.613224 39.098804
-17.150799 59.518002 39.160046
-18.221212 53.431442 39.220253
-16.154587 53.440685 39.217396
-8.3046236 53.914551 39.246429
-20.767939 55.277287 39.263367
-6.5479484 57.797653 39.287384
-6.9619789 59.05014 39.287605
-16.888992 53.354416 39.324463
-7.0081263 58.699921 39.316883
-18.82605 53.941513 39.487385
-18.614992 53.721748 39.501335
-10.05989 54.487434 39.532722
-18.396847 54.531925 39.514908
-18.537312 55.141113 39.560143
-7.1833539 56.970009 39.564339
-17.30645 57.473083 39.575592
-19.015381 55.265415 39.672203
-20.192474 56.661964 39.693001
-16.791569 57.703819 39.681038
-10.520021 59.26693 39.618004
-11.355855 59.358776 39.654846
-16.790968 57.069687 39.748577
-8.6023951 57.187481 39.771454
-8.6161489 57.325165 39.775166
-19.181622 56.752941 39.857925
-8.9302397 58.503395 39.89257
-8.8019228 59.031693 39.843147
-10.060127 56.307293 39.908741
-9.141695 56.604778 39.98267
-11.645505 57.910309 39.946339
-13.451356 53.711655 40.070557
-10.699877 59.007961 40.032745
-13.080751 53.911968 40.176964
-16.332714 54.551037 40.173462
-11.239546 58.13932 40.122543
-12.075586 55.947903 40.24498
-15.81068 53.913513 40.4921
-16.069475 57.980824 40.484974
-14.817646 53.741165 40.532753
-13.832048 53.59409 40.629246
-16.025944 54.333172 41.089188
-13.349218 53.033615 41.456383
-13.157745 58.513168 41.483177
-13.782288 53.015594 41.577156
-14.097337 52.668808 41.667221
-13.878095 53.268684 41.67614
-12.519632 51.510788 41.711006
-13.416422 51.601204 41.747505
-16.079878 54.968307 42.021172
-13.037722 57.833405 42.005684
-16.336027 58.020794 42.06213
-15.776199 54.588249 42.291115
-11.993416 51.737152 42.323334
-16.27137 56.929363 42.387276
-15.041529 58.744911 42.433468
-16.185583 55.698689 42.791378
-12.110817 55.430477 42.981674
-10.850039 54.553307 43.075699
-10.946002 54.685593 43.033623
-10.942106 53.850052 43.268524
-15.812842 55.189732 43.341381
-11.377501 55.497688 43.466499
-12.605659 51.375584 43.660847
-14.774018 58.240692 43.632023
-12.442549 51.342003 43.753815
-11.611784 51.986774 43.736126
-13.308697 57.269417 43.726158
-13.416399 51.309746 43.879799
-10.809244 55.093563 44.03825
-16.172029 57.238586 44.364933
-13.380072 51.359695 44.739693
-10.591007 53.644905 44.845245
-10.428356 53.993565 44.984135
-17.002613 53.490688 45.035831
-12.629723 51.183628 45.185593
-10.105945 54.632065 45.587723
-16.814209 57.08226 45.582016
-10.663614 56.994484 45.693161
-16.449041 57.387859 45.655704
-11.465537 57.849579 45.640102
-10.193397 55.470547 45.882835
-12.884079 51.176025 46.095299
-16.529455 57.542015 46.146446
-14.967731 58.447884 46.145973
-13.716204 58.820068 46.214451
-17.93466 54.921356 46.39415
-16.889408 57.370361 46.320919
-10.380359 56.942352 46.496284
-10.023216 53.994255 46.575081
-10.093452 55.500763 46.675388
-11.880951 58.96727 46.726913
-16.193878 51.514999 46.824562
-10.051999 55.33849 46.817974
-10.13071 58.006973 46.844643
-15.075258 58.794468 46.839821
-17.163908 58.993523 46.842197
-17.360281 52.992924 46.904114
-18.028294 58.163586 46.978638
-17.829954 58.572144 46.982559
-17.682644 57.873993 47.030407
-10.892122 57.966946 47.006027
-16.697723 58.007126 47.091358
-13.477927 60.637348 47.054981
-9.5739174 56.703209 47.146877
-17.46822 57.476593 47.193451
-9.6160297 58.301018 47.1679
-14.361489 60.560299 47.100334
-17.154758 57.724709 47.2015
-11.89861 59.071724 47.206917
-15.799798 59.987808 47.233364
-9.9316339 53.78273 47.37545
-18.03628 54.204964 47.372272
-11.041826 58.098488 47.318539
-13.205654 60.716606 47.364113
-8.7936001 55.858143 47.412605
-18.785427 56.854919 47.405563
-9.0420828 57.695427 47.474693
-9.116848 57.723801 47.43861
-15.598892 60.32692 47.443462
-9.1172581 58.086887 47.50985
-18.454811 53.042847 47.697475
-9.0314274 53.863136 47.699902
-18.748726 54.278885 47.656475
-18.947689 54.43457 47.681458
-9.8690538 52.982903 47.718353
-18.401743 58.608795 47.769341
-17.792273 59.187546 47.81131
-14.17321 60.88673 47.879902
-8.2745399 54.924652 47.976528
-19.644651 55.119781 47.967178
-15.051383 50.662903 48.094631
-15.434058 50.919472 48.074833
-18.484287 52.393745 48.097229
-18.773844 58.372494 48.017231
-11.951679 50.584801 48.147701
-17.999063 51.393112 48.190861
-19.036077 53.10923 48.149334
-8.2342319 54.986717 48.115196
-8.9635658 58.082352 48.160545
-15.032753 59.1409 48.142593
-16.200897 60.55761 48.159683
-16.116297 51.262714 48.218285
-9.7417068 52.332245 48.241356
-12.020302 59.077812 48.201508
-10.071863 59.503807 48.284031
-11.723759 60.585915 48.279621
-15.835522 51.05407 48.371674
-17.864962 51.207241 48.304855
-10.268598 56.450527 48.320438
-19.17318 53.188271 48.409351
-19.437229 53.778214 48.489471
-8.8063898 53.251808 48.525505
-17.655088 53.722458 48.525784
-8.1711035 55.721123 48.502953
-15.391675 49.802063 48.641895
-15.907383 49.949196 48.676201
-14.078381 50.551334 48.690884
-18.081009 51.238682 48.601028
-11.26405 51.596268 48.65184
-19.232609 53.076553 48.647343
-8.3382721 54.227669 48.65704
-8.2451801 54.737904 48.603149
-19.016037 57.881699 48.641396
-10.891675 60.055305 48.659897
-15.656918 60.744762 48.680122
-14.169754 50.518444 48.778812
-18.67832 51.770557 48.730137
-16.47447 51.95845 48.763351
-8.4474268 53.507042 48.726875
-19.665314 54.286324 48.73502
-15.036665 60.845577 48.718456
-17.269653 50.372326 48.859123
-18.999519 52.268623 48.837383
-8.1508236 56.303173 48.873894
-14.301351 49.43605 48.993382
-19.684706 56.636734 48.993465
-8.9744148 58.061455 48.978809
-9.5072117 58.933334 48.948303
-12.772289 49.750538 49.012108
-8.9400463 57.997696 49.000031
-9.9772873 59.464153 49.037167
-17.231424 59.803242 49.042973
-16.665672 50.057568 49.116852
-14.719972 50.529541 49.138702
-18.645334 51.78949 49.124332
-10.640066 56.914749 49.102341
-17.543074 59.655357 49.139908
-16.516369 60.138073 49.175076
-16.120632 60.429859 49.164307
-17.682297 50.787842 49.245964
-17.421059 53.551723 49.295639
-19.756603 56.047749 49.266148
-14.581931 59.181549 49.225021
-17.422907 53.733837 49.378387
-19.577972 56.513824 49.328522
-19.49666 56.731003 49.353909
-19.134951 57.551414 49.301994
-8.7208271 57.524033 49.307076
-13.064318 49.629433 49.473618
-11.431822 50.053535 49.419952
-14.957338 50.570099 49.400009
-15.583395 50.747101 49.436764
-19.857941 55.018639 49.48455
-18.913721 57.786087 49.412281
-8.9244747 57.802353 49.436188
-10.458502 59.598701 49.477631
-13.959343 60.788944 49.489536
-19.061771 52.550594 49.547318
-8.14499 54.569508 49.503098
-8.8731031 57.664536 49.576855
-16.925266 52.832077 49.674614
-17.908001 56.045204 49.676033
-19.293531 57.00222 49.630077
-15.462284 58.648788 49.697681
-19.112408 52.746964 49.711937
-8.4358835 53.43924 49.785114
-8.2785921 54.623001 49.752071
-13.183167 60.578842 49.775612
-15.81181 49.634987 49.891895
-11.144847 50.305794 49.876396
-18.418913 51.624828 49.852375
-9.3026524 52.03315 49.898239
-11.989788 60.313522 49.861313
-13.886703 60.671379 49.856335
-17.798264 50.951714 49.970501
-18.99176 57.516235 49.996651
-11.796343 58.270283 49.98941
-13.016163 49.517277 50.081421
-16.931795 50.394951 50.056648
-9.3044357 52.138546 50.050053
-19.26384 53.594986 50.098801
-8.4102936 54.89772 50.050823
-17.808649 55.822086 50.038731
-12.468561 49.587688 50.110733
-16.794479 50.35648 50.141083
-12.466227 50.649239 50.184677
-16.22641 51.833874 50.18272
-18.641336 52.246727 50.188118
-18.710831 52.339378 50.139431
