# .PCD v0.7 - Point Cloud Data file format
VERSION 0.7
FIELDS x y z
SIZE 4 4 4
TYPE F F F
COUNT 1 1 1
WIDTH 251
HEIGHT 1
VIEWPOINT 0 0 0 1 0 0 0
POINTS 251
DATA ascii
0.77514821 0.17056699 0.058048338
0.84441549 0.15047537 0.060892209
0.96338236 0.15088204 0.056892134
1.0330739 0.15385464 0.077105805
0.78408825 0.21466632 0.055803694
0.85544556 0.22707702 0.066225663
0.95429611 0.22426251 0.075003698
1.0329964 0.221809 0.080834851
0.068503007 0.3510322 0.06048774
0.16313122 0.36542755 0.060841866
0.23371749 0.35260686 0.031603426
0.30666006 0.3547214 0.023264989
0.068158962 0.4024151 0.058486152
0.13313268 0.41100478 0.046576474
0.24281915 0.41266295 0.034051623
0.69915915 0.18835571 0.16900843
0.74929029 0.15254493 0.15412946
0.8538847 0.15003201 0.16532293
0.90908015 0.17822143 0.12719864
1.0420519 0.1592959 0.1175129
0.11039484 0.29675677 0.13343063
0.76341915 0.23031823 0.15932237
0.84771281 0.2262692 0.15152273
0.93842107 0.2099949 0.1216894
1.0546178 0.2078054 0.10627487
0.073139161 0.35621047 0.15528549
0.13446251 0.32734957 0.12770933
0.2212006 0.35588291 0.14911896
0.088991486 0.41638437 0.11624232
0.14397931 0.41374871 0.15802404
0.21623211 0.40240934 0.1872554
0.67180884 0.18092763 0.2683621
0.73763949 0.13678394 0.24718939
0.84717149 0.16183385 0.23185846
0.69145876 0.21379076 0.26945323
0.7525962 0.23294918 0.23622096
0.8425703 0.21634665 0.25975195
0.084550247 0.36749738 0.22799388
0.13802437 0.34405425 0.24374931
0.25050452 0.3262206 0.24459462
0.3235912 0.36281368 0.27658811
0.16718385 0.4187921 0.23950675
0.23473492 0.41335049 0.24539861
0.65584147 0.15513757 0.35926157
0.76057088 0.13843013 0.34203169
0.81257337 0.16687109 0.32318243
0.66821301 0.22086412 0.34580678
0.74734437 0.23577201 0.33530495
0.8016029 0.21905196 0.36523649
0.16613567 0.36843917 0.33233199
0.23280954 0.33503184 0.34339711
0.35215446 0.3343462 0.35617313
0.42098913 0.35519931 0.3880544
0.23683968 0.42501122 0.33976254
0.36292246 0.41349196 0.34869418
0.58630353 0.18668732 0.48507333
0.63371593 0.15621418 0.44301668
0.74915755 0.14957063 0.44622499
0.59055668 0.20770629 0.48479679
0.64420521 0.24494796 0.46174258
0.74840909 0.22994712 0.43830049
0.25894102 0.36359078 0.42952955
0.3407329 0.31063333 0.45430043
0.43296921 0.35369006 0.45172778
0.28103006 0.41482273 0.42249012
0.35601029 0.44049358 0.44386703
0.41656104 0.42543077 0.46933046
0.38329616 0.18861271 0.56622839
0.43757081 0.11636174 0.55055124
0.56037819 0.14971428 0.56362724
0.63387787 0.11149795 0.54223967
0.73095012 0.15338841 0.53770649
0.35806981 0.24698 0.57176656
0.5564006 0.23256618 0.5634442
0.65858138 0.24119155 0.56208134
0.72517264 0.2203185 0.55282968
0.29122427 0.36437979 0.55054319
0.32695347 0.35139689 0.56760919
0.45763239 0.34205019 0.54988205
0.50133979 0.33153552 0.59425128
0.37447697 0.43553659 0.53982764
0.44189373 0.43248463 0.55776191
0.48225784 0.055614844 0.6716662
0.5544914 0.051073257 0.66617692
0.36406124 0.18892728 0.67005241
0.45813045 0.15458818 0.65846306
0.52401948 0.11961774 0.664801
0.64567745 0.13277695 0.66022265
0.70131105 0.16123182 0.60848355
0.35357353 0.25006989 0.63492185
0.46682462 0.25092977 0.67699367
0.55664325 0.24765605 0.64756638
0.65036428 0.24843174 0.64500546
0.70155221 0.22353712 0.63436604
0.29787958 0.34619865 0.64720595
0.33222449 0.34344777 0.64083892
0.44646794 0.3061046 0.64674133
0.5306654 0.3427572 0.64465374
0.35395494 0.42046881 0.67166221
0.44528088 0.44513601 0.6584602
0.28033024 0.055504818 0.76887262
0.34313819 0.052474577 0.75503761
0.46734831 0.059490263 0.72169113
0.55088907 0.049862809 0.7272979
0.37990841 0.17090744 0.74597716
0.43175283 0.14093709 0.73866034
0.55559886 0.10830116 0.74304706
0.63264579 0.16365887 0.75367886
0.36384535 0.24673936 0.76779312
0.4535 0.27956828 0.75512046
0.53226012 0.26753035 0.76482493
0.63326854 0.23991413 0.74648774
0.34826761 0.34740138 0.74999905
0.48057291 0.30455279 0.70904994
0.55856758 0.33951649 0.74674964
0.368415 0.42667615 0.74965721
0.44387355 0.45678148 0.74880123
0.51572621 0.42500752 0.72244716
0.2728782 0.059754353 0.80720669
0.33712542 0.044770263 0.83891761
0.46128914 0.09493573 0.82999885
0.35692605 0.1683953 0.81906068
0.44698963 0.11589699 0.85842389
0.55933255 0.13452685 0.83965415
0.33419341 0.25482804 0.84289658
0.57731783 0.27975518 0.84116596
0.6161083 0.23556106 0.83527064
0.33373523 0.33609059 0.82924241
0.58023721 0.33173835 0.84136635
0.37820089 0.42805848 0.83081865
0.44100171 0.45453128 0.83191156
0.53883094 0.42332968 0.85042256
0.69111788 0.55329973 0.89995766
0.75841182 0.5462997 0.86848128
0.80528694 0.51279074 0.86717492
0.36264694 0.053319659 0.95048714
0.36383167 0.1779869 0.94174832
0.441571 0.11934163 0.95802528
0.53649616 0.14820719 0.94915783
0.355856 0.24606457 0.95032555
0.58784777 0.2472734 0.94843513
0.35650152 0.33986306 0.95425928
0.58081383 0.33757535 0.9497605
0.3695527 0.40553367 0.92973995
0.45053151 0.44006267 0.94877619
0.54719132 0.41828331 0.9413144
0.57742953 0.56546491 0.99278623
0.66198999 0.55973113 0.95915872
0.73544204 0.53449655 0.93421876
0.29874793 0.061527785 1.0586262
0.35233358 0.045568001 1.0391163
0.4177393 0.070842832 1.0472547
0.36233872 0.1400546 1.054127
0.42636228 0.12266088 1.0611274
0.53445297 0.15288679 1.0515068
0.36937821 0.26210144 1.0366106
0.58646655 0.24221775 1.0380932
0.60018063 0.28853893 1.077621
0.37295502 0.34859273 1.0541826
0.58090079 0.36320296 1.0624139
0.38283178 0.40464139 1.0905252
0.45718956 0.4319497 1.0621296
0.54719394 0.46081209 1.0669212
0.4856458 0.55027425 1.0764669
0.55319667 0.54414779 1.0412563
0.63872242 0.54058325 1.0398452
0.33356667 0.052299894 1.1595443
0.42303687 0.0528129 1.1454817
0.34918079 0.12949121 1.1518426
0.4417471 0.12837143 1.1490555
0.53823322 0.14808634 1.1469079
0.35325575 0.24574623 1.146114
0.59284818 0.20532544 1.1541951
0.60852051 0.27960736 1.1763656
0.36065787 0.34636664 1.1504695
0.59559542 0.35294139 1.165457
0.37401885 0.4130398 1.1950696
0.44537944 0.44374219 1.1438781
0.5438931 0.46082765 1.1531501
0.45104688 0.54265797 1.1577108
0.56103629 0.53875387 1.1434922
0.29557928 0.093431488 1.2082562
0.34936231 0.049307086 1.2266529
0.44789621 0.052373078 1.232738
0.52139777 0.078397945 1.283993
0.33870924 0.14635321 1.2432603
0.47258914 0.12543012 1.2117338
0.56602156 0.14868782 1.2365729
0.34242383 0.23212409 1.2717861
0.59413332 0.20695049 1.2260742
0.61119115 0.27517259 1.2311336
0.35152969 0.3181279 1.2927178
0.60464704 0.35868007 1.2711585
0.38090885 0.4401603 1.2384273
0.42602199 0.42318231 1.2446346
0.5644691 0.45889172 1.2361811
0.44006312 0.54066813 1.2306921
0.54701537 0.5416804 1.2465498
0.36382654 0.079552256 1.3523918
0.42850986 0.035388283 1.3493279
0.51806599 0.089679487 1.3749117
0.34549421 0.15470946 1.342173
0.57378387 0.15665345 1.3190359
0.35367712 0.25922301 1.3446395
0.58495307 0.23985106 1.3600065
0.60844815 0.26717111 1.3070192
0.3625173 0.34594101 1.3447269
0.58354062 0.36426735 1.3717061
0.60416502 0.34732404 1.3007981
0.38950914 0.45611843 1.3541995
0.40631658 0.49276143 1.3626828
0.56872529 0.47623163 1.3503225
0.45377824 0.53627026 1.3429954
0.54143727 0.52609217 1.3232896
0.45018461 0.077963069 1.4137354
0.5035947 0.092960253 1.4001727
0.37787244 0.1605251 1.4540997
0.43489826 0.14372453 1.4732162
0.53220099 0.16373667 1.4256676
0.36945426 0.24700131 1.4462736
0.40936637 0.27374864 1.4981496
0.55269092 0.25208676 1.4417794
0.37930372 0.36371288 1.4349635
0.46455285 0.38015655 1.487066
0.54937816 0.34468853 1.4408588
0.38869134 0.41556174 1.4445565
0.46075559 0.44725004 1.457442
0.53056782 0.45731527 1.4230493
0.48402008 0.51031291 1.4272739
0.51581752 0.50136477 1.4131854
0.44555488 0.2497496 1.5480434
0.55907607 0.21769318 1.5620394
0.60395193 0.25845504 1.5455859
0.42496133 0.31757155 1.5657449
0.56469834 0.33808506 1.5445235
0.48832464 0.19497341 1.6864328
0.51294822 0.19824107 1.6662652
0.39420652 0.26249295 1.6644623
0.41990069 0.22590047 1.6601614
0.55807328 0.2057181 1.6423787
0.61217725 0.25808543 1.6687341
0.39488918 0.32587716 1.6687582
0.43029588 0.34700805 1.6494992
0.53690869 0.36539397 1.6345406
0.60837364 0.30965689 1.6038097
0.42849541 0.25979325 1.7287301
0.54701322 0.25081462 1.7540234
0.61058444 0.26254654 1.7284164
0.43612546 0.32514894 1.7264466
0.57805407 0.33815327 1.7387366
0.6098457 0.31573552 1.7254598
