# .PCD v0.7 - Point Cloud Data file format
VERSION 0.7
FIELDS x y z
SIZE 4 4 4
TYPE F F F
COUNT 1 1 1
WIDTH 1604
HEIGHT 1
VIEWPOINT 0 0 0 1 0 0 0
POINTS 1604
DATA ascii
37.223766 47.212097 176.24086
26.884033 65.229836 8.4351416
57.394615 47.794624 278.54349
57.46891 6.455442 1.0217811
40.565807 57.095158 84.037476
47.677452 53.506256 267.54001
9.5662231 8.3044195 0.21761385
23.342251 83.172623 115.17708
36.577759 38.446812 294.24994
1.3284963 59.179813 267.54001
67.342758 43.719215 142.22591
90.891777 25.154877 208.85425
5.2414112 51.219437 138.58453
41.673229 55.779797 116.25827
41.038544 62.778118 49.736336
35.18457 54.81374 294.2731
23.584045 53.949711 287.01126
30.888189 86.328232 205.29872
70.921761 80.39209 215.9216
15.842139 75.378265 329.84579
34.188461 60.115753 9.4375
45.914036 13.680055 -7.3947234
75.567039 77.090462 254.45816
2.4180417 27.687559 210.38898
36.040092 26.913662 -6.9525547
68.233177 79.126053 270.57465
42.318619 53.023926 21.320557
38.110252 65.515442 318.21643
2.597465 51.817505 251.52563
43.339603 69.929817 291.31726
42.81638 51.613869 153.06984
76.983879 56.054638 194.78101
22.630491 40.955318 194.25406
38.855885 49.179939 284.61667
39.534248 52.699417 146.02277
48.218197 81.990837 48.545231
60.5709 82.666748 45.000027
33.030617 85.035812 170.31537
11.766562 71.387611 189.50101
3.8413496 54.224842 119.6304
36.326401 37.604774 -13.906456
38.76387 37.462181 215.11154
73.49427 78.892487 217.84192
73.914795 29.975887 1.1311898
2.2092681 52.694954 264.25409
1.0303524 59.422855 -14.029456
76.610626 57.561508 267.54001
72.883911 61.3116 267.53998
15.700818 82.514786 209.51106
63.763912 42.352768 63.446732
25.802402 67.98912 3.954658
10.699392 78.348434 179.19746
14.22353 81.949356 224.65289
45.468052 45.803772 89.612602
43.885445 48.880653 12.087229
19.596687 28.539444 332.32019
76.68399 51.158051 24.733078
18.85108 -4.2931991 -12.062099
64.604454 82.887215 205.63809
30.236113 59.850334 292.92905
37.06192 46.897446 105.54316
40.167553 55.166317 111.34173
6.450942 75.88546 269.44601
41.071159 60.685143 66.520767
39.176746 72.256485 60.084476
43.52602 49.6036 37.174252
-1.4957981 64.351715 258.81516
7.9004049 76.143311 166.17308
86.739029 -5.6242056 203.23764
32.680328 84.997238 166.30965
0.55314517 57.851635 203.57773
-1.9019339 8.9751577 206.32919
26.711096 39.930725 183.8333
67.535988 80.143219 169.45985
17.48871 33.266167 334.30096
24.533283 83.482086 121.09135
38.348385 49.39846 30.172258
25.330723 40.253716 24.332123
4.1594667 53.505798 26.610689
41.875633 54.799385 61.054741
74.134346 54.363266 275.94485
1.1641984 10.311507 -8.6457853
74.552658 71.725212 273.94662
49.988457 51.562946 -9.9386368
26.381065 34.591797 301.19998
67.45253 70.985664 3.0920012
4.6486511 54.010658 252.52057
30.196106 39.28833 150.00589
48.783573 26.873825 318.12457
37.993198 37.490395 261.89987
2.8819928 51.182178 209.3526
3.1515684 50.788765 211.76309
27.697021 54.714012 1.9093071
-2.7144928 2.4236383 207.68079
73.591263 47.3395 21.711718
61.350971 82.403748 162.18466
33.298019 34.346405 -8.2886639
20.566086 57.392487 287.9671
4.2160707 61.021385 274.26859
-1.7200483 10.695806 210.96069
51.510632 26.255951 -1.3353407
15.338831 -2.6347923 -10.298994
20.466555 62.431198 12.8803
67.869156 43.938679 126.74196
76.955048 63.981178 -1.8095256
25.17915 34.944584 301.95474
92.808945 17.060596 210.26553
79.405579 60.320099 186.02994
20.904137 38.12674 313.69559
77.898483 53.710335 31.118464
63.849388 65.247551 267.54001
57.507149 63.544205 194.78101
72.119987 67.717194 4.112042
9.2727137 77.470764 71.028618
28.347702 62.57658 6.4346566
19.147352 69.66835 6.1500626
82.710251 58.07238 -11.705811
61.054886 82.503578 97.148491
57.676483 40.52388 33.758118
53.704021 85.783173 254.87869
78.342026 54.712864 120.98952
2.8970342 66.341331 168.29695
64.3144 42.538361 175.32893
47.730072 37.782661 201.70825
37.887772 86.924042 199.07562
8.2119484 56.826431 255.97823
78.339005 69.237053 102.65363
15.359898 70.385818 319.67569
57.125084 54.344894 267.54001
8.7650928 55.964294 236.12073
2.4708893 62.498871 68.358345
-0.86438376 53.827984 214.41064
17.040825 63.548378 347.94662
87.819412 -10.457458 198.66841
37.89949 75.417297 106.06037
39.626923 77.33741 189.50101
18.871138 28.516581 330.40805
77.985504 53.907024 22.937782
19.126686 42.041546 87.711563
79.714417 54.689171 268.08392
45.938583 46.153069 298.86725
39.414997 52.361584 115.88348
77.514297 72.297295 262.20273
46.624596 49.378304 284.46146
86.366882 -7.6375494 193.6571
24.086294 83.365944 136.07785
51.031601 84.791031 192.19801
30.696943 39.196007 172.24391
63.86512 41.281708 207.76093
75.005455 49.734753 219.54892
38.098541 25.899881 300.60342
27.920612 59.140186 291.05347
95.758026 -15.080004 194.48
10.368359 65.981346 336.60071
1.7862084 66.229866 -13.999977
59.280228 83.002419 185.12247
67.821266 29.819424 1.5622705
27.282129 -3.5038402 -12.981075
48.313004 21.684044 -3.2416003
57.740536 33.753582 324.76892
28.227013 84.291702 139.72849
66.68515 80.497955 168.94284
91.134613 -12.811025 197.05342
48.540874 69.205719 -11.702013
25.460728 81.109291 273.15381
25.220808 41.90892 351.73795
81.848534 68.675705 -12.224396
13.494242 44.190506 39.862797
46.994987 86.716537 198.58241
81.142456 60.390533 194.95721
17.863075 83.243813 192.41098
86.088326 17.390816 211.21527
22.952227 83.071274 82.827202
3.7316523 74.476021 234.09375
21.497757 41.249634 162.1588
78.865295 69.52166 269.47284
49.607243 63.235489 194.78101
-4.6718068 -13.329495 189.18297
39.000748 72.755081 107.31633
8.4097185 67.599754 259.56036
55.531231 75.586212 323.80045
68.489067 44.197128 48.19297
3.2790108 8.6205177 -6.6238461
29.222511 35.813248 304.01718
24.031645 40.591255 125.78722
23.391771 40.757515 51.408356
29.984018 66.401077 292.21988
22.993324 39.669086 195.89168
35.404945 62.911041 297.99011
17.513065 81.35743 103.4129
41.554737 50.075703 194.78101
17.194939 52.093285 348.5011
0.78073335 22.65942 -8.4555588
78.112907 69.7481 175.35283
47.530354 78.652641 348.47125
83.619003 27.111214 217.19641
64.055672 70.358185 194.78101
12.409581 61.627792 267.54004
47.620209 81.230957 119.57401
33.160191 85.050079 188.85667
47.663795 86.642899 242.24896
-2.2652237 23.986958 -14.447763
10.877847 80.554558 262.7189
15.04568 37.146393 0.115815
78.970505 52.174835 261.17841
38.86647 39.081783 269.71249
88.785789 -16.546272 192.93358
81.473846 5.2679052 -10.020047
1.210542 24.942389 207.74728
54.115295 84.222603 94.860931
23.476994 55.164696 12.8803
23.801151 57.741669 12.880301
52.611168 39.443142 185.01767
28.818031 84.40065 11.454787
41.221565 58.472942 110.28905
29.842239 56.388481 9.4375
70.078453 68.690933 194.78101
-7.5231619 -7.6946287 214.44987
74.590912 61.195969 278.67117
65.795868 43.074303 145.44649
69.691147 45.739109 270.37003
52.683308 5.2386141 -4.1549506
40.231857 68.465302 73.873199
9.9777412 58.368664 340.90295
78.248894 54.502357 100.04517
39.451752 52.46571 193.53366
35.767994 68.651939 292.89966
59.816696 76.823532 277.45605
56.518894 60.924816 8.6571369
40.626091 77.996819 194.78101
81.298439 44.130856 208.24657
24.575094 17.361309 3.9651003
66.830345 73.838631 -2.1153507
39.97646 69.317612 189.50101
16.348518 41.685032 202.39485
45.082016 46.554291 118.56673
18.145819 81.570763 143.73538
66.348938 43.304882 34.495537
29.436947 49.583679 283.18951
12.36378 81.174042 210.20895
38.346664 23.435431 -7.9455271
57.774368 39.502216 214.64786
28.504055 85.930298 229.30139
84.228203 28.947695 203.13647
38.254436 74.727272 39.197929
70.810013 45.31535 48.95993
82.504852 3.4288371 203.99884
-0.0061731339 20.515713 214.88396
31.590204 68.044456 9.4375
6.4248905 48.7789 -7.9558229
47.084148 66.473488 353.31442
37.846107 3.0430861 -14.89526
62.681553 -4.1526232 -12.709543
61.822121 66.931664 322.45428
42.576527 29.410076 301.70724
48.470634 48.211533 281.88226
20.995676 40.188141 223.21851
3.7757525 69.569992 166.22395
17.687738 83.184692 213.96695
9.6550417 67.027115 266.17221
74.528206 78.095329 193.57397
63.88599 51.380417 280.53998
5.9879098 67.540817 275.84946
39.537395 38.718258 356.4967
38.129322 59.135059 303.78079
61.160446 41.475014 98.456276
77.291161 71.605507 184.79207
85.789932 -11.776271 192.97604
2.9586189 73.347847 209.11768
1.3639334 43.585495 210.4249
4.9030986 54.459549 214.8008
45.738228 69.515793 353.67065
65.514305 82.58046 225.59334
22.090351 74.582558 9.4375
10.439654 63.178596 2.2976172
62.274178 61.355305 13.8803
41.891212 69.219131 11.718673
64.737915 81.261856 54.398449
77.659866 69.328087 247.21469
38.031879 48.783142 18.559208
75.561935 47.322803 204.83264
4.7150326 71.693062 174.90656
21.540928 79.759674 333.42178
71.881165 5.0823646 -0.18672568
23.502903 39.536674 235.57436
50.282616 60.316422 334.34866
6.1074543 49.955498 69.798302
9.4908895 77.611633 174.30182
1.032709 68.485619 203.39713
55.237381 84.01577 94.372337
17.515715 77.689384 330.41776
3.9597502 53.957218 80.459435
39.219986 27.030128 301.44586
59.542381 69.847885 285.83649
-10.689722 -15.436757 196.88409
40.933659 61.235268 24.934566
93.688919 -16.39789 195.58826
41.892372 54.718311 74.132683
66.45929 71.265205 2.5844007
73.864578 76.339172 14.614645
38.799561 85.468719 157.6821
69.737625 67.918045 11.433334
54.552891 39.80106 27.854622
83.611252 61.095798 216.78856
87.797607 -9.6815815 198.13788
19.759827 41.828083 69.424515
73.921799 77.980728 268.28531
42.066853 70.069939 88.98735
-10.645448 12.661114 212.08626
63.039379 81.834511 187.56029
30.833467 86.322205 205.381
0.13799171 62.429153 212.66939
27.88068 59.169563 8.4973316
64.996567 81.174652 12.481196
27.261044 84.113647 62.514595
50.361877 63.327438 293.85156
34.869797 43.458389 102.30744
65.184174 6.8527575 1.9637545
19.53096 36.636909 345.89011
79.287338 65.083199 189.10321
60.893715 70.928444 340.20129
72.997025 79.195656 237.99847
0.60636067 50.691696 232.16379
-15.210505 -1.0357951 205.06297
52.371044 39.39888 14.89896
7.8246517 78.836998 239.89201
73.640251 69.541779 259.40637
60.382195 53.030582 194.78101
49.68264 83.57373 73.21376
49.134575 82.981339 124.28329
45.303085 85.390518 189.56821
59.61364 84.438087 224.30011
22.734644 83.014748 32.120625
92.715797 17.243105 201.49551
51.139126 86.255959 261.78986
-8.7571259 -17.237089 190.13321
78.653122 22.1007 0.72079885
8.7378731 75.486824 -12.912593
53.544323 85.812607 232.71703
44.610592 42.619141 298.17892
57.830193 84.901474 259.92365
10.591379 65.749619 281.60254
35.718597 24.419128 349.82068
71.392471 6.5963917 1.3358061
28.880737 54.523815 -0.88140672
69.850235 79.178383 115.04448
65.942413 80.80761 70.476372
33.207954 41.367062 112.50575
16.497103 82.783264 196.04507
0.2751883 64.123627 199.591
45.117554 57.363968 9.4375
28.750921 55.149887 -0.42575318
17.728405 58.627934 306.63391
26.227879 83.922394 129.02275
48.386749 70.465714 189.50101
42.728676 51.862312 113.13603
20.31842 82.303246 91.410309
4.2367043 56.276566 264.80908
77.787376 70.483902 183.26662
52.671619 39.454288 57.615395
27.170605 60.415985 353.26343
79.424873 60.558319 153.47389
36.283634 78.465172 18.246536
22.569332 39.779251 247.05511
50.124138 38.046215 197.72794
25.991673 49.589333 4.0655012
35.080948 69.235016 -11.341997
87.646378 26.931328 211.77196
90.801506 -7.1530495 213.5562
45.317337 70.972549 353.5701
89.753021 15.381388 211.98891
68.37252 42.963341 266.70154
79.491394 61.379822 107.86285
6.969593 75.242928 163.73282
22.450623 66.729462 189.50101
35.545906 61.286545 -8.5904484
56.385456 44.202522 274.17688
44.889885 57.810852 313.76642
39.483078 52.554451 153.94708
79.228416 65.70916 141.54047
40.46172 67.352005 76.954063
15.12809 3.201797 -1.3019923
51.100273 39.164642 174.19087
17.52062 63.19817 12.8803
19.655699 54.917053 12.8803
40.13858 68.917091 22.765343
46.33358 65.039688 189.50101
15.89776 69.926567 1.2887546
69.118866 44.459698 64.830467
88.497597 0.7788682 212.73479
40.312664 68.073929 63.173496
62.881111 21.178135 5.0215206
61.22858 40.399734 266.74179
71.52816 72.487122 267.54001
37.166649 39.295784 189.50101
4.4166737 56.74704 267.31458
10.846561 60.527977 189.50101
68.273727 58.976936 333.24225
7.8587408 55.953529 252.84164
39.320385 37.441803 254.01593
79.456375 60.947411 117.46609
14.101917 50.392197 277.54874
60.096771 40.105652 191.16048
66.817474 82.103149 229.37579
46.173672 72.634392 286.83032
26.021599 -0.30517185 -6.7080359
32.778633 0.68972814 -11.380467
78.732132 51.636108 236.19467
85.312775 26.72353 217.35437
20.305984 50.566391 280.76553
36.993217 37.527016 251.55653
29.581722 84.541428 23.214554
43.879669 28.95274 316.69745
39.3689 57.42128 189.50101
39.474709 16.914022 -8.0392475
78.186722 57.042519 194.78101
40.717812 58.059433 113.22467
67.977295 43.983765 103.59329
31.791546 73.08419 285.41498
-15.880453 -7.1869006 190.27365
22.125305 82.856415 97.410385
68.454468 42.997505 267.49683
47.678959 39.116901 186.9118
40.579258 66.78273 82.619141
34.770924 37.662544 259.56223
34.052574 80.693733 189.50101
54.977928 50.507175 189.50101
-8.0327444 -6.9743938 214.18686
35.896294 79.018417 38.469662
35.648941 55.934067 295.69373
45.653275 39.955715 189.50101
78.785324 67.482246 189.82268
81.735344 9.6128511 202.20357
49.449532 37.971954 255.91161
33.598976 41.789703 34.775536
21.982864 41.123589 105.49754
52.095146 60.598522 341.05804
36.986187 59.413223 301.48779
52.697594 21.222486 1.3508058
64.878029 42.728386 155.57407
11.284514 41.395477 326.56726
81.080223 59.621937 256.00952
63.124607 41.03204 259.82553
17.774284 81.445496 128.85184
79.277969 65.198845 88.797836
2.5267453 60.754276 57.24691
31.194092 84.752609 30.24444
50.067551 5.2235756 -7.5347881
13.72318 79.847939 110.33965
14.567762 82.030075 267.61987
19.849188 82.145042 132.30318
50.838715 76.430656 280.63232
5.882185 73.658791 42.511513
84.177467 27.036736 202.61189
39.843372 70.346886 70.707565
79.928833 67.774818 268.54947
38.624149 73.821991 122.37588
3.5303078 68.049789 9.4375
23.102959 47.14735 267.54001
59.819973 43.012772 342.47836
33.515667 41.69965 140.57877
76.546982 65.920601 -2.2170427
7.6476703 75.898842 25.97673
72.67234 63.343796 246.11469
7.3538051 52.022133 273.99374
20.177319 41.687328 73.996033
53.256016 69.902458 194.78101
88.101669 33.047127 205.42252
82.671616 8.3749008 201.3642
20.357885 82.316559 184.41211
2.9709203 57.306026 83.214478
-1.1286407 -0.13893747 206.2106
65.862923 21.376305 5.119308
62.084824 76.563988 194.78101
40.825562 19.204048 338.45041
56.050476 36.582966 -0.30309832
46.782246 43.908901 126.67368
23.031675 20.934883 3.6170907
54.5 74.613922 282.10034
15.678302 54.861877 12.859785
46.199486 79.201752 91.750336
23.549282 71.454796 267.54001
-5.9988356 0.15401387 212.2981
65.268944 42.860184 172.77135
22.820341 84.70417 214.62758
25.327572 78.24984 -12.740358
54.904984 84.505531 267.54001
48.216431 62.689651 9.4375
15.212101 82.350014 215.51389
15.956653 40.737541 342.9483
50.125813 28.885828 345.93286
77.977402 53.888718 77.088913
58.429195 71.485405 -1.3350354
8.3466234 76.574944 16.752392
46.70507 79.923874 19.15374
-0.62839049 19.800907 -10.108797
18.910048 53.36438 189.50101
51.885639 42.645752 273.29727
80.651184 57.029091 226.70407
7.4610767 45.802879 206.15724
67.086212 43.612255 66.268875
41.5644 67.636078 104.34166
79.468575 62.84494 40.8176
4.6800079 75.860046 244.84767
58.380173 42.004646 9.4375
-16.878511 -13.219805 190.68436
79.02523 57.420799 173.60747
0.44666606 23.95752 210.95088
30.793501 29.64362 302.22614
64.562744 81.320915 146.41541
49.488361 40.579266 160.11769
22.146694 82.861977 100.02353
69.47229 80.996376 229.21599
68.864304 4.0988207 0.056060284
42.6866 51.981499 113.10385
44.338741 47.999363 123.30562
27.594126 53.302189 0.56502664
9.7748022 46.158348 145.85477
13.266657 17.831989 3.1061165
62.804703 42.029373 179.48103
80.337326 25.142544 207.69379
14.913055 43.598999 115.01422
55.322445 76.230705 334.21783
36.815292 77.525024 35.401268
97.489265 1.0177832 208.15904
32.481232 40.581589 67.751358
8.0806122 0.87686908 -9.7491817
2.589148 63.959442 182.21762
56.005554 83.853264 106.23006
47.274704 43.205536 62.310741
49.470211 39.19553 269.16891
38.56218 7.7136621 -11.090463
49.846397 46.429619 278.76202
52.35479 39.395885 143.09184
48.91972 55.140976 9.4375
39.443752 6.3676815 -13.851286
38.379532 25.747295 351.25845
60.941597 41.401226 172.69183
-1.5521338 23.331932 217.84042
33.41433 34.966721 296.9411
69.890999 58.275299 282.332
0.22954726 60.858315 193.46756
20.276285 82.28904 161.87372
29.168709 84.465286 167.67859
56.178066 57.439075 267.54004
70.536346 80.552765 203.09581
49.927208 83.838074 16.414383
4.9502478 59.57003 333.60101
64.87619 82.795601 196.91087
32.055408 47.040092 296.04688
-3.2713358 3.4986284 210.02927
54.589169 50.196674 283.28497
79.576897 8.7300358 -3.9304371
41.631615 67.961662 80.534851
68.282639 1.9524703 -2.7757988
74.979416 63.673832 228.45625
29.996733 39.325077 38.834854
0.05726704 61.309353 218.50557
17.650284 70.230194 189.50101
28.580261 32.617355 300.6185
74.3769 67.406784 194.78101
38.599064 50.050037 90.855804
16.493454 22.309164 3.2882783
79.129204 57.836853 108.23859
61.133175 60.611073 289.58847
40.256275 79.32019 312.47485
21.05278 41.392166 146.2943
65.470703 51.176968 323.15118
75.697289 47.453732 263.88135
56.243065 64.116463 5.8779325
15.356091 66.147583 284.52341
33.40406 82.363983 121.99632
54.717503 69.779892 288.09317
65.534569 82.573624 205.12044
67.575211 43.816132 106.93911
71.18103 50.39093 194.78101
8.6309719 76.849998 133.92493
31.718618 42.41061 194.78099
16.817387 40.032387 315.14413
44.912277 46.8843 130.13235
11.274825 45.600098 -0.74584275
37.613499 75.973282 18.852066
24.938784 39.163586 208.73175
60.675228 41.31142 186.60255
77.137314 51.989845 127.3558
37.442451 23.462961 -6.3185635
98.13868 -3.2371182 198.98889
75.482323 24.456705 1.5050988
11.728723 80.909286 205.81845
45.479645 53.210648 298.93744
79.347168 59.598701 59.993923
65.174263 81.114746 92.511009
24.466297 83.464676 142.84277
28.772003 39.550835 191.33676
4.263628 36.920944 213.18875
69.401993 44.577736 100.67489
40.954277 62.404396 93.093109
6.6031647 47.644638 267.54001
-5.0470614 9.1476498 213.84122
73.249542 75.068001 272.07248
56.32869 68.006149 289.45767
16.794857 52.876633 194.78101
25.232624 83.663795 98.10701
43.312107 45.182686 277.8392
-9.4105272 26.694775 211.98648
19.59074 41.885094 93.150269
40.636047 17.94656 335.48059
37.144787 47.058556 117.5639
60.479782 54.738647 11.507032
58.106575 66.983482 7.6804595
7.3110538 53.417797 239.7596
52.497833 79.88105 331.18146
15.948912 38.681732 318.79816
13.841637 55.420486 9.920249
12.446902 79.315857 46.885788
8.11485 76.350754 85.191978
58.200912 66.774872 289.74072
60.344856 40.170113 212.12537
77.495293 49.675198 253.16412
40.346859 85.525375 142.22491
44.851807 47.001862 144.30353
92.637573 -3.9985795 213.81145
8.0849667 68.694321 194.78101
43.604958 71.249084 308.79547
70.831741 45.328598 78.04245
40.039124 54.544285 173.90204
7.8005505 47.896313 108.51314
30.68055 48.656776 282.02383
75.271248 74.846786 23.668808
39.382599 85.490067 143.27603
28.136948 71.550835 9.4375
61.257828 59.527763 13.8803
62.734432 42.005676 192.09517
37.2234 80.575157 267.54001
60.718613 82.616943 90.735123
2.9408412 57.426388 149.92625
7.2294297 60.069099 337.01932
39.060944 73.248421 134.51601
31.012352 39.137867 121.36607
63.189476 52.011642 8.893507
37.50145 37.508404 209.60518
39.979458 69.687767 55.62867
36.925995 85.614944 269.24472
36.806133 46.400177 60.14555
27.972946 63.386925 320.2265
59.297577 52.65559 312.23212
53.747047 56.044991 303.77087
39.953564 54.129906 133.79919
24.108395 40.571316 78.599892
-5.8860121 10.520643 205.75253
52.669708 43.34388 267.54001
47.047554 37.603363 351.99066
39.707737 53.190914 163.7446
41.061039 63.109024 88.41629
80.789398 69.373703 265.31384
58.640278 73.680893 339.42181
51.241825 60.855442 329.5809
13.221699 39.683334 335.26529
39.261101 51.925591 132.68959
3.587348 69.103714 21.364372
79.979523 41.053696 -10.089806
38.014732 75.193268 68.526482
39.656635 76.883453 281.15787
78.728806 67.708382 27.093311
15.56255 56.723553 309.31525
3.8005219 58.842194 331.67456
15.857497 66.101837 9.4375
84.170609 60.176437 -13.929852
31.903616 49.098442 283.22083
-1.0584141 13.275189 213.77133
86.063309 -7.8316636 207.75127
34.155804 86.688019 201.7561
57.639091 80.57135 9.4375
6.8180065 75.024513 78.033958
39.001938 85.47612 169.16537
75.500732 53.115276 214.54877
67.104065 43.619705 52.117958
80.226303 61.496902 -6.6598597
57.894371 54.576622 4.7284021
40.043598 23.073811 316.32867
40.4748 56.654369 9.8262634
6.717566 51.193008 272.4538
70.805817 80.44043 207.13379
40.981384 61.937443 188.46767
1.514873 54.264538 254.35751
34.960381 85.248291 162.71582
46.768745 71.527374 288.29041
71.475975 80.123047 232.09631
40.32238 55.916161 167.85411
79.276039 65.222733 73.878616
24.750175 0.72806722 -4.8409262
33.479221 57.887039 -5.4955034
60.979309 41.41394 69.073097
52.45623 38.405022 262.74362
59.107761 83.047241 103.5196
72.381065 68.196838 263.35098
26.617104 56.870155 9.9768896
37.54401 78.427444 278.89355
22.043152 39.508316 0.115815
58.409195 83.228745 92.262703
0.80855054 12.4006 -8.4702635
58.281796 39.634064 232.51985
24.011452 47.108765 0.115815
62.763618 42.015518 123.52461
35.532181 83.269783 315.28107
41.439846 56.910255 92.203751
14.756173 74.140518 332.81348
17.40263 50.899811 279.90564
61.531284 43.213631 1.1158201
48.758324 37.895855 206.09074
54.943233 85.554756 251.58076
40.97942 62.034504 10.616559
65.137215 17.961241 6.2001185
23.694698 67.372444 307.73181
49.248066 83.104004 34.34914
30.472649 73.301003 267.54001
25.876329 83.831047 149.08746
37.772453 76.534897 267.54001
54.057758 82.062958 189.50101
52.890507 77.702446 334.70267
7.1624746 75.429497 64.328255
-0.43626779 12.878326 207.01508
-1.8314321 16.188629 202.96228
48.058002 42.12532 85.061073
11.711677 72.115623 -5.1397181
50.690128 39.2803 193.19649
14.539016 80.188065 151.3119
45.724957 45.419006 148.04047
48.078758 82.481956 341.28748
70.189507 22.522591 3.7723067
71.867813 79.88414 212.46397
79.022972 62.186066 271.35013
65.967667 38.191235 1.1158201
74.189819 76.024567 118.41509
27.120449 40.172848 314.32208
71.757515 50.337082 189.50101
66.707993 56.166985 13.8803
85.711555 14.593351 210.75809
34.700798 80.725998 28.245453
43.065231 85.472473 168.40379
3.383307 55.655853 130.73425
49.268219 84.999313 188.11406
57.591431 40.501781 20.944027
35.983913 51.114922 287.80539
-15.815651 -8.0864353 202.24762
35.896637 44.925064 71.362686
3.7433479 53.299812 213.83238
71.404007 77.58461 -9.8375359
83.507843 9.651269 205.84175
79.280502 65.167641 170.91597
4.7699957 52.463688 -10.717022
98.556091 -12.29108 198.16006
59.88842 61.711479 290.70752
85.243378 52.024513 222.47653
76.272301 49.061478 268.56607
14.304331 81.983047 243.97354
18.092669 70.102219 314.26572
41.401695 15.938749 318.2876
27.94701 17.991871 2.1927629
36.698303 46.190552 84.504539
97.135826 9.4602776 203.65538
77.788086 70.482315 54.460178
59.966152 77.991112 -9.6537123
12.202261 71.682213 279.3844
63.047234 53.605415 12.074266
33.555561 37.796341 254.12689
25.433279 70.55365 -1.55854
1.2496952 64.340836 232.54353
63.838142 83.145584 204.02605
62.933525 21.241932 5.0127869
-5.2646689 -9.1544275 209.22925
42.22081 53.301003 127.18753
65.63073 62.238396 327.16125
72.8311 45.53109 1.1114609
3.4542089 5.355298 -9.7816324
61.58194 41.617119 43.445587
20.950565 16.33313 4.7871747
2.7913938 73.03904 233.28122
2.8960965 57.605438 88.68206
70.585678 80.532196 257.18921
73.204811 62.067299 236.15228
41.933723 40.095581 296.63977
43.193336 50.546021 93.261261
25.995975 83.862137 166.75771
31.900684 77.625931 9.4375
14.892567 2.9272103 -1.7492266
28.071346 74.09938 -8.1669445
56.392639 83.479858 189.50101
28.983706 74.048012 -8.9212351
84.709091 29.90921 218.44742
0.40723535 65.754494 257.84613
59.332787 64.029556 13.880299
37.052231 78.302231 134.51601
26.655235 17.467155 325.95526
61.382778 65.919945 346.40826
22.706821 83.007515 69.743858
56.257973 71.839569 9.437499
38.224827 57.797054 358.24579
20.394297 29.163986 334.38089
48.944534 67.225655 -9.6960678
6.956624 50.834816 224.715
1.0173671 68.424232 265.35632
3.7939162 49.851318 238.15999
79.406021 63.617455 194.70831
53.423199 38.58326 250.2661
81.110634 59.997498 195.25606
1.2219387 20.963837 -7.1032352
70.001686 69.922478 2.7657135
7.6608758 46.28339 268.26624
7.0946918 66.836288 277.94342
65.348991 63.145973 332.39124
28.295816 61.985577 353.6322
48.757278 84.034508 194.78101
73.863785 47.6031 87.036728
74.557327 48.273933 43.724327
18.894096 40.826775 247.11124
61.476574 65.174164 287.90381
-14.431557 3.7570503 208.40118
44.869171 59.488567 9.4375
42.405289 71.164688 78.823044
59.977219 40.074593 245.96281
54.175831 39.73156 138.72878
68.962547 44.394527 127.68449
66.050674 73.192902 194.78101
2.7449415 58.210285 123.06538
39.070656 51.386055 61.599701
15.040102 80.396973 138.97044
75.575073 49.539646 180.58276
18.106657 42.651932 305.71115
7.2602024 48.418976 169.59433
66.447014 42.160606 213.05203
33.007 70.089622 355.23849
50.435989 34.509422 348.46613
44.294441 48.085487 56.064938
39.514717 64.37085 317.43713
41.535511 67.496155 15.450672
16.867964 41.509899 192.71277
40.961983 61.652012 90.060257
-2.7557385 33.073139 221.51639
62.811638 81.911285 102.95831
31.769987 39.812843 125.71036
93.37648 11.62721 209.35294
2.6265285 64.421112 79.587143
79.928421 30.134966 215.42513
47.011063 62.005348 -11.590739
30.149609 66.251007 9.4375
84.760101 60.391663 228.95476
65.960732 43.143032 27.69735
11.296852 67.443451 189.50101
8.6268196 55.752045 228.28996
54.278084 39.750408 175.09521
34.943188 80.379784 74.94754
51.806717 39.294857 117.80907
10.131956 71.741287 -6.0501122
41.984562 54.271767 19.977554
28.606829 21.731424 1.3384089
49.28854 86.464012 227.14052
62.289803 68.581955 340.07928
78.506073 68.449387 265.34274
8.5680761 47.153904 15.654122
74.542885 67.329643 245.99387
40.200859 55.327614 20.835098
79.220634 58.202686 60.241051
31.483231 80.875504 194.78101
-1.7137913 60.201199 222.04146
45.802097 82.187012 267.54001
97.890579 -7.9985728 198.85156
40.939198 62.626194 91.968018
75.945541 50.080315 156.44273
15.149445 45.848366 344.70743
48.14592 2.3474135 -13.492203
-6.8645287 -11.163081 202.59137
51.935753 78.995132 334.03455
56.52626 44.533783 9.4375
8.3124599 47.401154 152.80562
47.138451 5.3409877 -11.892569
2.6236596 27.16869 -8.5853319
49.034592 66.543251 -9.0897999
8.0928736 45.417664 222.22755
76.49794 50.886524 122.7894
60.153313 48.501099 313.60233
83.731873 63.025723 229.69823
7.1103115 75.379044 28.266653
9.3329163 71.427116 189.50101
54.24868 39.744987 68.486343
71.224655 78.374878 55.471375
26.728699 61.701687 12.8803
20.903154 63.998371 306.45999
5.2691245 42.478844 221.2382
3.608732 54.753811 161.55719
48.267464 52.836479 300.44006
34.058208 39.116901 194.57068
41.926216 56.33567 301.47665
50.211742 3.7830858 -8.8255634
30.361015 0.70807594 -8.8876019
-4.1737328 -10.894177 194.66434
7.824007 43.808006 -5.6037812
64.155167 81.458328 103.51077
67.197845 80.28421 23.009415
16.874203 74.790344 -5.7642608
10.541059 78.251907 108.50515
37.923092 88.097351 330.73703
11.349277 55.066231 189.50101
6.1281714 49.925262 88.650017
73.565765 62.838562 7.5337462
67.646385 46.372986 194.78101
7.017406 64.689972 -4.506422
41.410614 66.891174 88.520699
75.451187 77.20253 247.97723
76.531677 73.007324 121.00918
30.999958 62.431633 315.86407
78.331734 54.839523 248.37164
31.227829 23.477589 344.22296
65.778526 41.926823 237.62225
76.463364 76.223434 231.17197
60.882309 51.871887 282.63245
26.767864 84.022743 122.65182
6.9398541 52.456902 -6.9083247
-6.8782864 14.200809 213.15881
4.616353 42.918396 -11.310722
40.271114 76.269783 189.50101
63.174778 81.788864 83.051208
51.76778 38.942242 268.4198
44.684669 85.413162 162.45032
61.591316 63.66581 317.9126
81.011696 58.7757 200.31505
63.692436 62.740673 287.63123
77.968033 53.867538 60.65773
77.838074 50.175491 205.95949
74.311111 46.112862 217.61792
79.425491 60.565941 144.08456
74.059662 65.562759 1.5232418
65.57888 66.261009 285.13641
86.460403 23.747704 216.3665
10.447964 39.191769 -1.9098678
57.548405 83.4524 191.64006
-1.0192049 17.791008 211.18457
-11.322544 3.8306427 212.41255
-3.9003508 17.289391 213.22549
79.252686 65.511147 132.43388
36.547634 45.897636 170.78745
54.276779 76.697586 267.54001
47.463707 54.531151 292.67853
78.429733 55.03793 60.495857
3.5415356 68.920395 135.49132
85.013458 -2.7845054 209.20558
74.412354 48.133705 112.10815
62.297092 82.084763 30.057217
48.861294 47.570183 280.66782
52.91127 84.44455 88.228806
10.111763 44.186729 245.31508
0.18502915 63.010117 223.27335
-5.5463505 42.903625 219.72237
40.580963 58.387161 304.58899
42.588318 71.683182 51.160233
75.398643 23.519953 1.6382315
65.481628 41.826721 192.52835
62.124046 82.143112 38.982422
2.7857096 73.026192 189.5641
73.632332 56.065567 231.08112
3.4236379 66.666702 242.52126
83.775314 4.8260608 210.32239
-3.5419047 54.09346 221.89771
9.1874809 77.388321 59.352589
48.027515 26.366903 -5.6537991
64.178093 52.880432 10.746855
35.593086 79.451508 71.700188
84.95919 -4.4327936 201.70786
69.100357 79.373337 -11.918708
63.405247 66.3806 13.880299
81.412315 38.845718 206.81216
79.400879 63.681084 167.6611
14.926032 43.593594 29.114082
58.501083 56.892433 10.288391
3.7664897 54.394047 75.233383
40.567326 71.128342 267.54001
87.968826 -8.7867584 202.30399
37.60994 75.980194 97.085564
55.309334 84.002502 110.66998
78.650543 58.320427 265.535
76.647018 72.838997 184.23611
45.812737 86.840164 196.9929
79.146362 66.037506 72.318871
1.943562 49.485043 228.89511
32.74044 46.890869 267.54001
40.789864 64.823418 49.692738
39.719093 67.87056 340.22852
9.6829643 60.516548 261.85892
68.616066 44.250072 129.47496
36.843956 46.473705 60.909225
54.433094 39.77898 52.757553
35.19368 53.195431 189.50101
17.762463 77.742966 -10.685046
47.934589 85.146164 155.03485
34.037903 36.995884 -9.6611891
62.659588 74.923012 -3.715004
35.511223 45.452431 278.03842
38.73595 73.505264 79.258804
27.707363 39.747078 130.63518
63.835052 42.376751 121.62686
17.102375 70.576401 345.71759
32.867279 10.788085 -0.85698032
47.075264 43.490387 40.312759
22.051485 62.569099 290.604
-2.6927688 58.395668 224.86223
39.831009 70.402962 114.57729
48.758377 76.805588 280.52521
21.936243 77.320847 276.92081
-6.0799637 -10.879257 201.88625
37.430016 69.215469 292.95312
67.638161 42.657192 197.0123
73.197487 73.474449 -4.9803672
14.271686 43.866386 154.61586
67.672501 81.746689 259.51593
17.111019 82.990242 237.33856
78.851959 56.727478 88.550354
69.713699 10.348427 2.9330039
43.814484 37.504971 247.18182
29.440271 74.313034 -9.7674398
48.805672 86.517174 233.4052
22.392933 82.925957 162.24292
41.348625 57.352131 23.077236
75.693329 49.17432 -2.9178114
19.441965 71.222107 313.16046
24.201195 76.115631 194.78101
47.822128 42.423649 97.451126
28.557384 84.3526 73.786232
7.3227158 75.584511 36.62619
60.734028 54.587852 12.279205
74.457436 75.765701 70.700798
73.415146 66.492699 2.8260624
52.429985 66.640457 291.95044
48.700069 5.3535299 -9.4904318
27.531965 39.779411 98.779312
2.7689335 58.114285 44.093994
21.7943 50.549538 194.78101
-5.7797318 11.767165 202.00073
10.979431 45.423862 103.99323
21.586559 58.079243 194.78101
23.951698 64.208099 194.78101
4.1106405 53.616158 13.083122
7.6234312 75.875389 50.6325
28.657169 84.371002 39.102451
52.69268 73.547325 284.00949
35.382042 44.190048 149.96494
30.002069 17.643423 329.79276
91.690529 6.4413157 211.4503
43.313435 20.013597 -11.171679
63.036781 41.002426 218.34311
25.790421 80.180664 346.5354
-16.171211 -4.9544764 203.55157
98.634247 -11.088422 191.44565
9.8592119 75.751556 272.75568
-7.1137028 -11.772352 201.5482
54.865105 79.815811 267.54001
41.943871 54.468876 81.491158
2.5824375 63.87656 133.62706
17.030474 58.279381 307.61926
66.792694 70.189316 281.71869
62.801151 44.457153 189.50102
53.057549 39.525429 157.62122
81.12706 64.21788 222.82568
62.106567 82.149002 73.672951
12.709693 79.425407 161.72339
43.924099 86.909317 231.92316
4.9353805 54.152237 -9.4222851
17.930208 42.444931 73.338303
19.946533 66.156769 12.8803
41.014965 61.51165 140.71852
59.664101 82.902687 58.33609
28.239693 19.405449 329.9234
73.258522 47.017651 67.736198
-0.092408225 6.0513005 -14.477099
81.520615 52.253513 230.98486
-0.7641536 22.174816 211.80669
73.274429 47.033039 61.4645
71.96978 46.022469 179.3674
54.811039 13.931627 1.8826895
34.590351 40.240791 194.78101
15.473779 80.577766 143.67009
76.192627 54.541992 -3.0803335
64.734589 39.672447 1.1158201
33.597797 86.626572 193.16849
6.3100448 49.659836 83.53212
5.7636156 68.866058 255.84383
86.904572 49.242428 214.75781
-5.8457351 -12.202691 190.14795
69.72258 46.37767 194.78101
-14.804161 9.4361706 203.84282
67.828842 76.323746 274.35156
40.094624 69.12999 69.45208
25.759388 41.221672 270.49136
60.005577 41.129032 181.64957
-2.0631819 23.73436 -13.997279
49.259262 49.33773 -11.291332
65.597763 67.006073 284.67798
57.18364 66.637459 314.47549
40.991035 66.126137 326.57776
64.771477 64.471413 340.68036
71.552391 73.538628 275.42255
48.986198 60.9874 339.35867
42.802288 85.482094 168.08569
72.410759 77.651749 22.329462
76.798561 72.617828 41.839012
38.838345 32.4137 354.48688
3.6517267 61.38826 9.4375
63.396294 48.762283 342.62195
21.624666 82.726334 119.16921
74.650146 75.5793 159.20348
59.991642 43.704449 194.78101
60.810886 82.585831 79.025795
1.6868656 70.542427 216.00986
87.702202 9.0258541 211.1396
7.7862606 59.593678 224.85838
78.802887 72.6222 258.59241
95.994347 -9.5633287 201.61697
52.212097 39.369579 168.02
17.154816 64.058586 286.56287
49.698719 25.833176 -3.186377
11.395638 78.772919 71.935173
41.955921 54.41048 57.110195
55.910568 83.877945 97.740662
42.268337 70.776733 131.41588
40.877041 63.540794 12.359204
48.617374 85.070976 141.25609
74.265518 69.715164 257.40643
89.479729 -7.4406118 209.8526
2.7457151 72.417709 267.87836
45.775406 22.587259 -7.5033283
-4.1229863 42.791817 211.42661
79.229767 65.703735 97.618576
17.471109 42.599716 167.06076
47.222786 43.279678 105.29604
37.738628 48.213032 74.97789
50.638966 69.10083 194.78101
13.152143 30.659285 0.18429208
19.607248 82.063477 89.316124
22.878017 39.699043 217.1013
77.104912 49.105495 214.26552
11.697558 78.957001 65.39315
72.921066 59.803009 254.10655
33.949303 49.323002 -9.4968252
16.568207 81.034042 143.41849
57.049755 30.595848 327.53735
24.718672 29.77817 345.04251
25.579987 43.436066 267.54001
80.62899 56.940277 229.16098
84.030739 55.684643 233.09708
14.811733 80.301758 108.55836
75.857605 47.60881 234.50455
30.632343 75.987366 -13.560623
63.533646 42.275127 167.5374
58.116138 75.426613 -6.6945086
54.910061 63.66811 0.9769426
91.507858 28.202065 210.38873
34.47559 0.41322362 -13.538868
33.69397 74.687042 267.54001
-3.6134958 4.5375648 210.86275
3.2094798 73.713959 235.13403
53.760494 39.654999 26.613144
17.370394 31.267601 0.14489833
47.116741 25.458879 318.3111
28.285902 84.302567 29.073927
74.000931 54.349277 222.38617
20.01717 79.28196 338.40692
6.7107024 54.553268 267.54001
9.8909006 46.087555 172.9882
24.739471 78.543121 -13.089147
46.045807 80.479904 275.99738
96.653473 4.118032 204.20287
65.238831 50.555046 5.7862363
62.54303 40.835957 195.48886
56.149078 39.08572 208.42175
43.129971 73.217575 131.14624
78.058899 73.920425 226.53387
66.723625 82.142273 194.96721
13.964045 33.17659 0.115815
64.616081 42.640072 178.59795
61.029778 55.008514 13.177442
6.4675112 49.430023 85.470825
99.109138 -7.5411382 190.35464
21.812099 68.123894 12.313366
23.053589 65.645721 189.50101
68.25753 60.508724 284.12607
84.990051 8.5198345 -11.987386
79.682343 58.784695 265.94504
63.148819 49.999378 318.76538
72.46701 63.305019 12.214325
30.740059 76.2948 280.84082
22.586365 48.470955 2.0089705
63.696617 76.918335 275.65674
44.350868 75.96727 87.92308
41.887455 86.983894 206.75865
56.65052 85.207993 195.82727
25.295856 26.354193 339.61044
67.686264 63.779526 13.8803
33.962574 81.760307 85.248451
28.211475 57.127983 3.8131776
67.511009 63.052811 284.71112
70.172134 43.713596 222.71167
17.282803 68.070694 11.757106
58.665886 34.44149 327.10526
45.921249 78.804344 117.71079
36.54771 60.760231 311.61584
30.789711 45.34605 355.28058
6.5526514 49.305763 77.081863
68.833237 81.262787 235.10841
38.948257 51.039307 90.807739
63.713669 81.607178 152.13057
60.035198 41.13673 13.550865
25.670126 39.010273 202.80409
15.942623 74.154518 278.36108
13.302626 52.288212 345.27319
53.535748 80.27533 189.50101
4.2595296 70.663483 93.205971
-4.7566128 -12.004657 202.9313
41.184196 59.022568 194.48611
3.1399562 56.629631 138.53313
48.793365 70.723869 288.8912
34.373711 81.193192 123.77428
26.16925 40.035843 157.478
64.134941 51.471352 7.7409339
4.768187 52.129894 144.35181
23.896687 21.33577 322.19235
10.057461 35.224808 -2.4596043
11.180054 39.594875 -0.87925857
52.763638 39.471245 106.12167
-15.538143 -13.063228 195.74875
4.5750408 52.566467 133.51875
68.347664 79.804825 96.980125
63.783169 81.58374 20.885353
19.096317 42.051788 11.015302
58.663616 16.934355 4.0954347
37.196533 76.783875 62.61364
50.877022 82.896828 272.05405
13.703178 79.8396 77.073555
55.45805 39.967911 161.84941
9.4404573 77.580887 48.638699
1.1497419 68.953926 248.03873
41.17701 64.81472 42.329617
82.464279 18.760212 -3.7621717
66.090057 58.943779 341.72031
76.494881 50.882053 34.566093
50.641628 12.46382 -0.73490357
33.327572 62.073837 295.43317
74.525146 29.502522 0.8080169
39.460823 62.985771 315.1857
3.3108053 67.669449 271.5426
74.181801 60.236294 4.5965948
73.508224 58.946362 224.90854
82.2687 54.08337 -13.302104
-18.805264 -10.230525 190.43637
21.504551 76.484085 -8.2964211
41.291893 51.89093 296.33344
47.020348 70.023872 189.50101
67.604286 54.153419 325.70438
35.834953 34.25309 -12.994789
28.142185 39.666931 98.597847
41.599731 56.135796 117.95853
56.771843 40.288834 185.20827
72.799919 77.369034 168.35776
79.371529 71.336952 259.65555
61.532074 82.342697 165.20213
0.55980408 62.107689 189.50101
6.0612011 52.381641 240.24431
11.027928 78.548744 21.790562
47.380955 65.299828 -11.13674
8.6297998 76.848862 143.66293
75.73114 9.4957952 1.186594
9.2421741 46.994278 270.28577
78.36586 54.782333 25.776108
-14.840219 1.2629689 206.07553
42.865799 16.627029 318.72949
25.730534 63.346443 330.3107
16.482655 80.998375 50.352833
-3.4635692 39.055141 222.63812
70.321068 45.017235 63.403252
64.585159 50.972744 279.72592
40.149231 68.865501 30.567169
41.938416 54.495293 125.69735
27.349716 84.129997 93.534103
33.847466 42.058277 187.21834
38.807602 56.23468 300.52679
15.343718 59.207035 347.55109
40.932808 62.720314 44.007408
59.615833 41.027771 99.855652
36.237808 39.135731 357.1611
2.3855946 63.669014 -11.662355
14.079667 65.52317 284.03036
51.709679 84.666031 108.00313
58.631317 39.72488 257.78384
74.141769 58.837967 9.4375
68.873642 52.457512 9.4375
16.215113 50.774357 6.9226947
31.39201 39.404308 133.40552
47.856571 86.621674 211.05704
6.9181962 48.772274 126.38627
50.839367 39.116901 194.20862
23.404156 39.562336 232.88651
60.282131 74.333435 -3.5293784
22.600618 84.647079 230.0406
37.559914 76.077461 102.76094
79.473495 27.563913 -3.636651
43.541573 49.559544 131.96812
57.106354 39.32864 256.23615
101.63396 -8.7917976 190.03128
32.374611 48.792171 -6.5757017
28.452942 39.60965 51.788879
28.703777 39.563408 19.332163
12.309399 51.667095 9.4375
76.20253 57.976418 -1.5436532
53.547764 75.759842 -11.42338
-2.2705169 59.65202 244.56671
94.01741 -14.933185 192.06058
79.658348 28.536026 208.72491
57.219936 85.060043 192.42171
36.415081 45.665585 149.40237
75.418274 49.310787 107.84528
3.6231673 62.422791 273.40387
35.568684 44.456635 57.30164
48.015606 28.715855 -7.9960508
32.175846 83.69149 111.94121
51.084404 39.161716 181.94023
94.16024 -6.8441048 212.50821
-3.3379986 18.774477 212.93134
6.2476749 46.936172 218.80974
64.851486 69.482643 11.951116
72.299995 77.719284 191.43274
4.5558624 69.439323 272.49561
25.125296 81.796371 321.75775
44.614162 49.014923 194.78101
30.00407 86.206802 253.99756
21.514053 33.748646 0.1236138
78.263916 69.406769 108.25677
4.5938902 71.419243 74.132172
30.887997 38.090004 260.67874
9.9561243 61.469372 263.61926
38.489132 74.204491 120.94584
35.590561 44.487885 68.528107
44.029423 48.600731 24.301458
7.8596435 72.45002 -10.004844
4.9369688 63.505615 228.81564
44.378792 40.041382 311.67923
80.487839 56.37542 249.75967
41.638474 55.948158 171.39861
56.175182 85.327667 257.67032
3.2853737 60.204269 272.59161
72.795845 57.3568 6.2541308
2.4304175 10.329984 -6.3492312
12.836409 65.424873 8.5359182
77.158638 71.905052 169.85185
49.315781 83.177193 94.701981
14.695538 46.74295 267.54001
66.159065 36.16259 1.1158201
38.236961 74.761253 133.97171
5.8613043 50.314739 39.729511
74.275909 75.941299 59.594616
71.00061 45.431557 44.674076
36.824181 77.507744 38.386528
45.000336 46.7131 82.943596
63.81488 41.264771 253.897
52.92057 50.685909 284.81503
-4.4622183 49.922016 220.12927
81.777512 12.432524 209.1566
12.869984 50.731796 3.1015759
2.6425543 64.619041 13.262597
58.908501 69.583984 194.78101
43.358082 85.461746 160.31195
3.334228 68.09082 184.60664
30.025152 50.404739 -3.2186277
49.306023 83.166641 54.570034
74.704857 15.658243 2.2445254
45.512051 78.219902 61.661213
21.959162 59.147892 267.54001
11.574532 78.881996 149.35924
81.64994 20.183987 211.00507
24.919586 62.726784 342.6983
26.263481 41.512394 0.115815
42.794472 85.24012 269.82907
2.6869559 58.775566 32.681904
91.028854 29.494352 212.27945
44.937294 46.835659 74.245354
38.761429 75.13623 308.8544
40.703526 66.093697 40.018082
46.876179 4.4364481 -13.242842
75.761688 49.811989 82.98381
48.793148 83.259789 189.50101
7.5630918 50.21727 -5.9710894
78.04335 52.588501 -6.4980974
46.311863 86.791763 251.70749
72.697266 79.378418 249.14673
53.490829 39.605286 83.775284
14.695208 82.145988 260.12933
33.03812 41.287441 -7.8065438
37.833855 73.139565 267.54001
1.9315704 54.329483 -14.594985
76.524437 76.159874 261.90729
3.5578344 68.985611 192.65775
6.7016983 66.865021 248.92038
38.576397 56.765694 301.19971
62.75592 81.930077 30.59763
57.24194 70.484688 -1.1103145
2.7791867 51.406754 244.27562
27.381451 85.723366 258.772
73.092545 66.958076 2.9255157
44.027103 75.33783 13.05505
11.69981 78.958366 131.6169
38.927036 72.963913 123.86165
50.921024 39.131599 182.76962
33.477516 33.799892 297.29053
0.9712854 68.23983 251.00591
11.647661 45.01643 141.16838
37.092239 46.956394 81.727432
6.6486287 46.548332 257.20361
25.057133 83.618195 18.778473
40.735184 65.627899 55.271839
42.17012 85.505249 146.86246
38.982903 39.116901 187.27505
56.297905 76.061234 342.44623
12.445336 48.269417 314.49762
43.515495 74.309692 107.17147
35.632992 64.850464 -9.4070759
22.303116 41.040379 142.81744
34.270645 -0.32943875 -14.480961
44.1012 48.551102 267.54001
41.290077 13.821594 330.24359
20.86017 41.457108 104.68414
21.537245 73.503761 347.87833
74.084679 56.090904 240.3679
-5.2098851 17.508884 201.2262
11.525885 45.090679 41.166439
31.431061 67.07415 -4.2591681
12.912633 81.402855 216.30254
53.879742 34.301994 -3.358995
6.9695201 59.336269 267.93005
3.2185063 56.315308 82.784065
54.176754 53.169407 -2.940871
42.938301 72.674614 66.087685
43.815815 17.47822 -9.7074575
78.203079 50.708176 233.93958
46.027794 65.096573 189.50101
12.054356 73.995071 -7.4645691
48.495308 76.247116 9.4375
42.283638 53.123024 55.095768
40.164856 68.789825 93.879929
67.269279 60.465549 335.98145
-0.35253865 19.739077 214.89728
4.435113 52.882748 184.04985
58.728889 66.383011 11.692513
25.773537 72.492973 9.4375
20.016619 8.0042896 1.7557898
46.507278 26.951204 -8.6174717
41.008816 62.340862 87.514297
45.154034 8.8427439 -11.254379
15.836226 80.728874 144.01448
30.891674 38.0896 199.11812
3.4177186 68.424919 70.989571
90.097275 10.989502 207.97217
14.969027 73.167191 326.24493
24.6108 52.177235 285.06003
6.1288424 47.051113 239.94133
42.547798 71.568398 78.077637
53.258102 84.380608 57.481483
55.744766 85.406998 243.57539
37.705574 85.42865 161.46259
34.288445 39.979225 295.23816
-1.5235413 12.341137 210.21893
37.315712 39.250465 269.86224
22.860588 77.789696 -11.114157
29.61919 64.84967 353.98727
99.230469 -6.6878824 201.97098
63.274452 42.187744 12.884301
77.429619 5.2742476 -4.2892437
61.718006 83.860397 256.86307
70.470169 60.154312 282.34668
-2.4208415 20.471424 216.97101
0.18365088 28.885124 -14.112284
12.098592 47.654755 0.26781669
0.79732186 45.010071 225.75533
67.578148 80.125641 68.532562
8.4034376 64.902328 332.84277
97.674049 6.5791245 207.44385
47.026554 55.500504 -13.498203
19.920681 0.87739474 -3.3099818
44.448002 67.804169 307.02209
12.776686 74.526474 276.21014
83.878784 61.580376 220.11258
45.065739 55.936226 354.84967
38.639366 41.562935 357.49484
79.315521 59.207882 104.29677
76.677307 54.617558 189.50101
21.927534 50.261604 194.78101
37.519119 55.583122 -13.6864
78.009529 45.135468 -6.4353719
55.414001 61.850632 290.931
2.5312126 63.243896 187.57474
16.25267 31.128357 0.13447562
42.697411 51.950882 105.23982
33.692986 41.891308 169.94121
28.889597 35.944221 304.06488
45.03714 46.641544 33.0634
56.283573 67.918198 0.21606803
6.6227665 74.735237 189.50101
72.904327 79.252182 263.43188
48.785015 82.6035 16.771847
-8.1143532 10.307305 208.5833
81.955368 54.110081 237.95683
89.956635 -7.4306226 210.17429
53.268219 84.378738 117.49339
99.518867 1.1660779 205.78297
78.241371 69.457741 153.41185
38.166916 87.991508 330.91537
32.167812 30.16198 315.69382
37.224075 86.899742 205.59161
69.093002 44.448914 83.433243
36.399151 45.642826 149.08014
41.073822 63.296951 120.52682
20.434603 -1.4143736 -6.7297535
-1.3622991 54.191017 215.02864
6.0596538 50.025261 132.28757
30.478493 41.715431 -3.8568068
48.020073 68.555504 291.95563
38.264069 8.4458351 -9.866231
57.595406 83.440186 134.60509
57.778519 39.503296 232.87677
12.211246 34.358166 0.115815
64.372986 46.098873 194.78101
-17.22312 -9.8091316 191.78868
8.0535383 78.976555 213.45818
58.51852 56.960323 194.78101
3.2976604 56.231331 -11.063602
42.330246 49.165268 267.54001
39.064999 25.122063 350.48666
70.972778 78.528442 76.849373
79.281876 65.150673 154.50685
18.213049 32.225662 334.26282
40.44278 67.443741 49.854473
36.890984 85.398819 176.63493
-15.022198 -14.769371 197.40735
36.055573 54.344593 189.50101
41.668625 60.87291 304.58899
22.965893 39.676212 218.50603
79.374687 17.468657 0.57795674
83.770988 27.017273 -9.2976418
86.092865 11.024467 212.05258
35.205078 37.61475 236.30388
11.888645 25.287201 0.85915887
88.197571 30.343386 217.16113
79.369141 59.870068 21.218746
7.5373874 48.150864 54.486374
45.497047 85.559357 269.2695
5.4830065 73.076233 28.560999
34.041084 73.488022 267.54001
8.6812582 65.015511 280.40674
85.719337 13.096652 212.32242
38.99678 51.176769 194.28119
77.336548 62.487419 214.68762
43.352005 73.846558 41.337772
46.794357 37.679649 201.13271
43.966518 76.175682 282.06073
28.84133 39.222927 268.59607
75.375389 77.275848 199.20004
72.753578 77.413864 179.60989
35.783127 37.571327 224.77821
19.820217 68.343445 348.46759
44.863251 54.54937 267.54001
32.852802 43.637787 267.54001
6.4497604 67.235283 276.73077
75.732841 49.769894 163.5743
3.2512977 56.184093 104.6347
95.861816 -7.9715919 204.85692
8.8024616 46.927193 15.910364
34.496098 86.725479 261.37827
11.930605 44.843914 123.54066
56.609234 83.696419 56.012806
6.1631465 59.843567 335.60526
44.263474 66.06916 354.65677
45.952755 63.665642 343.14557
13.031017 81.452209 225.51343
11.33889 78.738327 86.998444
16.557669 70.057793 2.1622984
43.820511 26.245296 -12.253136
12.830924 79.475952 16.681833
26.02293 40.07386 30.338425
35.806496 44.796318 128.46188
44.784367 70.078003 354.0755
-13.322321 -14.017181 196.63257
45.578362 45.628395 73.894501
47.759861 42.512589 106.43678
46.503941 79.636597 59.180466
43.255508 43.122948 189.50101
69.170319 55.634518 189.50101
3.503695 71.95385 269.30023
24.30191 22.165541 2.9606175
2.6397884 64.584885 55.745602
8.7895718 53.90234 340.33154
68.293488 44.115589 140.54355
23.889477 84.766556 267.82245
62.237801 82.104752 187.47589
57.817688 40.56057 166.77718
59.28635 40.942162 11.618454
37.031452 74.785477 308.01636
14.369113 80.117226 65.466476
9.4532299 45.392365 268.50952
