# .PCD v0.7 - Point Cloud Data file format
VERSION 0.7
FIELDS x y z
SIZE 4 4 4
TYPE F F F
COUNT 1 1 1
WIDTH 1602
HEIGHT 1
VIEWPOINT 0 0 0 1 0 0 0
POINTS 1602
DATA ascii
14.37609 4.6393094 4.9816546
14.386019 3.1036739 5.0276666
16.149817 3.834352 5.0945125
11.680001 15.269068 5.091826
14.906636 4.666337 5.1277027
11.820786 19.810947 5.273634
16.834515 7.0238729 5.3372111
14.084751 21.098957 5.3325186
11.382092 4.8831463 5.4493103
16.858648 7.0008178 5.4429564
15.306857 2.7517023 5.551578
16.903183 4.9780464 5.5243564
17.24082 5.6247139 5.583209
14.050829 8.791935 5.581315
11.875244 3.2679257 5.6963835
11.931652 19.6087 5.6196961
11.538601 5.5981674 5.7484832
11.692492 6.1082883 5.8376861
17.283453 6.781713 5.8246059
14.095346 20.952528 5.9255714
13.91934 16.713785 6.2659254
14.864466 16.798943 6.2817831
14.254925 7.0930729 6.4120994
13.052757 19.239067 6.4634204
13.574762 19.499718 6.4275789
14.383255 19.213243 6.5763278
10.583823 7.6722555 6.6383915
11.752688 15.591819 6.6805215
14.948946 17.394815 6.6511278
11.113252 7.9495778 6.7343807
10.561008 7.3783941 6.8277149
10.896261 4.0980659 6.903718
10.569613 4.5980077 6.9287057
17.636377 6.4573531 6.9252143
13.52714 3.3703165 7.3498511
12.817183 20.504337 7.3117166
15.311669 8.4371386 7.4744601
11.393617 3.9770076 7.5587821
11.677971 20.081358 7.6832957
10.822694 6.5087533 8.0525551
16.863365 4.6424141 8.2364063
16.130386 8.2884445 8.2335596
12.365445 8.1206236 8.5466623
11.131873 18.764145 8.5346775
16.615955 16.21413 8.6310606
17.357248 17.60116 8.771018
16.900734 7.1757898 8.8481789
12.609274 3.9749498 9.368721
13.798566 8.0747375 9.490921
16.987432 17.178528 9.4352913
14.866421 8.5948238 10.919876
14.246584 15.358373 11.12271
12.926959 15.387287 11.514074
15.869838 15.140616 11.609328
11.079762 17.281588 11.734827
16.31975 15.155327 12.089516
14.883559 8.9853134 12.196296
17.49201 6.1951714 12.252331
14.651937 3.8057675 12.571751
14.490843 14.957541 12.622817
17.074619 7.662333 12.875925
11.183894 5.1987114 13.093978
14.386972 20.185925 13.066816
10.945915 16.596701 13.383057
10.789722 5.8731899 13.664293
13.783582 15.069118 14.0893
11.036565 16.078354 14.016795
17.30138 17.316124 14.096466
16.060699 20.021137 14.363932
10.639304 7.407846 14.41131
12.56916 4.0736437 14.794751
16.582319 7.6772537 14.753988
16.951597 17.614521 15.526108
16.220016 5.0588236 15.649696
16.772217 6.3358932 16.01516
15.626233 15.371858 16.093327
11.824982 15.304692 16.116192
15.765971 15.651902 16.180935
10.722446 16.275665 16.307154
12.977809 4.093709 16.556519
17.333885 6.2355127 16.873268
17.507185 6.2783809 16.991978
15.177067 9.3788815 16.95225
14.859227 9.4156342 17.197691
10.222332 4.9345679 18.171146
16.213398 3.3639562 18.286093
17.683891 5.0917377 18.283527
17.208401 14.928638 18.223532
18.051992 17.911303 18.532793
12.308873 9.7820215 18.696049
16.490963 20.709116 18.76775
9.1737385 8.0816784 18.853447
11.473139 9.7727299 18.817059
15.615536 20.625748 18.885252
8.9257069 6.5815072 18.974951
8.8788452 16.256836 19.063265
11.576877 14.3819 19.487526
9.9260988 19.355179 19.50544
9.8622074 19.626738 19.555172
16.960461 20.301239 19.506775
9.5362387 6.1041584 19.793701
9.7787066 5.0598993 20.083971
14.024632 13.919531 20.317036
9.0013647 7.289629 20.407896
11.529072 20.651619 20.498695
16.68401 4.2130785 20.576952
14.932524 10.186454 20.697578
8.6326485 15.378841 20.8895
14.175211 13.615216 21.036934
11.789755 20.848106 21.065023
13.166414 10.531932 21.252804
17.508083 5.8693027 21.55608
8.0392389 16.371517 21.600416
7.8768539 18.209902 21.702427
10.913234 13.974568 21.875189
17.721481 17.127106 21.824291
12.373785 21.098213 21.959528
10.041119 9.6503162 22.387678
9.0990362 4.9970584 22.438911
15.740665 3.7390265 22.841131
8.5311127 6.7675328 23.099939
15.55907 15.316914 23.022884
15.052868 15.647787 23.06922
17.571318 16.688126 23.030811
17.103329 8.281004 23.353825
16.26841 15.50915 23.476141
12.131144 16.188126 23.495001
16.209877 19.929279 23.572294
11.416531 16.119373 23.61388
11.016059 19.043629 23.691792
9.3875418 15.669436 23.773632
16.451199 16.68465 23.773544
11.258092 9.9203243 23.992599
16.624884 18.758993 24.096836
12.954885 4.0609131 24.134571
9.8191786 18.832817 24.10014
9.8465996 9.4343519 24.292414
15.30821 19.962578 24.230284
14.182885 14.05158 24.438108
12.67243 14.172092 24.400944
14.343477 4.1831536 24.840141
13.074087 9.6840477 24.865562
9.6707439 19.224386 24.938124
16.458284 6.9825339 25.084984
12.010121 4.3895411 25.139217
11.78256 14.893824 25.172821
14.233421 20.443653 25.17149
16.263794 17.748919 25.279409
10.896836 8.4504929 25.33144
9.7657557 14.636972 25.333679
11.760795 20.405121 25.302973
13.403443 9.1440287 25.453598
11.190182 18.9419 25.425037
8.1711178 16.814955 25.561926
10.817307 16.418486 25.663111
16.262245 8.9824543 25.971512
15.831835 14.115573 25.93115
15.539787 4.558208 26.013056
14.890399 14.006578 26.008419
10.725062 4.5163674 26.125469
12.031872 6.5723872 26.12331
8.6925373 15.482848 26.173359
12.350277 6.7104001 26.211855
12.596247 17.285049 26.244255
16.487251 4.6397014 26.332979
12.940869 2.432415 26.4095
16.655954 19.597721 26.513668
12.688406 2.4537022 26.661232
13.232296 3.7318187 26.70171
12.49505 14.113152 26.799303
14.074883 20.983631 26.727312
10.082345 3.3201382 26.863287
9.932847 9.8873549 26.99206
8.4104214 15.989838 26.927547
16.899206 4.6418905 27.54731
8.5385313 18.366657 27.599394
12.951597 20.475273 27.539562
9.4177666 21.189919 27.81687
11.565798 3.3029873 27.988939
16.482922 15.266644 27.964872
16.815067 17.155014 28.032223
8.7896252 18.845129 28.27977
11.517359 20.301449 28.252096
8.4385929 20.178263 28.399832
12.325493 0.80198461 28.497311
10.843923 1.0376807 28.441133
9.4296389 21.179338 28.470821
7.8665738 7.3614521 28.681587
16.554022 8.9565954 28.600512
14.018858 3.4100397 28.706921
15.782643 19.572582 28.782049
14.707651 10.18788 28.979973
15.64147 19.81435 29.067951
12.664094 20.387419 29.167715
11.17901 2.6920586 29.285973
10.357603 14.070866 29.202099
14.460978 21.739784 29.243797
14.347271 24.172215 29.363749
15.848635 4.1720781 29.488756
10.728855 10.527492 29.475863
15.080356 4.0848551 29.630516
10.281263 3.4585845 29.746399
16.387609 4.7265396 29.704639
13.568999 3.7907987 29.864859
8.166481 8.4270191 29.902544
8.3588629 8.988142 30.104362
9.1554298 19.844633 30.170151
13.168536 21.603302 30.195793
9.7209167 21.413448 30.230742
14.321159 13.292434 30.382442
14.452528 23.19231 30.416084
14.675095 2.8717577 30.582693
16.521681 4.8760304 30.507359
9.613678 10.471941 30.598454
14.843863 10.845205 30.545811
12.812887 11.310667 30.506645
11.357969 13.054679 30.62435
16.590525 18.807144 30.76008
10.878274 2.755342 30.836992
8.1123867 19.782627 30.973291
13.134985 2.7433581 31.021709
11.262327 3.8389244 31.01511
17.33128 6.5445404 31.094147
13.124742 11.421639 31.019489
13.531315 11.411977 31.052654
9.0638371 20.719172 31.067394
10.363022 21.46427 31.079655
13.904265 3.7720342 31.142372
17.402908 8.4571581 31.19978
10.268814 13.240537 31.114956
17.297787 15.510541 31.154976
13.258997 20.583097 31.165199
16.01412 4.3682947 31.237141
9.0155735 10.323168 31.216953
11.219275 12.903615 31.336269
9.1394615 3.4857941 31.498903
14.472162 22.825592 31.406635
7.7425346 6.5016742 31.596964
13.665421 0.3512907 31.67741
14.308211 3.7034857 31.622194
15.144677 4.0392599 31.878616
17.678963 8.1541042 31.841152
16.439165 10.230732 31.825897
9.1712427 19.684317 31.86718
12.306424 20.760742 31.803478
8.7296181 19.347021 31.912907
8.2910032 19.930141 31.917988
7.6206951 6.7410421 32.05949
14.689678 11.29357 32.040398
9.7929506 4.1339159 32.175674
8.23172 11.884376 32.195652
17.917828 11.846439 32.116329
11.126306 12.814368 32.16444
9.7188377 20.10207 32.157036
13.916035 3.0257096 32.246216
13.317614 3.4813402 32.234535
8.1065254 9.5322657 32.336929
7.6254296 6.5689096 32.421234
12.644784 11.418974 32.412182
8.3495607 19.032585 32.451626
14.498491 22.070271 32.408974
13.30687 3.7881289 32.622772
6.9448986 10.474525 32.66832
13.678143 10.610476 32.679615
11.338293 11.435554 32.677811
14.611513 12.413281 32.685707
13.058072 20.857355 32.668709
12.825781 12.606028 32.725441
8.3662567 14.328271 32.846424
12.724273 21.216782 32.831139
11.485945 11.592856 32.926376
7.4421291 7.7245731 33.056534
16.699585 19.389788 33.052986
9.0567093 19.765642 33.057629
10.632413 20.49341 33.075806
14.580067 9.718338 33.166641
16.960741 10.04376 33.14465
10.063847 20.429541 33.144737
7.0570822 9.7713833 33.264832
10.26784 11.092712 33.203117
16.879812 14.319972 33.274124
14.282437 21.290365 33.234261
11.016747 3.0900116 33.321133
7.4549704 17.492697 33.323933
17.244133 18.613853 33.397797
8.3175087 5.0872884 33.489182
12.631859 9.9414177 33.508575
7.2840991 10.532112 33.673271
9.6314545 10.773486 33.635563
11.501415 11.58086 33.651787
11.900774 11.617947 33.603661
18.367485 13.359713 33.601608
7.4776573 7.7894516 33.796101
13.277122 9.394043 33.779686
17.534529 9.7459049 33.727329
14.53015 2.9835455 33.843323
7.4903307 8.2578621 33.858738
8.6902752 10.214363 33.863304
10.551959 21.162962 33.880783
10.677498 0.67870575 33.970535
10.071172 3.9686632 33.98951
17.395622 18.281658 33.902336
10.478188 3.1595812 34.079632
17.222454 14.945896 34.018883
17.577812 7.9583788 34.178917
17.667715 8.1959152 34.142242
13.254128 11.616923 34.142788
9.8491411 3.9188018 34.284279
15.098787 3.9708738 34.201046
9.3908224 10.680843 34.241814
16.189703 17.485153 34.265137
9.7518482 21.128595 34.376396
12.816714 3.4772661 34.41967
10.642447 3.7991948 34.469238
10.709943 3.7737679 34.490158
16.723982 9.8651037 34.413593
7.9775162 10.293065 34.455635
14.589966 11.24406 34.463039
18.496319 14.052402 34.427773
17.700615 16.350849 34.452301
10.860917 20.370564 34.479694
10.355783 21.101439 34.419441
10.291816 2.7448277 34.555038
15.512298 5.5407119 34.520885
12.113143 3.2401435 34.673046
10.711117 3.7918861 34.613346
9.2229042 10.511213 34.622417
17.70734 16.902962 34.608978
17.534546 17.742086 34.637863
14.769687 4.9343624 34.774696
14.322898 5.6592388 34.784447
17.878014 13.900908 34.748806
17.065014 18.655079 34.716915
13.264187 21.044239 34.765553
15.502133 4.8332353 34.843971
18.241192 9.095295 34.834843
10.036465 14.406747 34.823956
11.93902 3.621119 34.996643
6.7233834 9.2445774 34.996574
17.706844 9.8837452 34.947239
14.545425 20.273434 34.988976
9.9198122 13.518774 35.094467
7.8684874 17.545284 35.187424
13.387179 20.627775 35.172985
9.075285 10.123569 35.230087
18.908077 10.112581 35.26799
11.956608 12.977796 35.262569
10.228024 13.443908 35.201218
11.860021 20.616285 35.265877
14.057476 3.8325887 35.366806
17.97279 13.161318 35.345196
17.050362 15.245294 35.32848
14.166735 3.2712908 35.451012
15.764971 13.913918 35.439911
11.108644 16.818737 35.408253
11.991541 23.621859 35.443233
11.666247 3.3245637 35.572121
13.361343 3.3475373 35.571838
10.279678 7.4212818 35.54599
16.924711 5.9943252 35.614349
10.577463 18.257442 35.603577
16.4678 18.342371 35.629929
11.952908 3.8423753 35.712757
14.664944 4.1189985 35.733772
8.3992071 5.892735 35.756939
9.4025736 6.4227657 35.789959
7.9090371 12.190403 35.763184
17.812389 12.718523 35.767956
10.780379 20.192738 35.732117
16.291075 5.305923 35.864723
8.1756172 8.1829615 35.886555
12.328402 13.149282 35.847942
14.231171 18.995815 35.847794
10.539603 3.3487008 35.998909
18.551424 10.452346 35.97876
7.9133253 10.848042 35.95488
7.8211336 11.197247 35.955215
17.202291 16.489662 36.013924
10.054151 20.244724 36.09613
10.373235 20.97649 36.056709
7.3145666 8.608345 36.135147
7.7266874 10.950745 36.119568
18.087475 11.89441 36.291706
8.4957771 6.6837754 36.48848
18.016766 12.011623 36.46463
14.144222 19.193544 36.488358
15.399441 20.867092 36.404858
14.567406 21.237211 36.443195
15.833351 5.0110235 36.590553
11.044468 0.71474433 36.693867
15.060724 4.2090898 36.607849
6.7383962 12.121035 36.602791
11.007064 23.620697 36.660019
15.61978 4.9115877 36.718536
7.910593 9.079978 36.756836
8.6385098 17.455166 36.763119
16.55928 17.76791 36.801556
11.678761 4.2927361 36.968369
13.029357 4.2483006 37.015907
14.357483 4.3171577 37.073708
7.1108327 14.832006 37.060654
8.8372021 17.516788 37.083267
15.591814 18.833784 37.02961
13.18528 10.414153 37.110241
14.216427 14.074925 37.111523
11.792009 19.753965 37.180672
11.168297 20.874092 37.123337
10.296709 0.93473393 37.220901
11.511602 3.4783497 37.252621
9.4280872 4.7448206 37.294395
19.106464 13.672772 37.286629
12.011247 23.57406 37.23085
12.725881 4.3761015 37.396366
9.2321939 6.475955 37.36697
19.042408 13.029807 37.55727
17.738129 14.424524 37.567577
15.641638 18.175007 37.503277
15.254591 9.0622711 37.600525
15.609973 8.124404 37.765675
13.491674 14.400779 37.729916
11.344234 14.642458 37.796585
17.751154 7.8953323 37.887081
18.71911 15.113681 37.892807
8.1991186 13.783149 37.965439
7.1803021 15.019264 37.97504
9.8748341 7.5379009 38.011505
17.851234 12.046306 38.051254
7.0303984 12.72868 38.042664
8.5132809 5.6890221 38.271
14.507882 7.2148128 38.271
14.657169 7.2889457 38.271
12.862382 7.5232358 38.271
12.339162 8.2078953 38.271
11.31517 9.0761194 38.29855
8.3268175 9.394619 38.271
11.760695 10.636921 38.271
17.102247 11.575626 38.271
7.7753458 11.737959 38.271
12.998846 11.850557 38.271
16.238359 12.128497 38.271
18.155102 12.128809 38.271
15.78093 12.413239 38.271
17.30917 12.45706 38.271
9.7780485 12.557496 38.271
14.489266 12.567541 38.271
14.407443 12.662552 38.271
17.12784 12.614723 38.271
7.3764067 12.862501 38.271
10.24398 13.654148 38.271
15.475464 13.631054 38.271
12.592243 13.771652 38.271
11.105757 13.852468 38.271
10.609887 14.832033 38.271
8.1428432 15.168701 38.271
11.243855 15.541202 38.271
12.54789 15.67021 38.271
7.9170809 15.781166 38.271
8.4932461 15.934677 38.271
8.6609287 16.492628 38.271
11.294134 17.047962 38.270996
9.2340517 17.134041 38.271
9.0431089 17.211336 38.271004
10.270563 17.302208 38.269585
12.297999 17.464378 38.271004
13.836985 17.685223 38.271
11.63172 18.017479 38.271
11.690451 18.645676 38.28463
13.065121 18.882492 38.271
7.3545604 6.2777963 38.329845
14.544975 6.5036602 38.376289
8.2408237 8.6065798 38.305733
14.95854 20.209475 38.354561
14.902599 4.8962574 38.489426
17.880758 8.6809816 38.470821
14.308708 4.8689151 38.591805
11.055301 6.5616426 38.501511
17.669077 8.8028412 38.500847
18.453602 12.962418 38.538792
12.822535 4.3767686 38.627495
14.867657 4.8736048 38.693184
12.924706 6.1979151 38.642548
12.160694 4.0862017 38.785088
14.131188 7.8647804 38.702881
17.78142 11.45289 38.736858
18.500401 11.892278 38.770378
11.807018 15.990205 38.754494
11.703414 16.02692 38.73333
7.9146366 10.956518 38.880135
11.724068 4.9161201 38.96191
12.741333 16.484482 38.928261
18.408472 10.664526 39.026962
12.845744 19.627068 39.012203
17.939266 15.041055 39.114548
6.8578525 15.563046 39.116299
6.564281 10.2851 39.225246
18.268446 14.03511 39.323448
14.018534 3.9211493 39.462215
6.8701696 15.600406 39.470833
15.059864 4.9982123 39.562973
17.703674 12.31082 39.500351
7.0924058 16.274464 39.514839
17.321306 7.5096874 39.654259
8.0450945 10.288934 39.669434
17.926193 15.078235 39.787518
7.3486514 17.05167 39.744827
16.835667 6.6979818 40.04509
8.8949976 4.7770519 40.174751
8.8092537 6.94345 40.104706
14.41144 4.4424009 40.203217
8.1173325 5.2199364 40.252457
17.06369 7.0364389 40.258904
17.386475 8.5085106 40.239124
18.337124 10.251198 40.395485
15.446866 17.935808 40.397366
8.7495937 18.942801 40.309212
16.419079 6.1502109 40.457649
18.277126 9.903614 40.428768
17.622919 8.0637589 40.501297
16.271231 5.9558086 40.674179
6.9007249 7.6542983 40.664696
18.274914 9.8907919 40.67429
9.0173645 6.4333787 40.853867
8.4239216 18.888397 40.826351
12.067521 4.2470722 40.914806
6.4701843 10.199087 40.911221
7.080297 10.208423 40.937626
7.4973078 12.090021 40.966209
6.8955555 16.199043 40.931877
12.399738 17.82716 40.999367
13.740398 4.5758047 41.026897
10.847398 5.1224933 41.026901
11.236391 5.204917 41.026901
11.888588 5.7615461 41.095627
10.474108 5.8238373 41.026901
13.071743 5.9773974 41.026901
12.5594 6.3275294 41.026901
8.1260834 6.4794102 41.052418
10.781992 7.0567102 41.026901
14.582348 7.4606962 41.026901
8.9913464 8.4748869 41.026901
13.228039 8.4840899 41.026901
10.558506 8.7218771 41.026901
17.237673 8.7832146 41.026901
15.982096 8.8378115 41.026901
16.939358 9.5117121 41.026901
10.706461 10.020635 41.026901
13.164051 10.233607 41.026901
16.291061 10.298269 41.026901
9.198658 10.388126 41.026901
13.452608 11.398981 41.026901
7.5112772 12.24115 41.026901
7.6226377 12.468346 41.063778
14.79767 12.585125 41.026901
10.187167 12.637918 41.026901
15.746282 12.916759 41.026901
13.630768 13.05366 41.026901
8.4401894 14.32464 41.098995
9.1592436 16.502226 41.026901
16.726175 16.843739 41.026901
11.520752 17.134916 41.026901
12.637386 17.300121 41.026901
8.5991888 18.395138 41.026901
13.605929 18.359745 41.026901
8.0396137 11.115352 41.101292
16.580215 11.188431 41.220551
15.856346 14.635137 41.244232
7.6325483 5.5284081 41.363461
8.8107433 7.6518588 41.388054
8.2805243 10.276176 41.385857
7.8029385 11.273652 41.337318
8.1731358 8.0210361 41.483047
4.9995232 9.4585171 41.467056
8.9368172 11.830465 41.4711
16.418125 15.681464 41.40448
8.4146566 9.6111107 41.563103
16.182236 11.394051 41.672157
7.1914859 4.8625054 41.77087
16.468809 10.932823 41.733982
6.9211383 13.031777 41.74297
4.9713736 13.658953 41.76638
12.334908 13.658013 41.789471
10.507602 6.3190141 41.8759
9.1288681 10.039372 41.869041
7.9795437 10.599447 41.881836
6.3328147 12.990191 41.822548
7.8851986 13.457179 41.875603
12.485678 13.47237 41.8036
10.792845 18.77066 41.895199
6.8380456 5.8659778 41.989731
9.2229061 8.2628431 41.941814
10.702921 18.349962 41.925846
10.41106 5.61725 42.037308
15.796902 5.9735889 42.016682
14.543607 6.7139068 42.06097
14.68106 13.437939 42.009293
7.4706202 13.628183 42.037861
14.691936 16.140282 42.010311
14.808544 17.428476 42.069199
8.0172014 6.7419591 42.126389
8.2953444 15.17403 42.196045
7.4397645 15.358981 42.164761
6.320416 11.975033 42.229885
14.90509 18.43671 42.245701
12.072923 5.3506036 42.339149
9.311636 6.2365227 42.377251
5.3196635 9.8732262 42.329975
7.9193373 10.964993 42.390419
12.007326 17.51758 42.301777
15.327946 5.8237414 42.447834
7.2228718 8.2916212 42.463875
6.8799152 13.895063 42.41468
8.4785652 16.998415 42.481628
13.834464 5.6956549 42.527321
6.341475 6.3596992 42.572811
9.7120819 10.118896 42.56028
7.8446636 10.685749 42.506874
7.8467984 11.788225 42.515343
6.768672 13.450976 42.564445
10.095968 17.963169 42.592209
6.5489268 10.49181 42.621933
12.747035 5.9667459 42.72924
8.3172894 9.9854116 42.750481
11.276369 6.1082878 42.807388
7.1584067 8.6438198 42.834347
8.0842524 15.08097 42.893753
10.174369 17.187159 42.875465
11.066048 7.325078 42.999287
10.931791 8.9936085 42.915474
6.9247565 9.5259199 42.997314
6.4134645 11.978042 42.996735
10.019411 0.29091012 43.020393
11.220753 8.5802841 43.084099
6.9528303 9.4405203 43.039314
7.983952 10.006623 43.059803
8.1509457 17.628355 43.060791
15.620874 17.719471 43.01572
10.409545 18.137983 43.073311
9.3920755 0.52582121 43.123562
9.9354839 17.850489 43.174179
-4.2048154 -3.1097119 43.252678
9.8097687 -0.0022032261 43.208424
7.1971416 8.6315193 43.207951
8.2681789 9.4964504 43.294239
7.909091 12.068745 43.252533
8.2445145 5.7233543 43.389469
7.0331249 10.340143 43.327332
14.200398 17.532234 43.367828
6.4146481 5.0768065 43.442646
9.3237686 5.1999788 43.49855
13.00469 6.2807856 43.432076
6.4916568 12.079185 43.42205
7.0333757 14.105431 43.411629
7.6026263 19.295456 43.455189
7.0836453 0.69496971 43.570011
11.810682 16.931047 43.54034
12.238122 18.731812 43.523605
11.372863 -1.5993211 43.676826
13.366265 5.8924589 43.69902
8.0514669 5.9642859 43.604454
6.8626008 6.1491475 43.693871
14.491603 6.1366777 43.605606
10.555711 19.166193 43.668091
9.0958252 6.3983269 43.748306
7.3938227 15.270712 43.74509
8.3025961 -0.68494534 43.85585
13.192604 18.832743 43.800179
-1.4576313 3.1574731 43.984116
17.277933 7.4114242 43.912659
15.633311 17.238522 43.975426
10.60038 18.226475 43.900269
7.5028381 7.8294611 44.047737
12.868299 8.540513 44.036957
4.6733246 9.6609783 44.089478
8.2435493 13.48531 44.090313
8.0444994 16.755005 44.028351
-1.3305326 2.5725565 44.151558
8.2477512 13.216671 44.106995
8.5846834 17.771519 44.162033
6.2917795 12.952258 44.262253
8.9174919 17.493034 44.252167
-4.2630882 -3.5423055 44.381104
14.254021 16.837967 44.34586
8.9130697 -0.2307584 44.463238
16.446236 6.1628437 44.447372
18.163744 11.733469 44.49247
7.5954061 15.15131 44.435665
-1.3588502 2.3475196 44.528885
-0.67314339 4.0641251 44.563103
9.9981995 8.2903233 44.579586
7.8938341 9.8204908 44.536732
15.279984 5.0239334 44.613785
8.8828554 5.5158157 44.6334
16.038607 6.4292417 44.664288
8.3733835 6.6429729 44.66074
17.814077 7.9380813 44.780087
8.4029341 10.896109 44.723011
10.891043 17.271049 44.759819
8.4467793 13.195953 44.897064
10.342878 18.041021 44.887997
-1.5026705 2.4341691 44.933575
11.100562 4.8811526 44.965992
8.4494066 11.078025 44.907486
10.743423 17.370523 44.934898
8.8692474 -2.0494075 45.060272
6.9280252 2.790735 45.002396
14.064211 4.5063415 45.083946
16.05732 6.6394458 45.087215
4.2560768 1.8217506 45.144192
8.2292366 6.7334304 45.153488
14.80728 7.3672295 45.162533
6.8167887 10.980829 45.190548
12.912519 17.492939 45.13401
11.634563 2.5711024 45.222267
6.8355789 12.70293 45.292751
8.5234241 13.333202 45.201324
4.8314581 14.608325 45.270031
15.9547 17.485706 45.229179
5.564548 2.6282754 45.326378
8.2870855 6.1318631 45.310623
6.8939457 12.952531 45.383446
5.5517664 13.116258 45.337807
13.673812 17.484484 45.352989
-5.5469217 -8.928298 45.449223
12.512611 0.17435373 45.489098
2.0049109 1.2123662 45.42054
12.033669 2.0499482 45.414642
6.5117421 3.1520054 45.412704
14.473507 5.9039121 45.469284
8.5781422 10.723227 45.418526
7.2376595 14.152223 45.436615
14.890666 18.70697 45.415539
0.83483148 0.58701456 45.552479
7.6191559 7.9270372 45.571999
-6.5468545 -8.5534849 45.69482
-4.2418661 -4.0046368 45.666008
11.53495 -1.9201947 45.629925
10.557981 -0.4580189 45.697647
2.3211498 -0.0079252422 45.621792
0.76622313 0.47686198 45.618652
2.3257179 1.6716554 45.663437
-1.1822177 2.800791 45.619408
6.0967498 10.447151 45.610168
7.5985122 15.371256 45.613579
16.02919 17.453777 45.692081
10.394186 3.5646024 45.727249
7.641511 6.4825773 45.773994
8.6713276 13.934058 45.788452
3.105787 -0.74418759 45.815926
-1.7388798 2.6804495 45.872456
9.4691563 3.3406267 45.81768
6.9447441 12.169468 45.886539
9.9113655 6.0159636 45.992134
16.216446 9.0271511 45.978523
7.7278728 15.716702 45.950966
11.423525 17.465929 45.984547
9.7644672 -2.2651715 46.035778
14.083263 6.82971 46.07597
13.617127 6.9094009 46.001678
7.8757753 10.222414 46.056377
6.9730062 10.441387 46.040268
18.535769 12.361285 46.082329
10.686665 -1.4589715 46.178555
0.27888724 -0.3705065 46.110146
9.3777523 0.084668338 46.103558
9.1300583 1.1565496 46.130817
16.561646 12.0832 46.177971
6.6102962 -1.8142519 46.267387
10.250639 3.2570376 46.23843
15.803553 6.9442062 46.255558
16.599834 10.6187 46.200039
16.672276 15.409174 46.24189
6.4500065 17.248363 46.22662
9.5920515 17.725431 46.272121
0.29047683 -0.15333417 46.333389
-0.92460728 0.82937646 46.326832
12.668177 4.7654467 46.353241
5.2853556 10.093319 46.339825
6.966289 12.158401 46.369797
11.789167 18.496071 46.35165
-5.9837847 -8.7243099 46.40065
-6.098918 -8.5006905 46.476715
13.362309 4.6826854 46.425056
15.9175 9.0575953 46.429466
15.926274 9.4489012 46.499603
17.041704 10.172272 46.455334
11.174759 18.410389 46.445606
-5.7050953 -8.2637587 46.540123
9.4106998 -2.3365989 46.511765
8.8537483 7.2121358 46.512615
17.266193 8.8734779 46.585041
17.149502 13.359522 46.517616
17.662596 15.942731 46.500717
-2.3692889 0.91684771 46.680408
-1.9529754 1.0895513 46.657982
0.37686369 2.1331544 46.643459
7.1438942 13.57048 46.668594
16.415684 17.102898 46.659744
-7.6066113 -11.846648 46.727772
-6.314043 -8.0557365 46.731396
11.242636 17.438585 46.79446
-5.8746328 -9.6632662 46.895741
0.16631316 -0.34119982 46.858814
13.790422 4.9052215 46.849937
17.779394 10.666408 46.887745
-0.39939702 5.3375854 46.91687
17.926594 9.1107569 46.995636
15.45895 18.241318 46.99987
10.33106 3.3209224 47.080875
4.9075418 9.952981 47.092995
7.4866695 14.817078 47.068977
14.44971 16.819309 47.060726
-6.4779654 -10.910615 47.114594
4.7386389 -1.5833404 47.144073
8.8299685 -0.17866163 47.195488
-0.12630215 2.0030017 47.168648
0.10421121 4.9889622 47.111023
10.742123 5.9794645 47.119926
14.747368 6.6116924 47.182243
6.5853019 11.102058 47.116882
-3.6422293 -0.64386302 47.240326
12.176842 3.4977202 47.260029
18.28223 7.8854547 47.25631
6.6330848 13.006055 47.288071
18.256065 14.13562 47.237137
14.807593 16.766787 47.209835
5.2225304 17.007454 47.25193
7.0121794 17.087574 47.240654
-6.1304626 -7.5783653 47.341484
-0.012477867 1.430396 47.364555
11.737217 5.9646358 47.367561
13.218437 5.9676809 47.38221
18.434235 7.1690092 47.367729
16.020741 12.564613 47.30822
-4.9347749 -7.7644529 47.433899
8.9635334 -2.4437978 47.430069
8.9208241 -2.3763587 47.481522
-1.8932635 2.8869166 47.428375
8.3265896 3.9750528 47.429276
12.76244 5.284543 47.405479
9.5314245 5.7411819 47.420788
8.7682371 5.9910288 47.409508
18.554653 11.650253 47.455994
15.987 14.542278 47.407722
18.578136 15.815127 47.473206
10.010628 20.075388 47.446411
-5.922143 -6.0736675 47.567104
-3.4994283 -0.70281291 47.596275
3.4841568 2.353101 47.598362
10.209269 5.9670229 47.51284
9.4003458 18.060003 47.552269
-5.168313 -8.556716 47.636436
-3.3100441 -0.85840368 47.696301
3.0525315 2.2665534 47.621002
7.1604486 3.029994 47.675373
15.981983 7.4124155 47.656143
6.5691442 11.759525 47.668839
17.976717 12.692931 47.679596
8.268261 16.22316 47.603653
-5.6993561 -9.5904579 47.747826
15.423304 -0.77183378 47.781036
13.267304 3.0238035 47.752846
-1.3977498 4.0201793 47.716484
18.940958 12.497722 47.739147
16.930647 17.829908 47.726101
11.367763 18.061615 47.781075
9.8624868 20.32239 47.70163
-3.8340158 -5.4955983 47.823128
-2.1113675 -1.5603774 47.849373
0.58870769 0.92495054 47.850338
-1.7558763 2.615567 47.882141
14.749063 5.1564131 47.858383
13.284123 5.2391758 47.801575
10.094833 5.8647327 47.830513
11.176262 5.870255 47.830616
12.448784 6.0011787 47.823105
8.1364365 7.0164213 47.80677
7.7871528 9.0106401 47.841152
6.9204192 9.8485603 47.809219
9.2064638 17.505615 47.840534
9.4660511 17.546444 47.891754
12.130819 18.109747 47.820152
10.54331 19.187265 47.875999
9.3223724 -0.8666634 47.927357
8.6160192 0.12452633 47.914124
-0.2388027 0.54309446 47.90213
-2.8239095 1.8162585 47.967049
7.5177732 3.0431435 47.977776
2.7362356 11.274178 47.956692
9.3515348 13.756611 47.929695
9.4229078 14.172682 47.973553
4.4463053 14.891356 47.987122
4.7289314 15.939753 47.929161
15.357838 16.867701 47.942387
18.31167 17.328852 47.996101
13.564113 17.541489 47.924351
-6.3812404 -8.6782627 48.004089
13.435551 -1.8129728 48.02486
-0.58083671 -0.26668644 48.084412
14.252041 1.1852528 48.045357
7.2522507 9.0480633 48.018227
19.379099 13.239404 48.060295
6.7597065 13.49454 48.089111
12.620041 17.406591 48.021172
10.180891 19.791552 48.061928
-3.3091428 -4.6323576 48.130119
7.6111898 -1.5933084 48.121513
14.105787 0.36113676 48.155659
-2.0054469 1.114718 48.152309
0.094121367 5.0082874 48.114254
9.7598696 9.4467573 48.180641
9.7142563 10.833016 48.152611
7.120326 13.949649 48.165443
16.041256 15.113614 48.199684
12.047747 5.0837111 48.216625
1.0599165 9.8450546 48.228893
6.0737667 12.927798 48.260193
-6.3346171 -9.4691868 48.398075
-2.2991195 -2.1908991 48.38131
13.903646 -1.8195909 48.340515
0.2400343 0.20851891 48.374687
8.8559437 2.314013 48.30677
7.5514107 2.8857141 48.357941
10.510803 3.5237896 48.338234
18.442402 5.8730216 48.343899
0.61422479 9.7734747 48.35754
1.2220396 9.7221355 48.334301
6.6023827 5.1264472 48.421059
10.408424 5.450263 48.416672
0.94330603 10.96819 48.449478
6.8558683 13.940131 48.438232
13.830284 17.310173 48.493553
13.206182 17.790445 48.486603
15.822743 18.535364 48.433128
12.48311 -1.7519774 48.55085
9.0883179 1.6194687 48.556271
20.06459 11.175852 48.562744
19.989902 14.808663 48.508003
20.066698 15.856321 48.564289
-2.3915358 -2.1391926 48.633255
-2.013962 -1.341482 48.657406
7.8176303 -0.93267947 48.646675
-2.2724156 -0.58679438 48.622406
-0.98070937 4.5313039 48.659161
10.444006 13.40172 48.601097
19.08259 17.375843 48.600712
-5.6825104 -9.7573309 48.716866
-0.75047839 -1.1600991 48.773579
-2.4223933 -1.0938092 48.746895
-0.45337325 2.9277549 48.717934
14.095021 18.637194 48.749039
-4.8204365 -8.2584677 48.87146
13.885607 4.7052121 48.852291
10.36792 17.99008 48.888397
-5.584939 -6.6180191 48.930923
-1.2036383 -1.4838325 48.903217
1.4887244 0.4972344 48.903877
0.5176636 1.0739677 48.928905
8.3339195 6.7704067 48.971672
1.0609618 8.379775 48.971489
7.7147303 10.289673 48.901417
16.150284 10.573414 48.972244
11.062473 15.377399 48.981201
10.065449 18.0196 48.974037
1.3142442 0.18751018 49.097202
5.2580528 6.5308867 49.096535
7.5883131 8.0301971 49.034729
20.400581 12.950714 49.041809
16.152111 13.039452 49.054321
1.9872406 13.116251 49.046642
11.104068 14.705718 49.006763
15.180793 18.802452 49.031235
10.665039 18.984402 49.050327
-5.0223989 -8.654665 49.181808
-2.1160138 -2.5128248 49.109791
8.1484222 7.0900021 49.164047
2.9724736 12.378475 49.109612
2.1525049 12.501567 49.165455
20.211895 16.744213 49.15134
6.7054801 18.861374 49.117146
13.278966 18.821037 49.190262
16.159216 6.8820629 49.281433
5.9419432 17.314854 49.298439
10.553766 19.16995 49.253181
-5.7881908 -9.5365734 49.30117
-4.2981558 -3.4545219 49.327332
-3.886461 -2.3893569 49.360115
-3.8725421 -0.36758733 49.383759
-0.58315265 5.7594061 49.332001
0.19732644 6.8651757 49.369755
9.3565092 8.6928797 49.338631
7.0629921 9.2659883 49.340099
5.8000603 17.34936 49.349842
-2.8170981 -4.2054887 49.475819
10.113887 -0.80091512 49.493645
-1.4291956 1.0788481 49.4156
13.669635 5.7731409 49.463524
8.023159 7.7028637 49.401283
10.208382 -0.81027365 49.533348
9.6240196 -0.39039665 49.598469
-0.40596169 6.0624361 49.596275
1.1168475 8.2876272 49.535454
16.204006 12.534185 49.563278
5.2641644 13.104783 49.561974
20.747646 13.839272 49.506271
1.8397418 14.083797 49.59536
-4.2240496 -7.0761862 49.648346
-3.0457556 0.53955078 49.683601
14.151658 2.6983385 49.686295
11.005053 5.040081 49.694633
1.1287372 7.7007132 49.608639
7.649539 7.8769641 49.688431
1.8963408 14.880862 49.647713
-5.8338213 -8.427989 49.760532
14.588366 -1.3286526 49.744659
-1.7031183 2.6022649 49.73056
12.895689 5.5416694 49.76918
-0.17004684 9.3146954 49.788734
10.69096 3.7052884 49.825783
12.636343 4.2498221 49.884628
19.198904 6.4517765 49.834137
2.2836139 19.591404 49.875896
10.919447 -1.7927042 49.934879
1.6988436 7.1163735 49.92057
1.0759602 9.4692879 49.985222
14.983852 17.59704 49.978115
6.8284874 18.965588 49.963581
9.8456173 20.350641 49.97324
-4.5686541 -4.5872464 50.040405
14.043205 0.56886101 50.049305
-0.63911271 0.80696917 50.029831
8.1238298 6.5371346 50.029747
16.247538 10.89509 50.089222
2.9951272 11.954688 50.099041
7.7572851 13.272697 50.028488
19.007166 13.864806 50.066303
11.711685 16.182352 50.014648
0.59823853 6.5945673 50.106041
16.255486 10.709118 50.164246
4.5554476 15.016561 50.138226
4.8446331 15.241716 50.169838
20.786409 15.364132 50.107613
16.25432 15.866482 50.153557
10.331322 16.268274 50.104279
13.012233 16.723221 50.179489
4.492177 18.765781 50.10006
16.264864 12.640408 50.250252
6.9619179 14.363161 50.289158
13.05875 17.42548 50.208076
7.56949 23.683464 50.279118
5.9031272 23.907051 50.270439
6.4981213 24.114523 50.212326
-0.6200844 0.90686071 50.327637
16.705505 3.9314568 50.324966
20.004848 6.366138 50.345505
18.346945 6.6751418 50.384335
8.2574749 7.3678713 50.376007
9.4389458 12.33407 50.354542
7.4987926 23.655691 50.325306
-3.8437238 -5.6906285 50.47773
15.928492 4.0874715 50.479729
16.634396 4.4348087 50.444649
17.359772 4.8834038 50.496593
8.6419144 6.0761499 50.423428
8.4291868 6.8849273 50.415592
16.290756 6.8477545 50.487705
19.956785 17.057823 50.460213
5.8193636 24.472042 50.416656
16.864426 4.9706779 50.541019
18.3745 8.0029678 50.592239
9.4584589 16.484947 50.538147
8.8365965 17.480661 50.553432
13.729203 19.060116 50.550571
15.782743 19.226505 50.505108
-4.8191304 -7.1949611 50.651665
-4.5131588 -5.9889507 50.645977
10.874501 4.4435563 50.600994
15.102663 4.4724445 50.62326
9.7044201 4.8223438 50.663673
16.511047 8.1488972 50.687965
16.727081 8.2087612 50.676865
6.4804649 10.80002 50.698345
1.3180451 12.104249 50.606869
16.853716 12.756464 50.670361
17.034163 13.198168 50.661095
18.379084 16.123163 50.619141
17.179247 16.47324 50.653641
16.543268 17.74415 50.686306
12.369789 17.970753 50.647171
10.571403 19.140602 50.655735
5.6682553 19.258791 50.651863
11.257807 19.294296 50.653034
14.7238 1.4325266 50.791119
14.185444 3.8097186 50.715958
-0.32453564 8.3545208 50.761536
7.02742 8.7637005 50.752232
0.90792614 11.442081 50.784435
9.7229261 15.679272 50.790428
13.465114 17.754921 50.751434
4.9704208 22.392637 50.785999
2.1388123 22.909508 50.76284
-3.6893287 -3.893209 50.832352
-0.85542679 0.77420938 50.887894
-0.56650478 1.2716161 50.821663
9.988574 5.3719277 50.854542
2.3847504 9.2196102 50.857063
20.833572 10.697242 50.839394
-2.9531002 -0.86651921 50.916302
16.614792 1.6804669 50.971119
12.271292 3.74261 50.959396
8.6328897 6.1574888 50.941284
6.4737267 13.616941 50.928516
12.727261 4.3988361 51.011482
20.850317 11.814915 51.099152
20.848904 13.704216 51.077118
16.405188 13.949287 51.04882
18.441502 17.118654 51.07513
10.093825 18.036312 51.006531
10.738144 18.462872 51.08276
11.366782 18.764442 51.047253
12.743525 19.956268 51.033329
1.7519034 22.327639 51.010632
-3.1354606 -2.9412379 51.19416
19.471525 6.0557675 51.19886
9.4405746 7.8496833 51.13921
16.442741 12.594721 51.192791
7.9627457 14.494312 51.145206
9.3309746 15.739653 51.164009
-3.5980222 -4.1486282 51.227253
-2.8243473 -2.6639869 51.237644
-2.4934995 0.15840209 51.247967
14.731789 3.454886 51.251816
12.23703 4.1103206 51.298733
0.65039265 7.5843616 51.250122
20.86076 9.1672258 51.261124
15.438544 20.978004 51.214073
-1.8146956 1.6808074 51.351994
18.456352 10.683111 51.373047
13.36453 21.20808 51.387329
-3.9779508 -6.356492 51.410202
3.1039603 9.814642 51.487137
9.1349792 15.970149 51.445641
6.4309511 21.474009 51.464481
6.2611156 22.405373 51.480442
3.9986393 23.250446 51.428452
10.670068 24.044678 51.442047
-2.4365976 -2.1796498 51.577843
1.4350448 6.3344812 51.574646
2.7779937 11.290444 51.550465
3.3916836 23.259102 51.521454
-2.005724 -1.2347556 51.637573
-2.6839561 -0.66012299 51.694595
8.4483786 16.908485 51.669128
14.381519 22.750071 51.658978
-3.7191896 -5.0148945 51.713791
-3.5203621 -3.373333 51.704121
-2.6648734 -2.2583599 51.725624
15.792808 2.6466601 51.793686
9.0321054 7.5265884 51.789871
20.893829 7.5309162 51.774063
9.3975143 8.4142799 51.726421
6.5514841 8.8012209 51.754688
1.6122723 9.2884951 51.770424
0.86942482 10.226466 51.714832
3.5439601 12.512035 51.781029
8.9376869 16.10603 51.768085
-3.8315096 -5.5005684 51.889427
1.0989801 5.3146896 51.850853
3.3790507 12.076681 51.889397
20.800421 13.950243 51.847897
9.5784702 15.506069 51.838669
13.309246 21.575432 51.828598
-1.9416019 -1.6049908 51.990467
6.5795412 11.208263 51.973305
3.8391976 13.235205 51.990108
1.0712925 13.58843 51.923306
20.129112 16.896162 51.975212
5.7322245 19.984793 51.94022
10.872641 20.609951 51.957088
13.990094 21.423794 51.986633
11.642402 -1.4356818 52.067005
4.4453421 14.234508 52.064575
0.5443418 21.556644 52.092411
1.5341936 21.686747 52.059338
9.958909 21.942644 52.006752
10.380951 24.671913 52.084019
6.1756072 25.203596 52.032326
10.259628 2.3827722 52.140125
10.860767 3.6398463 52.193794
8.8377857 16.897501 52.153595
0.81723535 17.513021 52.164436
7.7063265 20.416729 52.165665
12.521238 23.206284 52.103287
-1.3910513 0.60226053 52.249397
12.791845 2.3130217 52.261936
0.73425329 7.149622 52.237553
2.3858564 8.0642996 52.232224
2.7627053 20.123522 52.271103
-3.001807 -2.7004366 52.361294
-2.1397052 -0.8042804 52.377914
9.2964067 6.408206 52.34634
2.4553192 8.4714422 52.367123
16.739929 9.209774 52.332428
7.990386 11.443124 52.363815
9.3293896 15.449811 52.338104
0.99981189 15.961639 52.334843
16.97543 17.806562 52.365475
0.6172812 22.38121 52.303677
8.7399054 22.608173 52.310059
14.405297 22.700781 52.379631
0.92728561 23.965538 52.388378
10.964389 0.51702386 52.434814
-1.6888511 1.4913642 52.456593
9.2724991 10.100515 52.499237
1.5335634 12.425631 52.483421
4.4044528 14.674576 52.430466
5.1791792 23.999628 52.422138
0.86694252 24.031151 52.473186
4.6469917 24.099873 52.416298
8.503973 25.103134 52.434086
-1.8191698 0.36026585 52.58205
1.8622314 12.499063 52.549538
1.0943115 13.632175 52.519318
4.5610366 15.116655 52.584129
15.178387 20.70961 52.521973
8.4013605 22.819901 52.533653
9.244978 25.075171 52.598816
-1.7926093 -0.019887149 52.619728
-1.4052758 0.33636621 52.613716
16.647608 4.0857735 52.624676
9.2547455 7.7040091 52.604996
0.98645747 8.3808317 52.623959
9.2488375 10.469656 52.614037
7.4741292 15.623949 52.600224
6.8460398 20.765785 52.635086
11.917878 -0.017024182 52.721798
18.445503 9.4430323 52.713486
12.725 19.104362 52.775227
1.977069 22.595268 52.70517
2.9676213 23.738663 52.73217
-0.39117685 1.5668838 52.856094
14.029547 5.7431488 52.876175
0.90303791 7.5050859 52.805115
8.0707912 14.338956 52.888657
5.7970424 17.472528 52.824863
17.530603 17.786861 52.844322
5.9810977 18.057737 52.875069
15.347296 20.367527 52.85154
10.835493 23.656193 52.863312
15.467969 -0.63316441 52.902573
11.2948 4.2947712 52.920242
15.348159 24.041935 52.909325
0.86155802 24.152304 52.908627
11.948918 -1.2229769 53.015411
-2.3727241 -1.0732924 53.020454
15.157165 5.4843512 53.00666
9.3434381 5.7332344 53.082428
1.5194205 5.8948483 53.032497
0.99966514 16.834074 53.032761
-1.7110463 0.72537148 53.106674
12.793533 1.8716546 53.160667
-0.90236837 3.1144543 53.13073
0.56848329 7.0860834 53.142464
18.441605 17.056395 53.195168
10.878397 19.372921 53.120018
6.8782492 19.740036 53.157894
7.2481651 19.833185 53.118279
1.775633 21.10936 53.173412
17.195107 3.0088546 53.218521
1.1167222 4.8921566 53.244179
2.8097391 10.051549 53.283859
6.9284682 11.653558 53.278023
20.989237 14.564631 53.254173
6.5532212 19.78302 53.276909
10.92872 19.938351 53.217232
12.124389 24.964457 53.22007
-1.9270241 -0.66022867 53.308609
8.918479 6.7646689 53.366264
8.6282787 9.0813656 53.375809
20.997883 9.5103979 53.388588
14.46235 22.675013 53.379669
14.94091 24.560658 53.38736
14.741453 24.618649 53.392414
17.03298 10.107083 53.455986
2.059629 15.006392 53.476921
10.890238 20.21594 53.407784
-2.9144437 -2.7307222 53.504837
-1.7128487 0.38044983 53.565952
17.375896 2.7997394 53.520313
8.9385872 7.4240451 53.536743
8.6369305 9.54667 53.542442
7.0133648 10.610804 53.598076
2.9732094 14.432254 53.595181
17.060179 16.154167 53.559769
8.447423 25.230659 53.574821
14.400939 -0.98275942 53.682838
16.947943 1.572345 53.640232
-0.73236918 2.8973687 53.663353
2.5556092 8.2442112 53.685329
18.437983 9.9764824 53.642899
8.4757309 15.075569 53.686245
5.2322283 17.584167 53.661903
5.5719514 18.076429 53.653996
11.385733 24.044828 53.634365
3.9166543 24.24614 53.635265
13.557226 -1.1548188 53.797241
-0.488179 1.4287813 53.714172
13.16201 1.4724543 53.751057
10.593464 3.7751131 53.734558
20.820274 7.2348437 53.739998
1.2322142 16.548155 53.755421
0.92157257 18.645473 53.707756
2.3168535 7.5789337 53.839432
4.1541018 12.131046 53.879223
13.347068 0.098443717 53.998894
12.19858 1.9096626 53.981735
8.4475975 8.4322815 53.973408
18.435135 15.185627 53.994461
1.6878066 16.519979 53.911816
7.2460604 20.439095 53.958672
6.4587617 20.846258 53.915844
14.281935 23.765995 53.920319
11.297289 4.8027611 54.082306
8.3625269 15.514984 54.052498
8.0903416 25.302963 54.036537
-1.3879744 -1.2118539 54.134178
21.049156 7.8592944 54.183758
18.433477 8.8696241 54.199738
9.0113564 11.270133 54.113441
4.1817527 14.367102 54.169239
8.2043028 16.204142 54.186901
4.7383575 17.535507 54.161495
6.6089745 19.106506 54.125984
15.734253 24.369537 54.156837
11.466729 2.5453131 54.244061
8.9954758 9.5895386 54.207199
17.231308 14.161374 54.215897
15.836288 19.181822 54.296181
18.034052 3.7503588 54.329678
18.128693 3.7910118 54.300533
21.032627 7.276413 54.354748
3.0473042 11.771214 54.307968
6.0644369 22.198807 54.353909
16.674986 22.157547 54.340012
11.715502 0.50402528 54.440693
10.960604 3.2709506 54.457397
0.67933255 6.4086304 54.458603
3.8834918 11.197843 54.453777
15.252405 12.078642 54.453209
4.6543536 14.23921 54.422108
18.398546 17.750181 54.411766
6.0217819 20.756285 54.477852
20.844425 8.5283651 54.544746
8.4442654 9.7245073 54.564053
13.307457 11.110167 54.58429
2.1380854 22.48119 54.545635
2.0196424 22.676697 54.584984
9.9594698 25.24835 54.598503
8.0143423 7.6036506 54.693893
1.7621005 9.4127731 54.671707
8.5490313 10.377056 54.605415
3.8435094 12.878184 54.639023
5.9709778 21.948172 54.621761
3.0766621 10.181986 54.752956
4.3376732 12.226746 54.742065
13.86898 13.273296 54.736046
1.409482 19.097513 54.782524
10.97779 20.891558 54.741032
1.2287757 21.246706 54.752609
6.1926508 25.086071 54.780609
17.463448 2.4746194 54.819351
1.0287907 5.9467826 54.848633
18.428482 6.6791124 54.817276
9.2741718 8.2673454 54.884098
8.6588211 8.3337164 54.896526
17.430008 9.8931828 54.97821
2.5275345 10.669179 54.928703
8.7466183 9.0490341 55.054062
8.7694798 15.266524 55.075714
3.8165407 17.581625 55.092926
5.7920575 21.661663 55.007545
13.32302 1.2825674 55.13081
-0.78487861 1.4615545 55.188114
0.045102771 2.6833079 55.117481
0.46030575 4.8986835 55.141167
19.039194 14.029938 55.109898
18.425945 14.783403 55.129799
4.5813603 18.636545 55.137379
-0.38056576 2.9011323 55.239662
18.162184 5.8378382 55.238186
1.869859 9.5652905 55.261772
17.508572 12.556053 55.27911
9.5473194 15.076262 55.289185
5.9646263 17.153616 55.213314
15.332773 24.986847 55.252975
15.2436 -0.50820327 55.395794
17.443691 2.5808971 55.354584
0.65166032 6.1178331 55.338821
3.7510362 12.146596 55.365932
9.0685949 16.439032 55.313728
2.6955783 19.394705 55.308643
6.3445463 23.338524 55.360001
9.2880573 6.6273975 55.408916
3.2045019 9.0802345 55.446445
9.656538 9.4883947 55.457851
8.3962135 16.891418 55.489487
6.556251 17.893839 55.432701
18.205688 18.680227 55.484787
17.769045 3.1013069 55.5005
8.3510571 8.1006355 55.525593
9.7216167 12.79277 55.55386
8.799264 14.208641 55.504921
8.3721972 15.765875 55.560101
6.3565292 18.307447 55.572929
9.9554644 23.715244 55.58593
15.80544 -0.29047152 55.69886
-0.05960656 3.0378304 55.673145
21.145123 7.5587029 55.672527
13.358568 14.219385 55.675095
4.9354439 16.56531 55.662552
15.609616 23.208076 55.653641
18.420538 6.968626 55.799088
12.076147 11.113708 55.793262
16.444397 11.177756 55.780388
16.507881 11.481939 55.784134
11.613531 21.628181 55.796509
13.395046 22.697948 55.730736
6.9823294 23.236475 55.767937
14.490194 0.20342317 55.873024
-0.372188 2.7596092 55.826305
19.340298 13.889247 55.885376
9.0091686 17.436401 55.813671
17.651154 17.63611 55.825302
8.1818161 19.569017 55.893101
4.3663902 22.134266 55.83609
14.686995 0.2662634 55.905716
0.010538906 4.0906391 55.996914
0.74487674 6.0871477 55.992207
17.673912 6.6194987 55.913689
2.5191746 8.4935999 55.977554
9.9918032 12.776314 55.960682
8.8242807 14.077164 55.972168
8.1431208 14.854559 55.912914
8.1028433 9.2729921 56.080872
18.992031 9.7471581 56.00835
20.851664 11.606527 56.016304
3.1195586 12.348948 56.009426
8.8719587 15.592219 56.070004
17.700642 15.772823 56.015129
18.027184 17.721539 56.065727
13.682906 0.13046782 56.18306
1.0296819 6.7564945 56.113659
1.5853473 7.8848205 56.183907
10.099585 10.226995 56.123333
17.730419 10.384003 56.129921
20.860228 10.967301 56.149136
3.7074914 13.539744 56.161041
8.7319508 13.823654 56.116837
19.276936 13.839834 56.152817
8.1262512 19.771463 56.117355
5.5957975 20.59082 56.163986
3.2745886 21.0301 56.156639
8.2279119 24.841635 56.113434
12.917671 -0.46332258 56.25882
10.162894 10.565967 56.218216
17.762417 13.66091 56.25222
8.8414412 14.107555 56.238556
17.764719 16.418995 56.260719
6.1067057 24.31002 56.274708
8.9732265 24.82756 56.278992
11.974252 2.1808653 56.373898
0.82582456 6.1566386 56.323437
8.4907856 13.943056 56.382767
4.6151552 15.186056 56.335346
12.039924 -0.02710969 56.484901
0.3717826 4.049263 56.441048
0.70679384 4.2385087 56.487537
11.052921 2.2138014 56.591751
0.11654025 4.3222337 56.542934
1.1470131 6.8904524 56.512077
5.1890759 14.889874 56.525185
4.7143445 15.119889 56.559002
17.019249 21.615038 56.502018
15.328613 6.3729439 56.688839
2.147634 7.2040534 56.622173
8.41012 8.5577307 56.694641
8.5985174 9.3788357 56.658524
10.030663 15.883253 56.661739
6.1174021 16.463661 56.631504
6.7938271 21.347992 56.625801
15.81605 22.400732 56.689175
14.482388 0.51927376 56.770721
1.4952148 4.2846656 56.739548
1.7881827 5.0413523 56.700951
9.3412561 5.6032495 56.738068
2.2017767 6.6048021 56.750069
9.717845 8.5771122 56.718369
16.616291 9.5561781 56.775635
11.979923 13.448595 56.73315
17.879299 15.386479 56.70013
16.17317 19.892925 56.700825
18.176308 1.4064341 56.86441
1.3443407 6.1040516 56.861267
8.7784681 13.919542 56.859726
8.4136362 14.288054 56.895294
15.898488 22.224754 56.808949
16.970058 2.2797732 56.92387
18.38068 11.473684 56.989433
8.2829208 21.779835 56.987862
6.8485861 23.831284 56.900314
13.135707 23.828157 56.939758
8.5952682 10.848257 57.074203
8.9349566 17.501335 57.043327
5.7968545 18.185368 57.023403
9.1962671 8.0562391 57.198269
10.797573 9.8661299 57.173294
19.481289 17.354967 57.11684
12.58835 24.737904 57.1735
1.7162526 4.7077928 57.220222
10.028158 9.0918531 57.299637
21.246376 13.285103 57.24334
18.928478 15.977285 57.219154
9.3741541 16.568714 57.222801
13.959819 23.358421 57.224609
16.629314 9.2790279 57.352077
11.58884 12.734392 57.323586
10.444189 17.211334 57.336979
11.911289 24.685625 57.301254
21.259876 7.9579563 57.452782
11.007999 11.120497 57.489845
11.555002 12.722588 57.4244
8.8473005 16.015127 57.408329
9.1123848 20.671377 57.488213
9.3369083 23.906107 57.448139
12.855241 8.2780523 57.599102
10.083482 16.22905 57.511562
10.720354 16.412371 57.519974
18.502628 8.6176949 57.606972
17.926765 10.162567 57.623482
18.841518 15.736951 57.644257
9.2447777 17.535202 57.626068
13.361639 23.293592 57.608425
11.711399 11.89621 57.702232
11.914142 20.977205 57.720131
9.8861485 22.002804 57.771309
12.702571 0.17688741 57.815174
9.2670727 11.215698 57.85099
18.149748 16.688469 57.88369
15.392611 21.726099 57.891289
17.015789 3.7083724 57.96769
17.075506 4.0077429 57.958542
1.9888827 5.3125653 57.962078
20.371511 6.8459511 57.99054
13.249504 8.1187878 57.964073
11.236574 12.235039 57.998604
17.899248 14.125835 57.935799
9.7788391 16.463501 57.963993
10.918736 23.739449 57.994041
11.711276 1.0444131 58.05558
9.9369001 6.2988873 58.027138
19.713755 16.855919 58.010658
16.833561 20.48004 58.079929
14.311498 1.576546 58.14299
16.93799 3.9610753 58.187973
20.689917 7.586576 58.176697
10.635554 19.012131 58.197128
1.928606 5.5997524 58.283882
14.996227 5.9116645 58.20649
14.872347 11.290399 58.204601
12.314269 11.816948 58.204597
16.660755 14.774831 58.253716
16.04401 15.16336 58.242668
6.1024756 19.509853 58.252998
16.622011 20.485571 58.296692
15.406672 2.5927711 58.315578
9.7712355 5.4975309 58.327595
9.7300797 15.551699 58.30349
16.783928 18.254854 58.361549
10.837752 22.584949 58.352764
16.637482 4.5795655 58.409382
16.817383 5.2506742 58.484833
18.208813 14.858761 58.422279
11.282413 19.761873 58.422955
11.03339 22.123377 58.457882
14.555119 2.1140685 58.550026
15.220281 2.310482 58.599541
12.144944 4.4394932 58.648952
17.957211 7.9068837 58.671204
12.298367 11.841651 58.624851
17.532677 12.006171 58.655155
18.311289 15.46867 58.680794
12.1501 18.485291 58.612373
11.215773 4.7862072 58.705887
17.995003 7.9043798 58.770443
13.674255 0.27737629 58.863571
16.438059 4.3799534 58.848465
13.630486 23.533588 58.856274
10.278314 5.4209361 58.90604
17.436077 7.2237616 58.913479
17.389961 11.281589 58.917442
11.804863 14.342182 58.969765
19.52396 15.781551 58.968536
15.390087 15.449109 59.036385
