# .PCD v0.7 - Point Cloud Data file format
VERSION 0.7
FIELDS x y z
SIZE 4 4 4
TYPE F F F
COUNT 1 1 1
WIDTH 1611
HEIGHT 1
VIEWPOINT 0 0 0 1 0 0 0
POINTS 1611
DATA ascii
30.761755 2.1816993 3.3151069
29.66223 5.5388536 3.3694057
9.9046793 16.817268 3.397383
11.063801 16.96756 3.3156409
12.377474 17.190184 3.3515215
26.38151 1.6052564 3.4754033
8.7618198 16.775196 3.4521525
8.4980125 16.863583 3.4239719
7.7451434 17.314651 3.4925349
32.793842 6.4125586 3.5301085
8.743145 16.975138 3.5289693
28.090443 0.34709784 3.6936843
10.877468 17.332825 3.6076632
29.742985 0.94727778 3.8144994
30.539358 6.1282492 3.8019624
11.612814 15.294844 3.8161252
31.187195 2.1268387 3.9581995
31.606174 7.0835524 3.9332156
10.79203 14.90063 3.9458036
31.318142 2.9647036 4.0815678
11.344307 17.81613 4.0129948
31.90295 6.2071753 4.1701307
7.5196123 19.073206 4.1752038
30.279154 5.7576833 4.2200427
32.442276 3.0998652 4.3487387
11.053341 17.71032 4.3425121
11.300621 17.850386 4.3106384
29.42963 6.2814188 4.4295092
8.5923424 16.142157 4.4576979
9.4756184 22.106705 4.5044031
27.657375 0.93919599 4.6463833
31.524883 5.9841681 4.6000066
8.8287258 16.878479 4.6526217
10.985753 17.582401 4.6715612
27.251129 1.338506 4.7561522
11.767269 15.058637 4.7761598
13.336491 19.197393 4.7990618
31.935066 3.4830365 4.8504653
10.422261 14.95503 4.8980536
8.9028177 16.754498 4.8172417
8.5369959 18.350685 4.8596749
7.6615634 18.441372 4.8451414
31.269341 3.0369081 4.9004383
32.189754 7.2007642 4.9503632
29.714146 7.6557388 4.9184141
7.5830102 19.463539 4.9802341
32.00201 7.5836353 5.0035892
12.024002 19.610313 5.0975962
8.166151 20.179169 5.0855265
31.245291 6.5109506 5.1112113
13.406655 19.262486 5.110755
12.968982 21.511703 5.2385225
30.782009 1.800002 5.4021301
8.9076252 17.946293 5.4727287
31.996048 8.1010809 5.6114998
10.955068 21.274275 5.6679049
10.747428 22.716461 5.6992598
10.287725 21.041151 5.7846813
10.902983 21.206493 5.728188
27.756042 1.6038045 5.8798885
29.880081 7.7109261 5.8573351
32.056187 8.2263756 5.8327308
11.35091 21.873192 5.8136067
8.8010588 19.197054 5.9090624
10.711251 22.674522 5.9047418
11.088444 22.744816 6.0681562
26.610147 2.6922646 6.1268516
26.890606 3.8717475 6.1677704
29.500364 1.6406866 6.2820282
33.137089 7.5079699 6.2781658
9.0578861 20.893953 6.2382917
27.339012 5.6613107 6.405087
28.410765 6.8570995 6.4837232
8.8720026 20.48196 6.4940376
9.8080139 20.721663 6.4958811
27.531021 6.2634645 6.6515908
13.688899 16.809898 6.6377039
34.146812 4.7225003 6.8967624
11.065101 14.874928 6.8278971
9.2330847 16.629789 6.9312673
27.68576 6.4936371 7.075428
32.303101 9.2774191 7.0831604
12.353834 14.818281 7.0036964
9.7086401 15.591513 7.0522251
31.748356 9.0325289 7.1750693
13.797127 19.998447 7.1374335
8.4101 20.78392 7.1387119
27.57564 5.7650094 7.2723765
11.656055 22.695616 7.2878075
33.882454 7.6054487 7.3316102
9.9799118 15.164084 7.3393164
32.528053 3.0920105 7.4368582
28.856932 1.8050199 7.5006971
8.6015949 20.151237 7.5789776
30.688719 2.4801457 7.6659245
34.525078 5.1566234 7.6949244
13.644714 21.41404 7.650136
28.778168 7.3005152 7.7629266
9.3758831 22.170425 7.8391914
13.430133 15.848711 7.9128814
13.875885 16.441681 8.0055513
13.690182 16.103552 8.1198635
29.493591 7.7631216 8.2429428
8.829031 21.321396 8.2236309
34.630569 5.3227477 8.3069038
28.848431 7.4748802 8.4569025
12.20679 14.765022 8.4586782
13.195863 22.906324 8.4340038
33.671425 4.4885087 8.6325054
33.613556 9.2266617 8.6919956
12.133247 14.769848 8.7171993
29.673172 2.520946 8.8943224
32.246601 3.396759 8.998354
33.506744 4.3487668 8.995451
29.795792 2.6097217 9.0439768
10.595281 15.055079 9.0423527
34.564003 5.3657122 9.1979513
9.4427643 21.827671 9.175827
10.170446 16.261425 9.2489882
28.189838 6.2567039 9.3271179
34.765022 7.0578451 9.3572187
31.623991 3.3767946 9.5753984
14.984112 17.438301 9.5545301
14.325676 20.737247 9.5612431
34.675156 8.9056911 9.7886019
9.3175955 18.732761 9.705946
28.157513 6.0928626 9.8196535
34.161209 9.9054403 9.8161755
33.45126 10.127572 9.8241692
14.19611 21.852913 9.8166943
32.842777 9.8221083 9.9550009
11.556564 14.821139 10.148863
13.626682 22.745832 10.133451
32.600281 3.8949957 10.235354
14.256376 15.969135 10.210465
15.067864 17.934181 10.252694
31.150661 9.0506487 10.438561
31.430256 3.6515822 10.658041
14.431873 22.116432 10.79065
30.446529 3.3824248 10.806128
30.551504 8.8226109 10.836189
14.615723 21.284157 10.899157
10.064395 17.849766 10.917853
35.565395 8.0859261 11.029963
33.633766 10.453341 11.086552
14.700279 21.014713 11.020161
30.257767 8.7322845 11.138823
9.9543896 19.70668 11.18511
11.345176 14.991418 11.202231
9.9886703 18.247053 11.227622
9.9049635 18.996105 11.229383
28.524757 4.230495 11.486155
28.221415 5.9807343 11.544542
35.752796 6.8281956 11.583013
32.5103 9.9730301 11.527068
12.684652 14.721639 11.573664
35.836967 9.4210987 11.726156
35.364594 10.265274 11.706515
10.278823 21.148594 11.849794
29.882996 8.7055197 11.968843
11.432872 15.569437 12.170342
12.053093 14.766944 12.253831
14.710694 15.693266 12.240392
15.280729 16.519012 12.360674
28.411226 6.2715611 12.420895
29.183294 7.9069748 12.676638
36.17046 9.9310951 12.664461
11.322717 16.267685 12.695005
15.60451 18.678944 12.634912
32.345551 4.6656713 12.974508
36.380775 8.1907501 12.998832
36.38903 8.5791893 12.985018
11.610633 15.783417 12.962296
31.160774 4.3080459 13.04533
36.429207 8.8085413 13.064346
35.995407 10.650846 13.011454
10.861516 17.660267 13.020733
30.089436 9.1497622 13.20725
35.854313 11.202667 13.256942
11.755625 15.810072 13.429369
11.064775 17.542395 13.483197
11.142882 21.50675 13.416861
15.871439 19.012724 13.551222
36.710407 9.191596 13.727439
32.233154 10.497299 13.865417
31.942598 4.8809204 13.942153
10.980939 18.12718 13.948915
15.361444 22.285076 13.91972
12.131126 15.405485 14.06514
33.942451 5.6183558 14.194137
35.767555 12.426435 14.152761
11.207697 20.992588 14.254308
33.649662 11.421743 14.418385
29.7924 5.4481521 14.577243
29.683357 7.861289 14.519318
12.937442 22.321926 14.633275
16.148106 17.161438 14.797094
29.867527 8.0335732 14.845975
31.380713 10.340087 14.917387
11.324901 20.177605 14.933864
15.898373 21.48204 14.963758
15.070306 15.459677 15.072171
32.972214 5.6875577 15.223181
16.526632 17.574718 15.221403
36.250282 7.4901047 15.366877
34.953938 12.413742 15.436672
14.238207 15.168331 15.402853
13.359795 22.473251 15.480189
15.87169 22.60425 15.498468
11.687326 17.693752 15.549667
30.952879 5.732254 15.831469
12.535913 15.89202 15.810998
16.791544 18.62471 15.848835
35.730923 7.0519009 16.007259
12.407393 21.778614 16.086021
15.711607 22.779453 16.019838
35.556721 6.8989663 16.1945
31.131535 9.7398005 16.112953
31.324961 10.051139 16.213327
11.718119 20.260429 16.244246
32.394188 5.8930798 16.324125
31.116747 6.379323 16.441027
30.881174 8.9458027 16.450886
37.823185 9.5516434 16.453451
32.062737 11.153636 16.461971
16.686295 17.486134 16.409882
11.906446 21.425554 16.449797
35.309669 6.8146439 16.593325
30.738613 7.0830741 16.569777
16.932837 19.317589 16.617933
11.96594 21.310432 16.693983
37.898167 9.0878801 16.872303
35.486237 13.09382 16.81138
34.703758 6.8334365 17.046104
34.33049 6.7995939 17.1996
16.833302 20.764561 17.150677
12.085735 21.209301 17.135983
33.670181 12.323979 17.515652
12.022979 18.824059 17.785011
16.349922 22.90074 17.750463
16.291142 16.562557 17.856646
13.248142 22.074547 17.847816
32.2924 7.1045637 18.021492
37.56918 13.790953 18.088366
36.175903 13.834595 18.104074
34.439457 12.945834 18.246359
16.974548 22.061523 18.24276
38.556793 11.597505 18.374325
34.759254 13.175344 18.448961
37.756935 13.752464 18.477165
17.561438 19.515928 18.431217
15.847012 22.907202 18.474808
38.703934 9.9627953 18.599922
35.710682 13.72752 18.598349
14.624531 22.835903 18.51992
32.171631 9.8276358 18.674696
38.633141 9.9049921 18.797163
38.434483 9.7211399 18.827791
32.627876 10.656025 18.929758
38.662048 9.9468794 19.062431
38.878784 10.402082 19.121014
36.109936 7.9751697 19.268854
32.258045 9.1438522 19.355663
16.282356 22.974466 19.338848
32.712421 10.912676 19.720337
32.823792 11.382325 19.791407
18.187359 18.895844 19.780848
36.629227 14.750053 19.959259
13.438741 21.951511 20.012308
33.227192 8.4171467 20.110252
12.759362 19.266445 20.138638
15.608963 16.062292 20.273779
32.409039 10.613704 20.362255
38.290928 13.13356 20.399662
15.670828 16.070339 20.36722
37.629543 14.012414 20.426905
13.166095 18.122503 20.448164
32.365669 10.771477 20.547325
33.561371 7.9978509 20.66567
32.970421 8.600297 20.605127
13.126082 21.065029 20.695442
35.998501 8.2729635 20.776249
35.844189 14.692185 20.790607
13.932196 16.883795 20.795805
13.165755 18.378813 20.790487
33.031345 13.132969 20.83691
18.57802 18.943327 20.879816
35.100578 8.1016769 20.983686
13.80669 17.209263 20.902943
13.105002 20.30986 20.911518
32.319767 11.797678 21.196232
34.060387 7.9015536 21.205894
37.375946 9.2316198 21.300037
32.150932 11.411435 21.389221
13.215305 20.082344 21.369591
37.056961 14.6234 21.444323
13.93058 17.335133 21.441605
18.876413 17.950869 21.580303
13.301326 18.689779 21.583801
18.479446 20.613716 21.511311
15.401023 22.93511 21.541744
32.191212 12.706501 21.665415
19.073118 18.416321 21.669781
18.490259 21.087872 21.767948
18.405827 17.013792 21.812002
18.301855 22.042377 21.844564
31.727421 10.671492 21.994019
13.461455 20.530369 22.016432
31.710112 10.833551 22.120123
17.097147 15.120718 22.193357
14.220361 16.99295 22.127298
14.907976 22.53887 22.221146
14.17154 17.234535 22.459408
19.474976 18.247822 22.427952
36.220066 8.4907379 22.594315
38.334232 11.341018 22.550049
15.159301 22.536232 22.656149
19.575619 18.469059 22.747843
18.36792 15.618361 22.820221
35.590279 15.51363 22.919558
36.415207 8.8639107 23.265984
16.773798 14.735633 23.205692
18.218723 22.613449 23.221033
31.327995 9.2571106 23.333187
14.065542 21.572502 23.376413
18.791683 15.374702 23.426857
15.892784 22.476252 23.440079
31.658142 13.292356 23.573917
14.927772 16.010941 23.53723
38.211441 10.90296 23.649883
36.331993 14.995296 23.869133
19.796217 20.001844 23.966125
14.35443 21.428957 23.98958
20.390764 17.576448 24.013912
37.742447 10.614508 24.385521
37.623444 13.057695 24.45611
20.209143 19.248188 24.458689
34.691025 8.3498516 24.553539
16.876999 14.124126 24.524811
32.618519 14.611441 24.657566
14.537495 20.685459 24.691534
37.316101 10.249939 24.714779
31.191133 13.462538 24.747772
17.996443 13.807326 24.716373
19.383963 14.563084 24.733414
14.557624 20.695499 24.736912
18.810699 22.00419 24.877924
30.293713 9.9481316 24.980762
36.560799 14.74081 24.993092
19.427799 21.941498 24.930267
20.616072 15.661831 25.036871
30.5063 11.190147 25.136196
15.562105 15.263622 25.130701
14.630197 19.532717 25.16885
31.463213 13.90806 25.205276
20.511116 20.819773 25.253792
37.6026 12.498888 25.392326
30.85194 13.451557 25.318321
15.546587 15.377217 25.327194
33.326893 15.373301 25.375151
21.16601 16.919363 25.312685
16.134499 14.143969 25.46843
15.994539 21.35215 25.460712
36.238449 14.922291 25.643904
16.660686 21.580256 25.624508
19.550032 13.677015 25.785641
31.305395 14.086222 25.854795
36.686974 9.9963951 25.992455
30.114935 12.449358 25.985638
37.39658 12.794771 26.0438
34.750282 15.964684 26.067066
18.464643 21.653849 26.038336
21.72253 16.269627 26.157162
17.609104 21.698015 26.163025
36.29073 14.83266 26.298059
21.584003 15.304381 26.273247
19.523586 21.488861 26.234301
30.523825 8.9796562 26.386198
37.337376 10.864263 26.357904
21.369173 19.846132 26.419899
16.196812 14.449015 26.559963
33.414585 15.960457 26.567905
21.490812 18.268625 26.524384
19.541817 21.401209 26.503992
36.901535 10.470939 26.63706
19.318336 12.700925 26.677748
30.945633 8.4689398 26.711069
20.995367 13.997728 26.797474
37.165092 13.110687 26.800259
21.973413 14.9932 26.896135
15.893223 15.148615 26.858061
31.962517 15.123293 26.878138
21.744831 17.760838 26.860321
31.310875 8.0573387 26.900625
37.40387 11.146093 26.932846
16.563612 13.820667 26.99662
22.081448 16.256176 26.901947
21.736546 19.291206 26.91333
21.696672 20.682384 26.916016
30.607361 8.6706343 27.073284
29.568462 11.876022 27.131618
21.084848 21.06723 27.136295
34.92627 15.743967 27.246773
15.560422 19.95623 27.274889
32.648895 8.2550459 27.387371
33.409027 8.3702412 27.383972
17.540392 12.668577 27.39883
17.63154 12.644326 27.395741
29.469988 13.135639 27.314123
22.002298 19.633003 27.301678
15.370255 16.176983 27.487759
34.255413 8.5425377 27.5914
22.014208 14.196939 27.537975
34.720703 15.869717 27.535416
30.097759 8.9517441 27.687078
29.318735 11.133741 27.663761
36.857494 13.627031 27.662676
30.686293 14.449085 27.698578
15.303335 16.806641 27.661324
17.552656 12.481918 27.813723
22.413656 18.154673 27.81797
32.394665 15.989115 27.936312
15.727154 18.658012 27.959927
22.767048 15.73029 28.077785
30.383711 8.5373297 28.111609
15.824061 18.626331 28.196289
35.143326 15.508963 28.232101
32.183895 8.2738848 28.337317
30.034771 14.214049 28.346151
22.849106 19.366541 28.481838
17.565355 12.239761 28.523008
34.504742 8.6910858 28.609356
37.140675 11.733196 28.737637
16.120604 19.153919 28.779795
33.010647 8.4517355 28.891472
15.836512 16.986658 28.830677
16.532064 14.328892 28.981804
35.467007 15.221628 28.90493
17.296211 12.978902 29.073315
15.787052 15.987501 29.117384
23.3992 18.90033 29.236099
17.430294 19.903805 29.266203
28.991167 9.4546642 29.341999
35.510597 9.868042 29.344023
33.987282 16.254381 29.372726
28.433416 11.965711 29.489317
16.101109 16.913462 29.476376
34.58366 8.9149637 29.53117
33.242157 16.776117 29.587023
29.604324 14.482517 29.661999
20.190779 20.33791 29.663706
28.277813 12.085384 29.810644
21.432808 20.139263 29.907822
19.285648 20.318878 29.989698
24.134233 13.647014 30.067226
16.168215 15.818254 30.073147
34.275249 15.988851 30.096249
28.098949 11.174681 30.198454
36.432487 13.408238 30.232374
20.61969 10.790405 30.349815
36.058125 14.609581 30.37833
30.29882 15.411356 30.393131
24.234341 18.521856 30.395117
36.01799 10.848207 30.472954
17.224426 13.310104 30.419281
24.302952 16.970163 30.426083
32.546593 8.5337238 30.510136
33.179417 8.6304655 30.516228
23.631956 19.725424 30.536339
24.521484 14.102071 30.61269
24.454599 16.982721 30.639973
23.782377 12.528959 30.777899
35.203602 15.264227 30.770624
33.883274 16.218824 30.770378
28.351181 9.5717478 30.892426
33.991264 16.137407 30.812584
34.155018 8.9314251 31.010475
29.317213 14.596422 31.084076
31.497608 16.755993 31.116249
36.549404 12.29814 31.25548
36.015205 14.216309 31.243258
31.265991 16.483553 31.289497
16.860668 16.808481 31.28767
24.746521 12.962929 31.313263
17.008631 13.829851 31.311432
17.555294 18.887217 31.339148
16.992109 13.887668 31.499184
34.44162 15.714671 31.628006
18.514786 11.198663 31.785231
29.927708 15.021048 31.832191
25.285902 17.375189 31.882832
25.266283 17.662809 31.835234
16.812199 14.87951 31.950563
24.178408 19.226618 31.943848
20.278988 9.550663 32.079941
35.92149 13.816681 32.008343
35.693951 14.674558 32.013691
35.660404 14.800092 32.023998
21.730125 9.1458292 32.127785
36.139343 12.976553 32.103245
25.427591 17.478569 32.138569
25.011864 11.742811 32.232155
17.708561 12.732961 32.371449
33.199497 16.45104 32.332397
25.53969 16.76796 32.372887
25.150276 12.082402 32.429482
32.514023 16.8958 32.543552
25.676155 16.878637 32.618752
21.722076 19.155615 32.926926
27.932581 9.1805096 33.080986
27.327623 11.706874 33.099701
32.957516 16.464077 33.072807
17.830973 18.099249 33.062412
28.688442 13.478876 33.106003
25.980518 16.465176 33.193764
20.309826 8.8048782 33.232399
25.747353 13.285343 33.356377
24.221458 18.685732 33.385307
25.671078 12.467704 33.429798
24.292767 18.656616 33.436222
27.538046 9.3486013 33.504738
27.375576 12.07172 33.525188
28.125145 12.812597 33.542542
22.739895 7.9736738 33.729565
18.899021 18.172012 33.725533
30.55068 8.2329464 33.853821
25.481112 18.528238 33.818291
33.53067 9.1072197 34.050621
27.346735 9.5707932 34.072224
35.015476 10.930599 34.047279
22.739031 18.581381 34.081467
28.078514 12.625333 34.121025
26.28503 14.659434 34.107033
17.714373 14.866928 34.190239
30.029135 15.424101 34.162498
30.764587 16.671421 34.106819
18.089128 16.822546 34.225147
25.395006 9.1950378 34.472507
17.565044 13.222563 34.415134
21.430235 7.5718861 34.502541
27.099865 10.064895 34.509014
18.867468 10.656507 34.516514
31.137981 8.3983231 34.626507
23.621124 7.4761019 34.737091
34.493969 10.53659 34.727943
25.713036 18.260344 34.746075
23.311352 7.127583 34.821579
18.051884 15.307981 34.86372
17.686346 13.187708 34.933212
35.099209 13.676176 34.999809
26.957983 16.652788 34.979263
21.492704 18.31954 35.097237
17.967167 14.101151 35.227745
26.592136 12.551677 35.371529
29.930769 8.1575041 35.416897
29.328762 14.966658 35.403824
26.560183 18.109629 35.410435
26.086735 8.2385559 35.676331
19.42905 9.3960352 35.615799
26.685804 10.595931 35.692738
26.691439 10.738243 35.66983
26.483767 10.930428 35.608624
34.882671 13.914763 35.667755
25.300041 17.9559 35.666
25.603765 17.979694 35.648033
32.011192 8.7174091 35.740829
18.440796 15.41302 35.715187
32.516945 16.32737 35.774002
24.377468 7.0641747 35.82119
18.096552 13.54574 35.838261
22.701649 17.855412 35.887444
27.494448 8.4296713 36.003857
18.202126 12.272161 36.299107
32.364861 16.371637 36.221352
30.066275 16.764343 36.237755
19.66691 16.815964 36.207085
26.606697 10.561598 36.316143
19.865746 8.6800718 36.536613
20.567638 7.1004095 36.66872
19.729836 9.0194445 36.647518
19.571384 16.432964 36.648945
31.858152 16.70129 36.642334
31.029997 17.20513 36.638874
26.501644 17.722717 36.672218
28.013241 14.817863 36.786633
30.075449 8.140811 36.813423
18.871056 10.918078 36.882324
19.621738 16.286547 36.877296
27.405258 13.678973 36.921638
19.938877 16.411863 36.928288
28.025379 17.256298 36.961594
26.578228 17.657234 36.902954
28.242496 16.7999 37.347412
28.125229 17.761168 37.38905
31.427279 16.976711 37.590477
27.458492 17.688679 37.500763
21.820303 16.869986 37.608658
25.090923 17.446228 37.691158
27.221241 11.123711 37.819244
34.56974 13.728268 37.90295
27.922047 7.7902927 38.034683
20.161871 8.2671261 38.054073
20.117943 8.3707533 38.00407
31.490883 8.5911636 38.291035
27.136749 9.7431164 38.28299
21.606012 5.9341869 38.502827
23.185368 17.082714 38.578125
34.283619 11.844683 38.766769
23.558203 17.095856 38.73214
34.859776 12.253245 38.856796
21.264217 5.8959889 38.999031
34.001667 11.458413 38.93457
34.600361 11.411499 38.929375
34.517681 11.691442 38.960098
34.361469 11.796557 38.971931
26.265085 17.381216 38.940651
34.329193 11.443898 39.032475
29.286312 7.6756163 39.153042
34.643772 11.533838 39.187744
35.422615 12.407026 39.153679
34.457806 12.817657 39.142467
35.451412 12.848149 39.194641
20.026245 15.17658 39.170143
24.250439 17.099096 39.119415
27.412155 17.4697 39.184364
33.97818 11.033731 39.348232
33.928078 11.500255 39.353195
34.061867 13.111474 39.312263
24.969448 5.8651485 39.495953
21.105841 6.1217327 39.481495
32.898247 9.5404615 39.495766
33.019539 9.690237 39.415306
19.124048 11.256721 39.440697
34.545383 11.990542 39.474041
26.931688 17.339628 39.462685
21.035856 6.3335929 39.517365
31.123232 8.599493 39.546535
35.042938 11.116896 39.509624
21.10331 15.595062 39.591064
34.15987 12.005534 39.684952
26.242443 6.5948133 39.709877
34.88731 11.409758 39.796162
33.368912 11.579059 39.714302
34.256809 11.118539 39.807755
35.079533 13.069387 39.824627
31.358791 16.883871 39.803978
25.035496 5.9839201 39.930176
34.329678 11.530437 39.950916
35.052204 11.615664 39.962521
27.944788 17.243677 39.932716
33.228806 10.276821 40.046268
34.349163 11.141577 40.083725
34.046494 11.640118 40.023338
34.311546 11.276502 40.158199
33.510765 12.640264 40.183819
30.20805 17.429058 40.19426
33.944286 11.200658 40.24168
33.951706 11.806549 40.204388
20.055454 14.559978 40.248985
22.575668 5.8824558 40.320198
20.765293 7.2794847 40.39016
28.948286 7.3586202 40.350342
34.920944 11.477417 40.302216
33.933254 11.713215 40.349434
34.983749 11.726521 40.316376
34.779167 11.82268 40.427368
33.279415 15.910311 40.472294
19.668182 10.201571 40.580814
33.689621 15.662316 40.518253
33.920105 12.109852 40.600361
23.527626 5.766777 40.748997
20.402386 8.3376522 40.788952
34.558254 12.58728 40.746658
34.365818 12.93566 40.713982
33.718319 11.38743 40.868771
33.664326 13.00761 40.820007
34.481903 13.169559 40.873848
32.050247 8.6985302 40.986504
32.621777 9.4157343 40.993454
33.956295 11.03457 40.962242
33.508114 11.293285 40.92968
19.936871 13.270662 40.944481
22.531624 6.0652351 41.189049
26.106972 6.7988434 41.160072
20.973806 6.8744154 41.156036
29.399567 7.383955 41.14669
31.535988 8.4089756 41.116776
19.809412 9.9895458 41.157936
33.509163 11.929049 41.185959
29.157263 7.3216925 41.213306
33.472027 11.314114 41.285561
33.13295 11.530369 41.257057
34.575928 11.663479 41.296764
32.805431 11.698886 41.399094
33.707924 14.871641 41.344395
23.580999 16.258879 41.304302
27.186642 6.878686 41.438408
33.912621 12.873709 41.445778
33.050934 10.207859 41.580215
25.491352 16.398649 41.53912
29.985332 17.484379 41.57951
20.83219 7.4147635 41.649113
34.058472 12.966908 41.621807
32.640934 10.771347 41.722919
33.1758 11.483636 41.700363
34.517693 11.463678 41.742748
33.108654 11.522289 41.705994
34.772156 12.871599 41.765251
34.637978 13.187753 41.741714
34.055309 13.343837 41.747517
27.735497 6.9577274 41.865273
33.497757 11.306342 41.856312
34.670929 12.169094 41.889404
24.342234 16.186691 41.823204
33.710659 11.907165 41.966938
33.694252 14.343091 41.996658
33.02758 10.149195 42.00639
34.122288 12.453093 42.081329
21.959686 14.919743 42.165462
26.009823 16.214264 42.124298
31.715324 16.610638 42.139763
30.379169 17.271008 42.144814
27.855391 6.9532146 42.219547
34.201683 11.424314 42.24498
32.927746 12.16888 42.256454
28.201668 16.881502 42.288708
32.827244 12.116232 42.348972
33.920456 13.368749 42.459309
33.34705 15.092906 42.486481
32.922863 10.186526 42.561707
34.050854 11.153551 42.558403
34.217422 11.195203 42.56575
32.959618 11.444624 42.525097
32.834446 12.196632 42.578362
31.033304 16.93396 42.56646
21.440676 6.0118151 42.650948
20.106247 9.6161633 42.635799
19.793743 10.449416 42.693489
32.773247 10.564634 42.664207
32.589687 10.67061 42.680214
32.965752 10.796685 42.654476
25.417984 6.7040935 42.782188
33.962654 11.16199 42.70285
33.456055 11.310877 42.771706
33.71735 13.640495 42.700172
29.53112 7.2505941 42.811222
21.323202 6.1688871 43.002586
30.388783 7.452642 43.007439
33.185455 11.248951 43.019135
32.882637 11.4639 43.047371
33.244881 11.721895 43.059864
32.863445 12.455954 43.013283
30.935516 7.6310267 43.250221
32.927284 10.377748 43.22406
33.182133 11.470798 43.209854
34.1661 11.759813 43.296227
33.256081 11.345473 43.392136
32.481625 11.640019 43.353737
34.157867 12.886435 43.393623
27.493877 16.489422 43.36377
28.65184 16.922981 43.389297
21.958035 6.1063004 43.443596
31.706238 7.9157953 43.406132
31.906975 8.0105743 43.425598
20.636063 8.3999271 43.4879
34.143604 13.124942 43.482315
28.272865 16.771145 43.46627
33.699032 11.18914 43.555431
34.316105 12.526577 43.589031
33.559898 12.931334 43.571983
33.292301 13.259333 43.555058
33.235477 13.36656 43.509724
26.795864 6.7038231 43.625481
32.500942 10.563898 43.627499
34.262657 13.150331 43.670326
31.119652 16.781555 43.792374
31.111721 8.5370483 43.802738
34.318027 12.498746 43.895386
34.239029 12.614897 43.833031
24.432564 15.381443 43.894714
32.124752 11.333398 43.994453
34.440342 12.445854 43.968418
33.227158 13.435045 43.93483
31.791052 8.4567299 44.057247
31.735098 8.521843 44.093056
30.780886 8.7189703 44.061756
32.243134 10.275723 44.092819
31.769264 8.2520046 44.165264
20.287071 9.546524 44.114632
20.303448 10.411716 44.178505
33.915432 13.316016 44.24015
24.511251 6.5448933 44.346802
31.85803 8.2124996 44.356293
33.519787 8.3806906 44.341553
34.029835 11.832225 44.376011
20.992405 12.655806 44.373051
34.105118 13.156248 44.378468
28.891331 16.900394 44.35778
33.53476 8.533987 44.41053
32.445507 9.4960251 44.41
32.900101 13.653421 44.487083
30.832573 6.1580768 44.558693
30.013136 6.2888556 44.569672
31.366499 8.7078209 44.57338
32.776871 9.8330288 44.535
20.351028 10.09903 44.556099
33.39473 13.662855 44.596432
32.524792 15.096582 44.509319
21.240841 6.7702174 44.690495
33.213642 6.933466 44.687748
32.222267 9.2189989 44.609169
32.879681 9.7602539 44.62112
32.133865 11.660919 44.638214
30.810627 8.7017965 44.781273
32.661003 10.08857 44.716671
33.380039 10.911263 44.786888
25.107468 15.339336 44.76878
21.020893 5.7180486 44.871674
28.185944 5.7440982 44.813751
26.451143 6.5999627 44.855881
28.054995 6.7785325 44.89056
31.328506 8.7297382 44.835976
32.426643 12.526523 44.853611
32.751968 6.7860441 44.916969
32.781837 7.8526807 44.945667
20.697193 10.776175 44.980923
31.493481 16.891228 44.985657
30.818836 17.030218 44.956108
20.610506 6.8018894 45.079697
32.368706 7.8057361 45.033684
31.819988 8.4459877 45.048649
33.471535 13.117475 45.011066
34.250042 13.418118 45.009296
25.069023 6.1283417 45.170807
31.390675 7.6591454 45.156006
20.971762 5.8856325 45.258415
27.289722 6.8045788 45.295151
29.173399 7.1907291 45.286922
20.07592 9.3311853 45.23756
32.78067 13.059878 45.270405
31.592768 14.802183 45.287712
26.45635 17.607836 45.219757
32.31937 7.9284549 45.355568
30.535604 9.1875343 45.330612
33.804924 11.489849 45.311207
32.704704 12.290998 45.364113
32.765015 13.142889 45.321163
23.684097 5.2835784 45.492405
22.676029 6.480463 45.441269
27.699146 6.6956844 45.402775
22.867792 5.228672 45.562023
32.517422 11.794716 45.52108
24.205301 14.384262 45.565536
25.282917 16.786457 45.510086
23.407595 6.3925595 45.663815
27.41046 6.8595824 45.643116
28.487858 7.1926851 45.639927
20.754543 8.3763351 45.620152
30.849958 8.6790915 45.699085
33.445618 15.679563 45.64576
25.738232 5.4490643 45.711079
27.076288 6.9191165 45.743977
31.771748 8.4738588 45.780781
31.428566 10.881804 45.765087
32.455616 12.681017 45.826389
23.032043 14.003414 45.821457
22.753174 5.2841091 45.93639
20.477745 7.6917043 45.987587
31.567562 11.198078 45.993271
22.114527 15.459618 45.902721
22.530609 6.6799817 46.064484
22.629715 6.6516895 46.003792
23.355309 6.7471199 46.030136
33.207508 10.96155 46.0481
31.006916 10.26869 46.119408
21.570988 11.687387 46.160305
27.429432 17.781441 46.175205
30.644569 8.7976742 46.23315
32.253075 9.3691626 46.232159
32.623867 10.004186 46.209728
27.28751 17.73967 46.291824
26.187119 5.535995 46.353458
33.820637 15.148035 46.337029
28.022678 17.787827 46.453804
32.656044 11.20896 46.591709
31.453526 8.6575785 46.663055
20.038612 9.3064661 46.652184
32.353016 12.114096 46.646263
22.807858 15.997017 46.685951
30.254965 17.382504 46.656845
20.346607 8.4717484 46.710304
30.665056 9.8234215 46.749878
31.907825 8.9846306 46.809334
30.660372 9.8323412 46.869316
31.808735 10.719464 46.865746
32.412155 10.701258 46.826729
33.994015 14.514505 46.82267
28.991184 17.602404 46.870098
20.492451 8.256443 47.054581
32.272961 9.7770519 47.04134
33.873268 12.458047 47.085083
33.964737 13.612253 47.174103
33.342953 13.827116 47.160294
24.615633 5.4165297 47.26329
32.002697 6.6609201 47.288513
26.561964 5.6693697 47.374725
20.175884 11.816063 47.376408
33.678291 12.251733 47.481991
32.548969 13.34751 47.445602
3.4725437 32.221146 47.592762
1.3365154 33.314743 47.584412
23.70277 5.544888 47.635738
29.990982 6.2548518 47.790596
19.997328 10.034929 47.729702
27.876432 5.9660921 47.801842
34.057125 13.817104 47.852467
20.495125 14.534673 47.895645
22.73925 5.6409421 48.003258
20.555744 14.910253 48.109669
27.096973 17.298267 48.203197
29.964224 17.327513 48.205772
28.260136 17.410397 48.295799
3.72978 32.25209 48.249023
2.0724964 32.473675 48.283211
1.0098479 33.089561 48.267006
27.965279 6.0435591 48.369682
3.5159476 31.874149 48.379677
0.17438622 32.34655 48.349686
24.07268 16.581398 48.486042
1.5653765 32.205399 48.407242
2.247875 32.732864 48.465282
21.613728 15.535645 48.557602
0.1129961 32.424831 48.517704
33.891335 8.8561172 48.694065
2.0801642 31.946247 48.646248
2.3308964 31.966019 48.774555
34.181458 13.087782 48.982227
33.403824 14.711964 48.969879
1.8756255 31.504074 48.95734
0.53492045 32.938602 48.961815
3.5010867 31.796928 49.090618
33.640392 14.225677 49.125
5.9122105 30.326462 49.189137
33.90963 8.7973366 49.290764
8.3873367 29.164619 49.2976
2.0820189 31.371229 49.295639
1.1631285 32.722893 49.254826
30.668539 6.3525453 49.34034
20.093948 11.174412 49.339523
24.714603 16.776609 49.47525
6.8741999 31.136417 49.466057
5.0510464 31.56526 49.430008
3.126014 31.921696 49.495731
33.834332 7.7563748 49.523804
34.175606 11.538435 49.556221
32.356792 16.598305 49.560669
6.1988029 30.202065 49.581806
24.240543 5.6481237 49.623829
33.153378 15.297243 49.613167
7.0120735 29.641642 49.66431
9.1149435 30.10603 49.610874
2.988337 30.950382 49.671776
1.6027937 32.051609 49.671764
25.364721 5.6872702 49.720078
33.236759 7.3952603 49.781204
6.5122604 28.545837 49.713425
1.8400949 31.985687 49.750416
24.112885 5.6898446 49.884933
25.122234 5.6553135 49.874195
21.581377 7.0398865 49.81044
33.571793 14.439709 49.814747
21.691542 15.544872 49.835976
7.6862273 29.647049 49.898415
7.2485495 30.592522 49.867615
4.7442212 31.102663 49.822823
8.5367355 27.612936 49.90345
6.1770601 29.01301 49.967258
3.4142346 30.660343 49.945175
4.2363944 30.612103 49.979988
6.3846049 30.912815 49.958839
7.9845219 31.184582 49.924431
4.00668 31.43531 49.96524
25.451183 16.904377 50.023491
9.6570396 28.610989 50.022041
7.4220915 29.96771 50.089462
3.6269102 31.727539 50.014626
27.38987 5.9737139 50.103737
7.6910706 30.596333 50.131645
3.2991052 30.670183 50.180332
7.245131 30.749964 50.179134
20.124416 11.05089 50.247662
26.177229 17.080013 50.257355
7.3675823 29.184717 50.24646
3.0532367 30.950636 50.289722
20.179398 11.366331 50.375549
8.0393925 26.918461 50.331554
9.5373449 28.553646 50.325901
6.2871175 29.22842 50.328659
8.4585533 29.519722 50.333534
4.5640354 30.250458 50.317245
4.8763862 30.9135 50.319275
32.901279 7.2964244 50.400036
24.986038 16.852669 50.433178
6.7374749 29.183605 50.494003
6.6504583 29.482059 50.45314
7.7524538 29.740198 50.461754
4.1596971 30.242071 50.481071
4.091311 30.334864 50.429436
7.0730033 30.610094 50.428143
20.887247 9.0914249 50.53833
25.733284 17.008926 50.511909
7.059885 29.448208 50.508087
7.0634632 29.733925 50.500267
6.6424408 29.871103 50.561668
6.6515875 30.987722 50.506428
3.6766469 31.541565 50.596657
28.352602 5.9559469 50.641312
8.8791952 29.451744 50.618843
5.8291473 29.840025 50.62635
5.102066 29.936743 50.668766
5.4980297 30.134798 50.632042
3.2618003 31.243847 50.629467
33.756733 7.5406375 50.764832
20.703428 13.948019 50.705582
22.186523 15.818222 50.732418
7.9048738 26.340126 50.726139
8.372859 30.087166 50.771111
5.0217657 31.055832 50.72197
27.879818 5.9027352 50.839058
34.113487 9.5649624 50.853172
9.9857073 27.023359 50.871418
7.0124454 29.084078 50.847351
9.0711308 29.587021 50.858826
5.6524773 29.778027 50.865665
6.5570073 30.095306 50.859119
4.2721062 30.189388 50.878372
33.706474 14.412952 50.954712
8.1543808 28.607656 50.96954
9.242795 28.766914 50.989426
6.0513158 30.281313 50.982742
4.0441895 30.493174 50.923981
4.7655134 31.138353 50.965279
20.742487 13.899434 51.026489
9.9221201 26.806019 51.081726
9.1472073 29.059715 51.034931
7.8946939 30.202782 51.090061
33.745712 14.345746 51.159412
8.5251999 26.143097 51.131233
9.1503038 26.280449 51.104515
8.49687 28.365799 51.154922
7.244113 29.003292 51.139362
28.407282 5.9143977 51.274029
7.3010483 30.137039 51.292919
7.257338 30.401234 51.222992
5.9255376 30.590353 51.298645
4.8696089 30.927799 51.279423
8.1928844 28.324621 51.337822
8.2874289 29.674431 51.314007
4.8096776 30.176905 51.489235
33.998825 13.867087 51.526474
32.902878 16.01671 51.562405
6.9819746 26.009563 51.522766
10.036612 28.052408 51.535072
8.3743439 28.56085 51.542011
8.552247 28.931429 51.56675
6.9352465 29.443827 51.50341
8.4534407 29.829145 51.548359
8.4777641 29.939709 51.528965
26.80929 5.7783155 51.683434
27.142075 17.383463 51.645561
7.8744526 29.288445 51.605724
34.192173 13.555392 51.705856
24.369835 16.841095 51.728519
7.6677761 29.01018 51.713676
5.4423332 30.452374 51.764809
21.697367 7.5091929 51.880341
34.319592 10.55822 51.821999
8.7968121 25.795218 51.820198
5.4022117 27.871815 51.899113
6.8407145 30.117256 51.861023
34.332779 10.573927 51.915733
20.957853 14.267461 51.950287
21.171547 15.021088 51.929306
6.4917059 26.580494 51.970333
6.8139796 30.134012 51.908421
21.033617 9.1819401 52.007126
20.855343 13.690016 52.045494
8.4486294 28.741756 52.035103
9.7952881 29.441736 52.055847
23.388218 16.433481 52.182472
9.6396484 25.836006 52.188675
7.9899902 29.091913 52.104267
8.9309778 29.023148 52.141876
7.232173 29.859249 52.130482
7.0466661 29.945807 52.126015
22.091328 15.581588 52.271187
6.7274528 27.553078 52.229446
6.7858005 28.864185 52.245216
8.6681042 29.464554 52.241188
22.78624 16.028954 52.330765
25.345446 17.07472 52.395012
7.9654827 25.144054 52.498058
8.0037308 27.332552 52.406181
8.1192064 28.368652 52.41647
8.194664 28.442204 52.416405
21.284492 8.807209 52.501106
22.403122 15.764233 52.510597
6.8683696 25.767258 52.510826
6.6514997 29.704662 52.53009
20.550785 11.898699 52.633389
26.570612 17.342001 52.689392
29.874062 17.581776 52.607872
9.3495846 23.663399 52.674732
8.2298441 23.705666 52.719154
7.8983393 24.346584 52.720028
8.1050043 25.165852 52.702553
8.1937284 28.223064 52.739197
8.9978161 28.353453 52.700989
22.053892 7.0919638 52.879833
33.265892 7.1826115 52.896446
21.078184 9.3354588 52.854942
34.112488 13.926966 52.895947
8.7407541 25.240122 52.881493
6.77911 27.700981 52.814201
12.061393 27.718372 52.80619
8.4508171 28.05357 52.843769
7.6118913 28.488169 52.897839
7.3129535 28.974247 52.899231
8.4065037 29.251562 52.838539
27.439648 5.7023344 52.951561
34.633343 12.902541 52.989212
10.009824 23.531046 52.962311
9.8472128 23.613001 52.922386
10.90611 27.277445 52.929897
10.351664 27.760204 52.984734
5.7404332 28.087238 52.986122
9.2654495 28.070993 52.9077
21.037643 9.4551954 53.030647
34.478687 10.594696 53.066223
26.874413 17.405853 53.01561
9.874279 25.523735 53.062199
9.3920479 26.353344 53.042126
11.640442 26.96258 53.012718
11.842983 28.074013 53.07513
7.5917454 29.200916 53.023342
20.762213 12.681053 53.105259
9.9836054 24.57045 53.163578
8.5389347 25.385229 53.136475
9.2843018 26.205341 53.190842
31.065998 6.6722102 53.202122
20.441668 11.094227 53.242004
22.778996 15.978436 53.262604
8.8819666 22.40192 53.226326
34.429256 9.6249523 53.389565
9.6804609 19.597935 53.31078
8.5170259 23.096321 53.359554
8.3496456 23.410419 53.339909
8.2149315 23.664547 53.312263
9.3731318 26.038523 53.322536
8.7891893 26.171539 53.389061
10.058571 28.320869 53.389893
8.0524836 29.0273 53.312393
31.152563 6.7042561 53.438976
34.577541 13.035028 53.414112
9.7644787 18.722593 53.470791
8.8064241 25.677755 53.489059
10.16995 27.529411 53.4114
8.7786837 28.948709 53.474068
23.539963 6.0938177 53.552605
30.853275 6.5846024 53.597893
23.762552 16.798975 53.553909
10.126215 18.897377 53.542892
10.235842 19.289354 53.509094
8.7855968 22.56324 53.522781
8.0085201 24.737839 53.599308
9.2732735 25.420383 53.526711
10.479737 27.477936 53.531094
23.269711 16.406109 53.672951
10.683742 23.264755 53.64135
11.107147 23.378456 53.719261
11.55825 27.237461 53.740513
25.316124 5.9137998 53.85302
22.213657 6.647141 53.848141
31.976252 6.9263124 53.850483
34.21413 13.943247 53.859753
8.2526512 23.836613 53.840424
8.9149265 28.276897 53.838936
9.6439323 17.763067 53.966454
10.994872 17.730423 53.989918
11.571831 22.489187 53.91774
8.1778812 24.571796 53.943596
11.101159 27.773567 53.983578
9.6393118 28.456802 53.948578
34.459671 8.9993162 54.096027
9.6149292 17.897945 54.015739
9.7279911 28.381916 54.115459
34.43671 8.5108643 54.274384
34.680771 11.57992 54.202045
9.8076477 16.315248 54.253262
11.666862 17.828983 54.211102
9.5507145 17.967884 54.264656
9.0720577 21.338329 54.269974
12.034018 21.425411 54.244675
8.5103483 23.410381 54.297359
9.6316109 24.286993 54.255302
11.591211 26.834187 54.268421
9.6291571 28.122984 54.265984
28.890865 17.74217 54.350956
11.704279 21.952497 54.379902
9.2118855 24.330505 54.355659
9.0299864 24.586365 54.37962
11.885193 26.742577 54.345798
12.331245 19.131989 54.467987
12.323061 19.550972 54.410126
11.528637 22.262287 54.49427
8.5844421 23.757677 54.407921
9.9643097 24.304165 54.403202
12.034633 26.755396 54.405968
14.210132 26.846279 54.441345
9.612751 17.072292 54.569443
12.238772 17.91082 54.568344
9.6904421 23.902317 54.547142
9.3061247 24.141912 54.599155
27.728119 5.7071209 54.669399
31.995562 6.9006243 54.624886
21.311916 14.344279 54.605076
23.342079 16.51083 54.61364
9.48736 17.791845 54.692497
29.770634 17.79566 54.634216
8.8156204 23.52648 54.640572
9.1548424 24.067245 54.611099
11.181075 27.777676 54.622437
10.651279 13.440618 54.725422
9.0571022 23.992229 54.734482
10.702891 26.908037 54.714279
11.315808 27.699757 54.717651
23.376673 16.520739 54.875282
23.703003 16.786034 54.87759
21.789822 7.5225024 54.96505
11.941675 13.947484 54.990753
12.222882 15.072705 54.940125
30.937981 17.266964 55.03714
13.241199 11.819303 55.161774
14.88364 12.182644 55.291985
12.442484 13.797487 55.255699
21.650768 15.219011 55.207878
10.318649 23.048973 55.271896
13.449433 26.244566 55.255642
13.141995 26.737959 55.297245
21.773554 7.5262322 55.310379
31.668146 17.036331 55.34774
9.6189957 22.725817 55.325096
10.045187 22.874458 55.369766
13.361951 26.676889 55.390308
11.484041 26.97953 55.380295
14.114031 12.93401 55.420921
13.123516 13.311568 55.498016
11.770372 20.484806 55.434155
20.26403 25.765083 55.48856
12.205286 26.12038 55.408268
34.666901 9.6111498 55.550339
13.433105 11.734865 55.512516
13.628712 11.763567 55.574516
13.149225 11.90175 55.569691
9.2139959 18.626745 55.555931
14.877026 25.336397 55.529873
12.857576 26.965012 55.587662
15.311497 12.103333 55.625233
9.8109837 15.403312 55.614246
9.3901558 17.059168 55.687592
12.468351 18.61433 55.625446
13.954535 25.483576 55.652828
34.595268 8.284337 55.745144
14.099213 12.177189 55.703529
28.404028 17.567303 55.769562
12.201239 26.709919 55.774368
24.085205 5.9743953 55.875938
13.229438 13.010742 55.891525
15.368511 25.494694 55.822849
14.471345 25.778839 55.862816
12.850745 26.805691 55.868271
14.789664 10.415298 55.948944
13.013571 16.190077 55.928913
33.155098 16.469059 55.945301
9.3799515 16.712173 55.948715
17.781513 23.96571 55.910324
17.704193 24.84549 55.90052
19.359392 25.275707 55.970123
20.748331 26.592278 55.941711
13.470642 26.647867 55.93803
22.497129 6.0300231 56.096859
15.140583 10.341834 56.159798
11.080368 20.814493 56.164986
19.401819 25.849041 56.111732
28.984705 5.857748 56.206432
10.621156 12.349686 56.203655
12.871778 15.921311 56.286835
9.7116747 19.456406 56.268974
14.552038 24.968903 56.217667
17.70756 25.309406 56.25111
13.033162 26.055189 56.277306
20.704943 26.775614 56.286087
10.544122 12.427884 56.387711
12.814306 15.605051 56.364166
14.891604 25.895664 56.304131
14.900195 25.819637 56.304562
28.319958 5.716291 56.405418
26.237797 5.8095188 56.452164
23.724092 5.956852 56.452362
13.159928 10.896116 56.418125
14.602091 13.168982 56.451965
9.2896509 16.545914 56.480724
18.895533 23.499222 56.497921
16.181213 25.739523 56.449306
14.995702 13.815761 56.551811
12.733179 14.85253 56.533249
33.763733 15.179582 56.541092
10.729843 19.817705 56.597595
18.760893 23.394886 56.507919
29.695566 6.093895 56.651196
20.728582 9.7144403 56.678753
10.336561 12.90056 56.629486
13.887979 13.197992 56.641163
23.824232 16.761789 56.640888
9.7680912 18.028376 56.689445
18.928202 25.953522 56.620735
11.332141 11.282017 56.707512
24.546505 16.90715 56.756451
28.945099 17.56654 56.786316
16.688303 23.916031 56.753845
14.213837 26.033463 56.726601
34.754879 7.6512179 56.854965
16.985062 10.625086 56.897217
20.532692 11.149807 56.817635
11.486168 11.220802 56.806992
10.346779 12.779341 56.842533
19.35276 23.790489 56.827305
16.409859 25.487141 56.81237
15.810683 9.5733252 56.976147
20.501955 10.981818 56.968994
35.248409 11.933817 56.956921
20.847599 13.5145 56.967793
21.682127 23.010674 56.932236
14.554956 25.184088 56.952065
18.71665 26.308784 56.994751
19.072567 26.726118 56.971512
10.094049 17.884161 57.049957
14.402565 25.17272 57.020073
16.343834 25.405844 57.017296
28.525585 5.7240806 57.117363
23.807718 5.9345026 57.142216
22.130026 6.4476118 57.135872
11.085624 18.297737 57.153713
19.067387 25.791214 57.133736
21.279352 8.3398666 57.261406
13.996932 13.650751 57.257431
20.946667 14.637749 57.278885
10.150717 17.11883 57.293285
18.874718 25.55142 57.285362
32.346558 6.8753238 57.304764
17.003342 9.7898607 57.385719
22.34898 16.007923 57.365799
31.013571 17.551891 57.347862
25.746319 21.866644 57.319359
21.134348 22.651735 57.330605
17.381336 25.06073 57.311264
22.145327 8.3365479 57.486633
14.698098 9.3597469 57.413109
18.354345 26.146902 57.459187
29.165258 5.8678646 57.533485
32.15995 17.379387 57.504623
20.673199 22.683878 57.535946
19.429255 22.768257 57.519432
17.382906 24.887695 57.55571
25.952898 24.91313 57.556068
20.919451 25.304914 57.5746
21.656036 7.4027333 57.646721
17.473408 9.7923107 57.642235
14.2196 10.352719 57.681293
20.83296 14.474071 57.642113
20.802805 23.257942 57.615738
29.462822 25.043842 57.679649
34.734203 7.7509351 57.750233
12.667077 9.693717 57.710712
35.345184 10.454121 57.75985
10.246392 14.168678 57.77433
29.917137 17.640877 57.736149
15.450523 24.157555 57.712933
20.228544 26.854553 57.784294
24.322609 6.8915081 57.801834
33.257618 7.0603533 57.81662
23.621037 7.2396269 57.820801
25.839241 20.557396 57.895294
30.602467 24.490307 57.818062
16.546211 25.077475 57.801853
21.450754 26.086945 57.826752
20.721548 26.543375 57.84708
18.370708 26.916542 57.884922
21.874485 6.8518295 57.903214
17.069794 13.276592 57.993202
20.625542 13.61316 57.944832
25.124147 23.971367 57.982803
21.836475 25.811718 57.932037
21.265091 26.197289 57.927135
28.751684 5.7448568 58.043503
35.618919 9.1707916 58.076881
21.220047 15.557051 58.097862
30.129044 17.632738 58.061539
27.039261 23.909313 58.049065
25.270405 5.9145555 58.164219
13.748045 13.55526 58.135624
15.984629 13.940907 58.118958
23.928633 16.706259 58.109352
34.286156 24.956184 58.16811
29.499214 25.357086 58.128075
18.956083 27.386105 58.123978
17.140402 8.8274212 58.200722
13.216332 9.356534 58.200096
17.041245 13.522994 58.279442
28.894051 17.432568 58.274017
37.471775 21.305029 58.276524
29.453173 23.610237 58.224518
30.899273 23.68051 58.221027
30.905628 23.642534 58.239594
18.105019 24.455246 58.238235
20.292042 10.608148 58.337982
12.104077 14.870121 58.352734
26.764072 20.681625 58.377766
21.414326 21.834763 58.379433
22.423595 23.957119 58.384705
25.717663 25.52199 58.319267
18.823204 26.782616 58.367752
19.309544 26.950766 58.392509
20.772984 9.0006886 58.481735
20.302311 11.119024 58.48465
15.380414 14.52117 58.457615
29.703167 23.272408 58.446346
35.845257 23.918655 58.449467
18.141777 24.444277 58.414261
28.159679 5.7586651 58.59272
23.162914 23.862066 58.519527
20.525652 25.211535 58.592499
18.124117 12.927245 58.642391
20.582731 14.373587 58.607647
11.59237 14.444315 58.685272
30.942661 17.628334 58.715569
37.700691 19.531006 58.721195
27.70013 20.813742 58.741962
20.79933 8.8365631 58.850914
35.421452 12.500738 58.815323
20.36232 12.93017 58.832115
31.621769 18.941727 58.859997
36.969421 19.950218 58.801857
20.638765 24.696941 58.819393
31.653288 25.818327 58.878128
31.701294 6.5731936 58.983265
13.537967 10.92297 58.983376
12.963548 14.356937 58.916214
25.181335 21.979544 58.93697
22.806984 22.745401 58.956177
32.579296 22.73576 58.971359
35.711868 22.963717 58.900124
20.771431 23.39834 58.983849
24.694262 25.779881 58.946655
26.828413 5.8183088 59.086746
24.764416 5.9018779 59.035408
21.42128 7.6157117 59.055248
34.946949 14.023551 59.06094
15.945015 14.496658 59.008289
31.295258 22.529613 59.07877
29.183424 22.620525 59.002914
21.592529 23.898842 59.00034
19.177668 25.993324 59.065987
25.282299 5.8777657 59.112198
13.92235 10.555653 59.18903
16.90797 14.121239 59.167675
28.051304 17.225727 59.1492
30.530729 18.883127 59.113792
38.71862 20.605148 59.19838
38.501373 21.749434 59.194263
24.209415 23.233952 59.168037
24.703035 23.23312 59.189457
35.035019 25.425869 59.100746
24.601419 25.627272 59.156982
34.669224 7.8992186 59.299973
16.24115 14.502485 59.265114
30.788614 19.800657 59.222412
33.029774 22.434097 59.294834
25.427029 25.796827 59.205124
33.057125 25.864891 59.222992
20.017467 25.980772 59.203938
35.248524 8.3927593 59.38131
20.605406 15.489213 59.356491
22.987989 25.566599 59.359596
24.850422 5.9005384 59.439713
21.456154 7.4440002 59.468376
20.846886 10.536095 59.406509
28.636826 17.296324 59.428841
31.816589 17.623722 59.416245
28.733589 20.37991 59.488983
38.964592 21.99551 59.459244
27.959946 26.04624 59.470116
36.427174 10.320639 59.501808
27.561893 22.722374 59.592804
22.758133 24.355961 59.563324
22.79604 25.257595 59.586067
13.007577 12.440283 59.602028
37.793533 17.480047 59.600792
23.654524 20.685143 59.637489
31.782879 22.286736 59.695
23.716442 25.262453 59.660145
25.818478 5.8611212 59.788574
23.435692 8.032795 59.70089
20.333906 12.23056 59.759071
17.706188 14.160505 59.723427
38.96888 21.782028 59.712158
35.647919 8.7882214 59.859879
36.039314 12.100811 59.8624
34.808132 22.055859 59.865372
19.295122 22.907793 59.890785
28.201973 25.800957 59.869942
28.121592 5.7748704 59.959175
14.641775 14.163044 59.946064
37.268429 16.732777 59.940773
21.453316 21.283121 59.990021
28.515095 22.769291 59.94696
15.567234 8.7467537 60.091717
13.65948 12.764384 60.039597
21.158239 21.519255 60.009441
22.238863 22.547628 60.099529
30.086361 25.946659 60.023792
35.185154 13.668876 60.19207
34.50444 19.52623 60.150692
39.01091 21.91839 60.137283
22.742172 22.350498 60.199455
16.764132 8.207695 60.20507
16.082695 8.4196262 60.273254
20.668007 15.702769 60.228828
22.459164 16.183905 60.257156
36.471214 16.66547 60.233086
33.933479 17.300203 60.245914
35.206261 17.597467 60.297085
27.746925 19.411499 60.240917
20.142216 7.8889565 60.361145
22.074287 8.4149103 60.360291
33.961544 17.147785 60.355274
33.828545 20.247683 60.344704
39.324844 21.188526 60.341457
27.453014 23.343128 60.347343
25.786097 23.771538 60.376236
36.513237 11.627848 60.406418
38.213608 16.66353 60.45623
39.159031 19.031446 60.450951
33.995529 19.671759 60.434593
24.312826 21.493834 60.457409
21.636831 22.393297 60.479496
25.605017 24.574615 60.412151
14.316959 12.65349 60.575169
35.085083 14.04321 60.545723
34.818142 14.478905 60.590706
28.157421 17.116985 60.587128
39.328388 20.345753 60.577168
29.437895 5.9255848 60.678272
29.791006 6.0815182 60.696838
18.172792 7.9338226 60.615288
13.722729 11.476189 60.695122
23.511578 16.431822 60.61721
26.712709 16.894871 60.624729
30.055687 17.365673 60.638775
31.324841 17.372635 60.688484
39.176319 18.615149 60.662918
33.703323 21.917227 60.678684
29.088741 23.229645 60.689976
27.867764 5.8110237 60.797127
21.498669 7.3730035 60.787876
34.886276 8.2648373 60.713676
35.697857 8.939661 60.700474
13.862968 11.609722 60.715378
36.260422 15.465787 60.771912
23.537569 16.352411 60.792606
31.228241 19.155844 60.721985
33.883392 19.199907 60.778381
29.845837 25.391617 60.776146
35.274132 8.5992146 60.835339
14.131487 13.026003 60.889206
20.152254 14.364326 60.816715
27.939993 16.976931 60.834652
32.389797 17.681164 60.898655
39.082062 17.883921 60.88443
24.84375 20.148436 60.860748
28.745008 25.169327 60.884766
29.344734 5.9233356 60.942917
17.567181 7.8808146 60.987083
13.67036 11.506804 60.914631
34.287239 15.671328 60.980293
33.57267 18.317495 60.948334
33.338337 23.418747 60.902634
37.319263 25.195644 60.91074
30.46594 6.2215719 61.03746
31.92634 6.6091633 61.057129
14.228588 12.81814 61.085068
19.98954 14.341597 61.050274
19.798393 14.681101 61.093647
21.742899 15.755643 61.045441
34.197289 15.959385 61.071365
33.957115 18.513714 61.04528
33.666405 20.634407 61.065117
33.618301 20.741802 61.062248
38.0793 22.191637 61.074623
21.58989 7.6191497 61.127472
35.238106 13.876101 61.192719
