# .PCD v0.7 - Point Cloud Data file format
VERSION 0.7
FIELDS x y z
SIZE 4 4 4
TYPE F F F
COUNT 1 1 1
WIDTH 1556
HEIGHT 1
VIEWPOINT 0 0 0 1 0 0 0
POINTS 1556
DATA ascii
3.9461203 -12.14049 23.972855
5.5141821 -8.3516216 23.970148
-5.8927536 16.915016 23.998051
-0.72088253 -9.7720871 24.0016
7.2167311 0.87969512 24.032589
-5.1433654 17.583014 24.062647
1.3592724 -6.8379135 24.145208
-0.60410595 5.0341167 24.138193
4.05089 -12.145786 24.264883
-5.7995305 12.926199 24.416965
-5.0270772 5.7061925 24.733711
1.8826846 -2.0274005 24.8841
1.0932584 5.7519922 24.981379
8.9769964 -6.4841352 25.128012
-0.8183803 -1.8107785 25.390265
8.1373739 -0.66056263 25.4925
-6.3465962 16.069031 25.503925
3.0520627 8.100894 25.647017
0.57186985 -11.510501 25.727764
3.0100212 7.6866512 25.852612
5.4474144 -11.745352 25.913242
6.619381 -10.863959 26.081135
3.0786324 7.8821273 26.162622
8.8501616 -6.5444975 26.320467
-2.0236971 -6.1750441 26.31271
-7.1712294 10.189949 26.540001
6.0833197 0.59817106 26.684536
3.288599 13.172995 26.777576
1.5139716 15.76775 27.195145
-6.2510066 7.0414448 27.408993
-3.9735 4.9093952 27.697628
1.7652823 0.20512086 27.815781
2.4747694 15.0742 27.894569
8.8741055 -3.4770737 27.956261
1.1074932 16.034357 27.993776
-0.083189905 -1.1396003 28.049267
5.204566 -12.068092 28.174364
8.6088161 -6.6544003 28.131393
-0.43491322 -11.676924 28.387901
7.9509706 -1.748952 28.330631
3.4290919 13.072538 28.680172
-0.74035841 -1.6368576 28.763435
6.7714262 -0.32804221 28.718399
2.7575941 6.4751425 28.958578
-5.9625201 15.225763 28.970886
2.560086 6.1939554 29.229952
-4.6850033 16.478689 29.312023
0.73142773 -0.81100428 29.589386
3.5971267 8.5713491 29.562218
-1.2343702 17.311817 29.690058
-0.38655847 4.0452895 29.929426
0.99794894 4.570662 29.916355
-3.6024675 4.3640327 30.22517
3.6245832 8.2089424 30.278912
8.4364309 -4.8510222 30.336805
3.8222322 9.3442135 30.370935
7.3246589 -10.155983 30.43959
8.3837795 -3.4514265 30.619061
-0.56622016 -1.8137743 30.704426
2.2652764 0.029622197 30.994009
7.3466053 -9.9015188 31.0728
8.2124901 -6.5717082 31.001181
8.297389 -5.3214116 31.074789
2.0114965 -0.068476439 31.04044
-6.6636028 10.7094 31.05806
0.44818982 4.0823784 31.146427
3.5428007 7.086277 31.105417
2.5600224 14.71587 31.364649
-6.1190052 7.4549551 31.837284
-2.5815258 -7.7201281 32.298954
7.8540802 -8.0157413 32.351387
-1.8811488 3.3101006 32.382565
-6.0516038 7.2978144 32.363491
-3.6818185 4.0153646 32.562256
3.8574581 12.323921 32.62117
1.3515687 -13.921388 32.739162
7.5186138 -3.2516294 32.703243
-1.1531036 -12.231021 32.81044
-1.0834053 16.827124 32.878418
2.0566788 4.6843786 32.932549
2.9953506 14.284998 33.020824
-2.6691942 -8.0396385 33.263123
-2.7073479 -7.0817733 33.322472
-3.7717135 15.985031 33.349094
4.2705812 11.071357 33.420166
-3.5540183 16.044313 33.421635
-4.793642 4.9874606 33.683052
-6.1570377 12.677827 33.612988
-0.58522236 3.0752473 33.862648
3.7547956 -13.963369 33.923397
4.1407199 8.5984926 34.004276
4.3821235 10.840908 34.258224
-1.9279234 16.404207 34.335857
4.4552355 -13.744854 34.425949
5.3292456 -12.914776 34.557671
2.8329165 -14.382707 34.693398
2.9589477 -14.350019 34.699242
4.242188 11.405476 34.797943
1.832936 3.9165566 34.9767
3.985183 6.9268889 34.985085
-5.939116 8.5092411 34.972439
-0.93576473 -13.339764 35.13596
-5.9354362 8.9100227 35.48193
1.9360602 3.8244209 35.51149
4.0498614 -14.274438 35.769814
2.1566157 14.981586 36.031792
0.26418665 -14.474878 36.272091
5.9479451 -12.430269 36.249329
6.3780584 -11.9784 36.200993
4.6799212 -13.789265 36.574135
3.6571202 5.1925344 36.540604
4.7009268 9.9763498 36.626171
2.0503757 15.074523 36.841938
-1.3862936 16.021214 36.898563
-2.7657671 2.6806109 37.502743
-0.74076736 -2.6477489 37.60577
-4.0012984 3.7709274 37.791988
-5.5183802 6.803874 37.716743
-0.24791262 -14.831967 37.83604
3.9440269 12.700532 37.881813
7.0809994 -7.347127 38.693451
4.7288656 -14.159836 38.710327
5.2537031 -13.748001 39.341125
4.6854792 -14.379957 39.598606
5.9570441 -12.870696 39.696388
1.4919486 -16.211227 39.733074
-3.4985738 -9.5212812 39.792068
-3.7093897 3.1122513 39.914574
0.05707854 1.5324829 40.033768
-5.3409986 6.7387877 40.118481
-3.8259282 13.458857 40.221397
5.8475409 -13.155781 40.359016
4.3139362 11.446571 40.49118
-3.5612683 2.786531 40.773659
-5.2291055 10.887687 40.787853
2.2837675 2.0587115 40.931198
4.5090809 4.6443815 41.561184
4.4216223 11.062656 41.567123
-0.17195717 -16.509422 41.692184
-1.9868437 -15.483715 41.658539
-3.4669945 2.5266013 41.670284
-5.2101431 9.6854992 41.611675
-3.4402244 -13.376805 41.949364
-2.3163619 -5.0763502 41.921051
-3.9062123 -9.4199591 42.390785
3.8931038 3.3379166 42.305092
-4.762496 4.0989532 42.362186
0.73016006 14.412556 42.331154
4.5146413 10.734481 42.438713
0.11110001 14.527588 42.421432
5.5285797 -5.5277128 42.522133
-2.0195975 13.934336 42.54834
-1.9971161 13.94943 42.531555
-2.4225702 1.2047914 42.91386
-5.2053609 7.9302859 43.041122
-3.3162069 12.68524 43.28643
4.3028665 3.1732178 43.421879
5.1771398 6.736371 43.528809
-4.3213139 3.248373 43.889156
-4.9331751 9.5975609 43.903328
1.6324556 -17.737879 44.242683
-4.1771612 -11.628157 44.253197
6.2471046 -9.1418266 44.297165
4.706408 -5.3586526 44.293251
1.4274907 -17.863882 44.364937
4.8480701 3.6492794 44.36116
4.0681295 -16.321465 44.674244
2.9469433 12.532609 44.658577
2.4394279 13.044868 44.860477
5.0109334 3.8632674 45.051846
-1.7887378 -17.882492 45.229218
-4.4020162 -11.755807 45.460762
3.3439007 -5.1061625 45.556217
-4.667963 4.2504153 45.675255
-4.3901572 -14.050234 45.739201
-1.2531407 -18.54356 45.819206
-3.2682569 -16.653107 45.971924
5.6893296 -12.998883 45.925919
2.9449418 -17.914776 46.166504
5.8356895 -12.406502 46.176712
-3.8222179 -9.0914783 46.344307
5.8666005 -12.268206 46.47702
4.0801134 1.3812263 46.482132
-4.6377678 4.3535981 46.618019
3.8948557 1.1269753 46.807346
5.8047915 -11.081337 46.921234
-3.9025893 1.8914379 46.938042
-4.810041 5.6572375 46.970844
-3.2236583 0.90945143 47.085129
-3.3701744 -16.997906 47.426521
4.6539688 -16.654261 47.47633
5.7426534 -11.829591 47.511852
5.1589484 8.6925659 47.51284
-4.6677027 -14.391213 47.610527
0.21660651 -1.4243865 47.68383
-4.0005555 -16.146729 47.748711
-4.1688671 2.1893041 48.232441
5.4049277 -13.912378 48.524021
5.5660028 -13.337895 48.552116
5.7827373 7.1223764 48.697151
4.8073483 -15.784719 48.851883
-3.2824779 0.95065415 48.912884
5.5221996 -9.8029346 49.010231
5.5361829 3.0732787 49.081474
4.6141272 1.3452426 49.139935
-5.2029819 -10.423788 49.696953
-2.3090317 -0.95266414 49.680031
3.516737 -17.168037 49.850315
2.0989513 -1.526262 49.978916
-5.168262 -13.546688 50.087158
-1.5978609 -1.5154754 50.044411
-1.187287 11.175093 50.002125
-4.3022246 -8.247016 50.361481
-2.8152323 -18.186483 50.46497
4.5768728 -8.3546333 50.462929
4.6773562 -15.181405 50.515488
0.51225197 -2.2607288 50.552933
-3.71666 -7.6609468 50.688889
-3.7486064 -17.021826 50.867653
-1.7410105 -1.6350609 50.897346
5.3880858 -11.789943 50.97863
-0.16185056 -19.423948 51.196304
-4.175087 3.5926123 51.184113
-3.8708661 1.7941457 51.270359
-1.3908219 10.92382 51.218246
5.5538235 -9.4654074 51.455086
-4.2684412 4.1943493 51.651226
4.1770997 9.6270714 51.665409
3.9927549 -16.395161 51.790306
6.5166187 3.2248559 51.781147
-4.4175243 5.4276781 51.779919
-5.1806383 -15.186703 52.027214
3.1325331 -17.330227 52.286083
6.8852444 4.2410574 52.232513
-1.3902073 10.803267 52.228802
2.4104025 -18.186899 52.350365
-2.4041684 -5.7739525 52.652618
-4.3185334 4.6644926 52.677223
-4.3228817 4.7178154 52.895245
4.8410635 9.1661844 52.851444
-6.2880888 -10.183106 52.976883
-3.659497 -17.830645 53.029881
4.7482233 -8.1159515 53.019451
-6.1123095 -9.6251812 53.256351
5.0245605 -8.4444275 53.228447
3.0450578 10.552607 53.216026
4.2780428 -15.093019 53.339317
-5.0560069 -7.2835407 53.416672
-6.4701605 -10.008097 53.658092
-4.5916595 -16.677189 54.357285
-6.6000862 -10.794428 54.354053
1.1409552 11.056271 54.772869
2.5825508 10.642634 54.806091
-4.6250987 -16.782217 55.09045
-5.5642476 -15.437971 55.245186
3.5949323 -5.9641929 55.315639
3.038157 -3.0163658 55.305882
2.3265424 -3.251235 55.457825
1.3818126 -18.305363 55.747166
-4.0531902 3.8341393 55.830109
-1.4391958 -18.718992 55.901699
5.6222844 -1.5708072 55.971634
7.7913094 4.9093571 55.964085
0.85243726 -3.9149275 56.042023
-3.5382569 0.3587625 56.012627
4.1441278 -14.104105 56.175987
7.7242208 5.3126159 56.225273
1.3244233 -18.126406 56.459454
-6.8904104 -13.576674 56.657364
-6.8845458 -8.2379074 56.709103
-5.7922878 -5.8145509 56.714394
-4.0152607 4.7846036 56.775284
1.2445983 -18.035814 56.999439
-1.6932044 -2.573535 57.603733
-3.8168879 2.9175887 57.699005
2.9431357 -4.2909107 57.704971
3.9896247 10.267955 57.964981
-3.8019307 -17.458879 58.108181
6.9993801 -1.0072706 58.123634
-4.5714178 -4.0754051 58.394943
-6.0623684 -4.7924876 58.455299
-3.6470809 2.0440168 58.463474
7.9869986 5.9085197 58.480789
-3.6769457 7.8092747 58.417709
-7.5011816 -7.9640837 58.654739
4.5388112 -3.7234511 58.799004
7.6266632 -0.61675012 58.984074
5.9369845 8.90625 58.930573
4.3820677 -6.1912603 59.182175
-6.5031109 -14.89572 59.266865
-3.6160131 7.0745792 59.443176
-6.86974 -5.6411848 59.523941
-6.600112 -4.881413 59.639954
7.4015708 8.0610886 59.674049
-7.0166969 -5.7853565 59.75742
0.07518658 -4.1542497 59.863461
-2.0976791 9.3411846 59.837372
4.9831228 9.8672485 59.969307
6.3792772 8.7900085 60.134987
0.34849191 -2.0911896 60.275272
-3.0507288 -2.3981106 60.339684
7.8443174 -1.0799216 60.492523
-3.0798914 -0.70339668 60.408627
4.6972833 -7.5037537 60.500656
1.439189 -16.623323 60.799553
3.1650567 -3.7882214 60.784115
4.6754589 -7.2714539 60.836903
2.0049458 -15.895137 61.287506
-8.1734734 -10.903482 61.260994
-3.4352977 -2.1022587 61.264366
8.1314564 7.2776618 61.29044
-7.1790328 -14.163919 61.367882
8.0724831 7.5158362 61.371639
7.4790382 8.249301 61.355453
-8.2989674 -9.3257122 61.430809
3.1835752 -3.7230763 61.411209
1.0959918 10.788913 61.430965
-5.836061 -3.0164888 61.634727
-8.0469847 -6.448061 61.760925
2.0807915 -5.2482514 61.749641
8.2209997 -1.2247659 61.775871
-3.5251958 4.9042501 61.795593
3.2865782 -3.8405483 61.825897
3.9016938 10.393387 61.874325
-7.5680046 -5.0109034 62.044369
-4.3535519 -2.1363409 62.143234
-3.5973506 -1.7146178 62.331398
5.0587559 -4.7233734 62.468159
-3.6493294 -1.6825695 62.437325
-2.9481664 -0.71178746 62.459682
0.29589811 -4.7990961 62.639885
2.4487939 -2.2877429 62.682693
4.4344234 -7.2425866 62.772362
-1.0297074 10.073703 62.79834
-0.16000023 -4.6852474 62.871552
-3.4782479 2.6019754 62.895908
8.0694332 8.0880404 63.198708
-0.92563099 10.129294 63.143906
-8.3243933 -12.54523 63.279388
3.8962119 -10.954353 63.338264
4.4020543 -6.5575919 63.48172
-8.8458595 -8.4852057 63.502853
-8.5106525 -5.7598982 63.694763
-3.9075577 -1.2421063 63.687237
5.6444678 9.7258043 63.6432
2.988359 -3.1059835 63.74807
-0.83881617 10.108324 63.784611
2.301656 -1.9023786 63.837585
-2.7050316 -1.4646363 64.137001
-2.8600256 -17.399137 64.361526
8.3370161 7.9405184 64.39444
-3.2161446 -17.372585 64.441498
4.0033627 -9.5831089 64.536316
-3.1855636 6.0137997 64.517616
4.3086972 -5.6774344 64.746536
4.8755312 -5.2875047 64.788612
-3.3305368 2.6718881 64.951447
-3.3241239 3.4290442 64.969147
-3.0734034 1.256662 65.104752
3.7094731 -4.1936917 65.204025
-3.3789611 -0.52871078 65.267899
-5.5499072 -16.142141 65.478195
-6.1209273 -15.864773 65.407555
9.6526184 0.22320628 65.598808
-7.7784104 -2.669899 65.664238
-5.170845 -0.98340678 65.681526
-3.2470191 3.6128068 65.622047
-6.4220524 -15.613354 66.053215
-9.5120096 -7.649497 66.084686
9.4076262 6.1486287 66.006805
-3.3044727 -0.14115411 66.22612
-9.4689922 -9.8117199 66.363297
10.02393 1.0450187 66.528732
-7.763896 -13.958834 66.699173
-9.587656 -9.3344173 66.75502
-1.3317853 -16.632898 66.85096
8.7421236 -2.7288351 66.869164
-2.6602039 0.040638611 67.297714
-4.0890164 -16.596739 67.31517
4.709794 -5.8975 67.338638
-5.3225555 -0.32185355 67.348602
2.2458386 -13.428164 67.441833
2.943747 -11.126117 67.522087
3.6127 -9.0353022 67.583778
5.0896769 -5.8353682 67.539963
-7.9314661 -1.5429366 67.789398
-8.7337103 -2.9081562 67.8293
1.0297959 10.416389 67.896606
-1.0926223 -3.6728997 67.928963
9.1320419 -2.7278442 67.937622
8.6881762 7.8027949 68.058655
-0.72828352 -16.224312 68.115768
-2.6898885 0.69178784 68.177307
10.657938 2.15378 68.281288
-2.9579675 3.2698007 68.426506
-4.0984683 -16.395185 68.593193
-9.8235741 -10.709021 68.584541
-10.202044 -5.8965831 68.561096
-8.6618881 -2.2835162 68.592545
-9.1855764 -3.0744944 68.77153
-1.8006555 -16.173473 68.863365
-10.246618 -6.2573428 68.82399
1.3742642 -6.0328074 69.09446
-3.4723294 -16.292446 69.169159
-8.3069191 -13.287097 69.379333
3.0852866 -2.6186604 69.350143
10.469346 -1.3939469 69.704269
-7.9751282 -14.162182 70.088799
-8.7038755 -13.259695 70.074486
0.1884867 -5.5051303 70.038376
9.0913 -3.640039 70.007004
-9.1776085 -11.025075 70.168625
-9.0445576 -10.967883 70.107452
0.13445878 -14.501511 70.204071
8.4313183 -4.5035162 70.259293
-0.42363167 -15.04714 70.313873
-9.2885342 -10.996124 70.361832
3.1032019 -8.6928921 70.389931
-0.52520567 1.2582839 70.394676
2.3182776 -11.13688 70.512741
-6.9930744 0.28098482 70.576157
-3.5376723 1.4082476 70.526344
-1.3534815 -3.225673 70.677414
-2.7369547 2.4906008 70.623077
-9.4455299 -2.2138238 70.773224
-2.3780682 6.7942834 70.741661
1.7569724 10.245149 70.81459
0.86012739 -13.354273 71.165215
-9.4232817 -15.049704 71.286194
2.8251891 -8.9396667 71.281723
-10.779797 -12.932158 71.330688
-9.6195126 -2.147161 71.33551
6.26651 9.4853926 71.446037
-7.5058603 -14.029225 71.523903
8.028161 -5.5160074 71.503235
-2.4315495 1.0559893 71.616982
-10.643231 -14.356197 71.768478
-10.842312 -3.9760911 71.780891
0.22271918 1.4239802 72.065453
-0.11797655 -13.973352 72.167137
-10.077212 -12.661384 72.190437
-7.7265172 -13.882904 72.234634
6.7181315 9.3086586 72.220551
-10.998976 -11.827366 72.493744
3.4907365 -3.1744387 72.491127
-2.3450861 0.98799193 72.499046
-0.88727546 8.1231718 72.481758
-9.843708 -11.116885 72.685661
-11.044863 -9.2481737 72.79895
1.3262348 9.9876423 72.71946
-5.1326208 -15.224487 72.806053
1.8911278 -10.958311 72.984253
11.768509 1.3742319 72.996925
-8.2007942 -15.57453 73.078079
0.20959228 -13.240725 73.12085
-1.6818657 2.3800051 73.139915
-11.075989 -14.096439 73.277107
-12.199667 -10.518938 73.206863
0.19893318 1.7116873 73.297867
-9.5471363 -15.122421 73.302322
-7.6120129 -13.771752 73.329628
-11.199723 -8.7836256 73.318779
9.7001419 7.2815862 73.493347
3.8265538 -7.3288383 73.595543
-0.51526266 -4.3894358 73.543831
-2.3455751 4.8635621 73.578552
9.310873 7.5618682 73.527473
11.007782 4.8767362 73.839523
-10.028642 -14.698025 74.103882
-10.674094 -15.275198 74.220116
-10.067328 -14.647107 74.291931
-12.488853 -10.876556 74.273224
7.8708458 -6.2745008 74.245644
-0.17679459 2.0637105 74.232239
1.9273039 -9.9099989 74.373619
-8.1424932 1.0881177 74.498535
-10.556086 -15.100126 74.542664
0.17346543 -12.599775 74.797691
-9.9422302 -0.73975539 74.730865
-2.0078931 -0.13161027 74.795792
2.162106 -8.8058643 74.822449
-1.7715938 6.5530853 75.049843
11.016959 5.1834188 75.197159
-12.515995 -11.328124 75.235336
1.9559072 -9.2275209 75.25206
-6.4801621 2.0870681 75.250801
11.246444 4.6358142 75.222496
1.9684689 9.8248968 75.330193
-11.316738 -12.678409 75.411316
11.808989 -1.1269009 75.438583
-11.376186 -12.251681 75.525162
2.4747434 -7.2100983 75.507538
0.64834869 -5.9671545 75.641357
12.214005 1.0914545 75.680344
0.80318272 1.8621811 75.698914
-4.979044 -14.63968 75.924805
-0.40040112 -4.3978615 76.175842
-10.254203 -13.158609 76.302185
-8.1106606 -15.163492 76.479752
9.0101728 -5.8943696 76.441757
-0.40705326 7.675096 76.472061
-7.3154879 2.1369352 76.570282
0.51842159 8.7197781 76.510986
10.934132 5.7388749 76.665314
-11.524952 -2.363672 76.71209
10.75906 6.1786785 76.736992
-8.8301716 -14.804543 76.877838
-1.6361002 -0.9738096 77.066795
0.47494549 -5.5948982 77.185165
2.5688879 -1.35298 77.221703
-4.9999366 3.0407386 77.256363
1.6840981 -6.9796066 77.457916
-6.728507 -14.855765 77.541656
-8.0662212 2.1119139 77.522995
-6.818532 2.6470194 77.587128
1.2200147 -9.8498993 77.663239
-11.919261 -7.5894246 77.618698
-11.230969 -10.252813 77.866165
0.46646315 -5.5313449 77.845818
-12.11059 -3.1033006 78.028587
-1.7227366 2.325624 78.030029
6.3635912 -7.3770781 78.103012
3.9764895 9.6956167 78.17984
-12.033283 -6.868114 78.232986
-11.187977 -14.613601 78.326698
-12.054506 -6.4497795 78.303932
-11.215906 -0.86319047 78.391388
0.17273268 7.7141323 78.360489
-3.6430826 -13.723796 78.49263
-6.3845177 3.0878782 78.459778
7.3199325 8.5701122 78.405487
-10.944393 -9.1475821 78.674507
-1.3338807 5.8912735 78.667206
2.2315679 -1.782573 78.708817
12.546252 -0.19901764 78.746765
-10.397863 -15.029039 78.920471
-11.421143 -14.254692 78.992432
-12.429157 -8.9290085 78.905975
0.90428269 1.6691248 78.966919
2.1394875 -4.8918505 79.061348
2.110986 -4.4181385 79.154251
1.9026551 -6.2126188 79.311554
2.0135171 -2.8629072 79.487434
-7.5362391 -15.090502 79.612061
-10.814309 -9.280961 79.769554
1.3922457 -6.7347445 79.721214
1.5275567 -7.0804653 79.890381
4.7684784 9.2482433 80.194153
-1.3952515 -11.906082 80.251984
12.876879 0.12598246 80.313316
-12.717506 -12.601237 80.446785
-12.524769 -2.3552296 80.481842
-11.199805 -14.049326 80.590652
-10.496084 -9.7587414 80.546043
1.8277951 -5.5085802 80.531113
-8.1759253 3.0649042 80.589874
-1.445805 3.9716129 80.658142
-0.50347567 -3.6042066 80.781647
-1.0971434 3.8532085 80.744125
12.639314 -1.9063926 80.847641
-3.961916 4.4284849 80.931503
-1.078567 3.2553067 81.059486
3.9333935 -7.9073544 81.289597
-4.7927079 -12.925035 81.315758
-14.212596 -8.9358559 81.377243
-11.393167 -8.1751089 81.341171
1.7841526 -4.1368122 81.449303
-1.0499593 3.075053 81.431145
-14.124833 -9.0417967 81.520187
-10.345877 2.5379903 81.579041
11.660869 5.1750183 81.577454
-8.599226 -14.533469 81.863991
11.607287 5.3730798 81.861389
-8.1659498 -13.926922 81.921524
-10.763058 -9.2082262 82.023033
13.081244 1.7540072 82.01181
-12.691587 -5.1989617 82.129761
0.59379375 2.7002482 82.115768
-8.0178728 -12.641139 82.213219
7.213048 -7.6807737 82.245422
13.00642 1.9974149 82.248817
-9.5789595 3.5770862 82.297554
-0.79062986 3.7858071 82.290588
0.52132046 -5.0386143 82.463608
-1.4020379 -10.805814 82.652161
-12.81195 -2.4213643 83.045273
1.2632872 7.857728 83.191261
-9.5029783 -10.491859 83.219284
11.85783 -4.4203234 83.296844
-12.158237 -9.0355368 83.459869
-14.892639 -8.7111568 83.476936
-7.3141413 6.0259953 83.586395
-6.9064312 -11.995533 83.626068
-13.531875 -8.6119833 83.678909
3.3426833 8.7299643 83.632446
-1.4812587 -10.322256 83.752502
0.97696882 1.2560802 83.704208
0.95361859 2.6774635 83.755653
13.096718 -1.8064435 83.813644
-9.7565403 4.2373042 83.934929
-11.398001 -8.6993399 84.063934
0.45187259 -6.9369841 84.047974
12.737024 3.1256762 84.154228
-9.4161921 4.6648784 84.186584
-9.619504 -11.428802 84.236099
-0.50397563 -8.8336468 84.232117
-0.8299489 1.7448795 84.229416
-6.512217 7.0308409 84.383499
-2.8330467 8.3188324 84.329857
0.86101699 -2.0132489 84.414734
-13.003435 -10.278551 84.534851
-13.455688 -6.6921949 84.512733
-0.14985651 -2.0571163 84.51268
-11.208917 -12.181347 84.699051
-15.088337 -10.974832 84.689529
10.173409 6.7191925 84.747787
13.233442 2.0748541 84.931091
-10.275846 -13.208766 85.080208
-14.331446 -8.6869621 85.171082
6.0627375 -8.3737822 85.123947
-11.016109 -6.4805174 85.154198
-12.377857 -10.092237 85.273712
-11.515843 -11.857737 85.38327
-2.883213 -11.245665 85.318695
-13.296453 -7.5075502 85.327942
2.7197704 8.3794489 85.346771
-2.4133775 8.5903034 85.373413
2.3186972 8.2933273 85.478317
4.7746406 9.0777235 85.436317
-10.030046 -10.00592 85.585266
-8.5487633 6.1133804 85.527023
-11.196218 3.4157054 85.614159
13.207821 -2.0722308 85.704971
11.895553 5.4781108 85.768295
-11.917679 2.2129171 85.880341
1.1142706 6.0909843 85.815628
-13.506722 -5.6899257 85.991814
6.0746584 8.888175 85.970299
3.8397806 8.9037266 85.951546
-1.2868446 -7.4887609 86.023865
1.8245251 -6.0855551 86.06736
-9.3795424 -12.02433 86.106796
10.786223 -5.9633827 86.222809
2.9557247 8.125371 86.293221
6.7370472 8.7525358 86.333954
6.0852404 9.1453924 86.353355
-2.9104638 -10.44042 86.540794
-10.417752 -6.4617939 86.548523
-11.035164 4.1663651 86.546265
-10.564335 -9.5233059 86.802673
-8.8585978 -11.030689 87.059189
-10.626175 -9.408062 87.011047
2.5832558 -7.6089025 87.00766
-9.3256083 -7.4460487 87.067604
-12.871601 -4.7051778 87.087006
-16.011972 -6.8046827 87.17337
12.744479 4.0175047 87.217278
-3.9580698 9.4141731 87.3013
-13.360338 -4.6531758 87.44278
-3.8171186 9.5446835 87.464439
-9.9346495 -8.8845119 87.561584
-11.192369 -11.892891 87.666336
-15.641302 -8.5675726 87.990074
1.2798831 9.0884352 88.042877
-13.093525 0.50524169 88.229118
-10.705362 5.5122871 88.626244
9.3452921 8.4555511 88.697182
-4.469656 9.7801504 88.644829
5.3396468 10.011181 88.659546
-15.38337 -5.8770761 88.752846
-12.514571 2.446224 88.756165
-9.853508 6.3940039 88.712845
-13.145161 -11.254558 88.992851
-12.803925 2.0325394 89.094383
4.7422829 -8.3897333 89.263931
1.9305744 9.6052723 89.248795
-3.0910027 10.433797 89.268242
-11.906157 -6.4313817 89.323265
13.077621 -3.5792475 89.477295
-8.6079826 -9.0312271 89.640503
-6.6307817 8.9607792 89.839813
9.5285597 8.4522171 90.147057
-14.60315 -4.2922802 90.381897
-9.9142141 -6.7654071 90.417885
-11.271797 -4.6894326 90.415672
12.673805 5.1433229 90.486305
-15.655628 -10.256299 90.58168
-5.6460271 9.3644772 90.559006
-11.77776 -5.1099401 90.948189
-16.080072 -8.1997223 91.092751
7.0493832 -8.2691422 91.19426
-11.840243 -6.4619856 91.260529
-1.0740465 10.10295 91.245094
-14.870437 -2.5114651 91.474022
-1.8717065 -8.7432137 91.5858
-8.6693573 -8.1643209 91.523682
-17.929386 -6.5000448 91.674812
14.999599 9.2682009 91.608139
17.781532 4.229351 91.725029
16.922993 1.2508683 91.87957
-3.123138 10.415891 91.887642
20.029423 9.2523985 92.02182
-11.312297 -5.3691082 92.124268
0.1669682 -8.6796379 92.232719
-13.055778 -1.0652088 92.276062
18.977015 8.2120905 92.298096
15.777254 8.7237053 92.29747
14.938415 9.7392082 92.388878
16.28606 1.6641659 92.449814
15.332983 -0.70044655 92.517471
20.600471 9.6457729 92.697876
-6.0325298 9.2260704 92.845047
4.4584241 9.9774303 92.832031
14.898402 3.1095471 92.963791
-15.588703 -9.1408205 93.170929
-18.709332 -5.0333471 93.188492
13.040757 4.6470122 93.110146
-11.600742 4.8985014 93.107826
14.865692 10.137258 93.14785
-10.006766 6.7214527 93.216217
15.839127 8.6005611 93.362633
18.559258 9.3751001 93.383667
17.150337 9.5077105 93.336182
19.617111 10.152224 93.374367
2.7981889 9.8254566 93.476585
13.995043 -3.1761537 93.547806
0.31875929 9.6582985 93.524895
14.202234 -3.8063493 93.610443
11.137533 7.0904255 93.695961
20.669706 12.039088 93.614838
19.119162 9.1842232 93.780495
13.977923 1.069039 93.807747
12.225075 5.8987598 93.89138
20.534351 9.5406027 93.991112
-7.9269032 -7.6833973 94.03756
-5.4607935 -8.3547039 94.115883
11.653351 -4.9390879 94.145477
16.303005 1.3909508 94.121872
13.553929 2.3727832 94.153687
15.912882 8.5401669 94.124367
-14.540283 -1.2460862 94.405029
16.643059 2.2079334 94.440895
13.254947 3.1993506 94.464218
13.805084 8.5112705 94.402237
13.958748 8.5666094 94.486115
14.217502 9.3566561 94.47126
-12.097437 -3.0579011 94.530197
19.975761 7.0023456 94.57608
-0.13253278 9.2276421 94.567268
14.10033 -3.4270339 94.615479
15.527531 -0.85054994 94.651306
13.783798 -0.49457029 94.774208
18.692959 13.650396 94.739037
-5.6227212 -8.3796883 94.872253
19.112389 9.5367641 94.810181
22.103436 10.556201 94.817039
19.94842 14.058112 94.803871
-0.44941503 -8.9352703 94.921318
18.628441 7.2881708 94.98439
-8.6115036 7.5020151 95.086273
21.781641 9.2509003 95.069595
-3.5884976 9.6032372 95.037796
20.598486 11.974431 95.032654
-4.2907643 9.4004049 95.181572
16.857288 9.5653505 95.114151
21.178078 7.765914 95.250069
10.056347 7.9878373 95.227661
-4.7346478 9.306673 95.202042
12.573001 -5.4385209 95.364143
-13.954794 -7.5790925 95.573822
14.418179 -3.4860189 95.571739
7.3780718 -8.3107605 95.661621
13.763333 8.793745 95.62529
-4.6417232 -8.7287054 95.795029
12.539582 -3.1889353 95.777512
-9.4914093 6.6519051 95.760773
18.501726 15.05826 95.79586
-8.7473183 -6.6823387 95.810379
13.551452 8.7318077 95.84407
-18.42243 -0.87376678 95.904495
-11.732661 4.2675333 95.935532
14.143969 8.8379211 95.945885
15.938919 11.481208 95.919678
17.976624 7.3796058 96.089859
18.066702 14.660301 96.030319
22.208979 15.216921 96.015808
11.648077 6.8975306 96.19133
22.25853 9.960741 96.187393
13.374567 0.31582147 96.273148
1.946573 -9.1979542 96.470039
-12.319118 -5.7366467 96.465729
14.392406 8.5429058 96.460747
12.706703 -1.1718376 96.556335
16.363918 5.8959517 96.51017
19.517853 8.1613827 96.585999
14.944749 9.5220194 96.524948
9.9440937 -6.6181755 96.686775
13.063209 -0.73671424 96.606689
14.447145 -0.46467543 96.603661
13.972631 8.3009729 96.720551
18.477543 15.674313 96.796455
5.3224621 -8.9108868 96.863159
12.652681 -3.1885142 96.842224
21.381929 10.50025 96.965607
3.0469408 -9.2498569 97.202484
-11.963636 -1.6565113 97.413254
13.277765 0.90395087 97.477211
14.162015 7.5221925 97.46212
11.13795 7.8288574 97.443626
11.30336 7.8621635 97.423988
-10.012794 -5.159193 97.503632
11.726045 7.7032952 97.592743
19.110233 16.90144 97.544662
13.189881 0.80523354 97.616371
-3.573987 8.2562418 97.794083
-17.898712 -6.6849651 98.039154
-4.3001499 7.999094 98.039566
-17.533348 -6.6364417 98.227867
12.165175 -2.7033784 98.237663
-19.233402 0.60320103 98.211441
5.4713359 -8.9421473 98.401398
-13.884335 -1.6853883 98.466644
21.87591 9.8846788 98.493523
20.57276 10.233033 98.43306
22.733276 12.932638 98.404739
21.195274 18.939104 98.481918
10.520868 -4.7331591 98.633148
21.654493 17.976149 98.637817
20.612185 8.9952307 98.792213
16.358112 11.03723 98.783516
20.65723 19.286142 98.797279
-7.858458 -7.2393656 98.818817
19.516159 8.7415161 98.864578
-18.489124 -6.2211933 98.920319
-13.177717 2.1538575 98.935867
16.603178 10.911847 98.978432
21.739429 11.77264 99.050529
8.333456 -7.0411911 99.149292
9.4991894 -5.7291021 99.26516
23.439829 14.309121 99.23922
-0.89715707 -9.3239374 99.371887
-0.28459719 -9.3584976 99.312302
17.266115 9.7215538 99.398018
-13.032943 -3.9439592 99.461777
-11.541388 -0.55927134 99.409416
7.522912 6.7634993 99.449501
20.997734 20.121214 99.458778
-13.116271 -3.7397251 99.558266
-17.89316 1.8575794 99.58989
-9.6681805 -7.3274183 99.659317
11.815003 2.1761751 99.689011
16.699844 13.22075 99.653397
-21.303467 -0.304593 99.854141
-8.3251076 7.2418823 99.809105
-8.1431751 5.8487778 99.989464
20.748451 10.601072 99.996063
18.755245 14.572697 99.970566
8.5543594 5.9691343 100.01945
-2.6272118 7.2318406 100.06828
-1.3540006 7.4065609 100.04656
21.870558 11.28306 100.09779
20.935698 11.852901 100.06317
-21.234009 -1.6454163 100.17522
-13.23917 -1.6015854 100.17737
-21.346333 -0.76854646 100.1359
19.091284 16.116278 100.24518
-6.9452577 -7.6758676 100.32449
-9.0077105 -5.3571825 100.3707
11.908815 1.0969708 100.33595
0.65143526 8.7559519 100.45482
-11.066398 -6.0037708 100.52859
-6.5782552 6.156498 100.5031
2.5981209 7.0364294 100.52094
-19.692602 -4.6997256 100.79618
-16.733833 2.0766053 100.75691
8.4900265 -5.9278078 100.87187
10.13889 5.6383705 100.80025
7.7454066 5.8824453 100.86887
8.7752285 6.5760117 100.81625
-1.661226 8.4967489 100.84657
-10.834187 -6.1929822 100.95367
-15.538612 -4.8098493 100.91314
25.106291 21.795135 100.93658
-11.339748 -5.5451355 101.06122
-10.143652 5.3654075 101.06182
23.455181 13.241358 101.06279
-3.5478268 -9.6529198 101.14897
-10.559165 -6.4562712 101.28549
-2.8175578 6.5463743 101.26573
4.4916916 8.3001785 101.20961
-13.922388 -3.0058477 101.3716
21.495457 12.386082 101.34865
19.564123 14.896196 101.35149
22.686596 13.923808 101.45598
1.6833228 -9.9547825 101.61381
5.6539178 5.7863226 101.66409
5.9403157 5.7604346 101.62526
6.3211746 7.481472 101.69627
20.464872 13.94195 101.71067
0.12814449 -9.1885405 101.88507
-11.075342 -5.6862998 101.87052
-7.6250987 4.8185916 101.89828
6.6565218 -7.0090408 102.01041
11.84541 2.1655159 102.01936
-20.143145 2.9082906 102.04706
3.3085904 5.9661961 102.12959
-0.72814703 6.3466749 102.18959
20.026024 21.363323 102.10094
-10.355567 1.5115523 102.2573
22.149754 14.398186 102.26924
23.449032 23.919935 102.22572
4.2190413 -8.57547 102.36407
-7.6350594 -7.9374218 102.3085
-4.5642834 -8.3544283 102.40334
-16.484819 -4.3458853 102.42438
-9.5258923 2.6240995 102.55743
1.4238812 7.7578773 102.52406
19.724888 21.054737 102.57744
3.4708877 5.6162276 102.6263
0.69400191 5.9826555 102.74077
26.648308 23.572712 102.77672
-17.319073 -4.3918915 102.83148
-18.68877 3.6755226 102.85732
-0.53996259 6.0056782 102.87589
6.4305983 -6.6950245 102.95261
-19.690979 -4.0224738 102.97105
5.1146789 5.0551763 102.94289
1.1473371 7.6016827 102.90512
2.9874949 -9.5447369 103.06773
22.765503 14.562955 103.07875
-0.12252769 -9.1493607 103.16068
6.6195107 6.4298811 103.18501
3.9195938 7.3453741 103.19996
-11.479453 -5.2606506 103.27661
-10.158958 -1.7378907 103.20448
-21.925018 2.0368276 103.25594
9.8231049 3.9751272 103.27021
-1.0640035 5.7562938 103.21844
20.453754 22.719839 103.27905
7.4119439 -5.426651 103.39241
-20.246473 -3.6989274 103.39818
-6.992928 4.2020874 103.37261
5.5279474 -7.2517538 103.44525
22.702805 24.882427 103.47433
-2.8341789 -9.342906 103.68987
-11.966506 -4.798903 103.68686
-15.007305 1.3379438 103.61342
-21.57523 2.5778139 103.65328
-22.347954 -0.61914808 103.77264
9.1309671 1.5714921 103.72873
9.011795 4.7043324 103.75832
9.5102081 0.35829014 103.81617
5.533731 6.5171013 103.82423
24.199234 15.951853 103.83551
-6.6783924 -8.1827936 103.94762
10.235809 2.823118 103.9356
-20.934671 -2.6940753 104.00198
6.3502774 3.9081337 104.00495
21.172829 23.921333 104.0235
11.883027 -0.26086271 104.13757
12.0227 -0.92021418 104.27898
-18.922676 3.9944911 104.22878
11.682212 -3.8458595 104.36972
-15.669831 1.7909613 104.34311
9.1638317 -6.598289 104.46654
-13.032145 -2.8311043 104.44651
-12.526488 0.032481432 104.41122
4.967638 -7.1978798 104.52718
20.416225 22.605001 104.53854
-22.487984 -0.39630133 104.85669
-1.2323869 6.7899656 104.81195
20.605104 16.63483 104.81126
26.742634 26.711079 104.81502
11.747198 -1.0224448 104.91972
0.46556342 -9.3987141 105.1567
22.763674 17.133514 105.19412
10.589125 -5.0461278 105.28646
19.893044 20.412888 105.4372
25.442707 18.320461 105.57452
10.375818 1.2372081 105.61823
27.882423 21.541924 105.67767
-0.015219778 -9.3790102 105.95966
8.6006489 -6.588675 105.95672
5.347302 5.4142537 106.4624
10.184198 -4.9367537 106.63795
1.8338979 6.1552668 106.6903
9.2925186 -5.686306 106.77036
-18.281647 -2.868382 106.75146
10.667493 0.35757139 106.72615
-7.7595301 -7.5021677 106.88578
21.545841 19.745949 106.81131
-2.6641786 -9.1942568 106.99606
-16.128122 -2.1829438 106.98683
-21.395206 3.5652504 106.93908
22.614895 27.032272 106.96188
2.4624791 -9.0288382 107.04597
-1.8738774 6.1810551 107.0131
-1.7135533 -9.2345419 107.12558
-3.1286466 -9.1262102 107.17403
8.2102289 -6.5028176 107.26949
-12.202614 -0.86824858 107.30827
-15.621971 2.8011515 107.37359
26.555218 28.668766 107.34411
9.5390406 1.7701324 107.41705
-5.3557835 5.7470155 107.54386
29.154102 24.811176 107.58911
24.897608 20.18232 107.64303
23.829252 23.646259 107.61771
4.1273637 -8.5857964 107.72955
-22.019327 2.8408718 107.74441
24.610985 22.71332 107.79395
-14.941889 2.0332355 107.84604
-16.99725 3.9510384 107.85723
-19.477962 4.1964531 107.97763
-3.7987509 -9.0085268 108.06837
22.740168 25.862526 108.07681
22.914001 27.123419 108.08035
23.675447 24.347395 108.22221
-22.314964 0.48442864 108.38625
9.7145405 1.1201999 108.45759
3.7379475 5.6745176 108.40919
26.502729 22.876097 108.42934
-4.412056 -8.9030056 108.70406
-20.119747 -2.4571023 108.73955
-10.070839 -5.9118571 108.83865
26.43572 29.010738 108.85812
-7.4852691 -7.4654818 108.98012
0.20364061 5.9771075 109.06499
-14.512555 2.0296025 109.12524
24.085777 21.252029 109.2411
23.827442 24.252157 109.3968
-10.35161 2.4618115 109.45332
-8.8023319 4.2582803 109.4941
28.851997 24.081545 109.50608
-16.228157 -2.4281018 109.70571
23.747702 24.372162 109.97591
9.3363876 -4.6099281 110.07544
26.308685 23.170731 110.08765
23.410652 24.75032 110.07046
22.989756 27.921955 110.09579
-15.180232 -2.0345311 110.11942
22.961929 27.907223 110.16247
21.279724 26.026644 110.29801
-1.8410547 -9.1530333 110.37888
24.885132 23.861235 110.44508
9.6428976 -4.2122002 110.58199
26.908125 22.20742 110.53991
29.132284 24.992565 110.53953
8.7490377 3.059741 110.75798
-15.941959 4.0544453 110.72093
-14.648123 3.0575552 110.89235
22.777767 27.796425 111.02213
-11.673896 -4.1851988 111.50256
28.579802 25.388624 111.57747
25.414034 20.56344 111.65087
0.66338903 -9.0800066 111.74286
25.214144 28.468023 111.8339
9.7009974 2.348825 111.97269
28.260359 24.00494 111.95351
-4.580575 -8.7983274 112.16923
-15.955225 4.2869701 112.18384
-11.958996 -3.6312063 112.2308
10.465522 0.6608122 112.26584
-8.3991537 -7.0229163 112.37269
-11.920046 -2.0175159 112.3833
-15.657693 4.2157536 112.38881
-1.4361205 -9.2998943 112.71627
4.6915946 6.9770122 112.86734
23.008018 27.507366 112.84698
27.609192 23.552521 112.99277
-11.111714 1.0255804 113.01204
9.4433289 3.7609303 113.01836
8.7155066 -4.7597027 113.14701
8.2942228 -5.1996803 113.27588
10.717615 -1.5202231 113.26015
7.810843 5.9195013 113.26359
3.2418222 7.3444533 113.39093
18.993542 23.609997 113.38579
3.3901176 -8.6750488 113.56063
19.700972 17.270805 113.98502
-19.159277 4.2620544 114.01611
-17.598957 4.6317539 114.09563
-5.2479167 -8.605567 114.23055
-17.331015 -2.8034205 114.32265
-1.6863587 -9.4145603 114.42047
1.8611822 7.6052227 114.46484
-9.0898247 4.6167383 114.53516
-11.069007 1.9893761 114.72977
8.2675438 -5.2722526 114.86261
-0.27614927 7.3758607 114.90874
9.1584377 -4.1965756 115.02271
-20.154659 3.1666617 115.23152
-6.31038 6.2655301 115.2887
-20.508949 2.7724733 115.64503
22.409208 16.860289 115.68525
-6.0478396 -8.3576221 115.74093
11.408862 -0.092071444 115.85803
-13.09101 3.0751998 115.82629
-20.517529 2.6429946 115.94016
24.437881 18.774694 116.02587
5.9674702 -7.4756098 116.16617
-9.9348755 -5.9947562 116.23763
16.296011 17.93281 116.23737
8.9311581 -4.6802268 116.35447
9.0835056 -4.4977989 116.35754
-1.0211281 7.8717413 116.38766
25.521923 20.645275 116.32792
-2.6709983 -9.6152792 116.53386
-5.463531 -8.6343756 116.57041
-13.720913 4.1236134 117.05527
-12.13398 0.43041199 117.13978
7.8216124 8.0211544 117.23406
8.9293566 -4.9569893 117.369
-7.388854 -7.6647644 117.40401
17.735847 14.198581 117.4668
24.949549 22.488888 117.53574
-6.6756277 -8.1393948 117.60533
16.882399 21.555698 117.65138
10.40836 -3.2463806 117.79112
-18.280401 -2.7134259 117.70509
-17.934599 -2.753674 117.79781
6.4666634 8.9167671 117.97041
-12.558447 -1.9600327 118.09728
-8.606267 -6.8983755 118.1994
11.588004 4.5805664 118.17723
1.5532928 -9.1877079 118.27533
11.725019 -0.84465188 118.23854
21.778824 15.445823 118.36866
-18.97385 -1.5808471 118.44795
-11.789543 -0.87169594 118.45542
11.916747 3.3746629 118.48712
19.36031 13.978246 118.44267
22.672249 24.272076 118.41808
24.234541 18.059494 118.5934
11.318484 -2.1975715 118.75946
-7.6565418 7.0123072 118.76813
15.705289 20.026258 118.75365
1.6821362 -9.1134262 119.00939
-13.42853 -2.4805093 119.04872
11.147165 -3.1429062 119.16388
-16.416321 4.7658796 119.14402
23.920811 19.411821 119.29327
19.476818 23.435471 119.23589
17.304861 12.430054 119.30864
18.709276 22.814003 119.38399
19.889494 23.374096 119.34718
11.606543 6.5273371 119.43188
6.6129222 9.5847282 119.46551
21.005157 23.403046 119.41163
-3.9134626 8.6645908 119.56667
16.750053 21.581902 119.50133
0.31681967 9.6118879 119.68341
7.141449 -7.8784928 119.74289
-1.475462 9.2638378 119.7847
14.244654 15.104618 119.74511
-17.229975 -2.8679821 119.88906
11.25115 -4.0431166 119.9218
12.556943 1.526484 119.96169
22.52935 15.817338 120.29134
-13.065612 4.1946039 120.32107
10.256269 8.2941933 120.32761
11.609175 -3.5553513 120.60268
19.235617 12.556408 120.77094
13.717354 15.739339 120.7032
-11.963644 3.2509861 120.88132
-17.647657 -2.7644265 121.09171
-11.492353 -1.568507 121.04533
-0.46630913 10.04804 121.01605
18.727337 11.995831 121.18517
-5.3999653 -9.3802919 121.25606
11.813472 -4.0958719 121.23701
3.9473197 -9.6169062 121.35675
12.840393 -0.290169 121.30117
-12.430899 1.0220413 121.31004
22.907639 17.769659 121.36172
22.961315 19.90505 121.30963
21.649521 21.532696 121.38916
1.3112307 10.658066 121.40247
1.5372399 10.739531 121.49427
12.392624 -2.6922736 121.62741
-12.586428 0.73487777 121.60806
20.853111 21.756771 121.6606
13.042912 0.89383125 121.79104
-17.780415 -2.3422151 121.83683
-10.707218 1.4385372 121.8017
-10.168811 5.855545 121.87657
-12.141326 3.8425987 121.94272
13.078783 12.436738 122.02785
6.7211847 -9.5194902 122.15085
10.782976 9.7644634 122.18396
12.950387 14.826649 122.16064
9.2258644 -8.5451546 122.25899
-7.2113562 -8.831233 122.42259
-12.636554 -2.647928 122.47646
8.1442966 11.433794 122.46287
18.008644 10.621175 122.58266
20.419188 12.910945 122.59
-12.441337 -0.048703551 122.66864
6.9934344 -9.5878792 122.73709
13.556381 5.9553642 122.71586
13.166292 -0.13982734 122.97481
14.267612 18.46677 122.97131
9.2279358 -8.9587593 123.11026
12.614316 14.054491 123.18475
11.458307 -7.2883854 123.28577
-17.653481 4.0937977 123.28396
-6.8641233 -9.5783072 123.31539
-2.9756258 10.177876 123.39259
1.0936899 11.232685 123.44211
-8.6080189 -7.6218939 123.64243
-18.580639 -0.65332782 123.67645
5.0684576 -10.028675 123.74425
16.356695 9.2307177 123.84618
-18.855425 2.4393792 124.06413
0.2768454 11.220034 124.03561
4.2788019 -10.148443 124.21176
-10.913566 -2.0664284 124.21158
-16.94116 4.4877844 124.20895
13.304202 -1.2968475 124.45087
-16.333338 4.6073055 124.44575
17.197752 9.2769566 124.48135
-12.110293 -1.5133551 124.61027
-16.615498 4.5340099 124.65079
16.325626 8.6755123 124.65016
-15.314522 -3.256628 124.79289
-13.87311 -3.4634447 124.80783
-4.5718408 -11.28646 124.95624
-15.895914 -3.1766539 124.95618
-10.495881 1.7174389 124.97068
-1.5680654 11.045921 124.91098
19.046431 19.28269 124.96223
-4.3355198 -11.404385 125.1727
4.0327158 -10.010986 125.16273
-17.61117 -1.7517576 125.16452
13.6255 2.0565856 125.15788
-6.222105 9.8026838 125.14478
-12.689134 -3.0407281 125.22458
-17.215492 4.2987361 125.26875
-2.1615746 10.957506 125.20055
2.184721 12.050298 125.27184
15.245702 7.8275394 125.36668
-5.0347438 10.205303 125.48065
-5.9133992 -10.961559 125.5971
13.109565 -2.7428236 125.56718
11.759011 14.058095 125.51244
0.15715259 -11.156994 125.67107
14.578941 4.5314269 125.7886
8.4499521 14.030739 125.78728
-8.7788219 -7.9557848 125.85934
-10.047028 -0.72926646 125.85349
-12.801352 2.5940635 125.87614
15.438042 8.2086658 125.86117
19.829922 11.225353 125.9837
-11.941435 -2.9025161 126.05044
-13.735548 4.910183 126.22876
6.2346497 13.64814 126.31348
13.597157 16.171471 126.3046
-11.506138 2.0137479 126.58521
6.6935229 13.86805 126.55505
13.580645 15.323819 126.52225
-10.159433 0.77111948 126.65674
-17.518311 3.6625047 126.67537
-10.794441 -0.59711134 126.74783
-10.723619 0.28287262 126.75198
-12.889442 3.6645143 126.73608
13.465195 14.969444 126.70511
7.6810117 -8.7438602 126.88627
15.617689 7.8426061 126.83895
-1.2570196 -11.239925 126.91486
3.4609864 -9.1814594 126.96291
-3.9756067 -11.269069 127.03483
6.1459813 13.660516 127.04507
17.617662 17.838806 127.05988
1.2818993 -10.168988 127.26472
-8.88379 -7.6049242 127.37695
11.236282 -5.8266497 127.36672
-6.8936114 10.188009 127.31388
4.2023678 13.026772 127.35992
13.605456 1.7156404 127.49152
3.1179256 -8.7555008 127.52248
-10.870061 -2.5367808 127.59917
8.1314335 14.419786 127.60483
-17.562698 3.3632689 127.79715
19.988205 14.566415 127.78352
-11.269287 7.2055759 127.85634
-10.966544 7.3648005 127.82671
19.748796 13.179359 127.88616
-16.01495 -3.1692226 127.94476
18.877716 9.8868847 127.97295
-8.8197727 -7.5916362 128.07579
12.200799 -2.4049315 128.28406
18.632187 16.173035 128.22169
-17.029484 -1.819654 128.37326
-5.8691468 -10.288976 128.4689
-12.715345 -3.5467939 128.45274
8.9825249 14.768822 128.42068
16.334658 16.941633 128.45117
18.016809 16.583229 128.60326
-6.4771862 -9.6611347 128.72806
9.0292921 -6.6798587 128.84322
-3.7556119 -10.450032 128.95518
2.7129908 -7.7665753 128.98903
-3.5087519 -10.309999 129.21065
17.659691 8.5798569 129.22397
-10.198139 8.4956703 129.59157
3.4298403 13.179762 129.59802
5.0017719 -6.6397486 129.6665
16.390949 7.5973358 130.06718
-14.228734 6.3245387 130.2879
17.198828 8.197793 130.2908
-9.637414 -3.9211235 130.34834
12.716398 2.3193831 130.36966
9.9899139 -3.3503242 130.49518
-9.6891174 -3.3726931 130.58719
12.536036 1.9767776 130.53024
16.343285 15.881449 130.54875
17.682409 8.9028692 130.71523
1.1576751 12.823063 130.83823
8.6713581 14.635313 130.89795
8.1849155 -4.2383947 130.91307
9.6524591 -2.9877679 131.00208
16.140594 15.557755 131.16646
13.268703 5.1330104 131.29604
14.790988 16.263628 131.26912
-16.695412 3.8193507 131.30615
-0.66777545 12.451153 131.38605
5.4395142 -4.3486176 131.48949
11.627132 0.45404214 131.43059
8.4462948 -2.9065623 131.6772
-17.068064 3.0868759 131.62004
2.4932439 13.217086 131.64249
-7.6885929 -5.5786924 131.77368
-11.704477 -3.3111541 131.77838
-1.3779151 12.253855 131.83932
7.8613415 14.481539 131.87759
-3.0585067 -7.6013155 131.91075
-6.2748365 -6.5966492 131.95226
0.45147917 -5.9031105 131.93309
1.5684271 13.026693 131.90051
16.254547 14.620344 131.99451
-4.1551394 -7.3301153 132.06004
10.062753 -0.60577184 132.24347
-5.9099402 10.729419 132.22162
0.62393081 -5.2111068 132.41412
-2.6291873 -6.6100678 132.53946
-1.070255 -5.9486928 132.59457
8.6288233 -1.5087302 132.5453
-15.362189 -3.2409925 132.62299
1.0061065 12.961791 132.65569
4.8253784 13.536906 132.60231
13.432014 16.229059 132.60516
6.8761339 13.798645 132.74368
-1.0361097 12.463993 133.06279
-16.19585 -1.7941301 133.23148
-16.846483 -0.4939597 133.24237
8.9764271 13.872368 133.49823
16.573826 10.618496 133.56758
-4.9604287 -5.0484595 133.66028
-12.318486 7.3025956 133.6741
16.055443 12.572952 133.66208
-15.924586 4.166389 133.80138
-1.0339389 12.2099 133.9057
8.3159723 13.306314 134.17249
-5.9218168 10.675636 134.42719
-16.618231 0.65547562 134.52197
-15.783723 4.0963016 134.64362
-16.20586 2.3862646 134.70386
9.2253876 2.5158646 134.87404
1.1137437 12.284428 134.84566
8.9844322 2.2619209 134.944
14.447093 9.9031801 134.93922
8.9661455 13.055851 134.91714
1.0196031 12.167147 135.1694
12.718953 13.263074 135.18068
-15.47359 4.2704196 135.33543
-15.086658 4.6316538 135.54727
10.48554 6.2480497 135.53717
9.7972775 4.6811647 135.62738
-15.283799 4.1261373 135.84784
-12.072532 6.6408253 135.86383
-13.583702 -3.149698 135.94846
4.4225221 0.7574451 136.10075
-9.397253 -2.6922274 136.38095
-7.8012114 9.010457 136.36028
6.1313891 1.6580718 136.43732
-2.8001757 -1.0193244 136.61893
-7.3628216 -1.8083049 136.81413
-1.4894763 -0.6918484 136.88907
0.5368104 11.691219 136.87207
6.3954763 11.732931 136.8045
9.0956659 10.193714 136.94211
-5.7691908 -0.87288743 137.18327
-0.16476637 11.448792 137.24168
5.080862 2.7609715 137.76523
-14.640626 2.4920044 137.9035
6.6786737 13.591587 137.91304
-13.037586 4.0083947 138.03787
7.8862548 9.1326494 138.13844
-13.982903 -0.30536911 138.23351
-13.21803 -0.24991557 138.51166
-7.7125745 7.2629614 138.75043
-12.387371 1.5347569 138.85849
-8.1944847 5.713131 139.20108
-9.4613962 1.7854476 139.37341
2.1953635 13.11694 139.58636
-8.5231743 3.3317885 139.77545
0.02777634 2.5924571 139.89835
2.2631211 13.097849 139.90331
-1.8697429 9.9894657 140.01218
-3.7960625 5.520153 140.17386
6.3900528 11.533768 140.18268
-2.0063837 4.014822 140.23788
-3.7532661 7.2172771 140.25067
6.8651934 11.729313 140.22298
2.1457448 10.77329 140.39554
6.5260487 12.251253 140.66629
-2.8532076 11.396756 140.84439
2.8308682 10.754436 140.97777
-2.2668104 5.8830738 141.12839
1.4516163 -0.11990827 141.52298
4.4516282 2.4242396 141.53706
-3.886636 8.4644566 141.7076
5.9383569 7.6016941 141.82724
5.3142576 2.8494647 141.94978
-0.55966741 1.0074317 142.26328
4.7778811 9.4834452 142.35057
1.1199363 9.953289 142.99062
-4.3572807 7.3218002 143.25298
-0.3331579 9.1236677 143.25761
8.3069143 8.5753508 143.35962
-3.8959422 9.5975075 143.35794
-3.2533331 9.6822052 143.39047
-1.7108051 1.0211095 143.4464
-3.892566 9.776062 143.59465
-1.0771532 -0.86153424 143.76581
7.6680522 10.997953 143.79533
5.6795149 11.950263 143.78131
-4.3990884 7.1625638 143.82512
-3.5840774 4.1950712 144.03056
9.3318329 7.1109905 144.03479
7.3023195 11.351249 144.01442
-1.0876459 -1.192364 144.13271
0.25441986 13.70834 144.33583
-3.558383 6.5213923 144.57762
4.4269762 -2.3236318 144.68108
3.2326589 13.545124 144.76216
2.1442323 -3.2236662 144.93086
1.368001 12.624889 144.95905
4.3380604 13.511156 144.93884
3.88446 -2.8050525 145.08978
-1.7119229 -0.89662987 145.08101
1.9755549 -3.8385186 145.14279
-2.3300445 6.4295082 145.11159
2.1952038 12.993628 145.29041
-4.3129821 1.0893147 145.49989
-4.9458027 3.3895884 145.41432
-1.8018252 -1.1686591 145.65849
-4.0061941 6.8598595 145.69312
6.2802844 11.486876 145.65651
0.36882716 12.530712 145.79678
4.855556 12.610704 145.75345
-0.4908098 10.292812 145.87958
4.1954479 13.510058 145.94969
-4.5987768 7.4563971 146.01225
-1.1194439 11.951212 146.0854
4.35326 -2.8378797 146.15115
-4.2625031 0.54737878 146.18045
-2.495904 10.8892 146.13055
7.2818894 2.0344882 146.27773
-2.1618319 8.124052 146.25354
-2.7436159 6.5479994 146.32338
-1.1240156 9.8110523 146.36192
-2.235502 -1.016233 146.45641
-3.0436466 2.1755979 146.42908
-4.3686285 7.9378309 146.46431
-3.9260585 9.0258322 146.5258
1.40915 -3.898334 146.6463
-1.7002331 -1.7974352 146.6172
7.5242844 10.687274 146.63017
-1.1020429 12.474725 146.64897
6.8060346 8.4817019 146.71153
-3.0391788 0.78954327 147.16248
6.1110783 12.941489 147.18201
-3.235672 9.960021 147.2258
2.3345432 12.968971 147.22343
3.8330545 -3.3307827 147.30064
9.4833813 6.1628084 147.38263
-3.2408013 7.1954341 147.57948
6.8444934 -0.94791251 147.65085
7.481977 8.3611469 147.79877
3.7390306 12.828815 147.92813
-3.1954236 -1.3401258 148.05255
-4.6625681 6.6271524 148.05078
4.5597486 -3.075186 148.17435
-3.4310768 1.1494583 148.23761
3.7779169 12.887304 148.25583
-4.3640594 8.0623274 148.35385
8.8736429 8.8800993 148.35359
9.3231001 7.2775693 148.43686
9.5314884 6.3254638 148.54861
-5.3601179 1.6122749 148.6579
8.7465696 5.4941163 148.78308
-2.357944 10.251606 148.71365
4.5903034 12.900055 148.80037
9.9272785 5.5362959 149.0098
3.2179217 12.650668 149.03943
-4.3097153 0.12937658 149.1162
-5.1043768 7.3886676 149.11482
-4.9251194 6.5456605 149.26369
-2.1880164 12.771545 149.2619
-4.8055668 0.77975458 149.40271
9.6749973 6.3804426 149.59711
-2.8995967 11.943673 149.64604
-2.5358381 -2.5101871 149.70363
8.0513105 9.9451838 149.79196
4.0146122 12.971119 149.77765
1.8375306 13.874277 149.70691
-1.4080715 -2.5355136 149.84053
-3.82288 -0.86887205 149.83615
-2.7264788 -2.4670002 149.98546
10.083776 7.0591097 149.91193
6.3861856 11.153966 149.92441
0.16152577 13.077813 149.98251
-5.2195663 8.1634941 150.09599
-4.0582991 2.3827338 150.17491
8.7618103 8.8124762 150.27881
6.501164 -1.7041501 150.38449
-5.4360266 7.6711645 150.39496
-2.0943046 13.229946 150.30856
-5.1640205 5.4147849 150.40471
9.2753649 6.4018464 150.47649
-2.4335861 12.102291 150.4588
3.7691793 12.988386 150.40349
3.0043769 -3.144367 150.66774
7.8491516 1.0674714 150.67763
5.3839979 13.562992 150.64922
0.5634315 -3.123426 150.77156
7.4032249 11.562941 150.75018
4.7981596 12.450119 150.73192
-5.1168847 4.2794867 150.82172
8.529582 8.5175238 150.80849
8.7157726 9.13626 150.98843
6.91957 -1.8586872 151.02995
-5.8731351 4.0426397 151.00395
-6.461071 5.4245682 151.11752
-4.0153947 11.395274 151.11577
-5.3345032 6.9487023 151.25
10.000005 8.7184715 151.27292
2.4649248 13.855825 151.40588
1.1623702 13.042004 151.52701
-5.1389179 6.8827538 151.69289
-4.9869494 8.7071142 151.68134
0.92916763 13.212122 151.88063
-2.6335654 -2.0794535 151.93018
-5.4518652 7.4994993 152.07817
8.7432156 11.441235 152.17105
