# .PCD v0.7 - Point Cloud Data file format
VERSION 0.7
FIELDS x y z
SIZE 4 4 4
TYPE F F F
COUNT 1 1 1
WIDTH 1610
HEIGHT 1
VIEWPOINT 0 0 0 1 0 0 0
POINTS 1610
DATA ascii
36.65657 10.69989 23.114939
36.665527 24.915195 23.106159
21.650946 22.069279 23.342062
13.504266 9.4150076 23.408642
44.431473 10.685715 23.581799
34.387924 15.123466 23.504747
46.108467 19.902866 23.600771
22.20945 20.243828 23.661131
46.423409 18.407188 23.713079
15.766625 8.6320086 23.981781
9.4786797 15.9963 24.138767
38.886036 9.7438831 24.296104
34.521366 21.529568 24.488234
45.204029 11.32258 24.813122
35.112282 23.029089 25.191721
22.407145 18.031071 25.623524
43.988907 10.23482 25.707863
37.773678 25.378292 26.397823
46.183765 19.948963 26.623619
46.096306 20.404133 26.765966
46.039856 20.678919 26.784435
9.3707867 15.962742 26.895935
9.7386999 17.566063 26.834522
22.114861 14.690811 26.951027
45.639977 11.808765 27.19593
16.609472 9.0867481 27.374428
46.726982 17.692444 27.579124
47.290077 13.841988 27.637569
11.68954 22.738327 27.728245
21.647453 22.85144 27.772228
11.025329 11.626142 27.912663
41.84922 8.3410835 28.085741
39.64254 25.530552 28.040421
46.158955 12.513481 28.156258
14.95192 8.2303467 28.262808
19.59288 25.142563 28.298409
34.011654 20.490469 28.45002
14.046164 8.7841511 28.756199
44.259315 23.401312 28.74486
15.45291 8.4482288 28.88138
21.130281 11.176769 28.868099
11.033471 11.688251 28.818897
22.477413 15.562838 28.900328
14.250492 8.5894451 29.340599
36.240257 25.037617 29.447027
17.995298 9.6530857 29.716003
36.939289 25.098543 29.820353
9.1061707 15.291731 29.964844
36.626083 25.062759 29.907284
22.537796 15.499983 30.03653
42.637173 24.706358 30.0368
44.251633 10.368432 30.278723
43.757118 23.742386 30.481014
21.207191 11.062635 30.658369
35.405937 24.01387 30.875946
46.436745 19.851992 30.927933
35.643761 24.501091 31.353943
21.191603 10.667131 31.446247
46.252983 12.875088 31.445972
18.292904 25.014946 31.584496
21.766184 12.497327 31.636953
22.360146 14.330572 31.785236
22.271828 14.042188 31.808796
44.513565 10.644164 32.05909
18.422506 24.930975 32.057751
34.378456 21.945759 32.295185
35.052025 10.841865 32.650814
47.542252 14.481956 32.965221
33.666374 20.524004 32.98909
9.9414673 19.34248 33.012268
22.886278 15.981118 33.13065
43.835712 23.168823 33.160946
22.381834 13.863241 33.333084
42.954926 9.1659012 33.461826
9.9453373 19.275391 33.419601
45.981857 21.623314 33.412788
43.560921 9.6819315 33.664368
44.594482 10.697279 33.606331
34.800274 11.281004 33.648552
35.150658 23.526642 33.746449
9.3653097 13.890807 33.881641
46.648598 18.596485 33.871765
36.145672 9.8450289 33.917477
46.075241 12.569642 33.918129
33.504738 18.085577 33.962708
43.41243 9.5454712 34.291683
19.249283 9.5127144 34.389862
22.241215 21.666466 34.382057
42.063843 24.322733 34.388905
10.755277 12.092028 34.417603
35.428883 24.099094 34.53952
12.80213 9.7549467 34.651611
33.454178 16.782215 34.644669
33.44883 16.785089 34.713127
34.094486 13.142697 35.331539
14.766159 8.0547476 35.749302
23.132259 18.909639 36.04422
35.494072 9.9445324 36.260986
46.660881 13.283028 36.23951
17.897829 24.423574 36.392204
46.847427 13.524954 36.674431
23.190941 18.688019 36.715919
38.267311 8.680748 37.039337
12.435782 22.504215 37.039291
36.397427 9.4382572 37.191109
46.453606 18.883677 37.147522
13.205849 9.3690701 37.28096
15.426468 24.504959 37.324898
47.171185 15.993828 37.487003
35.082043 23.426882 37.470722
12.797278 22.663776 37.755405
20.35635 9.4881353 37.915977
9.4893761 16.737999 38.00425
14.833767 7.9639654 38.297714
9.1778078 15.477999 38.248283
23.299776 19.594273 38.265415
10.759419 12.002249 38.308414
36.653408 9.2316322 38.528572
10.379274 20.258936 38.721378
35.394634 24.075392 38.869209
22.791546 12.628969 39.008766
35.626568 24.071095 39.070568
43.559628 9.5923548 39.173981
22.373011 10.669735 39.161388
34.873688 23.032896 39.329281
39.642563 24.170887 39.358833
23.21513 14.162282 39.566288
18.783384 8.5403881 39.731583
33.022709 17.329308 40.024548
9.4173031 16.20582 40.192108
33.111847 19.492508 40.480816
33.128273 19.525314 40.51252
33.266258 13.695891 40.904076
32.924809 18.72097 40.921822
15.77467 24.257727 41.011852
47.064713 13.764736 41.187145
9.976017 18.254387 41.103859
10.632094 20.835024 41.339153
18.363348 8.204958 41.441853
19.904591 8.9969044 41.474312
43.98885 22.172735 41.438129
37.168079 8.6729708 41.580273
9.0394278 14.715967 41.598541
45.792862 20.929676 41.738174
17.361816 7.7732582 41.947563
46.911263 16.629732 42.012962
43.911655 22.242344 42.189072
15.993246 24.278948 42.156834
23.662674 18.457769 42.280025
37.282921 24.135061 42.701
40.278427 24.255543 42.753204
47.366646 14.877627 42.887882
23.716068 17.496319 42.994354
22.968742 20.255304 42.903328
40.877632 7.5189791 43.172699
12.334759 22.111042 43.107342
20.523239 9.2139635 43.239368
33.435406 12.229265 43.275131
47.103966 13.79506 43.240711
39.936546 7.5513735 43.329838
40.456085 24.319813 43.737671
9.8465595 17.617191 43.906254
22.780666 20.626308 44.061604
23.811256 17.029755 44.104736
38.654282 24.215874 44.194004
15.049814 23.856647 44.259098
23.042107 11.953877 44.334568
13.100688 22.664598 44.371868
17.885498 7.8160028 44.437717
10.811375 11.664522 44.597115
38.393585 24.212996 44.625023
11.037396 11.301838 44.797836
16.533449 24.277454 44.79496
16.216578 7.4409943 44.87146
22.339993 21.540791 44.89325
10.012032 12.847062 44.971222
43.330727 22.705729 45.112167
33.024494 13.082653 45.292061
23.456741 13.145468 45.238144
9.1698399 15.00582 45.352734
43.741158 9.3852882 45.485909
39.910221 24.287754 45.43935
23.601974 13.492398 45.571331
13.417383 8.8193216 45.739075
34.749809 22.875393 45.817482
22.031214 22.218237 45.988167
13.031008 9.1006641 46.141281
10.305669 20.14957 46.316025
15.091013 23.853899 46.415146
37.20739 8.3226871 46.563869
45.575886 11.361313 46.558552
36.52322 24.082619 46.511761
22.885836 10.569683 46.62178
45.280128 10.834746 47.046501
46.12122 20.489815 47.047729
13.950693 23.185726 47.319389
47.188816 16.322332 47.967911
9.9069843 12.478474 48.232613
23.382273 11.786654 48.466618
43.113434 7.5437632 48.581314
23.35289 19.491955 48.510063
42.65926 23.086901 48.679787
38.155972 6.8724504 48.770988
39.498962 24.334162 49.036781
36.471302 7.9493961 49.319077
34.138542 21.670664 49.317276
39.154675 24.330076 49.589867
23.424086 11.521921 49.612114
13.519594 22.909195 49.609055
41.199478 23.914169 49.809341
33.960083 9.7108393 50.027435
8.6073656 14.172453 50.530785
46.196056 20.861919 50.619614
41.378246 6.1660533 51.045456
21.498573 8.7292452 51.013893
34.925667 8.763485 51.010937
23.697392 18.828785 51.139801
33.119961 19.568478 51.213703
46.486698 10.468307 51.36816
23.534842 19.17816 51.414566
18.037716 24.333328 51.431713
14.688804 23.557119 51.708015
17.145046 24.374195 51.732552
36.580009 23.910851 52.039619
34.506207 22.514513 52.167477
34.867184 23.275812 52.172817
32.006424 14.88027 52.388493
47.59053 15.581791 52.400791
24.312561 13.486961 52.50803
9.5198441 11.761413 52.655064
15.746115 24.152946 52.798988
32.867706 11.190933 52.808228
21.327993 23.495575 53.036762
15.736425 24.144379 53.041992
15.390523 5.7506151 53.143246
15.207575 5.8385086 53.357872
32.162003 17.91419 53.554752
12.99579 22.559351 53.518372
22.271515 21.901361 53.879425
22.201546 22.050333 53.938919
12.071911 7.7229609 54.036133
24.602869 14.088316 54.205898
47.093102 18.198011 54.221733
13.185564 22.659409 54.274544
23.532429 10.523932 54.474266
43.828846 22.338566 54.738041
23.502075 19.582817 54.908512
9.309598 12.84298 55.005421
11.585695 21.728533 55.008549
8.873147 14.68118 55.188046
39.212688 5.5967793 55.285316
44.870094 8.0043812 55.309174
31.709187 14.151302 55.734879
24.215265 18.39258 55.787464
33.350777 20.406187 55.720482
18.090981 5.7712154 55.868168
20.818563 7.2493572 55.812611
14.490011 23.392162 55.811516
38.449104 24.277565 55.83873
10.320305 10.366392 55.961685
46.81361 11.96381 56.132477
35.598038 7.1843138 56.341633
34.916698 7.9119983 56.315418
24.1141 11.799061 56.411095
12.930006 7.1026144 56.528725
32.132835 12.436024 56.510834
33.035778 10.227022 56.717712
23.14933 20.54369 56.784668
20.309803 6.7145414 56.938297
23.397388 10.168714 56.943703
42.994919 6.6587958 57.085159
21.680794 23.265697 57.052891
21.716799 23.269278 57.159912
39.223175 24.438562 57.142136
12.605824 7.2531009 57.273167
33.791607 21.637403 57.2201
13.565727 6.5580873 57.410561
33.360512 21.037731 57.463482
15.898763 5.1298795 57.609837
44.915195 21.769987 57.89019
45.236843 21.607239 58.08527
25.129244 14.576643 58.141621
33.215855 21.219799 58.164391
47.406635 15.105247 58.292259
18.035551 5.5271235 58.395943
45.15744 8.5165129 58.729134
25.317928 16.017836 58.724289
34.34008 23.307932 59.051857
45.290348 21.639599 59.297325
31.074926 15.200366 59.368568
22.915375 8.9043179 59.44035
25.470182 16.367397 59.437122
21.18647 23.574183 59.473259
18.339108 24.393761 59.476624
18.210697 24.433599 59.493835
9.6927338 12.467169 59.614517
32.4613 20.442215 59.700222
13.638515 6.2224064 59.875401
41.06871 24.108913 59.809338
15.659865 4.7541585 59.96125
10.945591 21.513163 59.975155
42.072235 5.6375346 60.262772
37.043121 5.7086945 60.473602
31.594101 11.218863 60.674179
35.250843 6.4064536 60.749313
40.439812 24.544804 60.702126
30.821892 14.916458 60.811287
34.858742 23.687771 60.969074
20.290899 24.065699 60.952213
38.458843 24.731661 60.99424
19.64295 24.270256 61.06115
37.332951 5.4216771 61.288826
34.786694 23.711418 61.247421
22.696678 7.8269129 61.679131
43.272263 6.3128018 61.797218
22.973932 8.1816587 61.741352
19.7878 24.345877 61.796482
39.862659 4.5733619 62.093063
15.527437 24.386005 62.026375
47.28331 15.788409 62.168865
9.1961622 15.842116 62.226978
34.042843 23.551777 62.5839
10.703835 9.3814278 62.738781
9.9404812 10.944094 62.795742
36.898842 5.3322496 62.847202
31.820873 20.224426 62.9991
45.234253 8.0828266 63.05751
31.71925 20.010822 63.032562
40.377747 24.797539 63.060947
34.166409 6.6791205 63.197693
46.083664 10.007197 63.145229
32.540306 8.8931732 63.228279
9.6706438 17.906902 63.208694
42.318867 23.669512 63.275967
30.572254 17.37262 63.428223
9.2961073 16.321476 63.530964
34.419853 6.1333556 63.695637
25.87491 12.069061 63.616611
36.464195 5.3478613 63.7985
20.69902 5.5660267 63.988731
30.301905 14.076502 63.911015
35.283188 24.122826 63.913628
9.6906357 18.026424 64.053162
40.972897 4.3460507 64.123177
10.340188 21.068237 64.101028
40.585133 24.782406 64.158997
24.288572 21.347965 64.41069
20.477398 24.442894 64.59993
38.192078 25.249826 64.720596
16.398027 4.0602689 64.93187
14.328321 23.839371 64.981934
10.372091 9.784483 65.172737
30.415733 11.010264 65.422462
11.161264 7.8562574 65.597366
46.022274 21.335934 65.94249
37.818455 25.238983 65.95002
9.4681721 12.656599 66.214355
30.131481 17.070391 66.298187
10.337919 20.896919 66.257843
25.748444 18.983501 66.304077
26.393494 12.066542 66.44603
41.049049 4.0656238 66.791634
22.15044 5.5102854 66.932457
36.153507 24.673498 66.958885
45.099411 7.1480913 67.010376
45.396965 7.8483758 67.084846
26.705959 13.619061 67.15168
30.419296 18.619883 67.131882
31.452225 20.528883 67.19046
41.143196 24.470737 67.187546
32.500027 22.4548 67.268074
11.223049 7.491231 67.370522
47.308075 15.802814 67.456459
44.528996 22.271778 67.718956
14.404697 4.6869087 67.992561
39.7229 25.378126 67.975075
30.558483 9.812561 68.042755
43.742344 5.9493384 68.140572
25.026829 8.5289803 68.190849
46.514931 10.818802 68.108391
30.106339 18.249233 68.155792
25.059792 20.62149 68.143959
9.5622177 12.725274 68.217804
32.717407 6.6928773 68.334274
40.695576 3.6669879 68.471855
30.813971 19.595592 68.458786
40.836922 24.642366 68.485435
41.377556 4.1607542 68.559898
29.902235 17.510458 68.53035
12.296744 22.482243 68.566422
29.857622 17.300304 68.724556
10.828667 8.5025578 68.800537
29.818039 17.073545 68.845329
46.136452 9.7600193 68.918655
39.020695 3.7752137 69.095383
33.587425 23.858559 69.248016
37.679192 25.365137 69.200935
10.863412 8.4420815 69.3769
24.488785 7.3514452 69.576645
10.712601 8.8148565 69.581314
25.906643 9.3109875 69.678268
30.270765 9.739851 69.607208
30.828165 19.860332 69.768723
39.776234 3.5653887 69.893463
47.05254 13.965107 69.814415
21.905285 4.9606161 69.950356
46.953976 13.514559 69.923386
23.261381 23.778976 69.987648
29.64922 16.666142 70.07679
9.5230188 13.551165 70.183571
37.299126 3.9944181 70.294167
43.392365 5.6477509 70.287193
32.337887 22.723263 70.362946
34.337193 4.9097147 70.578957
16.048754 24.876293 70.52523
38.632896 25.800064 70.680473
22.812126 5.0689144 70.711609
46.543156 19.41502 70.830399
46.442593 19.845257 70.827698
29.36385 12.80675 70.921486
27.170887 13.49321 70.925117
25.841518 19.618612 70.966393
35.192959 24.543449 70.947762
20.736467 24.731493 70.946533
10.270494 10.343594 71.023285
17.372417 3.6589036 71.426338
32.457653 6.2861843 71.429657
45.545681 8.4492846 71.418289
17.130314 3.59934 71.50145
46.451523 11.702505 71.580101
12.918814 22.816696 71.557358
9.3772974 15.317966 71.648811
37.508884 25.432537 71.674072
41.381767 4.2124577 71.886322
26.322916 9.2217207 71.889549
43.259182 5.5207648 71.920975
32.818005 5.7303696 71.990601
46.789753 13.45135 72.126358
46.538216 19.07793 72.232368
33.88578 24.178217 72.211205
15.297058 4.0809751 72.682373
6.635489 20.664366 72.63604
19.833212 25.176603 72.725746
40.75227 3.7921245 72.802193
24.508829 22.485012 73.055595
50.778973 13.627985 73.150017
20.199221 25.077497 73.123016
49.835457 20.423615 73.295685
20.308647 25.051895 73.297234
46.528702 12.656294 73.341232
50.902824 13.20283 73.391174
51.650524 19.213503 73.429665
30.440413 19.558388 73.455139
45.947128 10.073133 73.571808
27.290243 11.49742 73.556206
44.719364 6.5859342 73.752708
21.863482 24.544453 73.795486
5.1007524 16.060371 73.869347
21.373751 4.0903339 74.066048
43.343536 5.6222973 74.083809
29.540222 17.863068 74.020226
34.954147 24.692881 74.038544
53.096436 17.681137 74.121849
37.042847 3.5760672 74.244431
40.939342 3.9519553 74.295113
29.243128 9.9918642 74.287048
46.45414 12.579424 74.506348
9.7850246 17.02401 74.692001
27.378134 15.612042 74.775352
53.558659 17.696543 74.790726
3.8252554 18.745457 74.720963
13.43939 5.4184918 74.961334
13.987984 23.612055 74.907669
19.722214 25.477047 74.917923
19.648397 3.5119948 75.048805
31.169849 21.302443 75.040237
50.749489 21.589518 75.021431
35.887554 25.211399 75.08255
29.841377 18.58988 75.140877
11.56741 22.101353 75.200317
53.360626 13.888109 75.524811
46.553528 17.73053 75.535629
34.855141 24.945898 75.584885
2.215265 16.913694 75.691048
31.429646 22.296093 75.708984
21.517345 3.8403676 75.931061
46.701057 16.508846 75.952499
46.387863 18.88273 75.917862
3.0450721 22.564751 75.993729
46.83889 15.46508 76.015503
46.824554 15.531532 76.149818
42.708523 5.2197127 76.299782
28.71438 14.018679 76.227325
2.4450331 16.100533 76.210724
46.801971 15.630331 76.381126
43.424019 23.173512 76.343254
2.5361507 15.026123 76.456505
39.372967 25.909964 76.401649
24.656452 23.684374 76.574608
20.498898 25.50671 76.557495
3.4688387 20.23628 76.622902
45.484848 21.907505 76.768852
15.86679 25.136875 76.748146
10.513473 9.5502796 76.881172
9.8977709 17.218445 76.86734
46.059845 20.077057 76.838608
29.061001 17.952192 76.927559
54.322517 21.820963 76.908173
2.4354846 22.541134 77.007385
3.0869122 22.75782 77.047348
24.160175 24.216335 77.086868
21.512428 25.202702 77.062134
33.918919 28.895576 77.153435
24.409887 29.009047 77.133675
23.735371 29.139736 77.126495
45.358471 7.907609 77.276451
33.794323 3.775878 77.379539
31.560972 5.7937026 77.393608
46.755371 15.683447 77.362808
43.329052 5.6739039 77.452904
25.177826 6.1076841 77.432022
29.706865 22.546207 77.498894
31.889271 26.906998 77.423004
53.946419 13.738433 77.617767
21.551815 25.634592 77.696579
16.741772 26.401421 77.695679
10.33956 19.507336 77.727829
44.293266 24.078123 77.791451
31.891239 24.462849 77.758667
34.651123 25.435247 77.743896
42.101837 25.692863 77.972099
28.915665 10.311276 78.069778
1.2532907 17.047813 78.07946
3.1681008 20.123674 78.042397
28.652412 20.979013 78.023941
45.507912 8.2295837 78.12645
53.487305 15.670495 78.123833
11.743398 23.762638 78.193375
49.116718 11.438795 78.265442
53.313126 20.148148 78.256317
44.328438 6.3863187 78.397926
9.6626844 15.030422 78.318214
8.4587088 15.927614 78.37468
27.241526 30.062857 78.390121
12.162322 24.072124 78.497452
29.355614 30.055513 78.420876
45.560673 8.3233023 78.661537
9.3764582 15.328471 78.689247
45.10928 6.1819983 78.72995
46.921677 12.579132 78.742111
1.0619968 19.156214 78.755104
30.551283 29.987358 78.756874
43.687336 24.528423 78.923363
39.622574 2.6022546 79.092232
32.719528 29.866188 79.096931
30.925879 5.5270104 79.100784
53.069851 16.139977 79.126534
3.9734538 14.883192 79.29483
28.408131 21.510572 79.253647
1.0974469 21.762493 79.262741
42.080441 25.713293 79.398285
40.480209 26.891436 79.320473
22.79603 29.713814 79.331146
11.838072 5.3749638 79.492714
27.854885 14.918197 79.474686
8.0070095 15.068921 79.418968
22.974903 3.4644258 79.582306
53.618217 22.437737 79.507339
4.0585709 14.436824 79.677002
55.066071 14.872839 79.65609
3.0280166 18.405022 79.629585
42.518223 25.392115 79.766037
8.1390572 15.965431 79.808762
48.111233 16.814198 79.890503
53.801571 22.520321 79.900879
33.081749 29.838558 79.976013
5.8456092 11.275776 80.076683
0.45697662 17.374472 80.072845
1.7192798 22.464771 80.234352
39.01265 3.2220373 80.441521
47.731167 18.357353 80.487839
53.331165 20.619682 80.465454
49.863121 10.762246 80.627861
37.658943 28.457672 80.62323
36.346306 28.86071 80.787079
47.640648 10.540991 80.813637
47.646034 18.749306 80.985397
24.924696 29.913475 80.969284
50.091042 10.815758 81.120087
28.646082 11.123472 81.198784
9.3992004 9.3209991 81.255585
52.318882 17.461145 81.245049
19.294487 3.1778862 81.329132
3.8532109 13.779024 81.377861
9.7107954 20.828373 81.353638
12.655622 4.9476824 81.475037
1.6705281 14.291072 81.65786
19.658171 28.697617 81.625275
37.774632 28.394518 81.716721
0.6832059 20.062382 81.997017
31.074196 4.3919201 82.029488
34.948315 3.2709072 82.148994
1.9591792 14.154325 82.149567
51.631279 15.672267 82.127396
9.7646999 21.039198 82.199127
40.489182 2.4992769 82.29731
13.260798 4.5585346 82.201996
4.2195854 17.977686 82.296875
35.637688 3.2289789 82.322495
27.731247 5.9725347 82.330406
45.643307 6.7335186 82.479378
1.157033 16.112282 82.479874
26.297749 4.8702345 82.548828
50.513062 13.386127 82.5896
25.917212 29.943363 82.586632
29.319481 5.3474913 82.639008
52.936249 22.229782 82.603256
28.119663 6.1669178 82.755745
22.50351 29.549509 82.726807
17.671867 3.2287848 82.879677
30.000164 4.9425688 82.894562
26.883808 29.926077 82.814362
17.805878 1.9746211 83.046158
10.988883 6.5724463 83.010796
10.289942 7.8622398 83.087891
7.3574519 12.559219 83.051224
49.271919 13.265855 83.076111
52.945496 13.882162 83.035843
0.81349421 21.400299 83.030693
3.7893906 21.152897 83.177078
38.354301 28.178205 83.156029
9.1390705 10.26383 83.292473
48.35556 15.095678 83.440865
49.740108 14.713887 83.508446
11.002654 23.234625 83.544418
12.690083 24.477264 83.552368
39.98056 2.3966303 83.667976
8.404706 13.776676 83.654617
51.610176 18.361856 83.932701
9.2838154 20.044212 83.921371
31.745193 29.875607 83.956604
14.517871 3.7787886 84.013329
9.3460064 20.231167 84.031776
18.003151 28.120373 84.106323
9.2029772 19.886774 84.267036
13.801848 4.3511858 84.339668
52.683479 13.469744 84.40477
34.566463 29.324284 84.538971
44.398758 5.700779 84.748985
53.978416 14.563928 84.762344
17.15313 27.839626 84.746132
8.3749046 14.045273 84.884842
35.894238 3.2833173 84.944046
5.5761261 17.358959 84.943832
37.669563 3.28461 85.022194
11.033917 7.0232768 85.059151
9.9691591 8.9504442 85.031677
18.411905 28.224022 85.063454
46.902985 21.017305 85.159035
3.4835861 22.380966 85.336563
7.1620741 15.568223 85.404121
37.162899 28.488743 85.605904
25.006796 29.829895 85.66954
27.959162 29.803883 85.68438
53.830284 14.605957 85.724426
0.83344114 17.988956 85.763306
1.2801673 21.300636 85.740379
47.215775 10.46264 85.834808
3.3011224 13.806534 85.845596
9.1745424 20.085983 85.843903
50.307354 13.416382 86.013176
6.2883825 13.630172 86.148239
49.435398 14.714493 86.377205
4.4935865 13.186592 86.4133
49.683659 14.392786 86.440536
13.356369 25.101368 86.486649
25.965853 3.7415774 86.518585
5.7524338 19.6341 86.571648
40.11739 27.436239 86.654984
19.311085 3.2670989 86.704315
32.793774 3.3427615 86.795639
8.4398613 16.610584 86.702057
13.224914 5.0697722 86.894089
52.097244 22.172859 86.891525
12.996795 24.830782 86.861275
18.677929 3.2370524 87.08905
44.549637 6.0581236 87.050903
9.6927032 21.522171 87.111618
41.423344 26.354815 87.252914
50.814182 14.225783 87.39299
16.918436 27.724998 87.348648
21.342865 29.094719 87.360527
25.781557 29.754999 87.41449
0.71392632 18.600847 87.684769
38.027943 28.200193 87.653397
11.781051 23.759193 87.746727
43.324509 24.813704 87.734161
22.126566 29.342924 87.754013
4.3207636 22.04915 87.803864
28.320879 29.718565 87.859329
30.535545 3.2955022 88.023338
33.597599 29.579784 88.230064
18.155434 2.2997885 88.398651
46.388359 22.313484 88.333893
15.414285 26.525589 88.324051
49.234577 20.320751 88.404121
41.703957 4.1299305 88.584778
51.868984 14.594841 88.69648
51.45512 22.171034 88.642418
17.245352 2.7719319 88.767578
52.264942 21.908112 88.708282
55.985821 17.629929 88.827766
50.261448 16.096523 88.946609
51.190662 14.832613 89.06575
4.1763058 22.22578 89.004211
46.691074 9.9188213 89.121925
15.404471 26.464748 89.177902
4.341197 14.050921 89.208427
55.189026 16.185768 89.212204
48.573723 18.397848 89.269089
51.040329 20.556677 89.225632
5.4312692 22.727505 89.211662
25.879568 29.696213 89.258858
50.552589 14.739111 89.345253
2.0425391 16.221596 89.357643
55.598656 16.858793 89.330032
27.387405 29.678534 89.365532
46.094833 8.9661207 89.468582
2.2347546 15.506638 89.434158
50.026234 16.37315 89.442917
2.7197852 24.248072 89.49102
37.178196 28.489538 89.497139
8.5510893 16.831028 89.540657
8.5365562 18.478121 89.537659
33.445763 29.621315 89.55172
11.768476 6.8161197 89.695381
57.025864 19.209059 89.644814
37.137054 2.5632541 89.750031
8.9447098 12.86517 89.723694
23.471016 29.704945 89.78347
2.9448121 14.323122 89.922424
0.063695773 21.736053 89.924492
38.597874 27.954592 89.946518
0.39028183 22.419455 90.277168
14.756607 4.3809257 90.571907
14.652507 4.4586654 90.589668
19.542643 2.5961649 90.670746
21.788219 3.2049961 90.605537
12.622461 23.994228 90.679604
47.370869 12.73898 90.949905
32.516815 29.774967 90.918434
45.479111 8.3685751 91.082458
57.146919 19.761702 91.036713
53.954781 24.151716 91.188873
53.724007 24.224833 91.149734
34.629257 29.304077 91.286919
41.44981 25.995033 91.441849
14.270299 4.8391004 91.551003
3.2882991 14.252217 91.61953
9.0199757 17.179241 91.645279
9.1101341 17.85132 91.67337
34.00148 3.1907361 91.750916
39.257881 3.1939063 91.747704
37.716934 28.228699 91.793045
45.556099 8.7481575 92.196304
9.2240782 18.367603 92.160233
38.142044 2.7513969 92.205559
26.411345 2.8654659 92.27137
30.067562 2.8652174 92.28331
34.717136 3.2591712 92.254105
12.391706 6.4153285 92.209305
44.243408 6.6850696 92.231895
33.173367 3.1469526 92.380791
49.826324 14.148274 92.392693
24.772308 29.775127 92.352921
13.326544 5.6269188 92.568863
8.8766909 19.964184 92.552979
8.5236807 20.518171 92.61515
17.68092 27.514475 92.646042
26.374725 29.620499 92.618454
57.337311 18.83527 92.75338
8.7317457 20.292471 92.822319
19.817095 28.700493 92.829315
33.27953 3.1218841 92.992569
47.328709 18.02529 92.964951
8.895504 14.716622 93.005562
49.605915 22.580116 93.186417
52.981026 14.379757 93.290802
9.1132383 14.100243 93.41864
0.80397582 22.73461 93.604286
31.084419 29.740782 93.641769
45.698265 9.4054356 93.988281
9.4492569 16.791012 93.985115
22.017509 3.2601995 94.149284
26.570862 2.6267064 94.277824
-0.96636915 19.025877 94.201439
19.447943 28.310352 94.353348
31.443628 29.790524 94.310776
10.757645 9.5707359 94.550812
55.290417 15.703492 94.585724
14.236583 25.087013 94.591042
47.97813 20.898647 94.670776
44.023224 6.930439 94.790176
9.4572363 17.710012 94.776306
47.016182 18.166916 94.990799
8.3624687 20.984959 95.020081
16.723591 26.699883 95.027489
34.264393 3.1476002 95.187683
35.798538 2.9957781 95.25103
9.1831322 14.518373 95.24984
15.30873 25.841356 95.240204
21.025253 29.09479 95.234734
35.735535 3.3284054 95.400391
14.83471 4.8756862 95.425423
8.5576134 20.799702 95.44664
1.4478695 23.32139 95.410683
2.6630573 24.463434 95.491913
25.124012 29.773243 95.49247
20.721622 2.9970613 95.527237
10.699303 21.092274 95.517334
24.369921 2.7601085 95.714333
46.806835 17.895679 95.748291
43.210098 6.0021024 95.834122
47.259815 15.527348 95.837067
9.2918377 14.476812 96.187546
-0.36280206 18.332754 96.194672
53.938957 24.28327 96.278725
-0.77114898 19.40263 96.30201
9.2952557 19.826172 96.33699
0.26667339 22.124664 96.311386
44.854118 22.537329 96.560242
24.249489 2.8315594 96.617104
42.266804 5.4033446 96.713112
10.933405 21.089828 96.710632
15.552555 25.748533 96.787643
36.695099 2.7545505 96.96627
33.46357 3.0863035 96.948395
23.729622 2.9586 97.154999
46.45956 18.363424 97.165955
19.00407 3.1699071 97.274902
46.93111 16.422886 97.250916
20.896881 28.779049 97.232201
26.219521 2.5192175 97.358414
56.99559 18.878531 97.430542
53.449818 24.730213 97.427887
46.975368 14.260454 97.529228
55.563499 22.639627 97.511299
46.955421 16.352905 97.629547
27.692368 2.4117436 97.771484
50.598236 23.479376 97.766708
6.3612328 13.967311 97.972198
53.394047 14.465734 97.961937
14.749493 24.958492 97.929695
30.968258 2.6412325 98.052925
21.884161 3.3568842 98.019302
42.464058 5.6934748 98.049294
26.41703 2.5399599 98.159134
18.309326 3.6126568 98.13723
46.098518 19.033598 98.123085
1.0754164 22.847048 98.18856
45.764282 19.787518 98.315353
1.917854 14.903836 98.483734
43.23008 23.723415 98.451126
53.842545 14.674822 98.578247
46.658993 16.681873 98.62355
22.545219 29.000296 98.670273
30.712261 29.397266 98.64769
52.144657 14.048923 98.800987
36.601753 2.9393663 98.973022
32.733459 29.205084 98.932831
41.102158 5.1725717 99.097549
7.4659791 22.618526 99.005424
33.72604 3.2364731 99.13414
46.867065 14.50066 99.186897
45.625412 19.807114 99.128448
2.6226656 14.686234 99.218605
16.88895 26.305729 99.200157
52.964745 24.716143 99.333107
8.1812162 14.860413 99.505363
46.15266 18.090448 99.522346
49.492748 23.138172 99.561539
2.7638409 24.332006 99.510101
20.900518 28.45949 99.502701
46.471329 18.886227 99.69017
9.3095551 20.420753 99.60614
0.26773137 21.849953 99.758568
46.585854 19.522133 99.984497
10.452348 18.291649 100.05861
51.087822 23.990433 100.01865
24.969925 2.2582858 100.10123
24.314602 2.4156649 100.1898
8.0647831 14.807988 100.45358
41.408813 5.3347282 100.5341
45.824913 11.530652 100.57294
5.0152636 24.234234 100.8734
21.982027 3.0105839 100.98723
6.9259515 23.288336 100.95634
37.248188 3.4845026 101.05292
54.693398 15.386469 101.00423
1.6101588 23.011312 101.0335
18.531206 3.8071239 101.15202
4.7723851 24.324173 101.10998
9.9814692 14.274231 101.28123
38.473827 3.994385 101.36996
56.050209 21.607246 101.36549
54.920021 15.769693 101.44088
17.895956 26.635754 101.5295
45.204773 19.522333 101.6836
-0.020147633 20.486208 101.61932
0.0059408098 20.549952 101.66338
53.310486 24.361702 101.7256
50.100945 23.714764 101.86572
4.7824759 24.335152 101.92114
46.067516 13.356567 102.28092
8.7252359 21.519079 102.25144
35.906075 2.9714737 102.48149
28.094242 28.908661 102.6959
26.513498 2.3001308 102.72758
48.943249 23.252913 102.8605
18.69602 27.012003 102.89139
16.449871 4.5923667 102.92296
11.283039 9.8264046 102.99535
32.543259 28.768795 102.96433
14.874766 24.22632 103.1976
24.495178 28.788979 103.13677
30.066778 2.3574681 103.23985
18.738052 3.641264 103.26005
0.028078407 18.277241 103.2713
16.199596 4.702898 103.34705
22.072371 2.5058134 103.57536
35.183651 2.6971016 103.56886
10.460968 13.783579 103.51684
16.387596 4.6032658 103.64459
17.619589 4.0304966 103.72191
1.1709208 16.495371 103.74492
26.055443 28.758469 103.7332
29.728231 2.6677825 103.8213
54.839096 15.963819 103.95573
17.766603 26.239702 104.03791
33.388443 3.3981462 104.20261
12.168457 20.03208 104.2579
51.980736 24.495401 104.51778
46.029667 19.354263 104.61278
51.237186 24.266506 104.75989
18.294813 3.7304304 104.96379
7.4746618 14.395761 104.99651
48.732544 14.508768 105.06177
39.297211 25.722795 105.01508
10.495174 14.531696 105.19856
10.713902 16.381844 105.2014
13.224795 22.035915 105.24153
17.114874 4.2040262 105.30814
5.7416697 24.094774 105.36996
53.661896 23.576069 105.65683
2.8895345 15.014031 105.76262
33.573212 28.127792 105.83259
4.1945276 14.68944 105.90279
21.784626 2.5715594 106.01291
33.906319 3.619535 106.05869
33.142559 28.185364 106.26357
7.7079763 23.496435 106.38409
25.08688 28.407898 106.30003
42.998917 7.12921 106.43207
3.2655694 23.980957 106.48766
37.521736 3.4379196 106.57415
11.130791 16.793047 106.56224
45.135689 10.898085 106.60603
10.400728 16.968573 106.67029
44.391537 18.953529 106.7611
54.802982 22.418289 106.73523
23.414118 3.3936353 106.85773
41.754326 5.9816871 106.9451
12.999697 7.7132635 106.92853
22.949999 3.5433357 107.04081
41.148064 5.5627718 107.06554
52.516487 14.885921 107.01988
44.246513 19.084162 107.0705
10.886045 17.648327 107.27169
35.838467 2.971417 107.35614
10.805293 14.556664 107.30983
50.860664 14.517388 107.3975
11.447658 17.190811 107.353
22.412882 27.803495 107.36462
37.902546 3.5869708 107.4471
13.324365 20.723614 107.53531
47.930138 23.234215 107.68835
43.321541 7.6454077 107.74628
25.907953 28.260712 107.83595
45.46125 18.660986 107.91136
42.913513 21.028734 107.91604
6.7556539 14.279274 108.00361
0.50779295 20.329088 108.09138
47.476955 22.539379 108.02895
25.455822 28.156609 108.29406
45.222507 12.288303 108.47023
13.394032 20.524805 108.44936
45.558372 19.350407 108.62418
11.286184 12.0354 108.74332
39.406631 25.094595 108.79893
18.867657 3.5429471 108.8132
45.302174 12.880291 108.84258
53.807693 23.302629 108.84901
33.94495 27.625296 108.87424
11.206222 12.615873 108.99855
11.557674 16.783125 108.99451
55.314922 17.278862 108.98139
14.932615 22.462261 108.96771
50.779762 24.531502 109.02696
40.665215 5.4205494 109.15021
10.459956 20.422369 109.17186
35.785946 3.0220633 109.30581
1.3749583 22.137924 109.31237
47.330048 15.195232 109.43892
9.7749252 15.627621 109.41425
14.232995 6.6334577 109.55083
2.3857331 23.102829 109.52
14.435829 21.765066 109.68082
40.899422 5.6432467 109.73552
5.5159807 24.695438 109.77531
45.56842 14.831573 109.8528
34.539803 27.297913 109.87556
10.949978 15.332119 109.98033
47.398556 23.060425 109.93169
39.134933 24.941853 109.95673
51.99601 15.068529 110.04433
19.406008 26.518391 110.03143
22.451078 27.424314 110.09946
54.744125 16.599514 110.17647
38.887463 25.223482 110.14579
50.76976 24.741821 110.22086
35.318558 27.016876 110.49944
3.6028731 24.323662 110.52352
28.103107 2.1263354 110.60442
46.073402 20.864756 110.75024
30.578272 27.931103 110.77214
21.251144 2.903966 110.8212
36.053738 26.782745 110.84725
44.995495 16.671858 110.99155
9.3035946 22.838049 110.92034
6.4659624 24.571838 110.90157
28.550159 28.108191 110.90322
40.112911 23.941769 111.03535
24.405899 3.2213178 111.19654
45.277458 15.9895 111.18021
1.1481197 21.171635 111.19785
46.332027 15.754922 111.2939
15.370167 22.881283 111.24989
53.216084 15.693184 111.31409
45.45919 17.044312 111.33777
3.2717862 23.951904 111.35945
8.2636957 24.063198 111.34812
40.014256 24.078053 111.49916
15.649342 23.201771 111.50798
22.792316 27.477947 111.57238
3.4644916 15.563639 111.60013
44.5023 17.900156 111.65836
14.138633 21.568546 111.74545
28.701881 28.071213 111.75871
45.160686 12.250488 111.82414
40.682983 23.371555 111.87032
36.378864 26.652077 111.80663
28.05982 2.2183237 111.93922
11.266446 19.223244 111.97849
1.08565 20.806828 111.90516
39.875526 24.261461 112.01813
44.986664 17.569431 112.15321
41.241734 22.78142 112.18324
54.433327 22.717449 112.12424
40.956654 5.9237862 112.20847
12.388824 18.896019 112.37827
4.1070905 15.391239 112.4766
51.192123 25.382345 112.40475
47.333862 15.077396 112.56424
0.47989246 18.637518 112.55634
14.902169 22.448524 112.5071
45.463936 14.431122 112.61317
1.5079616 17.429531 112.69536
16.773647 24.497337 112.62635
5.5983362 25.270285 112.62908
55.691944 19.356287 112.88691
11.277554 19.559944 112.82779
33.517818 3.6705375 112.96653
5.4546623 25.425705 113.07707
30.348442 2.8259478 113.42393
2.2888203 17.035809 113.41238
8.1118164 24.472752 113.49444
3.9623961 15.762807 113.5448
5.6490836 25.441822 113.53169
8.4317217 24.342495 113.61688
6.8129969 14.476476 113.72305
31.407166 3.1320651 113.81338
14.158633 7.2032542 113.87473
51.881275 15.389546 113.86423
11.160688 20.117483 113.81133
13.61894 20.981989 113.88062
55.248596 18.08688 113.95678
41.375175 6.4081049 114.14427
41.414707 22.718903 114.224
17.257095 4.8263831 114.32722
42.413761 21.645885 114.49487
47.155846 15.052271 114.63333
53.050957 24.23035 114.61456
30.946129 27.771673 114.76367
30.061836 2.8350563 114.84489
39.801414 24.40807 114.94441
52.58696 24.867498 115.02036
51.619518 26.004734 115.16333
12.117826 18.454458 115.46481
37.049465 3.7621915 115.68834
50.721439 25.891026 115.69774
45.196526 13.040207 115.82206
14.561562 6.9816575 115.90723
9.1009512 14.813027 115.9828
34.760193 26.99519 115.96376
45.087765 12.4861 116.29231
11.950313 18.087065 116.26704
10.828829 21.768799 116.27303
23.980051 3.5673244 116.3258
44.936054 11.616417 116.39151
1.5959013 20.904703 116.43073
54.064747 22.740591 116.45416
49.586212 14.724096 116.58981
27.805958 27.94248 116.58399
3.4801607 15.79631 116.76247
1.3142383 20.135721 116.74407
20.934948 26.723158 116.75128
16.18026 5.8360314 116.9184
2.3765697 22.781706 116.91947
25.823681 3.1070876 117.02269
24.991045 3.3321087 117.07766
51.699242 15.306027 117.12949
17.304665 25.010366 117.20061
46.416248 15.258797 117.48849
34.876476 26.957136 117.53639
37.331795 26.229158 117.72784
11.907242 10.210969 117.8376
33.260235 27.486128 117.83117
1.4383982 17.825617 117.9393
45.494167 22.614811 117.92935
22.708637 27.373878 117.99959
17.663311 4.7485991 118.07596
14.678852 6.9461746 118.05457
46.565018 15.101282 118.08478
37.927742 4.1420517 118.14369
11.117257 16.566517 118.26076
18.182499 25.998934 118.27103
17.695547 25.644636 118.36454
42.682358 7.8833647 118.43848
46.329994 15.272632 118.57977
44.039036 19.236317 118.5303
46.539658 24.293785 118.53481
22.36116 27.356386 118.57816
21.63896 3.1128144 118.63774
8.4148178 14.279954 118.68492
9.4024439 14.734415 118.75714
5.2679691 26.426033 118.78835
32.987041 27.599548 118.76617
5.8405933 15.06166 118.8295
45.210548 13.611036 118.96911
17.063194 25.147301 118.99834
5.6538296 26.406101 118.94168
18.982025 4.0221462 119.10285
3.5466323 15.505375 119.3008
14.57802 22.689899 119.31559
41.747398 22.839928 119.33907
12.445885 9.3677578 119.41946
49.606834 14.861254 119.4502
10.182681 24.193632 119.49364
27.225327 28.062315 119.57996
28.710991 28.064692 119.50866
48.488297 14.560612 119.6926
44.496712 21.558043 119.65705
11.181503 13.450278 119.79895
44.592216 18.255987 119.75395
49.221905 25.849243 119.73822
40.249821 5.9122257 119.81696
17.890509 26.091087 119.88721
32.453461 27.757351 119.88174
28.245003 2.7729886 119.94507
40.679539 6.1846132 119.92742
52.697193 25.029831 119.90479
29.277992 28.08947 119.91594
11.780963 17.817049 120.04367
55.203205 18.807598 120.01611
26.1301 27.998196 120.1169
38.917793 4.9133377 120.24158
44.341827 19.429575 120.66824
49.847904 25.999588 120.65569
33.422153 27.735147 120.69823
30.215736 28.060223 120.65477
53.522633 15.819216 120.7507
26.91115 28.135258 120.72784
50.706383 26.266991 120.90132
24.187969 27.871389 120.92646
20.826813 3.4697299 121.09128
53.425129 15.677147 121.21815
28.56785 2.9594994 121.35489
29.246889 28.161451 121.38313
50.390976 26.122971 121.56819
10.915385 16.194138 121.61382
44.752136 22.784798 121.70773
52.968414 15.486249 121.84261
22.317339 27.766924 121.81737
25.20804 3.5160899 121.93056
37.476479 4.0986023 122.15372
4.0982838 15.355651 122.19745
10.507778 15.668381 122.18314
10.923326 16.10144 122.2455
6.9276342 26.022102 122.27693
20.801348 3.5113626 122.37086
32.680504 27.982906 122.58936
2.4525764 16.692448 122.73373
7.953898 14.589851 122.80598
50.797039 15.005984 122.80791
19.804779 27.225182 122.81856
44.732414 23.195129 122.91194
9.9630556 24.926352 122.94415
23.229858 2.8777511 123.08803
45.093693 16.310001 123.03766
54.226067 17.211281 123.02972
45.681808 16.447908 123.12774
53.194164 24.496532 123.13532
29.312714 28.23135 123.21423
30.386965 28.286047 123.30502
12.513739 21.232292 123.59872
38.503586 26.629684 123.66653
6.9241648 14.492897 123.7881
12.615164 20.867336 123.71361
25.253347 28.237064 123.70447
15.859629 5.9720383 124.065
50.906425 14.600218 124.02779
3.9294798 24.944231 124.16327
12.562752 21.604103 124.23959
44.051994 22.195944 124.47211
30.800175 28.352009 124.48856
40.157661 5.6752224 124.52278
12.401481 17.816513 124.55289
44.562328 20.456665 124.56551
11.386448 19.403936 124.62992
11.577359 19.837698 124.69032
38.896976 4.8976707 124.73814
44.102203 22.520981 124.72663
24.113367 28.21843 124.7868
52.123463 14.755582 124.86264
10.827799 17.37265 124.84907
28.235523 3.1494431 124.98208
1.8145761 17.807772 124.92365
35.159679 27.954117 124.91824
38.715939 4.8014994 125.11752
16.757101 26.322235 125.42453
52.932049 15.150826 125.5032
55.064751 19.321632 125.55687
10.011673 25.252514 125.56432
35.301647 27.996826 125.5316
39.706215 5.4129467 125.73955
42.898495 23.307993 125.90459
23.20664 3.0898473 126.04597
20.367332 3.7068298 126.00502
44.56731 9.2420158 126.08635
46.104782 25.05814 126.0834
39.788193 5.4742036 126.12701
44.927902 9.7693529 126.13255
12.394375 22.980759 126.27278
46.328239 15.775921 126.33508
36.228298 27.907753 126.35535
14.485515 6.7977009 126.52555
7.9381871 13.916037 126.60257
10.161106 15.265404 126.69604
15.505938 6.194593 126.73557
1.6997809 21.004478 126.75191
24.634272 28.457397 126.79984
42.316811 7.0457387 126.84971
42.32045 24.089138 126.82622
9.7161932 14.365532 126.95851
45.763367 14.659492 126.9041
45.54464 19.091194 126.92246
51.442902 14.291875 127.04768
37.458828 4.2620707 127.16129
54.750221 20.900936 127.11432
43.205479 20.622164 127.2582
13.182804 23.257822 127.21989
30.551537 3.6660285 127.31354
4.8650007 14.341167 127.38339
11.690263 21.123871 127.4818
40.752743 6.1002693 127.69628
45.296387 14.956963 127.63104
42.346199 24.263052 127.63959
32.333309 3.9491618 127.84386
18.269516 4.6930714 127.868
26.977116 28.415577 128.03447
37.282902 4.2451115 128.21242
44.508003 15.600172 128.23373
54.544369 21.926296 128.26361
42.015305 6.8759079 128.36517
12.925758 23.297527 128.39471
44.08054 23.730404 128.33591
12.251844 8.9363041 128.55862
38.216503 4.7553663 128.61819
11.574026 21.366756 128.74319
20.444124 28.253193 128.74707
29.419876 28.446924 128.77919
34.670288 3.0350091 128.91653
4.1007848 14.624548 128.98355
43.837624 23.627699 128.9494
8.274106 25.948069 128.95653
41.877441 6.8143139 129.02176
44.352009 22.591829 129.02365
12.155826 22.697104 129.02321
19.335798 27.928631 129.0206
45.971176 25.480579 129.18753
34.637516 28.441233 129.13457
33.26474 28.57515 129.13962
45.252865 20.887249 129.28578
13.21055 22.84201 129.39487
2.0736189 22.518793 129.57899
13.908561 24.570896 129.51839
10.0233 26.051517 129.52802
38.35717 27.4519 129.5106
45.386532 25.031864 129.66296
14.335602 6.9900589 129.77084
9.909214 15.001228 129.85181
31.005247 28.587917 129.81119
16.052719 5.9861813 129.99202
8.1068878 13.493114 129.93462
43.727844 23.56287 129.91859
30.395315 28.569613 130.091
39.253304 5.3997393 130.17538
12.521291 8.6699162 130.32353
30.498537 28.587324 130.31885
4.7040071 14.209661 130.48584
10.364663 14.098451 130.5381
46.538063 17.150219 130.60338
42.328304 20.634295 130.66052
20.209223 3.8932359 130.73137
11.255404 14.395184 130.78909
8.3593464 13.423092 130.81274
15.906819 6.1264424 130.91711
30.370609 3.611248 131.06915
37.736134 4.6750836 131.00464
42.164459 20.37047 131.05571
2.9466286 23.249966 131.14389
12.646765 15.635408 131.27371
6.5406985 25.435932 131.28151
1.7935739 20.866344 131.38762
35.62822 28.668695 131.4756
22.864079 3.2230079 131.5408
40.270279 26.892641 131.59102
44.913097 22.96097 131.60741
53.013752 23.653053 131.73898
35.451157 3.5453887 131.81757
45.412258 22.304943 131.86754
44.554234 24.911024 131.82191
21.512194 28.788359 131.8688
31.573641 3.7626042 131.92722
7.7462063 25.63134 131.9709
53.282166 15.26688 132.03308
45.037041 9.5432978 132.18715
54.808151 19.861279 132.18468
29.166861 3.5455167 132.31889
14.261212 16.962061 132.36954
36.860455 28.418591 132.45613
41.764542 18.296926 132.50533
41.748405 18.439281 132.53348
20.358824 28.657585 132.71481
7.3325825 25.458288 132.8562
44.785545 14.336527 132.90306
41.79335 20.916161 132.98338
30.886627 3.7634506 133.04794
2.8844566 15.453801 133.14235
34.552746 29.008335 133.17763
41.604443 18.753902 133.34927
37.100323 4.4750843 133.43163
10.839049 13.584435 133.49619
42.471851 16.463451 133.41373
45.490112 22.921976 133.55615
20.860033 28.884897 133.58383
3.573616 14.850324 133.68069
10.644117 15.085288 133.67285
14.605558 17.29421 133.69652
46.912033 25.663136 133.67873
3.3659196 15.02107 133.77905
54.114037 22.057253 133.73688
32.469574 4.2322474 133.8506
2.7888625 15.502267 133.89301
10.610574 16.76931 133.81287
13.756063 22.555426 133.9028
38.824005 27.913025 133.9938
35.409649 28.974396 133.92485
1.9619443 16.952745 134.05017
45.563026 19.298607 134.08728
12.092728 24.215895 134.03271
10.724164 16.924538 134.1123
10.156023 25.656219 134.15953
54.658844 17.57354 134.29013
45.093998 23.396198 134.21118
38.261665 5.1227083 134.33606
10.985202 18.03923 134.54889
38.508507 28.135567 134.50035
31.617682 28.886328 134.64336
43.09774 16.487326 134.70615
45.491554 17.241804 134.71365
45.266445 22.714851 134.71234
44.719749 25.154846 134.77492
14.672758 26.878607 134.73926
10.73613 13.427158 135.12018
11.322348 22.528559 135.15034
43.590015 25.34136 135.11293
34.588093 29.300505 135.35751
34.948349 3.5165071 135.44977
44.064869 15.990081 135.42464
54.803898 18.423176 135.41534
9.812808 12.990811 135.66666
23.066273 4.1161733 135.79449
35.095238 3.5937483 135.91826
15.612772 6.5302248 135.93307
19.520378 28.73476 135.94688
11.709377 23.149624 136.09071
19.892725 28.849407 136.03702
12.336211 8.9862461 136.11932
9.1103153 25.597473 136.10928
18.463993 28.454201 136.14909
8.5443687 12.436434 136.21756
8.9864807 25.591915 136.24643
29.114305 29.094818 136.37578
44.828938 23.748129 136.47513
47.276527 25.624298 136.53476
33.13533 29.136837 136.74402
44.667183 14.255436 136.82253
45.005051 14.486012 136.80386
3.4879446 14.815869 136.82672
41.57074 27.379765 137.06583
37.31459 4.7253661 137.1362
51.002563 13.185982 137.13707
53.210258 23.163439 137.16582
22.790323 29.208204 137.14163
40.141739 6.201066 137.2879
18.521032 5.0592365 137.30267
47.904655 12.186359 137.3322
40.874432 6.596076 137.42374
19.264526 28.749691 137.44255
21.211512 29.163933 137.58282
44.78717 24.463375 137.64343
39.727249 28.083353 137.7599
35.695511 29.062853 137.77475
54.712635 18.136341 137.83899
54.609253 19.076958 137.82782
27.737961 4.1338329 137.98579
47.87151 12.04195 138.02466
33.061234 29.131973 138.00734
19.613365 28.801041 138.14534
35.014198 3.9762287 138.20244
44.701706 24.909481 138.48238
41.595409 27.594219 138.41428
33.451019 29.19441 138.46695
7.7290854 25.282942 138.61066
14.169519 27.426964 138.76154
4.9514103 24.062889 138.83897
35.806725 28.996353 139.03615
21.11285 4.2836418 139.1689
54.446156 19.944855 139.1676
30.024284 28.983803 139.15929
34.437603 4.3656359 139.20331
17.65053 5.5718155 139.23523
30.424915 4.5046978 139.32117
35.131783 4.3845649 139.41203
54.567139 18.740751 139.40851
19.840416 28.804653 139.48618
45.080658 25.525082 139.55598
52.779373 14.622223 139.67201
5.2382226 13.150513 139.70619
28.885525 4.367703 139.97966
20.068476 4.4580245 139.90581
35.586296 4.5527067 140.00014
48.378593 11.395213 140.13568
39.210083 28.226055 140.16055
19.381908 4.5391812 140.29256
39.235462 5.8279057 140.28294
9.7321434 11.246991 140.21254
27.749619 4.4307995 140.35208
38.131844 4.9226055 140.30409
48.333298 25.411282 140.3624
19.219872 28.638065 140.46567
19.254574 4.6299787 140.58459
8.9247065 25.656151 140.54147
37.102188 4.6524687 140.62526
25.694418 28.902025 140.67075
6.6994176 12.076649 140.79877
25.958488 28.92329 140.75449
11.13721 10.207506 140.82431
36.248821 4.8834248 141.10553
16.345238 27.995283 141.18321
49.348923 11.76051 141.28798
33.86998 29.338932 141.23462
17.321218 5.9007511 141.74968
44.589825 27.041859 141.74547
50.853081 24.417957 141.89891
38.474617 5.165771 142.16798
49.421837 11.745743 142.1906
4.3784394 23.72121 142.17122
44.050365 8.836915 142.22803
53.734283 15.387338 142.35547
2.2681103 16.783489 142.90616
23.312239 6.1860609 143.05888
53.994648 15.923237 143.04768
51.918774 13.674802 143.19023
8.2970524 11.273259 143.37704
51.810226 23.846832 143.37595
7.1203794 25.125168 143.32672
39.49065 6.3551579 143.46014
2.1229906 17.707491 143.40961
23.758631 6.2661009 143.73117
48.880119 11.620314 143.79698
31.538038 29.038853 143.72864
52.739979 14.463169 143.8237
2.4453466 16.158539 143.995
21.117645 5.9926224 144.07405
7.9144888 11.569651 144.0173
46.718605 26.120352 144.03484
30.11005 5.6971321 144.10626
15.076716 7.4153662 144.23349
32.432228 6.3761249 144.33234
9.317008 11.0631 144.33336
4.363121 13.804993 144.38277
44.398052 27.144833 144.41805
50.19799 24.675339 145.1407
27.609854 6.1869068 145.37256
47.794189 11.656517 145.32422
16.308605 27.745844 145.61919
40.444057 7.2744017 145.73923
12.35657 9.5786314 145.74684
26.098457 6.4071755 145.94705
31.220606 28.731758 145.97018
31.539932 28.815201 145.92798
42.607094 9.0162373 146.18784
33.310837 28.979052 146.10187
15.469772 7.9364944 146.21909
42.749107 9.0938292 146.21371
17.286673 7.0228958 146.45534
40.56752 7.7093849 146.45972
23.912687 28.8615 146.44339
40.464386 27.444782 146.57126
38.155228 7.065371 146.62439
41.291363 8.366354 146.64331
23.036987 28.874947 146.63014
19.869762 7.0337563 146.74121
45.807972 10.774711 146.70387
47.799656 12.051764 146.77298
44.690914 10.269529 146.82317
15.201015 27.255001 146.8096
3.164607 21.598085 147.04829
40.256516 27.359821 147.0148
2.3051369 18.681778 147.14236
14.724623 26.984365 147.26729
14.749307 9.0125561 147.35077
25.209541 7.5671768 147.52495
48.663681 12.566156 147.62091
32.392487 7.5378885 147.89743
53.118549 17.082352 147.84808
53.25441 19.815815 147.84149
24.377941 7.478302 147.98105
3.3104472 19.9739 147.90424
51.57283 22.317869 147.90451
7.390316 24.201651 147.96742
52.398067 21.108696 148.33543
15.698671 8.7192955 148.49109
49.152115 13.691631 148.4561
7.1417589 23.660099 148.47798
15.557335 26.662434 148.52393
41.219276 9.5050039 148.67796
44.851452 11.056982 148.70273
25.003971 7.8260894 148.83847
4.9127431 16.111416 148.82516
19.670273 27.49847 149.05182
25.472746 7.9499779 149.17154
37.118866 27.283207 149.32814
5.3963227 20.340471 149.496
11.412941 11.878931 149.51173
19.648371 9.1499577 149.73723
48.745628 14.292138 149.70206
45.255756 12.301138 149.83612
5.5399532 17.568863 149.87105
44.081776 24.715784 149.92035
9.2622108 13.460006 150.03603
23.351191 27.808529 150.08281
19.738464 9.446579 150.17542
38.96785 9.5957222 150.11226
46.4963 13.41476 150.1879
27.763922 8.7147732 150.28152
33.958263 27.614939 150.33145
49.550884 21.548109 150.45297
29.819937 9.2463408 150.56187
47.998074 22.309055 150.51244
6.9289241 21.151709 150.6169
18.746994 26.317188 150.60587
10.779652 13.926731 150.79105
48.155716 22.028187 150.72923
24.046972 27.429043 150.82275
30.228249 9.0577736 150.98523
34.507721 9.7917681 150.94882
25.001886 27.248903 151.12054
8.1884518 15.958775 151.41342
40.736519 12.640592 151.55644
32.568275 10.541569 151.8985
48.396732 18.069479 151.8022
47.665058 19.761564 151.85181
28.275873 27.071592 151.85068
16.047855 12.355963 151.96252
18.098688 25.035299 152.07504
8.734169 18.708178 152.11998
46.711693 19.725769 152.20856
