# .PCD v0.7 - Point Cloud Data file format
VERSION 0.7
FIELDS x y z
SIZE 4 4 4
TYPE F F F
COUNT 1 1 1
WIDTH 1559
HEIGHT 1
VIEWPOINT 0 0 0 1 0 0 0
POINTS 1559
DATA ascii
-107.07488 36.031994 71.42749
-107.95364 46.785076 71.694214
-108.33211 46.51442 71.821365
-84.109985 59.855824 71.924255
-109.47135 38.769806 72.017662
-86.319809 56.291771 72.284897
-93.903046 68.2397 72.792969
-98.592743 42.17765 72.81691
-83.669937 62.360191 72.945457
-100.0094 48.63055 73.349518
-104.85099 35.604603 73.459816
-100.4634 37.31955 73.538269
-100.69812 49.270149 73.867271
-88.286591 54.016174 74.257385
-88.515396 53.877968 74.468338
-86.173622 54.939838 74.823334
-102.87728 50.897331 75.361176
-105.27743 53.603893 75.550201
-94.055115 67.730316 75.534615
-99.857025 38.330265 75.618279
-109.90794 39.639851 75.949852
-83.272942 58.975658 76.135872
-90.581444 50.871735 76.685638
-87.60112 51.846798 76.654556
-100.62535 55.957005 76.722267
-101.50723 55.576851 76.827484
-98.116943 46.566463 77.056496
-110.74872 41.924194 77.114265
-86.664085 52.068199 77.169487
-96.603058 62.840843 77.133865
-101.55893 37.049416 77.287842
-109.21408 49.304672 77.292923
-91.478355 68.380959 77.205719
-110.86077 42.215786 77.375732
-98.365921 41.530678 77.406288
-89.732597 52.459938 77.455933
-101.01938 56.284599 77.63929
-100.96201 51.438179 77.711143
-82.28846 57.100349 77.746704
-86.899132 51.720676 77.823708
-99.60775 39.416069 78.076035
-92.856667 52.698509 78.091415
-104.049 55.42178 78.067627
-109.4514 39.27631 78.139595
-88.995392 50.694145 78.187424
-82.061508 59.900024 78.196594
-90.766174 50.282166 78.284454
-103.70894 36.550476 78.402328
-110.48627 47.823738 78.488739
-82.899963 59.296883 78.599289
-94.049767 49.512527 78.658043
-100.41525 57.216026 78.722931
-92.921188 49.616467 78.977341
-105.74774 37.06144 79.054611
-110.59273 50.894691 79.132919
-99.621078 57.773552 79.141434
-84.641846 52.927029 79.290817
-107.92316 53.869354 79.252182
-85.022995 54.108803 79.213531
-97.606567 61.2565 79.213913
-84.528839 64.390816 79.290817
-104.52626 37.017742 79.305023
-103.82829 56.241856 79.350983
-81.878357 58.708191 79.321159
-103.29328 53.070705 79.461105
-107.26557 37.861053 79.56958
-97.944244 47.677429 79.507919
-97.95417 60.631699 79.672165
-108.67807 53.591286 79.736839
-96.33548 62.684845 79.758835
-110.28285 49.110779 79.921478
-86.230141 51.244339 79.920479
-104.15697 56.576328 79.910614
-83.096352 61.001175 79.910324
-95.560196 48.320076 80.081612
-99.278687 40.231609 80.17981
-90.265121 49.819569 80.126793
-108.62708 39.174068 80.207214
-83.52774 53.568092 80.202545
-94.048439 66.375877 80.295891
-83.740364 53.317581 80.323013
-82.912605 59.615337 80.381119
-81.845161 60.697899 80.316139
-107.9304 81.990387 80.352402
-97.60984 45.945412 80.472351
-95.298691 48.627934 80.458351
-111.79516 80.041275 80.49202
-84.487045 52.52771 80.597824
-110.03926 52.662609 80.518829
-83.39856 55.393665 80.655678
-81.759628 59.565445 80.639145
-86.903893 68.08165 80.71312
-103.77687 57.632027 80.846207
-97.688919 62.010136 80.879539
-108.19873 54.639038 80.993759
-90.279945 68.072426 80.999031
-84.175179 63.415325 81.009354
-95.995674 64.742973 81.06781
-99.241554 59.099224 81.199898
-83.117004 61.27536 81.254425
-92.663818 67.370895 81.255493
-86.177895 67.430344 81.295776
-112.15854 42.469498 81.341339
-88.979378 49.901283 81.323761
-102.50232 54.192013 81.355156
-81.582001 57.211487 81.309113
-97.222809 44.193054 81.531921
-109.60825 53.925293 81.576439
-107.40699 56.220463 81.550056
-98.150322 42.894749 81.671387
-95.485031 53.871181 81.650024
-91.536636 67.741768 81.668915
-82.611641 54.115582 81.895531
-109.6495 54.093037 81.934433
-90.501572 66.67276 81.97863
-105.81064 54.688057 82.005455
-100.94377 39.240906 82.191238
-110.40329 77.783386 82.113037
-110.6785 49.775085 82.205795
-106.70035 38.471817 82.35952
-107.62702 38.971478 82.306839
-98.365608 42.324207 82.31041
-97.607727 42.723541 82.474136
-83.046135 54.949158 82.458244
-85.427094 51.07473 82.546059
-94.452667 52.420006 82.883797
-81.248436 58.146355 82.864746
-82.613998 62.965813 82.879517
-110.5844 53.751869 82.909531
-105.10645 59.347633 82.906174
-107.47883 58.070652 83.094765
-102.80732 60.003914 83.097656
-111.59839 45.957752 83.147278
-113.07167 47.914536 83.188293
-87.137146 51.254059 83.129303
-92.545723 66.82576 83.185913
-113.087 47.885555 83.272362
-81.227379 58.605461 83.257919
-109.63049 77.91198 83.28244
-109.73387 41.533798 83.326721
-96.397812 45.70842 83.361725
-104.78894 38.4814 83.470398
-111.50924 47.605991 83.492897
-87.646561 49.969666 83.457565
-93.96196 52.00956 83.461365
-105.76656 56.060089 83.432587
-111.87504 42.519203 83.558006
-113.11655 47.270077 83.578125
-101.97716 38.998859 83.65303
-84.053322 52.74033 83.689133
-82.637466 55.48101 83.665123
-81.243271 59.225876 83.603775
-85.581215 50.735413 83.762421
-111.53644 42.001129 83.835701
-110.20814 42.198959 83.87365
-97.57933 46.141594 83.82122
-90.911003 49.002434 83.805664
-84.515602 51.415657 83.864426
-98.109436 62.720348 83.835724
-111.43746 79.951126 83.809998
-96.720299 44.81451 83.941742
-109.80632 77.843254 83.958939
-101.92603 60.776218 84.03196
-105.84873 39.119797 84.133301
-111.63817 42.289661 84.290848
-100.83684 61.219208 84.207512
-105.19719 37.359863 84.387901
-112.98253 44.539356 84.361771
-84.849075 65.626038 84.323898
-105.5683 60.290794 84.448776
-100.90946 37.651512 84.504433
-109.67999 40.081352 84.514313
-94.617149 52.466953 84.580437
-85.274361 65.947578 84.579994
-91.410172 65.656548 84.763443
-88.783058 68.285728 84.770897
-92.934227 48.216774 84.804535
-100.32971 55.693863 84.868195
-113.66386 78.786377 84.893639
-108.77651 54.8144 84.914757
-113.29469 77.593918 84.995903
-104.91354 37.603001 85.048065
-82.607208 54.439117 85.035294
-98.979126 41.327633 85.105019
-94.007462 47.876713 85.163048
-96.720955 64.541046 85.146713
-84.694893 50.980133 85.25135
-110.21562 75.107475 85.258263
-109.84335 40.536469 85.380463
-99.408005 41.167686 85.365417
-110.09972 83.176109 85.331017
-82.851624 53.317986 85.401299
-94.944557 55.484238 85.416855
-104.62209 39.345543 85.502831
-107.53283 40.31052 85.549736
-99.082458 39.933865 85.631279
-96.948433 44.134422 85.672836
-98.315765 44.519707 85.726936
-91.751854 48.360718 85.711792
-113.37588 82.875648 85.795265
-103.72381 37.746117 85.966995
-107.27682 58.231636 86.013428
-87.091583 66.776413 86.067947
-88.557358 50.070694 86.176094
-98.864761 57.220737 86.189247
-81.035843 59.017044 86.108932
-102.50408 62.689716 86.176468
-109.76842 40.777092 86.269867
-100.85175 63.595669 86.201309
-103.62073 37.894043 86.332611
-95.080292 57.058777 86.399811
-97.859131 42.472733 86.421127
-98.262444 49.860191 86.414322
-114.17207 80.578461 86.442368
-85.766205 65.738503 86.553825
-109.72121 58.111553 86.614967
-105.6544 61.608803 86.634331
-101.60869 38.328827 86.72525
-94.286987 47.283119 86.752335
-113.64616 48.218174 86.731491
-90.394806 48.533325 86.740341
-86.017128 65.868622 86.702484
-86.428841 66.195908 86.778564
-109.243 76.670998 86.773941
-113.00488 83.032524 86.78775
-81.154305 59.034142 86.888924
-96.234772 60.847496 86.80957
-109.80144 41.077583 86.970627
-97.574554 53.751667 86.93383
-113.58298 48.799789 87.080521
-84.286652 64.495789 87.085922
-92.417084 67.452423 87.061035
-81.737411 60.678963 87.173706
-105.44563 61.980484 87.122032
-87.547516 67.097458 87.107452
-114.10944 80.277016 87.179977
-113.01097 50.601246 87.27124
-94.631317 49.411316 87.335617
-98.280457 56.980286 87.392548
-89.767731 48.59227 87.417587
-98.274994 56.434635 87.472023
-109.82538 58.699142 87.580002
-87.420181 66.97525 87.529083
-113.71868 46.380108 87.69574
-95.348442 64.904152 87.684113
-82.324066 62.156555 87.734528
-91.879745 67.531448 87.797836
-103.39878 38.554268 87.847168
-98.977608 40.866859 87.859879
-83.00219 59.38316 87.85482
-94.009926 65.955795 87.81089
-93.671356 50.197678 87.945335
-92.320686 50.27792 87.933556
-99.547302 65.186157 88.034485
-98.633827 65.592285 88.036072
-81.913841 55.398113 88.148376
-106.302 39.515461 88.226334
-80.816628 54.908409 88.243004
-83.215988 59.972778 88.239174
-106.71369 61.902149 88.207863
-91.184433 67.426918 88.284073
-90.331367 67.454407 88.268013
-88.116074 64.926994 88.366455
-85.083267 64.929672 88.371819
-99.056679 41.004791 88.472153
-86.860313 49.402878 88.497116
-83.788887 63.43988 88.443268
-94.847794 65.649628 88.497238
-99.146942 60.773483 88.58728
-112.01201 47.394226 88.679123
-104.88185 39.459778 88.780579
-99.293922 40.74614 88.717766
-95.85453 45.050045 88.709763
-95.525528 45.393936 88.809349
-110.50266 57.504372 88.898453
-90.549088 48.104279 88.998093
-98.640633 60.258297 88.95237
-82.088432 60.821148 88.996277
-82.636581 61.969677 89.00708
-99.72641 65.518875 89.035744
-102.27952 39.338821 89.100517
-112.87791 51.69046 89.165817
-83.481918 60.398624 89.154358
-104.7224 61.954948 89.194229
-84.372162 64.05497 89.171265
-102.97554 39.303154 89.262794
-109.97624 42.260887 89.208191
-110.76879 56.918526 89.205963
-98.037331 58.46109 89.292557
-110.65764 74.887131 89.286949
-99.067108 41.344494 89.313812
-108.80283 41.412361 89.355782
-112.74411 45.159508 89.375671
-91.016998 67.270081 89.478134
-92.233917 47.238495 89.566986
-112.20721 74.787712 89.553833
-107.25494 40.944496 89.675461
-95.543091 46.668583 89.663101
-82.066566 55.547646 89.653091
-109.4706 56.047226 89.678772
-108.40932 61.397842 89.750664
-98.645432 61.168476 89.86734
-94.482681 48.540131 89.92878
-112.04881 47.728245 90.088394
-81.190269 57.710896 90.063759
-106.40076 62.586605 90.072662
-111.27605 74.821182 90.072876
-103.69314 40.086716 90.140167
-94.465637 46.204876 90.267418
-92.013412 67.385139 90.296524
-91.171402 47.544891 90.331284
-113.63083 78.88726 90.313278
-98.422882 62.767796 90.491638
-90.185982 66.437485 90.461212
-113.33412 48.833664 90.507812
-85.825562 50.501251 90.55545
-82.453323 60.963379 90.577957
-95.621262 45.116432 90.718651
-112.08814 47.666199 90.730865
-81.328285 53.502235 90.713989
-82.253555 60.183193 90.799339
-100.0911 65.538109 90.700836
-84.977097 49.800331 90.834969
-113.16181 50.389885 90.86866
-113.08191 50.752373 90.876083
-98.178947 42.565334 90.935699
-86.497078 49.180748 90.913864
-104.87651 63.413776 90.996506
-87.325592 66.159737 90.961426
-99.932297 41.443619 91.082825
-85.302231 64.516891 91.054092
-101.76297 64.860489 91.068848
-107.53372 41.966709 91.101501
-101.28838 43.841148 91.101021
-113.65657 76.267906 91.112885
-108.37534 61.382805 91.25164
-102.46138 63.036163 91.231812
-89.753448 66.058792 91.23613
-96.685837 44.765163 91.397034
-89.107758 48.190304 91.391968
-83.427155 51.543026 91.359695
-101.84154 64.839371 91.34729
-95.070885 67.353584 91.393829
-102.90071 40.778732 91.406235
-101.06386 44.431637 91.425201
-111.72933 46.419834 91.40451
-102.6817 64.389816 91.533684
-85.441856 64.395584 91.562523
-105.22464 41.460018 91.602165
-96.511841 45.190056 91.666885
-95.118469 45.572014 91.635216
-98.327728 63.158104 91.734344
-97.136871 64.877304 91.745644
-93.070602 67.558189 91.747177
-113.06785 75.150398 91.740471
-112.73445 52.283936 91.819931
-100.47217 41.815876 91.93573
-102.01363 43.636841 91.915131
-111.01131 52.419415 91.907043
-84.095642 60.629272 91.912666
-108.24062 61.463806 91.941307
-98.426414 60.0112 92.184555
-90.894699 47.273499 92.201035
-106.5514 61.306442 92.227119
-98.489983 42.894749 92.326187
-111.83777 47.678459 92.395187
-81.544197 57.755066 92.392715
-108.00071 59.958 92.346504
-98.595047 62.678764 92.485962
-98.857437 46.603321 92.553436
-106.80591 43.866829 92.626747
-109.89248 58.944466 92.664993
-94.488762 67.333847 92.669052
-89.552277 67.304932 92.603539
-106.33281 42.49876 92.739975
-85.20192 49.778519 92.713898
-112.91543 51.241013 92.820671
-95.94754 44.589153 92.907364
-110.1713 45.1129 92.920395
-84.926224 61.097725 92.990814
-83.639214 51.688004 93.048538
-108.3436 61.200584 93.031517
-101.7514 42.175964 93.150482
-112.75274 51.490456 93.221275
-81.727783 53.187031 93.201996
-81.417175 55.984093 93.282135
-81.563332 57.21096 93.203011
-96.418213 44.828007 93.420654
-97.989693 43.985023 93.595146
-112.90731 49.120003 93.529602
-110.97316 56.05249 93.519104
-107.1814 61.973282 93.578308
-109.90385 44.483536 93.638382
-88.394203 48.155483 93.693909
-110.05116 55.109524 93.700912
-83.433418 52.474091 93.811172
-110.27457 57.478455 93.974747
-98.379013 59.57756 94.071701
-113.57511 76.324707 94.059601
-110.47903 77.735428 94.081985
-103.86649 42.807178 94.101593
-94.913345 66.023636 94.185913
-112.50323 51.531837 94.211395
-113.6366 78.254868 94.267715
-105.78306 44.479755 94.353798
-111.63095 46.437477 94.380829
-112.44708 47.384449 94.329697
-111.46568 47.761276 94.354347
-110.7458 53.047153 94.348618
-92.999832 66.051102 94.396767
-95.15596 66.713013 94.397011
-112.23714 75.207695 94.313858
-101.31644 63.145226 94.483498
-92.566551 66.773422 94.419388
-102.2498 42.925728 94.522141
-107.19218 44.944782 94.500061
-85.438431 60.793922 94.537529
-100.2661 64.811348 94.59446
-91.338951 46.540924 94.681931
-112.5292 51.037209 94.637871
-107.73047 61.253727 94.673317
-102.05447 43.162552 94.778152
-93.453934 47.114391 94.738701
-110.18707 76.792892 94.769524
-84.453865 51.356144 94.804466
-92.381729 66.587776 94.827705
-103.448 43.29092 94.982071
-83.95327 58.216919 94.945953
-88.207298 65.085167 95.065399
-107.60204 59.991508 95.197807
-94.752937 66.426758 95.194366
-87.638252 64.365433 95.243652
-89.390533 47.495949 95.37796
-82.700012 57.42384 95.39859
-89.13311 64.374969 95.309921
-86.125435 49.425854 95.42466
-84.122948 50.668613 95.417877
-100.3839 46.363693 95.53228
-82.134689 54.523296 95.535812
-99.298859 45.822815 95.667175
-102.07621 63.784332 95.674011
-112.35583 49.501686 95.717278
-113.55932 76.29287 95.851166
-86.843613 48.992016 95.956337
-101.90948 44.088478 96.009399
-92.741241 46.824394 96.046326
-85.978058 49.505726 96.048065
-85.048363 60.832672 96.07724
-100.72137 64.014618 96.038055
-113.85123 77.407059 96.047325
-98.703201 44.436256 96.155518
-108.9669 57.19162 96.128708
-111.88571 48.823071 96.2715
-98.231689 62.685867 96.222809
-111.98573 51.098518 96.306252
-106.62643 45.723045 96.419548
-88.989082 47.791943 96.488205
-99.439804 61.967239 96.499542
-113.82256 77.846535 96.412132
-82.443436 55.460213 96.646378
-84.345322 52.119106 96.758308
-84.889084 58.791981 96.728539
-97.70018 63.102814 96.938965
-102.94267 44.666161 97.045105
-84.118759 52.966103 97.034973
-86.871246 62.364674 97.023407
-90.087021 65.144547 97.029305
-101.55202 44.63887 97.148872
-110.5402 52.359634 97.102318
-94.165283 65.693748 97.162453
-104.11584 46.287445 97.252457
-101.87825 44.755051 97.314705
-104.61878 44.759132 97.429199
-101.09596 44.788292 97.451675
-107.69339 46.352669 97.516754
-101.37511 63.077721 97.558777
-95.631699 64.998093 97.594421
-83.920761 54.967312 97.855293
-111.17422 75.082298 97.88073
-101.33492 62.891106 97.935112
-87.320358 62.151344 98.060387
-83.074615 52.883038 98.113358
-87.285652 62.031895 98.192001
-105.41679 46.440022 98.26458
-90.201912 48.410328 98.458138
-93.39183 65.043488 98.427383
-90.007294 48.59317 98.570557
-86.163589 50.914822 98.522156
-88.840187 63.30542 98.725288
-113.84229 77.630196 98.721161
-110.22812 50.537674 98.827148
-96.693062 63.88163 98.828156
-94.662521 45.259705 98.951942
-90.483292 47.208172 98.927544
-85.064972 49.973522 99.001816
-84.964005 50.061424 99.070045
-86.552711 49.141548 99.12838
-98.704994 63.071598 99.131126
-100.62801 45.91925 99.203011
-110.78027 49.101845 99.253693
-84.992859 50.054096 99.398636
-83.841354 56.465912 99.368546
-86.239174 59.093338 99.333656
-108.05003 59.472931 99.398491
-90.166565 63.967888 99.343109
-103.22302 45.306671 99.473473
-100.2999 60.898308 99.448776
-70.614365 24.93784 99.570351
-101.62121 45.401596 99.582893
-89.500954 49.035187 99.507172
-85.854294 49.405525 99.510139
-102.80578 61.746658 99.619438
-70.403793 24.798321 99.804535
-85.318756 58.336182 99.875923
-108.11868 59.186859 99.832191
-104.18333 60.318939 99.816994
-105.58192 60.909187 99.896164
-71.472038 23.672335 99.937424
-109.08002 49.082813 99.993629
-106.10895 60.524048 99.993774
-87.664352 61.402161 99.920601
-109.03729 77.190979 99.949036
-95.263794 45.537228 100.02924
-110.27649 52.383392 100.01865
-109.23975 55.844013 100.04224
-89.272232 49.312622 100.19313
-84.806503 50.368465 100.26544
-105.63402 45.544609 100.34915
-97.112694 61.443138 100.36849
-94.327423 63.708694 100.3328
-99.659966 45.512566 100.40211
-100.51611 46.098106 100.41749
-83.613922 53.048523 100.40115
-84.753746 57.168503 100.40724
-108.50768 57.46085 100.55867
-108.23969 58.24884 100.57654
-113.09448 75.305504 100.50368
-104.69291 59.489315 100.67884
-72.420998 19.834633 100.76984
-109.74054 47.849308 100.74899
-102.46768 45.846745 100.80618
-89.724854 61.746902 100.93762
-89.210426 62.418106 100.96075
-105.5347 60.346268 101.09159
-90.841278 63.264153 101.04713
-109.80869 53.035316 101.12113
-72.220634 20.116472 101.29381
-90.079491 48.276825 101.23171
-86.615227 58.442337 101.21832
-68.912109 26.405605 101.4388
-96.628159 45.734398 101.40309
-92.595177 63.213257 101.51457
-109.73148 48.805565 101.64366
-84.775696 56.431709 101.60651
-96.842529 61.050556 101.64124
-69.818153 20.989601 101.70464
-71.259697 21.672752 101.70195
-103.96332 59.23164 101.71196
-99.024689 61.804985 101.98573
-86.527283 58.895824 102.06344
-88.279526 60.878056 102.05118
-90.29599 48.498554 102.21741
-92.130363 61.549419 102.283
-109.35306 53.718384 102.30081
-105.53632 58.472927 102.34871
-86.421112 56.970596 102.45831
-88.391418 49.267937 102.54593
-84.498703 52.35701 102.50105
-84.511505 55.243488 102.6375
-89.008484 50.180023 102.73891
-86.829559 52.843872 102.8869
-90.143913 48.694855 102.99245
-98.495354 46.171959 103.07765
-102.48718 46.671837 103.28867
-104.9192 48.095886 103.21912
-71.12822 29.450382 103.36697
-108.31396 55.995056 103.34006
-101.17619 61.148895 103.39247
-89.227234 49.211273 103.48405
-87.652611 59.686859 103.4772
-92.943825 62.540104 103.40772
-94.543381 46.598175 103.51883
-84.801071 53.057892 103.53613
-107.10684 55.782375 103.54192
-69.421417 22.825531 103.6113
-109.00459 53.426361 103.71359
-108.99501 53.535923 103.70142
-95.220016 46.720291 103.82483
-69.265411 21.872402 103.93989
-108.5145 54.80304 103.98605
-70.896317 21.751539 104.15666
-104.28067 48.147839 104.10545
-108.49416 54.619003 104.16822
-107.81509 56.089218 104.12285
-87.001999 58.527866 104.2553
-68.893326 29.105749 104.37931
-92.926407 46.924091 104.47485
-107.11586 54.684643 104.40335
-88.20945 59.539009 104.45776
-86.414879 50.458138 104.51057
-111.63189 79.895119 104.5323
-102.60149 59.136658 104.69528
-108.86779 79.37796 104.78287
-99.732285 60.957809 104.81481
-90.615372 61.517277 104.84125
-94.097992 61.94944 104.81966
-99.137817 45.921139 104.95891
-101.87463 47.729515 104.92904
-101.98409 59.431358 104.93668
-98.261559 60.298748 104.92975
-70.424004 33.382408 105.08992
-91.098434 48.090355 105.01309
-92.227493 61.718857 105.06294
-70.592064 21.768967 105.14346
-108.30233 49.626041 105.30296
-108.51521 50.346329 105.3906
-107.60197 55.306221 105.3629
-110.79145 80.12706 105.31355
-68.934784 26.834126 105.45628
-110.99213 80.065079 105.40346
-108.19749 49.664314 105.54491
-97.54557 61.358551 105.53157
-87.820045 56.76664 105.60858
-90.500946 60.996643 105.65777
-92.603615 61.582672 105.60133
-72.267754 32.048927 105.74011
-69.591522 34.201801 105.74576
-100.44707 46.140881 105.85525
-73.107277 28.911854 105.9132
-86.485779 51.559086 106.17007
-69.586182 29.824242 106.3322
-107.57247 48.696796 106.35789
-99.594543 60.059158 106.33401
-105.35701 56.659836 106.4488
-101.19119 59.621529 106.40512
-107.32115 77.785072 106.56965
-72.874252 26.03594 106.64137
-73.668396 29.091471 106.64439
-86.846794 56.178749 106.68539
-98.757065 46.535053 106.70317
-95.351326 46.803673 106.76266
-89.386673 49.454449 106.83358
-86.824249 51.499794 106.81211
-86.210289 53.19648 106.91848
-71.445694 40.209961 107.06168
-88.284424 57.753967 107.01242
-106.37235 56.681015 107.11421
-103.38751 46.993755 107.39157
-106.27452 53.766212 107.46849
-72.86248 33.263859 107.53381
-101.10278 59.527855 107.55482
-113.52093 75.69455 107.68481
-107.42462 78.417213 107.65363
-97.079758 46.811012 107.7485
-109.79816 74.374939 107.77971
-101.65768 46.743279 107.8895
-106.20967 51.894463 107.8166
-70.867058 44.329315 108.04996
-101.55415 46.682236 108.04735
-104.79121 47.322063 108.1467
-102.48635 58.709049 108.19582
-71.938293 28.749298 108.39003
-101.54153 46.650352 108.36244
-92.664825 47.764088 108.38992
-91.140953 48.138477 108.39663
-87.628731 50.774494 108.36837
-72.823006 29.264709 108.40313
-89.77652 49.150833 108.4214
-89.419121 49.36224 108.48315
-70.020508 33.607723 108.67932
-107.18526 52.166573 108.72113
-68.877121 42.682312 108.81538
-106.0764 56.408894 108.80548
-72.825294 36.374435 108.94527
-96.937065 46.746002 108.96302
-102.34945 47.676563 108.91971
-95.566971 60.466099 108.90641
-107.02061 51.51635 109.02938
-98.346527 59.447449 109.06642
-93.30439 46.715202 109.19331
-87.423798 51.46656 109.1564
-112.83056 74.630249 109.18104
-72.658005 36.127193 109.29031
-72.674942 25.941879 109.32935
-97.215012 46.654457 109.43322
-68.548737 40.700592 109.52773
-90.543076 58.796539 109.53258
-90.85112 48.313004 109.61419
-92.723404 47.697426 109.73145
-107.02312 50.500126 109.73863
-105.91673 56.841751 109.75218
-100.92822 60.651348 109.83803
-108.6692 79.628433 109.92168
-91.935951 59.593414 110.02029
-87.644997 50.927105 110.12369
-88.038452 56.6502 110.12179
-74.026405 45.750786 110.39203
-102.6833 58.453369 110.49881
-99.352486 46.582382 110.59855
-89.166252 58.649776 110.58358
-92.610626 59.873642 110.60114
-101.62872 59.272503 110.78008
-71.363281 21.723671 110.92869
-91.136436 60.618496 110.909
-71.88018 38.311661 111.04974
-91.347969 60.816902 111.02113
-101.5656 60.513435 111.112
-104.02573 59.433289 111.21916
-98.965683 45.811653 111.31628
-70.566879 38.815845 111.57176
-105.76482 53.257278 111.63706
-87.888527 56.037392 111.60246
-101.76044 46.828018 111.79489
-69.709465 51.914345 111.76826
-107.19849 74.663483 111.76746
-106.77988 54.767319 111.87798
-95.809967 60.898792 111.89456
-97.484512 45.647514 112.07395
-94.827148 46.076469 112.20045
-69.898529 52.80899 112.26613
-87.92485 54.336426 112.24573
-106.25239 56.369316 112.26222
-92.985443 61.72464 112.25954
-74.677139 51.24794 112.36186
-107.28212 78.050758 112.38393
-93.959991 61.904724 112.5015
-95.678764 46.720436 112.60016
-103.28107 48.003204 112.66986
-87.399353 54.136978 112.61275
-104.61394 47.811844 112.71573
-105.3533 48.573513 112.74908
-73.521271 53.917736 112.76961
-103.76147 47.242802 112.89508
-90.056984 48.828064 112.98817
-69.29586 52.549202 113.16087
-103.23193 58.712967 113.1265
-69.413422 43.286556 113.30396
-92.187408 47.552628 113.39371
-87.994225 51.022408 113.31084
-90.435089 59.366169 113.34628
-94.09082 46.106102 113.57188
-91.314293 47.420212 113.55547
-110.13865 72.061897 113.5188
-102.13818 47.060642 113.63517
-74.622681 50.557571 113.74208
-94.859131 46.019455 113.80145
-73.889938 48.22176 113.81127
-105.57545 50.593613 113.85674
-102.44128 59.728218 113.89902
-73.815155 48.306229 113.93762
-93.891762 62.339104 113.99406
-106.79626 50.36985 114.07681
-90.182541 48.50148 114.29086
-110.02597 78.561188 114.32935
-98.769012 45.999664 114.40369
-99.260292 60.848423 114.40977
-103.15836 60.984352 114.49342
-99.712624 61.00251 114.52332
-99.809372 61.800732 114.56398
-96.02961 46.031879 114.63326
-73.258057 48.418636 114.64114
-98.589951 45.94368 114.77531
-103.37283 60.938042 114.71394
-95.228821 62.484623 114.76196
-100.97484 45.80159 114.81541
-94.423828 46.079781 114.8449
-91.126167 47.158882 114.81537
-86.646843 53.593079 114.90708
-103.54228 59.591995 114.97718
-102.25903 47.0089 115.02824
-105.84451 48.291706 115.26273
-96.290688 46.015915 115.32586
-101.096 46.337635 115.35014
-102.27854 61.62838 115.35627
-94.731186 46.417751 115.54572
-97.756256 46.045315 115.60992
-106.40425 54.500614 115.66315
-105.94781 48.244034 115.8092
-105.59061 58.042854 115.83453
-97.343941 62.509693 115.90704
-95.164917 62.80743 115.91909
-69.617737 48.94223 116.048
-69.090393 49.775539 116.01876
-88.397873 48.997326 116.29034
-104.92625 60.346146 116.26289
-106.68278 52.288742 116.44189
-94.120415 46.176521 116.55756
-106.98889 49.035606 116.66523
-107.35939 53.566772 116.62532
-96.024605 46.041088 116.75749
-98.405319 62.547997 116.73346
-104.30228 61.109489 116.86085
-104.28258 61.103546 116.80931
-90.395508 47.862465 117.06062
-99.72068 45.417534 117.16116
-105.18726 47.425083 117.1735
-87.745148 49.204857 117.12434
-86.40979 54.800697 117.13523
-98.762939 45.320065 117.25703
-107.45791 54.201744 117.21454
-94.592979 63.193573 117.20359
-99.745544 45.950573 117.3427
-102.22295 46.62487 117.34502
-86.224243 54.414085 117.31831
-89.976105 61.92244 117.32078
-87.042847 51.884743 117.41948
-103.07417 45.784023 117.57924
-96.202324 45.75605 117.52955
-91.419937 62.17149 117.56217
-106.85979 52.078201 117.62103
-98.357941 45.170528 117.89153
-95.494225 45.672123 117.87634
-96.741089 63.153496 117.80269
-87.679855 48.260735 117.90421
-86.69545 56.774643 118.01844
-110.82621 76.356529 118.00448
-85.82251 53.027149 118.25764
-73.642532 56.811073 118.42107
-87.298752 58.744728 118.43762
-100.00317 62.476715 118.50137
-99.959351 44.631298 118.69543
-94.81543 63.640823 118.67714
-103.66505 62.051296 118.74001
-108.18454 75.659828 118.75119
-106.84191 50.799618 119.06602
-104.27382 61.233273 119.04472
-92.605957 62.99033 119.01273
-86.723137 56.497375 119.11835
-85.943344 55.602867 119.27039
-107.09988 55.750702 119.2249
-99.349754 63.386524 119.25368
-93.58606 63.80093 119.21228
-106.43655 47.294792 119.41537
-97.091995 46.003738 119.54146
-85.850143 49.581154 119.55313
-92.48362 63.765949 119.58315
-87.39666 49.753338 119.62773
-86.760117 51.424652 119.64349
-94.025406 63.970985 119.61131
-71.34388 54.433655 119.73048
-86.495651 57.794628 119.7613
-85.389267 51.705498 119.85072
-93.059212 63.384876 119.80646
-103.91534 43.88179 119.92955
-108.14095 53.304569 119.98088
-85.582359 50.634415 120.06136
-104.10249 62.377319 120.02538
-89.678261 62.490566 120.01839
-89.696884 44.901737 120.16574
-87.935562 61.831367 120.17482
-103.77754 43.558632 120.2263
-96.440887 44.001148 120.28954
-86.885529 48.866375 120.21365
-108.06075 57.025974 120.38147
-107.00464 57.791771 120.43813
-86.152084 57.444801 120.60091
-90.358276 63.482986 120.64064
-86.34594 58.251049 120.78916
-89.354752 63.136497 120.7262
-85.130112 52 120.8836
-85.19313 50.850685 120.91684
-86.474495 58.800793 120.94718
-87.230461 61.140697 121.19478
-85.253761 46.897629 121.29204
-85.706299 47.921951 121.25129
-108.39016 54.074234 121.23436
-107.69412 55.405632 121.28323
-106.98614 60.090748 121.3097
-108.77135 74.566162 121.35872
-89.190063 44.27829 121.4614
-73.153503 56.983841 121.4758
-108.13606 58.951969 121.4304
-106.69387 60.490616 121.46401
-106.28697 61.555832 121.41708
-103.12988 43.018009 121.52132
-108.28426 50.786919 121.5312
-104.97772 62.473022 121.56566
-90.997261 63.683983 121.56642
-103.61113 42.710037 121.60719
-94.759727 45.601067 121.63758
-102.52608 63.576077 121.67631
-94.116074 64.625397 121.69778
-103.52146 42.585133 121.7879
-104.63848 42.804035 121.74687
-106.79332 44.802406 121.78136
-84.8125 49.553341 121.74277
-93.648933 64.067177 121.78664
-100.98557 43.135948 121.87306
-85.875748 45.595566 121.85889
-106.73904 45.64151 121.85262
-84.875679 51.143738 121.89049
-98.854065 64.280594 121.81043
-93.637878 64.629456 121.89378
-96.423737 43.515373 122.22672
-108.51208 51.913685 122.25496
-101.6063 42.439583 122.32233
-100.04567 43.063675 122.46457
-84.855675 47.960091 122.44638
-86.127556 57.554028 122.40721
-110.00702 66.915138 122.43919
-90.541855 43.927856 122.75099
-86.145676 59.411102 122.73569
-108.65884 51.437206 122.83819
-99.457565 42.701454 122.97301
-107.25066 49.919132 123.07989
-73.946449 52.680599 123.03728
-91.17157 64.330505 123.00098
-79.710464 58.020973 123.12456
-106.95359 61.908821 123.17489
-101.7064 42.2155 123.24093
-92.811134 43.656471 123.35893
-108.81442 52.414455 123.31227
-88.828011 63.886715 123.33737
-92.09079 64.613136 123.37087
-104.15063 63.250034 123.48056
-75.178345 58.436405 123.55876
-90.145805 43.642487 123.77901
-84.063179 49.46917 123.79755
-86.352791 61.066425 123.7636
-100.65524 42.367542 123.8231
-89.873413 43.857021 123.84036
-73.783508 57.193344 123.89497
-87.730499 62.985088 123.92685
-87.40834 44.544487 124.06206
-84.833023 47.364555 124.07619
-80.767242 56.028736 124.16551
-107.79304 61.663208 124.12865
-103.35143 42.196526 124.21519
-93.079483 43.748554 124.20033
-73.53511 56.392902 124.27616
-85.007217 57.065613 124.28125
-74.835236 58.096954 124.28251
-106.34738 71.30751 124.27966
-99.664246 42.667404 124.34363
-94.409393 45.278969 124.41164
-84.076729 49.068371 124.4819
-105.27576 42.600723 124.58144
-96.011192 43.780029 124.7062
-108.20291 46.237259 124.8734
-108.87619 49.675686 124.83086
-88.448227 64.585068 124.84599
-99.709549 43.330669 124.93568
-89.757629 43.741234 124.99492
-89.577309 43.763302 125.17968
-93.376625 65.302109 125.18132
-90.310028 65.378616 125.12988
-97.32402 65.520668 125.13881
-105.89325 67.661331 125.18336
-108.69041 60.914597 125.25092
-102.95744 64.103622 125.23584
-96.814781 65.665176 125.232
-78.657608 59.994621 125.3823
-101.40961 64.944435 125.35127
-109.67033 72.26445 125.37268
-101.60097 42.338593 125.41587
-91.750931 65.716644 125.45821
-104.73549 42.381821 125.56984
-106.77051 44.968063 125.51321
-85.611526 60.429081 125.56961
-91.975586 65.4552 125.56531
-84.473816 56.520847 125.73063
-78.341995 59.990482 125.74026
-105.62108 63.549644 125.71841
-108.93407 61.097313 125.84895
-91.236328 44.129883 125.96342
-106.29874 63.381275 125.96255
-99.125633 43.388489 126.07906
-98.210457 44.543247 126.14607
-88.260796 65.118568 126.22785
-109.19491 50.353844 126.42238
-84.796494 50.430088 126.41005
-76.348358 59.140495 126.59251
-88.726051 65.548561 126.51442
-97.205765 65.907349 126.56239
-84.053543 52.969536 126.67799
-109.59286 59.04995 126.61
-75.275078 58.156845 126.78896
-85.45755 61.454063 126.79784
-102.93852 65.240181 126.75317
-95.845688 66.134232 126.71397
-109.69875 56.321178 126.83418
-102.6549 65.329994 126.87524
-85.955299 63.496223 126.9987
-112.04496 69.04245 127.0787
-108.45334 47.159401 127.11034
-108.19987 53.073067 127.15098
-103.51925 42.90731 127.27162
-84.282875 49.220085 127.2293
-84.707458 58.614674 127.21317
-111.92269 64.957367 127.29696
-93.180161 66.28891 127.29147
-77.580193 53.689789 127.31271
-95.985306 46.549564 127.4275
-93.266731 46.117012 127.60091
-82.638664 59.677879 127.69737
-107.96288 70.911644 127.61499
-111.46629 64.061966 127.77195
-108.49953 47.482941 127.8012
-109.8662 55.471416 127.85027
-109.19389 62.796715 127.87641
-98.861931 44.796833 127.97144
-98.551514 45.055981 127.95575
-109.49227 62.694328 127.97266
-95.174362 46.799252 128.07208
-84.428238 57.815914 128.02321
-94.673325 46.694599 128.17867
-109.43804 50.285809 128.12328
-111.54792 63.762642 128.1496
-100.73968 45.31332 128.20847
-106.39815 64.150131 128.2886
-107.95682 56.252369 128.40033
-105.78663 45.01273 128.59448
-91.824631 46.036606 128.50475
-103.82967 65.517822 128.56216
-106.73413 45.836613 128.66307
-81.512451 54.724163 128.61053
-89.544617 66.323814 128.62198
-109.02168 70.46946 128.69899
-86.061462 49.76096 128.91714
-100.7652 45.259041 129.02794
-84.843262 61.899094 129.02762
-88.204521 66.796074 129.17969
-76.826141 54.955219 129.25839
-104.69872 45.274857 129.35248
-84.009995 52.956734 129.39592
-89.661613 46.643143 129.43599
-108.29207 52.421265 129.51233
-109.76869 52.624779 129.56047
-87.615761 66.758354 129.53117
-103.66016 46.685371 129.73785
-107.01312 47.285637 129.89752
-87.871025 49.066483 129.88199
-88.754478 66.520782 129.84682
-106.1263 46.766457 129.92784
-112.61182 64.716583 129.95288
-112.53944 65.354294 129.92993
-84.016388 53.304909 130.08215
-107.46033 69.549774 130.0714
-103.48154 47.04155 130.10252
-92.651329 66.92691 130.23662
-92.249352 47.848495 130.37903
-97.406982 48.176323 130.3287
-84.818886 51.415989 130.33154
-103.56865 65.808647 130.36124
-91.183128 67.11702 130.3488
-108.80091 58.349556 130.42056
-77.176155 58.638565 130.4917
-84.561348 52.084164 130.57361
-100.4045 66.066162 130.66541
-99.476883 66.187653 130.68034
-108.17558 56.759716 130.77417
-76.947113 57.72274 130.72945
-108.83452 50.113022 130.99074
-100.74613 65.125801 130.91136
-99.275223 65.460754 130.9519
-99.251068 66.239395 130.93112
-107.12431 48.489273 131.07161
-98.728386 48.583199 131.0813
-102.58817 65.931137 131.13785
-101.35299 48.497032 131.32822
-108.08916 49.894642 131.65793
-103.20424 65.812126 131.67851
-101.27085 47.874939 131.76506
-78.269806 59.577812 131.81049
-101.96396 47.996914 131.9628
-101.41737 48.994442 131.96414
-107.11866 49.29311 131.94092
-78.59581 60.084465 131.93518
-111.79212 66.422775 131.97043
-107.80862 53.85482 132.08549
-105.03272 64.926819 132.04089
-100.21341 65.240822 132.04099
-101.90273 48.14695 132.17683
-100.65247 66.127548 132.13106
-83.728195 55.087124 132.42839
-106.81492 65.608459 132.40231
-101.20062 48.492439 132.59895
-93.012024 50.482765 132.50273
-91.499428 66.454437 132.60994
-96.560692 66.649841 132.74736
-103.12187 48.620243 132.83763
-105.76155 49.465221 132.89455
-82.568993 63.768158 133.08583
-102.26831 65.793259 133.07487
-110.84295 66.911926 133.20433
-103.61741 49.152683 133.3772
-78.50705 57.512085 133.64296
-102.04392 64.832581 133.69368
-84.64505 64.873146 133.61157
-104.64865 49.704224 133.74591
-91.370506 51.983955 133.88794
-100.82346 65.881516 133.96274
-78.999359 59.551727 134.29007
-102.27548 65.599426 134.27798
-109.46451 67.187592 134.26221
-110.40541 59.907166 134.32143
-97.60347 66.313889 134.39391
-103.78332 51.745056 134.52066
-84.052109 64.345818 134.63647
-101.3064 64.621857 134.74933
-96.513718 65.400711 134.75168
-104.62814 53.020802 134.8293
-79.119064 59.478825 134.88019
-101.13803 65.547371 135.02289
-91.791832 66.426842 135.02986
-102.08122 52.590488 135.13896
-91.942795 66.353615 135.15796
-88.180405 54.312569 135.2558
-98.615517 65.900543 135.34485
-90.182701 66.586639 135.50343
-98.50708 52.434727 135.65266
-79.29686 56.946056 135.70493
-109.07119 59.175423 135.82301
-105.34509 64.948608 135.84132
-87.386665 55.0597 135.9635
-99.532341 65.426003 136.16232
-93.441963 65.77034 136.10643
-84.30735 54.865925 136.28391
-93.111862 54.062485 136.61169
-91.089958 65.827499 136.65834
-103.99294 64.097382 136.8103
-94.143661 64.64399 136.90822
-83.328323 55.291237 137.00871
-103.93538 55.602459 137.13145
-85.414619 63.427788 137.16861
-104.75964 63.977764 137.32077
-108.26764 63.070869 137.46205
-107.99581 61.301674 137.56143
-101.12002 54.090775 137.62857
-105.80397 58.305893 137.61658
-104.8354 63.338562 138.02153
-104.57124 63.834648 138.1264
-93.56781 64.486549 138.64783
-103.90234 55.399666 138.86153
-83.587387 57.592285 138.897
-93.16774 64.043823 139.24702
-94.985611 64.128685 139.37573
-95.069031 63.985256 139.5629
-95.487213 54.051895 139.82895
-91.488586 61.394131 140.4274
-95.421181 63.379677 140.59198
-94.292595 54.264671 141.00266
-99.688667 62.817154 141.03394
-100.82007 61.978283 141.29669
-100.99331 56.684109 141.79474
-100.57986 59.925064 141.75311
-98.595329 53.525738 142.09369
-91.157082 58.885098 142.77544
-92.950928 61.738335 142.91434
-100.85176 58.18243 143.32085
-96.146172 61.18856 143.45222
-101.79733 54.046688 143.6077
-91.818977 58.286152 144.08188
-101.41261 53.723732 144.15051
-101.14746 58.903481 144.12622
-99.819817 59.505428 144.15607
-92.541107 60.455704 144.13339
-97.720787 61.136147 144.13077
-98.144669 52.327938 144.39682
-93.475761 48.521832 144.68732
-93.143036 58.716888 144.96452
-97.315331 58.916882 145.05904
-90.792114 60.176311 145.06612
-90.113251 56.651112 145.132
-96.522141 60.387695 145.3513
-95.648529 60.617474 145.35255
-93.82814 58.724342 145.43327
-94.977684 60.215099 145.44293
-92.125656 62.306137 145.43013
-94.394073 46.892426 145.69505
-93.94455 47.255501 145.69835
-92.10276 50.30846 145.81053
-92.956116 58.528954 145.81491
-99.915039 57.859818 145.96524
-100.0103 60.781647 145.97536
-96.372803 63.954689 146.08641
-91.364296 53.598858 146.25093
-97.422897 61.947075 146.27528
-91.2323 54.364708 146.31303
-98.351501 60.027802 146.37259
-86.889694 60.258438 146.34274
-102.77988 50.014278 146.61964
-89.198166 51.308929 146.6138
-102.63316 57.706482 146.68048
-102.59745 57.794994 146.6611
-91.998482 57.208023 146.73399
-98.948395 58.382912 146.72815
-87.002037 62.114471 146.98518
-103.33527 57.085075 147.00211
-102.38914 58.266228 147.01044
-89.79657 49.147202 147.10327
-93.122978 59.185558 147.2419
-96.585602 45.735825 147.34991
-97.711563 58.791138 147.33356
-95.587456 59.031353 147.44734
-106.27699 61.563072 147.48552
-103.63844 58.873013 147.54259
-102.32808 55.521431 147.612
-96.840187 60.90274 147.60681
-92.374634 58.196571 147.71799
-98.387833 47.059944 147.83566
-95.259567 61.108128 147.94275
-91.511284 49.387142 148.03241
-88.57077 56.947121 148.07912
-102.34721 57.60931 148.08333
-106.01691 58.082226 148.02293
-89.426773 59.033043 148.09422
-101.66817 54.895241 148.28358
-99.336014 58.620132 148.27301
-89.836723 49.555416 148.34558
-91.575134 57.34713 148.33965
-101.50648 61.144356 148.35573
-90.790062 52.760246 148.47958
-98.86866 58.857803 148.44753
-99.590584 60.963203 148.42165
-87.901169 61.78611 148.41663
-98.458733 59.016663 148.56332
-100.04982 61.490456 148.50793
-103.66617 52.733337 148.60007
-88.633949 56.439346 148.69109
-91.417618 59.452888 148.69066
-91.744034 57.753136 148.75307
-102.6835 57.995514 148.88074
-92.890198 62.311401 148.88678
-89.513161 58.847134 148.93797
-97.654778 62.265259 148.95985
-86.814163 48.302097 149.06525
-99.680038 60.446457 149.0365
-101.89055 51.728577 149.17984
-89.540749 59.493385 149.15527
-101.80718 55.870354 149.25771
-91.076897 59.241482 149.29977
-90.914543 60.576187 149.24579
-91.318863 57.576569 149.44807
-103.20864 59.412323 149.58621
-93.880699 61.716812 149.56502
-90.140022 56.078964 149.64189
-101.63988 58.76223 149.60904
-88.024994 60.773697 149.73059
-103.19313 51.407505 149.86655
-102.66068 55.596893 149.85016
-103.29707 57.502724 149.8177
-88.288406 50.44783 149.97693
-88.184006 59.747849 149.97064
-103.0251 52.421082 150.09531
-87.113724 53.141663 150.06909
-90.291023 57.170113 150.04559
-105.45514 57.714066 150.06142
-101.26509 60.643124 150.01212
-96.64296 61.950203 150.09457
-101.91176 58.932854 150.18419
-97.062561 61.793228 150.1772
-95.133881 62.063755 150.17278
-87.044937 58.265167 150.23238
-102.34277 55.386826 150.46346
-102.651 62.327885 150.41451
-90.164093 59.242691 150.57069
-100.80358 63.637184 150.57829
-85.54007 55.57106 150.69977
-89.791481 56.851822 150.63052
-87.580536 59.209023 150.61729
-90.376808 60.716553 150.64359
-92.418129 61.837463 150.73634
-91.99939 60.299522 150.89111
-88.700592 57.882294 150.97287
-99.534454 46.704445 151.03102
-89.924698 49.124893 151.00659
-99.933029 46.812912 151.17883
-101.97314 49.928326 151.1467
-91.832596 47.219704 151.31641
-85.996017 55.759563 151.39761
-102.68848 57.252972 151.34352
-101.4091 59.644272 151.30553
-101.06224 60.046219 151.36694
-94.438362 62.35463 151.30444
-101.11585 63.355545 151.34215
-102.76638 54.154724 151.48254
-98.15213 62.00919 151.42767
-93.704208 62.371002 151.45483
-93.044937 62.807705 151.45401
-90.311478 55.790054 151.56256
-102.56732 55.88633 151.51952
-104.60303 56.76474 151.55255
-99.665474 62.973003 151.57553
-89.686035 58.420433 151.69382
-90.202469 59.979351 151.63055
-88.401352 49.14621 151.73582
-101.97978 58.877693 151.89754
-90.621948 60.456982 151.80914
-93.096519 46.320759 151.97647
-87.325546 56.780327 151.90988
-101.96767 49.874786 152.05333
-102.24553 47.672546 152.16116
-89.867874 48.845581 152.19849
-102.27864 60.907009 152.1851
-103.44308 50.917656 152.26385
-97.388565 63.989288 152.28317
-93.116074 48.636929 152.38208
-102.01872 50.233231 152.39554
-90.234917 58.922718 152.39139
-100.91588 61.490211 152.35207
-97.865662 62.858124 152.34381
-87.727692 55.757324 152.43317
-97.173866 63.060444 152.40782
-88.808846 59.013004 152.72267
-98.950859 62.676834 152.7229
-86.803833 55.767708 152.83183
-102.69879 60.069771 152.86237
-96.102859 63.374249 152.83795
-91.371658 46.573143 152.93808
-103.36331 61.388664 152.93985
-102.96754 48.895084 153.08675
-102.36478 52.101494 153.02969
-103.67448 52.219482 153.00491
-94.112114 63.52729 153.0137
-103.10092 58.234642 153.12598
-88.824997 59.642097 153.14258
-91.787079 61.277653 153.15871
-93.433174 47.03157 153.25438
-89.877419 48.839535 153.2345
-104.55538 56.550442 153.25655
-93.428185 47.423988 153.33818
-99.358383 47.497017 153.4948
-88.039345 57.592876 153.4906
-102.48334 58.431355 153.45607
-95.837845 63.250103 153.46576
-97.704666 64.03418 153.40213
-90.036758 48.788246 153.58565
-89.553558 49.257748 153.59058
-93.595459 63.449894 153.59097
-89.45314 47.592369 153.70471
-94.279869 47.999199 153.70757
-105.44002 55.316597 153.79236
-101.81641 59.971245 153.79518
-101.76489 62.394901 153.76016
-95.550201 45.966129 153.87677
-89.878922 48.782295 153.86618
-104.65984 51.88937 153.8531
-88.808243 52.394768 153.82419
-105.42973 55.179337 153.84003
-89.329819 56.151665 153.84413
-103.19842 56.462646 153.87743
-90.967735 61.533909 153.83768
-92.965607 62.260246 153.80154
-98.544907 62.479431 153.84229
-91.489357 47.602818 153.97037
-100.52798 48.117878 153.97011
-90.538033 48.18269 153.94604
-89.279007 51.223293 153.93587
-103.1572 58.725578 153.95122
-100.90869 62.462761 153.91962
-100.95844 63.041008 153.91164
-100.71313 47.600151 154.05879
-87.236008 55.356617 154.09415
-100.42923 62.636219 154.0318
-99.443642 64.186684 154.06168
-100.43168 47.573181 154.18082
-90.709747 47.993374 154.19659
-99.050735 62.721294 154.19843
-96.418137 45.911926 154.29453
-92.848305 46.834747 154.27852
-98.144928 47.538658 154.20905
-102.92039 55.456791 154.23224
-102.78146 57.103779 154.27997
-89.035355 60.487259 154.23196
-90.847946 47.822128 154.33179
-94.385986 48.216949 154.39694
-102.72558 57.928364 154.35944
-95.562325 62.976585 154.36345
-96.146698 45.667412 154.47247
-91.338867 46.351131 154.4903
-90.247734 52.984077 154.46542
-101.6545 60.264347 154.49889
-95.971169 63.020878 154.49945
-94.135246 45.624023 154.55157
-89.742416 52.221626 154.50352
-89.075645 55.242222 154.55782
-103.08886 59.493179 154.53673
-97.616974 48.428898 154.64107
-103.14484 53.991493 154.62683
-103.17642 54.582947 154.68912
-94.554329 48.743095 154.76971
-100.52951 48.967232 154.8342
-88.340149 53.029602 154.89766
-104.69154 56.461086 154.93697
-99.170593 63.293983 154.9426
-93.351669 45.582378 155.06346
-92.288956 48.755482 155.08055
-104.61211 59.449169 155.02696
-92.006218 62.24477 155.04849
-92.994621 45.685585 155.11884
-99.629677 47.850365 155.15848
-92.243858 49.492069 155.1539
-105.37819 53.586121 155.16187
-104.65274 59.021393 155.18085
-92.832527 62.681042 155.12218
-89.539795 50.231388 155.20598
-94.420624 63.061249 155.22739
-90.396835 48.101559 155.36285
-103.46767 59.751945 155.33138
-92.986977 62.660015 155.48619
-97.914116 62.813965 155.41377
-97.909798 64.136299 155.4671
-90.805435 46.272343 155.50421
-88.192596 55.480026 155.56111
-87.883148 58.009346 155.59039
-102.36345 59.228271 155.54417
-101.65945 62.239075 155.59836
-95.814522 63.402527 155.57172
-91.49527 46.475208 155.63705
-101.49969 60.648979 155.67786
-94.107651 45.109749 155.7253
-93.439255 46.957031 155.7099
-101.55175 49.52459 155.78734
-89.734245 58.990631 155.76965
-88.695007 61.207653 155.71153
-90.856682 49.89497 155.88652
-93.32106 63.482437 155.84573
-102.57957 52.353222 155.90645
-99.935219 62.000973 155.98347
-102.71673 61.660892 156.06824
-95.284409 63.031647 156.05438
-91.361023 61.464539 156.28679
-94.067696 62.817307 156.24384
-97.545288 45.408863 156.39929
-87.726372 54.925137 156.30919
-89.967491 59.597099 156.30553
-88.845367 60.446926 156.30435
-90.371559 61.967098 156.3374
-101.96786 47.791599 156.46014
-89.304451 57.393574 156.48666
-104.6248 51.637486 156.51991
-90.423462 60.43829 156.67313
-98.261398 45.802994 156.70152
-89.135948 51.589005 156.74783
-101.09244 61.582138 156.76147
-94.562248 44.482437 156.80151
-88.59388 50.930725 156.83313
-95.727386 44.685795 156.90375
-91.34938 46.01923 156.95247
-90.247192 49.966454 156.92915
-87.912102 58.343212 156.93532
-94.134491 62.75153 156.92841
-93.989761 63.360519 157.09625
-93.662743 44.661797 157.18317
-92.866035 47.583439 157.1926
-90.550766 49.374168 157.15146
-102.14366 51.252502 157.17484
-96.27562 64.3358 157.15912
-99.699417 46.379639 157.2449
-101.59087 47.475677 157.28821
-87.590805 56.849068 157.20752
-101.50253 49.598488 157.36569
-101.34319 49.651871 157.32047
-100.9755 47.979076 157.43631
-90.03154 49.186714 157.43509
-89.268684 53.468189 157.42328
-88.72625 56.075687 157.46602
-89.493668 58.089825 157.42978
-88.143402 59.148537 157.47589
-90.128372 49.064018 157.58667
-103.23772 49.476974 157.68048
-88.07132 56.2798 157.69847
-88.012505 56.627365 157.67157
-100.53117 62.19101 157.63765
-95.641754 44.722046 157.72638
-102.6375 57.950146 157.72726
-101.26976 62.086681 157.75002
-102.71809 57.497025 157.80348
-88.069809 56.664124 157.93144
-89.527596 61.412876 157.9212
-98.043663 62.390625 157.94467
-104.75948 52.893307 158.0531
-98.849892 63.744125 158.04848
-102.70558 54.622345 158.17107
-101.30947 60.616863 158.1777
-90.884895 61.059998 158.16853
-94.468445 63.719345 158.1026
-96.451202 45.847965 158.27235
-90.882607 60.699295 158.2879
-92.835541 62.452362 158.29665
-101.48882 60.916687 158.30154
-88.879654 60.988544 158.30135
-90.314888 62.437126 158.34421
-95.776138 46.126831 158.48279
-90.596901 60.324631 158.44476
-103.48123 59.542961 158.53177
-100.08687 47.218639 158.62802
-103.25883 51.356335 158.61552
-101.27114 60.423534 158.65425
-95.412392 46.093483 158.73927
-88.687874 53.276051 158.76213
-87.736923 57.404922 158.84221
-99.050613 62.679955 158.84186
-89.556374 57.245682 158.98737
-90.174438 59.387577 158.96704
-91.846436 61.647369 158.96066
-100.45872 48.983315 159.06897
-102.41084 57.949921 159.17685
-90.450745 53.339516 159.27982
-104.45633 55.929092 159.20966
-89.613266 56.835968 159.25401
-96.170029 45.97617 159.36502
-93.254539 46.342354 159.32677
-96.555038 46.597881 159.45442
-90.772179 49.221699 159.41788
-88.247391 59.07568 159.48744
-88.433907 59.444984 159.47279
-99.500862 47.174488 159.5334
-99.651443 48.127907 159.50072
-91.962296 48.179314 159.5193
-90.959885 51.858345 159.54593
-102.15453 58.29673 159.53465
-97.148712 62.885693 159.54494
-101.4819 48.456512 159.64975
-90.307968 50.591339 159.66336
-102.14713 59.956017 159.68842
-101.41302 48.431328 159.75925
-102.80871 56.68708 159.70206
-101.30597 59.639618 159.79224
-103.09235 57.47715 159.88708
-96.298859 63.43203 159.85849
-102.95905 56.480064 159.99684
-88.973724 60.277237 159.92073
-96.113495 46.803383 160.06764
-103.86224 52.318642 160.06439
-89.982956 53.913704 160.0152
-88.78595 56.206627 160.06485
-100.88184 50.289719 160.10318
-101.7578 60.279625 160.10591
-101.88183 53.190651 160.38333
-99.261162 62.115089 160.39145
-89.168968 57.653381 160.48918
-102.20202 58.22459 160.58058
-94.736282 48.261925 160.64569
-89.175819 55.853279 160.7554
-89.166603 57.301517 160.73119
-89.339783 53.122326 160.86981
-90.409874 53.913803 160.88452
-102.24181 55.390633 160.84079
-99.14859 61.281776 160.80812
-101.65648 55.1759 160.94965
-89.362602 55.53693 160.9326
-101.69168 57.00045 160.97403
-97.494896 46.719406 161.0237
-101.96979 60.170853 161.08975
-98.382698 47.798237 161.17033
-98.170731 48.908199 161.19501
-92.594727 60.228725 161.19797
-101.08022 53.037369 161.26222
-98.275017 61.132652 161.27786
-100.01373 61.231216 161.25563
-102.8676 51.99295 161.48743
-103.5052 53.514999 161.49146
-97.759323 48.315491 161.57021
-90.385468 52.880283 161.53024
-88.756409 57.102741 161.53549
-92.940147 59.940582 161.53601
-89.405884 54.577442 161.68985
