# .PCD v0.7 - Point Cloud Data file format
VERSION 0.7
FIELDS x y z
SIZE 4 4 4
TYPE F F F
COUNT 1 1 1
WIDTH 1609
HEIGHT 1
VIEWPOINT 0 0 0 1 0 0 0
POINTS 1609
DATA ascii
10.038172 14.59947 8.3407784
3.9904819 14.613592 8.3308401
3.4802744 16.191582 8.374465
4.3719335 16.450968 8.3102894
5.1883373 17.567947 8.3434925
9.3753033 17.792276 8.324255
1.0094537 18.043644 8.3537369
6.3911037 18.020302 8.3023605
3.3348186 18.215435 8.3450842
9.278492 18.462128 8.3612242
11.636632 18.506395 8.3160658
1.1815429 18.790611 8.3822775
2.4691138 19.941875 8.3757162
1.9014559 8.485424 8.4123135
5.3369012 8.6334743 8.4204273
10.955706 9.7944527 8.4043522
4.9485011 10.825151 8.4584265
1.515471 11.076058 8.4253521
7.6703558 11.674059 8.4489765
1.5561801 11.812111 8.4011698
7.9011302 13.465656 8.4527349
4.5112743 14.024517 8.4278936
10.446388 14.269278 8.4418373
8.3049526 15.23465 8.4085875
8.1889648 15.326563 8.4948463
8.5924625 15.809434 8.4002237
4.4218912 16.051081 8.4214306
7.5959907 17.53038 8.4073668
6.0192165 17.608757 8.4791679
3.2058954 18.095791 8.4824495
8.7898941 19.63271 8.4066782
2.1805673 19.94562 8.4727154
9.8334703 20.200727 8.4121361
6.3273039 20.407068 8.4557714
1.7927239 8.8409386 8.5319424
1.9133804 9.6005545 8.5121813
1.5868847 10.265539 8.5271368
4.988338 11.76141 8.5324049
4.9733963 12.329087 8.5780735
1.563615 12.658045 8.5959778
1.8578999 12.819637 8.5043821
7.8061757 13.75692 8.5820084
2.6690176 14.826197 8.5477095
11.914837 16.964149 8.5880985
0.81877601 17.13722 8.5639725
6.5905743 17.564604 8.5172367
3.1732893 18.227833 8.5527124
9.6916971 20.353645 8.5420923
8.8866186 20.585072 8.597332
5.8742828 20.647287 8.5772953
9.6961079 7.2527924 8.6286364
9.922164 7.4415054 8.6773748
10.660114 8.314661 8.6439838
1.8363904 9.5961161 8.6740685
7.3329315 9.5998707 8.6173725
4.9519954 13.213678 8.6798
11.117584 13.859655 8.667469
4.6769624 14.358591 8.6388998
7.9563513 14.919945 8.6647854
3.0556948 16.672642 8.6561298
7.0380597 17.180561 8.6943493
9.1126003 20.545158 8.6055813
6.8120642 20.68758 8.6209822
8.8161068 20.658802 8.6633492
9.0625973 7.1938729 8.7040834
11.13049 8.962492 8.7986317
11.790939 12.649268 8.7660418
1.9310571 13.977391 8.7266426
11.131948 14.087017 8.7301006
12.141041 16.823677 8.7920494
9.1218843 19.388371 8.748064
10.572878 20.207222 8.7946062
7.9944506 20.811893 8.7646837
2.8983922 7.3886709 8.8374767
11.032595 8.8146191 8.88589
5.4261227 9.3501177 8.8594093
11.187906 9.4426622 8.8117599
1.6833251 9.7078238 8.8337574
11.648342 10.136012 8.8750362
11.864482 10.757302 8.8121147
11.972188 12.359612 8.8936005
10.333012 15.625453 8.8464136
10.280153 15.763812 8.8733168
2.8521142 16.033709 8.8216209
6.6187735 17.032307 8.848546
6.2152467 17.466667 8.8628559
6.3948054 17.845661 8.8974438
9.4029922 18.925497 8.8168316
1.5151703 19.588444 8.8412457
1.6737952 19.80307 8.8287783
1.7189095 19.895134 8.868679
4.4896917 20.432076 8.8338041
6.3379769 20.884489 8.8281145
7.5358167 20.888031 8.8510847
4.1355343 7.4001632 8.9930153
10.036347 7.5999026 8.9497614
10.381699 7.8765459 8.9784298
2.078429 8.2858582 8.9538212
1.0142401 12.676785 8.9562159
5.1970019 13.302148 8.9517727
9.8542633 16.79842 8.9391594
5.7350116 16.852928 8.9814024
6.2751799 18.274206 8.9323416
9.3147564 19.175953 8.9038048
11.074697 19.641191 8.9139957
5.2463555 13.830653 9.0870171
12.160631 17.00292 9.0327549
9.5762405 18.764511 9.0067034
6.5719385 20.838879 9.0926399
5.0644708 21.02961 9.0267344
6.255106 21.124502 9.0896816
7.4605732 15.667482 9.1883659
10.440876 16.223856 9.1571751
7.0770493 16.71954 9.1566591
10.011121 17.931826 9.1314926
9.5266666 18.997768 9.1564636
10.95834 19.89542 9.1114149
10.898018 19.99543 9.1555786
9.4676113 20.930857 9.1204538
5.4419489 21.193027 9.1882429
10.696597 8.3328571 9.2617464
1.2786834 9.7632504 9.2281418
12.307404 12.064 9.2256413
1.5359459 14.830543 9.2028198
0.34777105 16.001139 9.2433643
2.8714817 18.535662 9.229167
3.9847078 20.495115 9.2947092
7.6459861 21.260784 9.2456169
3.3254385 7.2940307 9.3746071
1.4448234 9.3548899 9.3831139
1.1266634 9.7477665 9.3821697
0.85239762 10.231374 9.308465
0.62892717 12.318762 9.3807564
7.1213875 13.033032 9.3645077
11.927721 13.540417 9.3286591
7.2914047 14.407802 9.3220711
1.2639153 14.508259 9.3661633
5.2610908 14.984535 9.3034563
10.538914 16.788334 9.395752
0.83958679 18.771801 9.3904333
9.6869011 18.839334 9.3216743
3.679179 20.070408 9.3311462
10.680738 20.415138 9.3956947
2.0030909 20.561388 9.3115053
7.3101892 21.397717 9.3950996
7.651226 21.389267 9.3820057
7.9752026 21.392929 9.3819799
9.6985312 7.5726061 9.4562731
7.1139469 11.580791 9.482481
12.589692 11.673077 9.4484119
5.6085768 11.954645 9.4866314
1.8578597 15.905521 9.4075375
12.226645 16.723097 9.4167433
6.5126748 16.873978 9.4775286
10.593527 20.547253 9.4490108
5.6829147 21.03113 9.4414549
6.0588946 21.056396 9.4519758
9.9751072 21.141998 9.481555
3.7410848 21.203606 9.4511042
9.6896486 7.63377 9.5971804
10.965518 9.1704969 9.5698814
1.0802857 9.6925974 9.5764732
7.2264395 10.276377 9.5969334
0.49666286 10.770969 9.5473061
0.45846674 11.970963 9.5017242
0.95961988 13.960223 9.5231085
5.4174485 15.205226 9.5721874
1.4853084 15.341675 9.5024319
6.4716878 16.385046 9.5355053
2.9488561 19.047503 9.5928364
1.0684577 19.740625 9.5213604
9.129446 21.364075 9.5261707
6.6488743 21.53525 9.5471516
8.0018282 21.52231 9.5190601
11.040408 9.3554211 9.6246471
7.1208391 10.848229 9.6409788
0.25027645 11.672736 9.6941299
5.6482415 11.653096 9.661314
10.486849 17.653091 9.6336632
11.88547 18.544041 9.6954288
5.7064342 21.155998 9.6466532
7.1380863 21.613276 9.6261024
5.379395 9.4369154 9.7388391
5.6353254 10.812078 9.7140017
0.80599511 13.955515 9.764637
5.6613474 13.986046 9.7097139
3.0807419 19.436676 9.7503042
3.316776 19.722908 9.7120743
8.617959 20.767139 9.7911797
5.7387886 21.199978 9.7172728
4.4738545 7.946384 9.8851748
12.348855 11.063292 9.8310547
10.287926 18.137215 9.8400536
9.5398579 19.565723 9.8738632
1.0863072 19.93833 9.899435
4.6391907 21.031179 9.8487711
3.2102444 21.354122 9.8453169
5.0722055 8.9905672 9.9433632
10.803465 9.244071 9.9600143
11.555182 14.259477 9.9942722
0.25592935 15.515387 9.9482479
6.7225828 16.334402 9.9008827
10.221308 18.310909 9.9392662
11.522968 20.192957 9.9275875
5.3105521 21.296581 9.9066038
7.5746121 21.953148 9.9817743
3.2593396 7.60569 10.01833
5.519299 10.671554 10.06536
12.297774 11.22543 10.07226
0.064630397 11.636052 10.065737
12.372099 13.076538 10.075928
5.7823281 13.204033 10.019663
6.0898805 16.032673 10.005083
11.313913 16.10993 10.037258
3.9138165 7.7361002 10.10705
9.1847534 7.840076 10.125016
9.7417316 8.127923 10.118448
11.179651 9.7929745 10.156611
5.7638993 11.945428 10.10108
0.11224286 12.177546 10.110585
0.384294 13.332129 10.168825
5.8098927 13.31883 10.111342
11.997642 14.779158 10.180589
10.789146 17.508802 10.15118
0.6957671 18.153662 10.107334
2.3601732 18.220282 10.114178
10.323145 18.27803 10.172626
9.01021 20.42099 10.193693
6.2365241 22.096558 10.167809
4.6436377 8.4642792 10.225468
4.6634431 8.5550823 10.273289
10.511026 9.0838194 10.295615
5.0073743 9.2209778 10.295435
5.7059913 11.79548 10.268538
12.495054 13.026697 10.234678
12.751234 13.091242 10.239851
11.997042 14.815754 10.206957
12.492074 15.414486 10.234739
6.5659781 15.571901 10.257517
5.7548718 15.642487 10.295347
5.7725267 16.018261 10.277445
0.85526854 18.907185 10.23405
2.7858207 19.197628 10.271479
11.350335 20.525646 10.227505
9.4332552 21.59059 10.231381
3.667758 7.7548971 10.391303
9.5359478 8.1570196 10.302011
10.277695 9.0347672 10.391057
11.589695 10.393278 10.329958
5.4857683 10.983309 10.328678
6.2640758 15.324259 10.376749
6.9204545 15.738607 10.310818
6.7939568 16.081688 10.32315
2.4842167 18.585152 10.307871
11.440956 20.334881 10.349336
3.963764 20.949032 10.341066
2.4264631 21.500648 10.337691
6.4216685 22.057213 10.362529
2.046494 9.2107134 10.408295
8.1122761 9.3317213 10.481981
5.346797 10.557433 10.438025
7.4436474 10.758316 10.442947
7.2794981 11.245152 10.428726
12.397031 13.606701 10.454548
12.254337 16.074181 10.437593
1.6310587 17.172392 10.466787
11.501485 20.073448 10.415468
3.3132629 20.167412 10.409922
8.385994 21.184544 10.422071
3.9549546 8.2125187 10.56212
1.5548038 9.8212452 10.569149
11.514396 10.543029 10.594402
7.5142412 10.625523 10.555501
12.079692 11.612947 10.578611
7.0866566 12.117075 10.547976
12.207012 12.285511 10.575008
5.7847824 12.608214 10.574552
13.125921 13.396341 10.579059
11.993418 15.309168 10.56928
11.575785 19.736809 10.519119
8.9815102 20.708723 10.599648
7.314877 21.4499 10.516701
4.6933784 9.1435184 10.667855
6.4893322 15.095909 10.685645
5.8768816 15.337375 10.699695
0.98121977 15.675586 10.658716
10.640109 18.051802 10.682656
2.5327682 18.917822 10.650082
2.0198734 21.486301 10.607285
3.6057241 8.0854807 10.708895
0.81770009 10.978716 10.710592
0.46846259 12.90905 10.790859
12.113031 12.921467 10.795798
5.9583511 14.04237 10.7966
0.61481416 14.894456 10.706409
5.875742 15.830522 10.709221
11.898773 17.026876 10.755602
0.79927504 17.252239 10.764568
1.6359752 17.326664 10.725074
3.0890827 20.069386 10.722483
3.2499187 20.300068 10.772068
6.4692001 21.469456 10.707845
4.6855993 21.978754 10.712757
6.8193932 21.981686 10.710854
4.5390139 9.3391933 10.880417
4.8106475 9.7923069 10.82722
12.461144 13.001258 10.885736
0.49212402 13.438376 10.890691
0.44304958 13.564236 10.837952
5.9923882 14.678829 10.830016
0.30546057 15.09203 10.887314
12.07147 15.481926 10.817696
6.7685008 15.739153 10.880545
11.729538 18.67063 10.811698
10.201952 18.944786 10.837668
4.3149872 21.946997 10.836178
2.6569715 9.1987829 10.920471
5.3597159 11.09634 10.968625
0.53143919 13.278416 10.925486
1.8341372 17.783844 10.945572
4.8684192 21.427187 10.9513
7.4977961 21.904209 10.905868
2.0410657 9.7958536 11.084256
5.0599465 10.385843 11.054298
7.2458324 12.072792 11.062811
6.995852 13.172493 11.094774
12.038462 13.863316 11.022778
0.65307558 14.980955 11.059465
0.78038812 16.311781 11.079275
11.690486 18.15266 11.094139
8.4694901 21.257446 11.095391
9.9107971 21.341711 11.061696
9.2679129 21.534977 11.000769
7.7044754 21.870249 11.045778
7.8889246 10.475779 11.13763
5.1280785 10.639016 11.133148
5.2598734 11.026032 11.134506
11.581492 11.346217 11.1778
11.803539 12.390159 11.139671
11.767838 12.413267 11.19306
7.0800123 12.760765 11.104071
13.419096 13.303256 11.105828
11.935328 13.94832 11.156999
6.7078366 14.900073 11.187845
3.5852437 20.911585 11.17045
9.3231888 21.493597 11.18858
5.0223241 21.937185 11.125541
2.9738913 9.4392166 11.280251
0.80099362 12.909606 11.255836
13.293966 12.990021 11.24201
13.32673 13.460875 11.226642
1.0648187 18.85084 11.230959
3.2140553 9.3649111 11.348722
9.3104792 9.440464 11.355305
8.6295929 9.6970816 11.355433
0.97094005 12.132398 11.327713
5.6126614 12.565177 11.329135
12.957603 13.337915 11.323205
7.0155706 13.405348 11.34782
5.915236 14.532542 11.383678
6.1246653 14.785118 11.372297
0.87167621 15.464077 11.302244
11.533965 19.328297 11.318908
9.5728207 21.402897 11.327654
2.5121155 21.501516 11.360887
10.775713 10.83309 11.469844
1.3465084 10.982087 11.437629
5.3057632 11.665644 11.455627
11.460182 11.714777 11.421392
11.868132 13.054639 11.495401
5.8667955 14.344468 11.496067
0.8957783 14.630703 11.402843
0.86581492 16.140856 11.424055
1.7036608 17.886789 11.493673
10.525593 18.714867 11.424603
11.519002 18.838734 11.4739
3.07634 20.482796 11.475858
1.8572035 21.033974 11.445426
9.1575422 9.6083813 11.548458
9.2089405 9.655261 11.584772
4.7432632 10.336746 11.571778
11.139063 11.333157 11.504852
11.480546 12.437349 11.582613
11.546871 12.986862 11.566056
11.951479 14.37137 11.500873
12.079857 14.921901 11.522099
1.1804426 18.353188 11.565189
10.42117 18.983227 11.521578
9.9647083 19.916468 11.565187
3.5915689 20.996077 11.575419
4.5861216 21.432028 11.569836
6.6354275 21.530966 11.563833
9.0039701 21.532614 11.578195
6.385273 21.904457 11.58909
9.860117 10.090553 11.609792
5.4858394 12.583261 11.606611
7.3262997 12.804206 11.674174
1.0506123 13.573659 11.688564
7.0434513 13.699587 11.636322
5.8841095 14.771051 11.605353
1.1480914 15.548479 11.665644
11.475539 15.877016 11.672025
1.3131911 16.82671 11.676707
11.302264 16.859604 11.694994
11.438043 18.601553 11.632689
1.4798365 20.337143 11.634612
10.4266 20.961308 11.683386
4.478786 21.423952 11.69445
7.7412744 21.789289 11.653044
4.2060823 9.8082294 11.797611
4.4101744 9.9645281 11.723627
2.4622698 10.405232 11.725323
11.098173 12.02725 11.735224
1.1821803 12.777997 11.743776
5.4399762 12.738106 11.787331
6.8485861 14.7381 11.763445
0.75184458 15.018024 11.78211
11.416235 15.574848 11.788607
0.89898503 15.662203 11.776516
1.228567 15.779053 11.785053
11.393461 16.156141 11.797562
1.1489758 17.484262 11.755948
1.2440171 18.178604 11.797895
2.6993854 20.070841 11.773353
1.7837871 20.859249 11.715796
6.0948129 21.53108 11.786654
3.9540663 21.785053 11.720539
2.7938771 10.318254 11.879708
1.8436092 11.197386 11.831534
5.0163369 11.297004 11.850584
1.4808276 11.911503 11.82555
11.407056 14.569181 11.855899
11.711325 15.513672 11.892126
1.0854787 16.515659 11.865635
1.742074 17.690622 11.820847
1.1954495 17.732037 11.813658
11.397577 18.238121 11.877254
2.3427782 19.321754 11.828898
10.139582 19.731871 11.822692
9.1920643 21.446312 11.815394
4.4069014 10.106525 11.929497
2.7453537 10.582276 11.998916
5.2704582 12.355095 11.922304
11.816197 13.622209 11.957951
11.284531 14.133465 11.926304
7.1987271 14.851444 11.927666
6.2871218 14.922798 11.917049
11.706087 15.324698 11.952892
1.6426368 17.214661 11.946838
1.2934127 18.145582 11.943594
5.803997 21.863672 11.912838
9.9184628 10.924767 12.079901
1.7972589 11.926488 12.006345
1.3139081 13.465293 12.041212
1.1345851 15.651282 12.054995
11.259109 15.672169 12.051374
1.408137 15.945383 12.064466
1.1803083 16.320786 12.082033
12.208211 16.700451 12.014208
10.987289 17.047218 12.053349
1.9345427 17.698967 12.028257
11.184114 20.050898 12.062549
6.3727136 21.852554 12.00663
4.4570312 10.428217 12.128562
8.9913378 10.503656 12.162283
11.224043 15.222351 12.134233
13.627479 16.331957 12.197999
1.2477785 16.867992 12.164175
10.617695 17.629614 12.192162
11.346842 18.959101 12.121736
2.2928538 19.245138 12.105414
7.1920233 21.7738 12.11715
4.0530295 10.159871 12.204206
8.8025627 10.818447 12.295076
8.2144489 11.44091 12.288723
8.1836929 11.556913 12.295472
6.2056313 15.049159 12.231153
1.5305023 15.251456 12.284945
11.76658 15.547753 12.250349
1.3290148 15.733098 12.262663
12.303227 17.055334 12.279884
1.8384292 17.155973 12.23984
12.628965 17.125174 12.211358
11.310448 19.050917 12.299433
1.665193 20.546747 12.262954
1.8508835 20.739813 12.257105
10.233575 12.227879 12.340674
10.272369 12.357821 12.360843
10.446764 12.771833 12.389446
1.1170273 14.671816 12.349338
11.689756 14.679373 12.36817
10.868628 16.688282 12.37693
2.4098399 18.492765 12.337237
1.3591003 19.077915 12.334004
4.5871911 21.762964 12.300846
3.2546492 10.759218 12.414879
8.9983501 11.104619 12.42081
3.0312562 11.214198 12.499253
7.4930654 14.669305 12.434472
7.6318655 14.779099 12.433294
11.776527 14.969653 12.41642
11.794434 15.24359 12.42042
1.4445176 17.366007 12.491295
11.198562 19.752769 12.422651
2.0630398 20.863945 12.479827
4.7187452 21.743908 12.458604
9.1924582 11.32603 12.509474
8.259757 11.90617 12.546618
2.0971539 13.115277 12.536968
10.606749 13.768433 12.59436
1.7195411 14.898806 12.598754
6.4469004 15.257113 12.554667
12.013394 15.481346 12.575911
11.939226 16.220922 12.521276
13.030287 16.73007 12.521564
12.963467 17.361668 12.51897
1.4661744 18.813814 12.520139
9.9989986 19.952393 12.521605
10.958419 20.444153 12.520601
6.010056 21.351097 12.578144
6.5761142 21.744921 12.543735
3.2904358 11.0547 12.600057
7.9652472 12.929009 12.678731
5.0239143 13.141828 12.679367
12.057803 15.615601 12.657955
11.010193 20.09469 12.653484
2.0519342 20.774866 12.66969
3.878386 21.255386 12.662993
4.4084015 21.347275 12.687937
3.2091742 11.681524 12.759191
4.5981369 11.966837 12.701731
8.7590752 12.005228 12.747857
5.0208893 13.269815 12.736992
1.6040572 16.038074 12.782585
11.971179 16.018082 12.758106
13.853862 16.173286 12.780668
11.066278 18.21369 12.790394
10.052015 18.410973 12.734052
10.21751 19.419306 12.728931
3.1256721 20.674168 12.718259
6.7095628 21.295319 12.764677
8.2634373 21.227806 12.778137
3.4031134 11.764074 12.874004
8.627737 12.255266 12.836536
9.7815228 12.648266 12.81138
2.288188 13.737703 12.826555
10.282878 13.932178 12.859306
1.6682143 14.598143 12.853796
10.415929 14.638489 12.87544
2.0890894 16.557615 12.817586
13.818617 16.849127 12.814759
1.6497039 17.605125 12.866498
1.6026981 17.824421 12.872946
1.6408509 18.420826 12.847286
9.4281569 20.696239 12.809588
5.7944489 21.683069 12.897437
9.6163664 12.778649 12.974888
7.9710789 14.758828 12.975985
5.5268378 15.091266 12.963621
2.1150796 15.688572 12.95734
10.373393 16.412163 12.990323
10.272986 17.156235 12.992284
13.615181 17.469452 12.992939
2.5654233 17.621788 12.928305
9.5628176 21.129436 12.962055
6.3468466 21.223497 12.926682
3.5313423 21.441582 12.968887
8.8296671 12.849085 13.064856
4.933095 13.775633 13.038481
7.4757328 14.96678 13.009619
2.5909598 19.794447 13.019229
10.060785 19.748127 13.090759
7.3287768 21.568035 13.088489
9.6799927 13.588309 13.167887
2.4211004 15.389478 13.148544
13.805908 16.313131 13.105229
1.8196007 16.76642 13.198973
13.676889 17.649769 13.199623
2.5334702 19.625854 13.105431
1.719491 19.843399 13.192458
6.1695342 21.144581 13.187827
3.001029 21.265541 13.182268
9.3730392 13.37669 13.288093
8.2931576 14.673001 13.243774
10.046326 15.241659 13.222572
1.9188956 15.499584 13.234534
12.202041 15.911264 13.226362
10.854289 16.441517 13.228809
2.9203758 17.565918 13.291395
2.3688672 19.223986 13.27964
1.8784178 20.431522 13.203694
6.2207766 21.611826 13.287697
2.9860229 13.955439 13.31592
3.0135689 14.126369 13.378299
4.5360055 14.478642 13.350183
10.696736 15.061182 13.33449
13.11134 15.235676 13.325337
13.218695 15.329993 13.317048
9.768218 15.671381 13.389904
11.649994 16.168371 13.386935
14.061577 16.848915 13.350171
1.9112051 16.90136 13.362803
10.811748 17.54365 13.306639
13.607098 17.933565 13.311069
2.9111755 18.004385 13.330955
6.752367 21.099979 13.335627
4.505023 21.17531 13.376246
7.7556491 21.470564 13.383644
4.5362597 21.549427 13.330301
3.0129135 14.496198 13.447925
7.29598 15.679426 13.414597
11.886405 15.841843 13.401235
13.861502 16.152184 13.436913
1.9966396 16.454798 13.484489
2.8922434 16.746389 13.420177
13.113947 17.596701 13.462818
1.8501097 20.106422 13.449722
10.352715 20.590212 13.424421
2.4016244 14.75816 13.572523
3.1174898 14.811728 13.562396
9.5305948 15.410341 13.558289
12.161239 15.532103 13.520485
3.1092353 15.840161 13.56027
9.5077095 17.047043 13.542204
10.700819 20.096443 13.597523
3.8247321 14.081271 13.665483
9.3004436 14.290811 13.623705
9.7919207 14.528435 13.621932
10.51121 15.78663 13.676882
10.685051 18.049732 13.654726
12.124816 18.085093 13.650273
2.4338887 19.262186 13.647172
9.3135977 15.016178 13.706229
6.5989308 15.557122 13.782687
7.8798614 15.709318 13.713617
4.9136524 15.825443 13.746344
13.402283 16.165854 13.789286
3.6207416 17.409801 13.742255
10.615835 18.046009 13.781658
2.033839 18.122402 13.733547
2.5100555 18.623922 13.704802
1.7832942 18.827602 13.769108
1.930657 20.117104 13.784172
7.5056667 15.87174 13.812551
10.465782 16.16485 13.803399
13.428818 16.217728 13.844998
10.540417 17.326157 13.833056
12.411895 18.649645 13.882254
3.5530462 20.885954 13.848678
4.4689379 21.442337 13.817215
9.4267702 15.043142 13.943449
9.6165543 15.30255 13.949739
3.7342629 15.643082 13.922162
9.0694923 15.96826 13.913423
13.007969 16.070347 13.910271
9.0366554 16.164192 13.936292
10.056406 16.143864 13.984716
13.752262 16.161345 13.96602
11.789197 17.828722 13.903602
10.753285 19.234577 13.974878
7.2794056 21.397717 13.929511
7.9721646 14.232935 14.001363
7.6373968 14.327839 14.078605
3.9654226 14.424233 14.009818
12.544266 15.774081 14.066742
13.362419 15.816145 14.011857
2.5797949 16.228191 14.030079
3.9515731 16.312828 14.003906
8.3800516 16.697586 14.035255
10.385293 16.817429 14.013523
14.270956 17.502663 14.076403
10.549335 18.035999 14.063902
13.831405 18.088228 14.086991
2.7852025 20.903395 14.094013
5.1832771 10.370094 14.192209
5.0408945 10.951208 14.133425
7.3251438 14.387892 14.104658
7.5826006 14.564663 14.161712
13.794051 16.299774 14.182286
12.717237 16.340099 14.154612
4.4810495 16.622818 14.189013
8.3733816 16.730721 14.148833
3.9832559 17.133865 14.154044
14.118227 17.593658 14.102813
2.4748933 17.633951 14.163246
4.4761682 21.369261 14.140154
5.5460801 10.742969 14.203988
5.8368492 14.665485 14.236067
2.5132973 17.66 14.281077
10.529147 18.18919 14.227446
12.742758 18.2899 14.252987
12.509311 19.095173 14.242764
12.503273 19.131939 14.291853
6.3556309 15.026141 14.326574
6.2841558 15.595695 14.31109
9.4828529 16.409492 14.317132
11.734234 16.758835 14.338215
2.3937702 17.736366 14.340467
5.5930448 21.356823 14.344258
6.2929959 10.282922 14.458347
7.5766244 15.491375 14.460964
6.7438326 15.573694 14.415409
7.1712298 15.563784 14.487246
7.2641554 15.577751 14.493261
7.9520626 15.646523 14.464201
13.495564 16.134308 14.422632
12.564623 16.785915 14.467192
14.089945 17.453163 14.419907
14.126083 18.293781 14.495502
13.59586 18.738798 14.460289
10.582577 19.225624 14.446136
8.8761883 20.989134 14.42853
5.292429 10.236549 14.525933
5.2167034 11.676603 14.529076
13.331821 16.028135 14.524567
8.8980789 16.158628 14.517438
9.2252235 16.775867 14.551922
2.2504814 18.102524 14.599335
14.188571 18.795143 14.585342
4.2955589 13.205122 14.631239
3.9083459 13.470384 14.69675
7.7225862 15.909507 14.656366
12.852866 16.07309 14.611024
13.019239 16.027601 14.605834
7.207366 16.374756 14.661129
8.6568546 16.47686 14.649212
3.7830315 16.676674 14.669146
9.764204 17.112694 14.634839
14.250217 18.427704 14.694333
13.095718 19.646622 14.680611
4.0699606 13.153451 14.779408
4.2592001 13.712875 14.796164
3.9729159 13.920104 14.789582
5.6639705 15.405283 14.701066
13.418526 16.226498 14.749889
7.527709 16.482307 14.766558
9.1188602 17.154127 14.722761
3.3222697 17.202467 14.729523
2.2542367 18.19689 14.732501
14.245955 18.206903 14.757213
12.548944 18.596285 14.732953
2.146173 19.964382 14.771008
2.7992949 20.644369 14.769487
5.1671333 11.876498 14.815392
3.5536952 17.07415 14.841492
8.1293335 17.035831 14.897655
9.6148167 17.150164 14.869073
12.44429 18.390413 14.812753
10.410414 19.099676 14.816856
2.2639673 20.193245 14.822484
3.9325061 14.299656 14.909263
12.703058 16.384241 14.998503
5.0145755 16.546909 14.913047
9.1555357 16.997656 14.953095
8.7736025 17.110672 14.93505
9.2431145 17.366411 14.997266
14.094692 17.386486 14.934814
10.360441 19.253956 14.965763
13.361712 19.880161 14.916582
4.0371208 21.036575 14.902693
5.3951654 10.658337 15.091832
3.5466831 12.744727 15.008693
3.9228926 13.620467 15.0479
4.4655843 14.271305 15.046013
13.453207 16.415192 15.081776
9.1204243 17.231798 15.002172
9.9428635 17.578518 15.050042
2.5489564 17.91025 15.099177
14.161963 17.911211 15.039525
14.282372 19.148346 15.03499
10.419017 19.65283 15.000674
4.7766209 10.086457 15.157173
4.2234097 11.909298 15.177417
3.9212077 15.162746 15.193579
3.6354315 15.280855 15.150101
3.5004644 15.384004 15.144541
7.7228394 15.50445 15.153061
4.8644691 15.795854 15.166105
3.2733397 17.079437 15.140491
3.8774362 17.013544 15.105849
12.468888 18.786024 15.12839
10.484835 19.172342 15.14825
2.1781392 19.211727 15.115826
12.910959 19.43825 15.199368
6.131053 21.171406 15.165051
7.2405429 21.127813 15.115349
6.1032934 9.800724 15.201818
4.5067677 10.96344 15.226915
4.1692915 14.008192 15.270971
3.9754014 14.318775 15.273192
4.792284 15.590542 15.262494
8.4517231 15.940292 15.296346
14.353128 19.175993 15.265617
14.359627 19.552284 15.290355
14.203525 19.6418 15.24568
12.696964 19.894131 15.216788
4.3157792 21.067221 15.293944
7.6316109 21.10095 15.241962
5.7516861 9.6241436 15.302511
2.9672623 13.603119 15.307303
4.2406273 14.011419 15.314302
4.1177077 15.501012 15.386968
2.5751534 15.850847 15.399485
8.9192467 16.319073 15.351121
9.3384514 16.678856 15.392913
2.1154759 16.860607 15.303368
2.3782682 17.083326 15.3966
12.520779 17.752798 15.382152
14.302792 18.940948 15.349916
13.435875 19.883003 15.355635
13.577351 20.200176 15.332414
3.5093226 20.728277 15.362453
7.9205856 21.215673 15.339626
6.220571 10.150034 15.480054
6.901948 15.434191 15.489386
7.5658889 15.477942 15.441809
5.0953064 15.559708 15.469346
10.255163 18.632034 15.417696
11.895307 18.745428 15.495444
2.4972534 19.672241 15.442759
6.2164488 21.19309 15.406267
6.7339773 9.9832897 15.573915
4.5577135 10.736779 15.550902
3.496851 12.232839 15.598748
5.2747488 12.207008 15.563319
5.2440801 13.721409 15.55443
4.4527388 13.830392 15.56646
2.8970158 14.220278 15.56841
4.9487019 14.243568 15.558132
2.4351678 16.559237 15.510746
1.7450889 16.825891 15.558937
1.7845935 16.906784 15.512767
14.322271 17.513838 15.570922
11.892833 18.699646 15.546671
2.6016049 19.825254 15.564697
8.0986233 21.228598 15.578847
6.3221636 21.349468 15.570897
5.5891418 9.8237381 15.607823
6.2153435 9.8520575 15.641982
3.3289232 13.329529 15.601732
2.8105016 13.58342 15.687924
2.1956701 14.89756 15.615007
3.934988 15.170786 15.653993
1.8827833 15.622606 15.685454
4.8831863 15.624918 15.658278
4.0270171 15.999541 15.631382
9.6519146 17.042231 15.668771
13.431639 17.424389 15.629036
11.876365 17.61694 15.603155
9.9933205 17.834408 15.6765
2.7170486 18.096676 15.639156
12.552843 18.119965 15.66538
2.5929835 18.49572 15.694265
11.960831 18.57176 15.668251
10.41888 18.677866 15.624713
10.426166 19.552002 15.689281
6.1740904 21.219339 15.668502
3.3096244 12.452652 15.781362
1.9467373 15.269779 15.753881
6.3423414 15.455532 15.762415
2.0951822 15.85851 15.7444
1.6617771 17.474833 15.712768
2.155983 17.590553 15.742314
11.934875 17.640663 15.710323
2.5898514 17.711836 15.701615
14.715951 19.403263 15.778931
14.677723 19.536039 15.778495
14.087576 20.161974 15.747221
10.045345 20.381176 15.787662
6.206069 9.6306477 15.849039
5.2312059 14.031828 15.813234
4.4824991 14.145178 15.848684
2.1983757 14.637999 15.895494
3.4539247 17.000366 15.81254
14.662287 18.250187 15.885113
6.8750463 10.496881 15.949919
2.4962211 14.643056 15.987585
1.4351926 16.08993 15.927244
3.7160769 16.087469 15.921532
1.3234208 16.918798 15.976431
2.9218297 17.478336 15.941027
11.958342 17.869736 15.921377
14.480134 19.351868 15.908209
14.498909 19.822351 15.9785
12.647387 20.219151 15.949658
6.2343497 21.387703 15.967327
5.170136 12.662369 16.006571
4.5777678 13.53284 16.066183
5.1608429 13.984642 16.048807
8.2772455 15.835978 16.09524
1.2742066 16.758249 16.017965
1.4264501 17.660191 16.01359
14.665523 19.630033 16.061905
2.7720795 20.312943 16.097025
7.0339737 21.314705 16.060156
5.5719571 10.683876 16.105522
6.6082907 15.372005 16.168468
1.2304122 16.300646 16.197819
13.288494 17.821226 16.15155
12.617341 18.567154 16.121161
10.739074 18.704203 16.10256
2.4967284 19.414371 16.117998
2.516942 19.601532 16.119953
13.884424 20.487854 16.142519
9.5178518 20.897921 16.128433
4.1939354 20.963718 16.129303
2.3045805 14.083899 16.272005
1.8288319 15.07328 16.231087
1.0806682 16.659824 16.235306
9.9551449 17.148443 16.243673
3.8343077 17.450884 16.283167
12.667059 20.477642 16.21936
7.6500411 21.335594 16.201296
5.5932155 10.137143 16.349741
3.9668729 12.694794 16.314629
2.7533307 13.376239 16.302921
3.47767 13.343274 16.333883
6.9437418 15.382217 16.335632
6.3267689 15.467826 16.381157
12.812195 18.259125 16.359949
2.7549019 18.53311 16.349976
4.8868055 10.597924 16.42288
5.161552 12.870248 16.4534
4.2345204 13.437509 16.494034
2.6929533 14.425797 16.490721
2.5039997 14.571865 16.405031
7.7592382 15.496534 16.44285
4.4632807 15.957457 16.479918
1.2387378 16.80442 16.430759
14.267853 17.727125 16.491331
3.1426544 18.138325 16.427862
2.5487804 19.792229 16.470757
5.2505002 12.060545 16.59033
4.9773278 12.132322 16.510853
1.8914925 15.440388 16.587368
9.7616215 16.611797 16.556772
3.4887707 17.077463 16.579151
3.9302287 17.168146 16.56134
2.9429996 17.815521 16.579018
11.775978 19.9676 16.558239
10.809737 20.165195 16.579885
4.0757518 13.617489 16.617577
5.0038891 13.755373 16.653458
4.6425943 15.092707 16.694641
3.9930687 15.270292 16.60001
3.9507968 15.359106 16.667126
9.7647486 16.561218 16.665529
10.506619 17.582369 16.645979
10.629911 17.871559 16.602861
2.5634966 18.778545 16.650021
3.780622 20.984039 16.606731
7.7439947 21.468166 16.64296
6.8732958 21.54381 16.655903
4.8852692 13.914558 16.772778
2.925859 18.466053 16.769655
2.3787634 18.992674 16.763296
13.774354 20.726593 16.709902
3.4624269 20.912987 16.711426
2.9143996 13.61612 16.81176
4.1835213 16.419828 16.879126
3.5048745 16.670502 16.861746
3.8397727 17.246414 16.832153
14.472924 18.02857 16.83462
14.526902 18.083002 16.855589
2.9851959 18.500114 16.897511
11.340733 19.49172 16.857687
12.068916 20.317636 16.804817
10.35372 20.728077 16.852917
6.2032657 21.565584 16.854092
4.6195583 13.412573 16.931126
3.7240796 14.72731 16.914968
1.3972689 16.212286 16.975449
3.5389853 16.719362 16.907429
3.9100029 17.003916 16.905125
3.213551 18.413321 16.942457
2.2652364 18.648327 16.993168
11.111408 18.606197 16.995399
14.632374 18.685295 16.986301
12.180647 20.452162 16.958593
3.5964823 15.981369 17.012287
3.7666516 17.507454 17.007805
11.058437 19.778681 17.046398
5.6715746 21.558788 17.080074
4.3386526 13.439436 17.157074
3.4581125 15.681883 17.134686
8.8883762 15.636583 17.194187
4.2633028 15.886877 17.148024
10.263456 16.916447 17.167446
13.018801 17.799925 17.153294
14.575084 18.605537 17.153229
2.5476532 20.321608 17.155594
9.4197817 21.243509 17.123827
8.6686544 21.485641 17.142376
2.4424946 14.544247 17.262428
6.6914372 15.116808 17.272715
5.3136034 15.291351 17.288521
9.2063017 15.775764 17.280418
14.547091 19.533413 17.239555
13.686163 20.668976 17.20871
10.471893 20.756666 17.298828
10.035315 21.075632 17.25079
4.0690031 16.120972 17.379543
12.274446 17.597853 17.399752
11.184475 18.623646 17.359989
14.584967 19.120996 17.302704
2.2636933 19.953733 17.336237
11.802096 20.30138 17.379116
9.5334759 21.261751 17.375126
4.0666947 13.956799 17.424559
3.4253588 14.168213 17.442604
6.8258286 15.085453 17.470007
4.2355499 15.765856 17.473648
2.1107209 16.170755 17.470682
6.4167738 21.684399 17.46686
6.8132372 21.696877 17.492018
7.0225449 21.670998 17.41473
3.6182261 16.531033 17.581728
3.7656567 16.784519 17.59486
3.9140885 17.569275 17.554096
10.776515 17.624018 17.514811
13.919042 18.209816 17.589222
11.138398 18.468166 17.5261
13.679003 20.482494 17.58766
6.1105042 21.663261 17.518423
1.7693675 15.859065 17.639074
9.6866779 16.109373 17.638464
10.892593 19.171762 17.635784
9.2322912 21.400911 17.603912
4.1205368 15.77044 17.76965
1.3119829 16.216337 17.795567
3.6124654 16.535255 17.783009
1.0227458 16.824169 17.707874
11.768106 17.538954 17.758669
2.2650056 18.457996 17.774059
1.5702407 18.672863 17.752068
14.227397 19.783548 17.705189
5.6766891 15.142962 17.83717
8.0383472 15.161274 17.861012
3.2157784 15.919723 17.872292
10.51612 16.984827 17.805002
11.476205 17.592712 17.835684
1.2921897 18.109653 17.850348
4.00318 18.280842 17.859344
3.9818296 18.371239 17.86268
3.9410586 18.480503 17.831707
10.654125 18.926331 17.858931
10.726783 19.053827 17.866098
10.790751 20.445429 17.806744
9.4277649 15.711136 17.917721
2.8762679 16.011631 17.984528
10.453931 20.883556 17.945341
4.0702353 15.753502 18.027811
2.2929363 18.352343 18.014084
10.915329 20.268917 18.062553
4.8774614 21.630135 18.000669
6.3049536 15.023767 18.189413
3.0951014 16.149858 18.128191
2.6773548 17.461782 18.100674
4.2615938 17.707943 18.178257
10.800319 18.163099 18.119165
10.467697 18.876554 18.175087
13.159354 20.491627 18.120575
8.9856892 21.568485 18.154663
13.049609 17.694672 18.214407
2.2286863 19.268131 18.289143
3.925354 21.390636 18.254108
9.5022106 21.414303 18.266495
6.8734674 21.778896 18.254124
8.2847481 15.150313 18.337254
4.1756892 15.644507 18.342209
12.607277 17.291449 18.315342
4.1665874 18.430099 18.329617
3.8878994 18.792358 18.341244
1.6407837 18.840504 18.337557
3.437577 18.960907 18.331642
3.2242699 19.059603 18.366096
8.5865126 21.684225 18.32987
8.8365955 21.635754 18.35511
6.2494802 21.761703 18.303354
9.9749794 16.220821 18.480953
3.1911509 16.589916 18.401836
11.152921 18.721201 18.431717
1.8456666 18.93317 18.475336
12.802743 20.511871 18.405048
3.4451606 21.261827 18.431107
6.3469477 15.012188 18.556892
5.2204652 15.153007 18.537821
8.7048435 15.309187 18.529465
3.8323281 15.861722 18.594765
3.6361699 16.131954 18.539223
3.3788795 16.260649 18.512424
10.804349 20.421585 18.528696
12.787594 20.46348 18.533276
12.465219 17.201839 18.684896
1.2626804 17.956154 18.62018
4.3811469 18.127853 18.653738
2.3086414 18.483231 18.604643
2.0166175 19.015831 18.611462
6.3276701 15.012819 18.712591
12.686185 17.3251 18.732418
4.298686 18.563948 18.724693
10.225168 18.517773 18.712545
11.140321 19.018166 18.719578
3.0142188 20.905041 18.765911
3.2681494 21.228579 18.794436
8.6301651 21.717951 18.712149
5.7352686 15.072918 18.831684
5.8070068 15.071046 18.875147
4.0751257 15.676067 18.814552
4.3052402 17.06501 18.80184
11.340717 17.140442 18.844633
10.798347 17.460304 18.820837
1.1835567 17.784529 18.809607
13.39665 17.963631 18.897984
12.784907 20.3727 18.811308
9.9714699 21.32933 18.807602
9.8557129 15.8279 18.977343
10.265568 16.403465 18.962114
2.6214263 17.727692 18.932304
2.3374066 18.736794 18.979982
2.3824639 19.25975 18.954384
4.4390059 15.495527 19.050556
10.079024 19.019737 19.093836
13.796942 19.031063 19.042801
11.139732 19.176228 19.007874
10.486569 19.761808 19.067318
2.4690306 19.929726 19.055975
4.1888685 21.523308 19.028456
8.2521029 21.761152 19.038513
6.3305655 21.805168 19.027271
7.9119911 15.064867 19.169758
9.2833424 15.35481 19.172346
4.4340591 15.506754 19.176399
3.68419 16.044773 19.132313
4.0323534 16.378387 19.156532
4.5517735 18.216551 19.123199
9.9320679 18.837994 19.18173
10.016945 18.985996 19.170237
2.5014412 20.106077 19.134642
3.985117 21.468704 19.156738
6.8408995 15.016354 19.295197
13.525747 19.402046 19.232283
9.905139 21.385014 19.291763
8.6124439 15.244235 19.302574
4.2444048 15.603914 19.321234
3.8972273 15.780117 19.306921
3.1087682 16.769077 19.37027
4.40417 16.85104 19.30872
4.5599437 17.173674 19.370808
10.543017 17.233175 19.384068
2.8184056 17.348053 19.330349
4.6979904 17.5124 19.337568
10.068005 19.121668 19.312941
2.3111029 19.422546 19.397221
3.5286472 19.473003 19.39464
13.441238 19.427708 19.378956
9.3896284 21.547924 19.394405
5.7666426 15.121646 19.482592
7.9558392 15.14817 19.485565
4.6350074 15.405326 19.411951
10.675794 16.885883 19.484217
1.458972 17.376076 19.476328
11.104733 18.243992 19.420919
2.4347248 18.549961 19.400988
4.573103 18.628166 19.430952
11.164907 18.644119 19.411058
10.229545 18.775501 19.411837
2.5918086 19.507002 19.419041
9.3607302 15.57397 19.564915
3.3587179 16.431778 19.513428
12.966316 17.606724 19.518166
4.7932234 17.992584 19.55164
10.8113 18.256205 19.593758
10.497442 18.335737 19.594091
10.721981 18.463228 19.530125
2.5827942 19.541744 19.518675
10.44661 19.982731 19.513527
6.9668188 15.040508 19.672232
10.920537 17.545162 19.690739
10.637716 18.910557 19.605167
10.664671 19.067211 19.653896
10.922039 19.217869 19.655828
2.0221081 19.417149 19.606419
10.714179 20.156656 19.603746
12.213769 20.393692 19.628271
5.444077 21.752621 19.627104
7.6945424 15.133772 19.772617
11.565405 16.738897 19.720619
10.655894 17.845812 19.785845
4.7723188 18.380247 19.745081
11.093265 19.369125 19.727806
3.8181305 19.556128 19.77449
10.887853 19.529207 19.773199
6.5337152 15.073043 19.899645
7.0208445 15.057334 19.871889
4.1834583 15.656703 19.841831
4.2193508 15.63324 19.824896
9.4820919 15.634027 19.828747
9.792079 15.778062 19.818773
2.7345808 17.777315 19.811035
12.940357 17.776079 19.807041
1.9054978 19.437675 19.847784
3.4983151 19.733433 19.830099
2.8224444 20.438194 19.889736
9.7091141 21.447689 19.851078
5.465899 15.219858 19.949966
4.684638 15.385806 19.913467
9.9092159 15.575851 19.969168
2.735822 20.228176 19.986521
9.8822718 21.388472 19.94895
7.6740503 21.712908 19.947083
8.1547422 21.704552 19.914738
7.7514672 15.182377 20.048845
7.8832803 15.201901 20.036274
8.1456127 15.249732 20.012644
5.0320644 15.338225 20.091312
4.6306944 16.990032 20.0368
4.7783165 17.34778 20.015543
1.9485214 19.521729 20.087774
4.0415969 19.589508 20.031979
11.548588 20.58931 20.096165
5.0699883 15.341011 20.150927
2.8976991 17.269268 20.109411
4.8837309 18.630547 20.161003
3.9569101 18.943752 20.18676
2.1089954 19.642282 20.10928
3.1181095 19.941635 20.174099
10.91359 20.735584 20.166166
7.7044096 15.218824 20.202517
4.6543365 15.473155 20.281849
8.6788311 15.40937 20.247923
2.8832858 18.983891 20.247524
2.7494185 20.007048 20.251326
4.7337627 21.648394 20.230032
6.7529407 21.712442 20.279499
8.7142048 15.431688 20.341446
4.0790434 15.75075 20.32795
3.9735119 15.808311 20.392574
4.2137079 16.630568 20.394855
2.9988327 16.954676 20.338041
12.386244 17.276577 20.318327
12.425189 17.300671 20.309084
1.6472098 17.513901 20.328995
2.8350873 17.551167 20.391407
3.1207674 18.305637 20.353655
2.8097143 20.296055 20.323208
11.695729 20.490536 20.35463
10.911342 20.855164 20.359463
6.364696 21.697042 20.396133
4.3346725 15.581268 20.463129
4.7175646 17.878113 20.469519
4.5578651 18.098789 20.418251
1.4799641 18.424068 20.452644
3.2832015 19.952702 20.479952
6.9920883 15.10899 20.517094
4.8435726 15.433001 20.542583
8.1996021 15.402822 20.518482
1.9514149 19.690044 20.503918
2.9829712 19.912968 20.596113
11.970966 20.334137 20.58474
10.613989 21.177713 20.577148
3.4099462 21.246607 20.599861
6.6285644 21.671701 20.517479
7.7851553 21.630882 20.566986
8.619173 15.500343 20.612072
1.5234622 18.391947 20.692577
12.899408 19.306211 20.698507
2.7670617 20.112654 20.685015
4.0078745 16.666229 20.736473
12.72806 19.622564 20.752682
11.801428 20.416622 20.744549
11.501612 20.610653 20.716797
3.208324 16.563791 20.827925
4.5544734 16.852608 20.875502
1.6105818 18.139551 20.874243
12.996054 18.498375 20.855297
1.4962238 18.669582 20.894287
12.640692 19.747257 20.851803
7.9206648 15.10561 20.917065
6.7935801 15.234721 20.977999
4.5749192 15.51192 20.989441
3.6453102 17.401445 20.94059
1.7788029 17.594429 20.980862
11.580606 20.556652 20.922661
3.4994948 16.051035 21.023153
2.9734428 16.939106 21.095093
2.8468609 17.233669 21.008081
3.7500947 17.292624 21.035202
1.8755351 19.819683 21.097248
11.275174 20.781628 21.057796
7.1979694 15.168921 21.106861
10.760078 16.487398 21.114149
3.0391271 16.713999 21.19775
2.9608064 17.178461 21.168514
2.0103712 20.148088 21.118645
8.7150946 21.493696 21.165871
6.8958502 15.2761 21.251543
7.2799716 15.352273 21.236721
7.426671 15.397965 21.231216
5.5018063 15.60022 21.240232
3.9039249 16.885777 21.257685
2.1925962 20.343296 21.291922
2.6145048 20.454172 21.274338
7.1746244 21.49279 21.272306
6.5006533 15.146555 21.30493
6.683857 15.355904 21.326481
1.5642915 18.41127 21.35939
12.401659 19.995037 21.305317
3.7261968 21.436516 21.471407
6.468842 15.182209 21.594097
6.9247932 15.329769 21.531013
10.230274 16.214935 21.540337
12.428943 17.435987 21.529852
6.4858403 21.459579 21.538582
6.101274 15.597712 21.606379
1.677139 18.099066 21.608749
8.9256611 21.336159 21.642311
5.1039562 21.474598 21.686438
6.8666849 15.441161 21.799032
12.271044 19.844852 21.791246
6.7774692 15.490368 21.89749
4.5346079 16.049589 21.890574
3.1416616 16.898489 21.829926
12.662827 18.407259 21.814867
12.593831 19.099022 21.892771
8.8060894 21.280754 21.811209
6.5677896 15.271284 21.973961
6.8904209 15.462368 21.900574
9.9841366 15.89052 21.951626
6.1604314 16.048241 21.964045
10.182264 21.129784 21.938362
6.0635972 16.099298 22.025053
1.6125624 18.430408 22.046555
8.1608124 21.232147 22.024998
9.8175774 15.852862 22.11138
7.6328173 16.109674 22.112782
4.1735268 16.223854 22.109097
7.6069593 16.416393 22.177597
9.8924465 16.57585 22.179543
2.7596262 16.917208 22.176956
11.08829 16.924709 22.144814
11.802984 17.206545 22.143267
12.165883 18.093399 22.17535
1.5071687 19.045671 22.199963
7.6005859 15.348581 22.218868
7.5521426 16.170197 22.282953
7.1091924 15.362407 22.384045
4.6111588 15.505711 22.363329
7.7341247 16.218643 22.328285
1.5872475 19.004934 22.309826
10.600938 20.720346 22.308413
7.9842143 21.139343 22.305035
7.7774191 15.79595 22.486908
10.40163 16.979177 22.419447
2.2004495 20.20298 22.46059
7.093595 21.1283 22.435152
5.8819242 15.231844 22.521984
6.1291428 15.899467 22.573658
4.5938792 16.397499 22.53014
3.6908059 16.647434 22.545364
1.9834938 18.184954 22.519135
11.492556 20.099266 22.580624
11.301289 20.225849 22.564083
2.7348862 20.665215 22.56863
4.3508921 15.914312 22.668406
6.3375387 16.093332 22.662369
10.909766 17.380547 22.67956
2.0681784 18.317129 22.672487
6.9504652 15.485085 22.767736
8.9317741 15.533613 22.715626
9.4251308 15.936592 22.770401
4.1284266 16.726694 22.742224
11.233233 19.830875 22.798912
5.7016196 15.263868 22.871496
6.1085835 16.495985 22.821655
8.2028942 16.570702 22.86018
10.600674 17.624788 22.896566
12.018566 19.093338 22.805405
2.0376081 19.272982 22.887028
11.29726 19.740099 22.814518
3.1184173 20.789375 22.818413
8.2685852 20.721195 22.863474
4.5474219 15.950359 22.903482
8.2720661 16.356346 22.940657
6.3966613 16.505209 22.984806
8.4021006 16.915016 22.988119
9.4539967 17.095486 22.982662
11.712385 18.508541 22.942036
2.1839886 18.845364 22.918274
2.1335318 19.28174 22.938107
1.9767945 19.86742 22.995529
3.6528444 20.762192 22.966663
4.8335466 15.86276 23.058504
5.4476705 16.297461 23.034294
5.9611659 16.662819 23.006458
2.1506004 17.917257 23.004841
2.1993246 18.888842 23.049644
10.404334 19.759022 23.093765
7.7620997 15.695127 23.117416
9.1080513 17.022272 23.170321
8.4950199 17.200081 23.142687
2.1834431 18.778425 23.157703
9.6158495 20.043932 23.134583
5.452877 15.622379 23.239668
8.2034121 15.984518 23.215372
4.0397754 16.666643 23.236313
8.271678 16.802452 23.245152
9.2119837 17.178158 23.243046
2.1273551 18.478815 23.202103
9.9514637 19.607494 23.263653
9.5218868 19.951229 23.212656
7.6503205 16.444347 23.310703
8.6466541 17.494024 23.374161
2.2053256 18.844997 23.328224
8.8020687 20.107128 23.309464
3.5728076 20.434526 23.32132
4.5701375 20.478983 23.332691
8.4468632 15.877151 23.409679
6.5004187 16.599974 23.45603
8.7660961 17.022278 23.467249
4.9938002 17.178879 23.480103
8.8484859 17.576689 23.490192
9.4577522 17.673931 23.497351
10.003923 18.050777 23.478218
10.252026 18.268681 23.410351
2.9979634 20.007322 23.495712
8.2590752 19.80864 23.587814
4.0862446 17.087564 23.633881
9.4358072 17.930758 23.675556
10.120817 18.677114 23.620438
9.5166483 19.247101 23.648281
7.5231047 16.130367 23.790028
6.5851851 16.485266 23.709349
8.7946539 17.275309 23.700157
2.9389296 19.292116 23.709042
8.1481991 19.62549 23.746189
7.263598 15.097054 23.896381
4.5539522 16.923174 23.895441
3.5043271 18.707405 23.88765
4.0233278 19.486414 23.848541
8.0818739 19.485756 23.863852
7.3257875 15.915026 23.924376
8.3666134 16.335815 23.927835
4.5532961 16.978195 23.936022
5.4155302 19.548735 23.985657
6.5138121 15.562046 24.08087
4.7972393 18.015688 24.068445
3.9952321 18.923203 24.091373
6.0404062 19.422264 24.087885
7.449533 19.431879 24.070997
6.5227346 15.805268 24.121292
6.107759 16.164881 24.15456
6.0269599 16.22443 24.142199
5.7241993 18.039944 24.152727
7.5369482 15.003289 24.230314
8.2490845 15.861571 24.299856
6.3924122 16.255627 24.237923
8.9357414 16.767944 24.212614
8.7673903 17.886787 24.200722
4.6617684 18.646324 24.212839
7.2120428 19.724363 24.214584
8.285471 15.851044 24.320246
8.2470999 16.45973 24.357203
5.7205896 16.988281 24.357098
8.6902542 17.378395 24.336765
8.6443253 18.032024 24.375977
5.9340448 18.179489 24.38707
5.7153282 18.987179 24.359116
6.6293316 19.234871 24.311069
6.1589317 16.04845 24.460024
5.2978306 16.391365 24.44035
5.0016298 17.166239 24.442009
8.5263815 18.557629 24.413883
9.1776457 18.845644 24.446772
5.9942179 19.043221 24.425657
7.7646933 19.169731 24.418026
6.9536791 14.902492 24.573362
6.8315349 15.047057 24.564825
4.7651987 16.549665 24.561646
5.0772719 16.500248 24.536381
8.2750607 16.667387 24.510798
6.2074685 16.993887 24.591467
4.7367344 17.749357 24.551861
7.3142071 14.937506 24.672987
8.0444145 15.205786 24.640081
6.3489323 18.206957 24.674728
6.065392 18.396967 24.698351
6.0067401 18.554077 24.625946
7.7288184 18.668131 24.608906
8.4581757 15.596482 24.702259
8.4435768 18.13949 24.767078
8.1305199 18.521646 24.779667
6.6307645 15.119865 24.836544
6.0502572 15.569503 24.831539
5.8320627 16.273037 24.808222
6.2586164 18.332298 24.850687
7.7577038 18.488991 24.800226
8.4336061 19.047981 24.885921
6.3393536 19.204721 24.88238
5.302567 17.784506 24.932806
5.1201439 18.300205 24.9625
5.5175357 16.295784 25.092451
5.2791262 16.592913 25.000237
5.1752863 18.286194 25.003372
5.5638075 18.662443 25.057262
6.3962002 18.836802 25.054108
7.9695406 19.769096 25.097647
4.5083232 27.477484 25.055269
4.2691569 28.189461 25.047918
5.5335412 17.987175 25.118946
4.8045912 25.616772 25.137978
7.4117975 14.377666 25.293644
6.3394957 15.118526 25.231937
8.6925468 15.662695 25.217655
5.908577 18.484547 25.290188
7.5731144 18.432903 25.204382
8.9362183 18.803785 25.268044
3.9162931 19.258749 25.290091
7.2128572 19.682125 25.226822
3.8460691 20.162313 25.231041
4.258101 28.303141 25.247229
8.7064762 16.098074 25.386116
8.5526056 16.750404 25.340927
5.6032476 18.163343 25.382126
5.9981618 18.399807 25.380047
9.2827902 18.370499 25.337349
7.6952319 19.566231 25.331495
4.3538942 22.256504 25.347185
4.7233915 23.385679 25.395306
5.7029328 16.334993 25.461107
5.9579325 16.774834 25.414328
6.041543 17.0837 25.484428
6.6888056 18.267382 25.479776
6.6521697 19.392467 25.405823
4.4706473 22.268372 25.415926
6.9142952 14.784206 25.531761
5.9334898 16.993086 25.581259
8.8225918 17.982719 25.53624
4.2074385 19.112843 25.523495
5.8594246 15.314098 25.619835
5.5237961 16.135855 25.68959
5.4021444 24.798073 25.667904
5.1163368 26.065886 25.605112
4.8672862 27.00008 25.62874
8.8659973 16.699646 25.70285
5.8253121 16.993471 25.768148
5.7992268 17.734684 25.740261
4.9028921 22.194979 25.788712
6.8316159 14.376271 25.839401
5.6004963 16.764053 25.843981
5.8081622 16.996881 25.805655
7.0351534 18.251242 25.818611
7.091898 14.352011 25.946774
6.367794 14.896329 25.923151
6.4432497 14.866484 25.964308
8.749795 15.414113 25.982729
5.7700901 16.177883 25.906515
4.672822 18.18819 25.91474
7.6459551 18.204102 25.906532
4.9286857 21.698544 25.989145
5.0434341 22.140903 25.95126
7.0225191 14.669996 26.081636
8.7748013 15.46504 26.034611
9.1299124 16.844799 26.046804
8.3620672 17.711588 26.048124
4.5575433 28.097351 26.040192
5.2733202 16.726913 26.102863
9.1291313 16.763645 26.137707
6.2396088 17.883154 26.147793
7.7075729 14.813532 26.271885
8.7585096 16.485382 26.230419
5.5188971 26.362663 26.278162
7.3159919 14.314816 26.357882
6.1354308 14.984956 26.337797
5.3162532 16.175205 26.397108
5.2509384 22.284386 26.385853
8.90839 15.760353 26.434406
5.2537856 22.184067 26.451365
5.7779522 24.339458 26.45969
4.8423853 27.90027 26.423
5.889204 15.196336 26.549978
8.8053398 18.00334 26.550426
5.9708748 18.331242 26.549484
5.4902339 27.012234 26.58349
5.332932 16.375345 26.637083
4.8883677 18.248596 26.63953
4.9085584 20.119781 26.621407
5.0099583 21.074356 26.640463
5.9448881 25.610989 26.638447
6.2028913 14.765211 26.784868
7.9978065 14.312653 26.842041
5.6546488 27.346701 26.890484
8.7308264 18.109917 26.902555
6.5614104 14.61417 27.018143
5.7222471 15.448302 27.026649
8.8077488 15.552337 27.05312
6.1471872 26.542133 27.127243
9.0076914 17.177498 27.360056
8.9212027 17.694527 27.356949
8.0701809 14.684875 27.412058
8.5714073 15.247932 27.492491
8.4213362 18.524599 27.445387
5.8515029 15.549686 27.5798
9.0182543 16.596851 27.555023
8.0258942 14.685587 27.623173
7.274375 18.801306 27.629099
7.5126839 18.811237 27.625566
5.665453 15.591277 27.707932
5.581697 15.909933 27.71324
