# .PCD v0.7 - Point Cloud Data file format
VERSION 0.7
FIELDS x y z
SIZE 4 4 4
TYPE F F F
COUNT 1 1 1
WIDTH 1553
HEIGHT 1
VIEWPOINT 0 0 0 1 0 0 0
POINTS 1553
DATA ascii
-2.1322474 6.5621958 11.0456
-2.802696 4.8136892 11.145998
-2.5969725 5.0518885 11.184381
-2.1110187 6.4868259 11.187288
-5.2710586 7.2067566 11.143219
2.9836986 0.25033298 11.287411
5.3204069 2.9154768 11.291555
-2.0656536 6.2703905 11.28719
3.6717312 -0.41556638 11.453716
3.0772843 3.8069978 11.577555
-5.0981102 7.4947305 11.515881
-2.3953695 8.0644407 11.542282
-4.1613894 8.8804264 11.512013
4.1075034 -0.33577979 11.678714
-3.4829767 8.6881714 11.652101
4.2278228 -0.31434673 11.748802
2.3819332 1.3183928 11.745877
5.728528 2.0631523 11.723843
4.7073517 3.9551201 11.746107
-3.8757062 4.3778343 11.768366
-2.2614477 7.4426255 11.728386
3.3874712 -0.36502993 11.832765
5.0164986 3.5715885 11.821374
2.6281857 3.0518439 11.967361
4.1035566 3.9562206 11.99935
4.212266 3.968642 11.995389
-1.9828105 6.0010448 11.930888
-1.8252456 1.2743306 12.011612
2.6501739 3.2065518 12.023069
-4.6859055 4.4847212 12.0512
-5.0400796 7.4907427 12.070361
5.9932098 1.3884705 12.107432
-3.2860665 1.7476673 12.25188
-4.5389094 2.7311804 12.242957
4.6747932 4.0344586 12.261157
5.029386 3.5755548 12.313031
2.4832256 0.82381839 12.40567
-3.1861105 8.4340858 12.444799
-5.7820992 3.4367881 12.516551
3.0711179 3.8622773 12.560488
4.0487041 3.9748569 12.544062
-6.4656739 4.6837025 12.555914
-5.0113907 7.4372592 12.564339
-2.0083091 1.393379 12.662888
-1.8952707 5.5715032 12.634034
-4.9704618 7.5058155 12.650801
-3.7730818 2.1907773 12.753839
-1.8786244 5.6706147 12.77086
-1.921186 5.8968 12.761859
-3.5257657 8.4492455 12.723656
5.6563168 -1.6286286 12.876929
-0.63754886 0.1493497 12.823131
2.5258541 3.0238526 12.89216
-5.6699243 5.1735063 12.835632
3.2696707 -2.8452694 12.9059
-1.1080179 0.48616838 12.949594
5.8993239 4.0211277 12.972711
1.9844356 -2.382071 13.059079
0.61780298 -1.2551329 13.003951
6.0642409 -1.1705717 13.017252
5.8512578 4.073369 13.081604
4.514473 4.8816738 13.050448
4.5570664 -2.3014128 13.123839
4.3800392 -0.38780877 13.180393
6.0669503 0.72161025 13.174653
7.1529589 1.1443969 13.167116
6.8287954 2.5392361 13.143534
4.2216482 4.0213614 13.120588
5.384697 4.5039091 13.17673
3.8687143 5.1794648 13.166736
3.5020618 -2.8109016 13.286696
-0.21338435 -0.12427625 13.224928
6.1170325 1.1690118 13.21896
-4.5426025 2.1774395 13.20554
5.3026366 -1.7078898 13.390802
0.8349303 -1.5266016 13.39725
6.4796143 -0.75314903 13.343518
-0.62470055 -0.081841908 13.304355
7.3961363 0.80923617 13.37833
7.1881084 1.6890067 13.350761
-5.8212843 8.1360312 13.344339
-3.4946594 1.9081528 13.428435
3.8499384 4.9649363 13.481265
-5.7913685 5.148304 13.422883
1.894405 6.2980595 13.455116
1.6604342 6.5951004 13.466109
-6.3051047 7.3488607 13.472343
-3.6980455 8.3191519 13.458048
3.6981487 -2.779624 13.549316
5.6009946 2.4072433 13.565243
-6.3582392 6.9027534 13.552391
-5.0370436 7.1453261 13.572781
-0.16679212 -0.79562497 13.627455
-4.1620507 8.3791056 13.670111
-4.0852146 8.3628044 13.662418
-0.33970743 -0.15694 13.727714
-2.3040447 1.5860486 13.746004
-3.661222 2.0285535 13.781836
5.779263 2.0343492 13.738935
5.81845 4.1593866 13.788593
-6.6939554 6.1550026 13.778147
-0.13417593 -0.31946406 13.874104
-2.3031871 1.5864344 13.826632
-5.5030522 2.6462317 13.873192
0.75634408 7.3906727 13.892515
-2.431226 7.9313741 13.843453
6.8562207 -0.23418611 13.99263
7.2627444 1.4815493 13.954903
-2.5819736 1.6912742 13.952481
6.9092641 3.0797696 13.924559
6.050621 3.5095894 13.950883
5.768959 3.7564466 13.978134
4.8749375 3.9662628 13.987255
4.3309278 4.6855011 13.929686
3.7462943 5.2717228 13.944873
-1.8014822 5.568203 13.913964
-4.345118 8.3552036 13.958431
-3.7964165 9.3343058 13.90662
-2.7452037 9.7116613 13.999846
0.99944025 -1.8952434 14.071708
4.7370019 -1.8979824 14.059427
-1.6770157 0.82224953 14.06402
4.9011841 4.9030848 14.099968
-6.9137793 5.2122025 14.058
-4.0068722 9.1769543 14.045605
0.20479125 -1.124488 14.171439
6.6874194 1.3916192 14.164707
-5.0581822 3.6804543 14.189093
5.2584014 4.1478209 14.123366
2.5005834 6.0537844 14.192543
-6.2757154 6.3341818 14.177334
-0.71211207 9.1091719 14.102335
-2.6706161 9.689189 14.11566
-4.5810022 3.3404863 14.220203
-6.9552469 5.0207109 14.288993
0.88709426 7.1872191 14.23408
-0.38704973 8.7262459 14.241348
4.6513562 -2.4122713 14.378913
3.0613396 -0.23210058 14.384853
-1.5757704 0.34318686 14.337212
-3.748704 2.4101849 14.37919
5.4838181 2.6869667 14.331191
6.8828721 3.2359333 14.310137
-5.0183392 3.7284262 14.39907
3.5259242 3.9963598 14.333455
-5.1957297 8.5304136 14.359874
-4.3757706 9.1260138 14.385493
-0.56776863 -0.66492879 14.45339
7.0027723 -0.053280383 14.438799
-4.8281469 1.9787362 14.445513
3.7963061 4.8057823 14.475691
-6.3892474 7.4025583 14.439909
-3.3607917 9.1353607 14.489809
6.3877316 -1.029932 14.566668
-0.040047407 -0.95139468 14.570072
4.4519544 -0.47623032 14.57395
6.2684669 1.0233082 14.535337
-5.3342166 2.2981946 14.574123
-1.9156908 2.9626825 14.573495
-4.5455399 9.0224886 14.596724
4.9358926 -2.2302771 14.622657
-0.15157542 -0.53759503 14.650415
6.3087769 0.53049034 14.631878
-2.4081154 3.2234249 14.619585
4.9305611 4.2595129 14.613708
4.7232909 5.0031295 14.658566
2.1310396 6.3536496 14.682933
-1.9901855 6.7945461 14.692966
-5.2764134 8.4025278 14.64283
-0.39660525 8.6637096 14.658112
3.5418754 -2.2519045 14.778985
2.9083004 -0.065352052 14.724613
-4.9714584 1.991714 14.720642
6.4359131 2.0424113 14.7975
-5.2120214 4.0175514 14.723808
-6.0606346 4.8963437 14.778032
-5.138638 8.5118074 14.746009
5.7164049 0.088988826 14.895496
-0.19367714 0.93992239 14.820748
5.7838922 2.0679524 14.84384
-5.7695808 4.6087055 14.811772
-5.8028297 7.1170282 14.835335
6.6404762 -0.68069869 14.993538
6.4797058 0.89736128 14.964936
4.3864427 4.1258101 14.980455
-5.750566 5.2689986 14.972935
-6.1613526 7.5277491 14.909225
4.18751 -2.7361507 15.095373
1.2307837 -2.1112621 15.09715
5.18892 -0.40499139 15.023749
-4.2421746 1.3595549 15.064984
2.1976538 2.4193509 15.035175
6.8302231 3.3403938 15.022854
5.0409422 3.6597552 15.079318
-1.0844101 4.6525474 15.085487
6.2321672 -1.3321874 15.107095
4.2728734 -0.56066334 15.171053
1.0178839 1.6601194 15.14233
0.47317588 2.1883955 15.107235
4.3961954 4.2146063 15.181679
3.2420006 5.5889082 15.111839
-2.3739371 9.440383 15.199993
5.0279827 -2.2043629 15.266888
0.98022425 -1.9914234 15.259996
2.4052763 -0.97148752 15.21372
2.677089 -0.073382378 15.297908
1.8837011 1.5456289 15.261409
-4.724514 1.641319 15.257233
6.3428383 1.6969042 15.26259
1.4528573 1.8185229 15.237135
2.0895951 2.1544106 15.240513
1.0604583 2.2537677 15.21829
-6.6146431 3.7914255 15.206073
-0.48907584 5.0422888 15.252042
-5.2240715 6.3520322 15.226524
-5.6452732 7.9405918 15.276878
4.5037899 -0.87062263 15.319574
4.9165359 -0.53991437 15.303533
1.1718327 3.0659866 15.333168
6.1422625 3.9870436 15.311426
1.6334009 4.3816533 15.305071
1.1194054 4.7227249 15.366739
0.93372643 5.0825453 15.390224
2.1504483 5.6576743 15.351249
1.3220887 5.3516598 15.407347
-1.4745405 6.4347591 15.456773
-4.0947924 8.2382011 15.463902
5.1701803 -2.1218212 15.538271
-6.0111189 2.6483092 15.582467
2.003943 6.4613886 15.515421
-5.0513353 7.3438087 15.520028
4.2467875 -2.7469604 15.696636
-0.83121282 6.9018121 15.604424
-3.8327494 8.2191133 15.659433
-3.7343504 8.2397671 15.689741
4.4246111 5.178977 15.780055
-5.1392007 8.3095875 15.748161
0.89741176 -1.9404986 15.879234
1.6121873 6.7434216 15.826514
-1.8490884 8.3671608 15.892216
-2.5057538 8.5426874 15.827999
-1.3545859 8.6481276 15.813421
2.5919714 -2.8031068 16.011967
-1.7845399 -0.048494775 16.059193
7.3127179 1.6545024 16.072407
4.9311533 4.9724832 16.01679
4.8759031 -2.3535104 16.108673
-4.3539395 1.0816216 16.167124
5.7501144 4.3988848 16.209625
3.4007392 5.5643063 16.227892
0.062364861 7.8012085 16.281973
-4.5125341 1.1332412 16.356749
-5.4608612 1.8044994 16.373465
-6.7291079 3.5236106 16.361151
-5.0581369 8.2546291 16.335844
1.9540087 -2.4545727 16.449863
4.8421621 -2.3952293 16.455326
-6.2915583 2.7991343 16.412886
-5.2873101 8.0416183 16.410442
-5.0158482 8.2650776 16.458078
-3.7759523 8.8150463 16.411657
-6.4523716 6.9455948 16.579517
-4.9256601 1.3422787 16.620926
6.0274525 4.1867867 16.636902
3.1380014 -2.9705646 16.702942
1.6171917 -2.3889713 16.700993
6.3374248 -1.3731561 16.999792
6.5476065 -1.0351088 16.916624
7.1751161 2.7271426 16.90667
5.0121565 4.9785867 16.966845
-0.0024199784 -1.292454 17.086916
6.6180568 -0.94166195 17.071476
6.671288 -0.85075462 17.001732
-2.3054647 -0.036694214 17.026253
5.1853905 -2.204546 17.239109
-0.18463698 -1.2251456 17.232769
5.391077 4.7836461 17.298542
4.9646187 5.0122976 17.278759
2.4100966 6.2902808 17.208628
-3.0207915 8.8479519 17.255964
7.2840071 0.042156994 17.333252
4.1037555 -2.84602 17.46858
7.537816 0.94967437 17.459734
-3.1831617 0.093846358 17.565952
5.2209735 4.914238 17.54882
-5.8292856 7.3264117 17.583347
7.0455084 3.3504696 17.601406
-6.0418539 1.8855675 17.714516
1.3776755 -2.4483218 17.870176
7.4695477 1.319352 17.895386
7.1728954 3.1579242 17.812557
7.6205673 0.68536997 17.941202
-3.6174443 8.4830494 17.958118
-1.5339139 8.5893555 17.933725
1.9245225 -2.620554 18.076662
6.336237 -1.4637771 18.083799
3.609252 -2.9393725 18.192558
4.7161498 -2.5734806 18.163881
1.2342453 -2.4394124 18.154924
6.3298073 -1.4717914 18.144361
-0.61263084 -1.225647 18.135807
-2.6038735 -0.23801437 18.126196
-3.0722296 -0.12155544 18.189127
-4.1307087 0.28938615 18.117498
1.4862273 6.968564 18.107573
-6.7797651 2.8828964 18.206705
-1.542758 8.4788609 18.272753
-5.2009377 0.96776164 18.406963
-6.2452021 6.7798252 18.472755
7.3298645 2.5156879 18.629028
-0.20246348 7.6488619 18.620977
-4.6196232 8.018302 18.607002
7.6285882 0.39271611 18.784939
7.6503773 0.72807527 18.872213
-0.10131529 7.5802245 18.890341
5.5209484 -2.0684311 18.933172
-5.2137284 7.5713835 18.924814
-0.69907725 7.8067446 18.940559
1.8723292 6.678421 19.02866
0.2421618 -1.9519666 19.108095
-3.3588336 -0.2713871 19.164402
4.4520483 5.3119831 19.154613
-1.3984821 8.1554842 19.189219
-0.12009037 -1.7446309 19.287445
-5.5885792 7.17451 19.27519
0.1387296 -1.9009435 19.353813
-0.066865146 -1.7749186 19.300428
3.7734709 5.6120281 19.307636
2.4315228 6.361146 19.306229
0.88115603 7.1409874 19.364967
0.39183113 7.3371496 19.350672
-0.94992179 7.8616815 19.329439
7.1598115 -0.39577457 19.479303
-1.8897755 8.1287622 19.488968
-4.4179759 7.8373709 19.597692
4.6951351 -2.6614673 19.672932
-2.4528077 -0.62618089 19.605364
3.4465179 5.7833686 19.693268
0.99884409 7.0610938 19.678761
5.857234 -1.8681008 19.775183
-7.1426659 4.0525489 19.783163
-6.9416151 5.2467909 19.765892
1.253827 6.9524336 19.779802
-2.1215448 -0.82248014 19.995182
-6.0391464 6.6662092 19.952583
-6.3008509 1.5902276 20.084641
6.2276554 -1.6141107 20.176083
6.9933195 -0.70128977 20.331972
-6.1648197 1.3775493 20.340813
7.3295221 3.0982833 20.32592
0.050462976 7.2727509 20.366116
-3.0303059 8.0337162 20.388924
6.8528514 -0.89675337 20.499706
-6.4860711 6.2163677 20.422638
4.7918062 -2.5862691 20.538755
-4.2666917 -0.045024246 20.507721
6.0258765 -1.7493099 20.653206
6.2918425 -1.5678142 20.772421
-0.99949938 7.5797844 20.74161
-1.8044268 7.7458315 20.76783
2.1434102 -2.8544683 20.873632
6.5453129 4.0702319 20.809381
-7.1211348 4.1946888 20.858139
-3.6861749 7.8036699 20.884476
4.988409 5.2586374 20.940884
-0.45129168 7.3748627 20.973969
-1.1006097 -1.3714569 21.018982
7.6079345 1.5984707 21.011257
-7.2009254 3.788692 21.05582
6.8018265 -0.92610025 21.129181
7.2754507 3.5006337 21.261997
2.6635871 -2.942997 21.457085
7.0132732 -0.59833223 21.407383
-6.9119773 5.3782501 21.455828
-3.8016896 7.7322793 21.475634
-1.7776848 -0.99880177 21.587139
-2.1536834 -0.80078936 21.630127
-4.1243114 -0.16797557 21.604548
-5.5037146 6.989727 21.694166
-1.1839598 7.6155596 21.648554
7.5669708 2.0300837 21.713621
-6.7615499 5.9490728 21.757105
-3.8845699 -0.31624293 21.808142
-4.5992422 0.15188026 21.868973
-5.5169401 0.75303358 21.948212
-0.88856858 -1.4348146 22.053326
6.7366972 -0.88291788 22.086582
7.1093655 3.7939141 22.033325
-2.1924236 -0.75211531 22.165213
-6.8669963 2.4594195 22.270958
7.2821817 3.6412385 22.270477
1.3184029 7.0014343 22.285669
0.11390629 7.4786124 22.289961
2.0432954 -2.7517207 22.388762
-3.147825 7.9197974 22.38571
6.6069083 -0.99715298 22.444853
-0.8081252 -1.4479164 22.525776
4.0838971 5.8712969 22.510838
-6.1083093 1.3330722 22.694813
-6.4873056 6.2077665 22.639
-3.8186765 -0.31892782 22.755121
4.5780749 5.7233915 22.726303
4.8532834 -2.2141776 22.897253
4.7007146 5.6920695 22.800455
-3.3617783 7.9466658 22.933064
3.3184657 6.2933187 23.070469
5.4095855 -1.7798567 23.157995
7.5137115 2.7342806 23.129618
-7.3173442 3.3923538 23.177671
4.6557431 5.7922316 23.194277
2.9868212 -2.6848845 23.25248
6.1930585 -1.2081298 23.362898
-4.4881926 0.13837717 23.372824
-6.0163484 1.2431825 23.389191
7.2391052 3.933794 23.328089
3.2660129 6.3648014 23.309855
0.35757855 -2.0238361 23.464941
-3.6783884 -0.32974923 23.493132
-4.7818708 0.33173764 23.423264
-5.5781198 0.8819716 23.402243
7.5305185 2.7396767 23.482929
7.3834548 3.38392 23.485146
7.6383009 2.1363702 23.506191
4.8594017 5.800601 23.545452
6.8579245 -0.31355494 23.69824
-6.9887748 5.0956736 23.68074
6.0006309 5.0696197 23.624332
-1.6400824 8.0820589 23.643387
1.1439018 -2.4313152 23.78941
4.7796049 -2.0510485 23.819277
0.77185076 7.5719252 23.80744
-7.1276369 4.4942536 23.985474
-5.5888891 7.0144529 23.989349
-4.3673491 7.8065071 23.939993
-0.61759543 -1.4498348 24.12022
6.7886057 -0.29873762 24.20858
6.0789413 5.1324368 24.260258
2.6670995 -2.5083003 24.301353
0.4650802 -2.0064487 24.3577
7.7176723 1.9346328 24.375925
-1.2051196 8.1796761 24.352802
-6.6533885 2.2933905 24.43185
4.9500322 5.9685798 24.460709
4.2238636 6.2324591 24.565777
-4.9604077 7.6071682 24.575155
-1.5403749 -0.94863737 24.614849
0.026718095 7.979003 24.649471
6.4935966 -0.61806911 24.771877
6.4447708 4.9083896 24.768097
1.4100649 7.5328226 24.718472
-3.1678984 8.2125683 24.729065
6.4841814 -0.61136162 24.860943
4.0747938 6.3589897 24.921705
3.4685774 -2.240571 25.062027
-7.2708216 3.8435302 25.068243
7.2531009 4.1908708 25.069382
7.1802087 4.3227296 25.066742
5.2193642 6.0092192 25.061768
-6.8617983 5.6287842 25.166271
-1.9943056 8.3390722 25.271778
1.0881511 -2.2671287 25.34095
-4.1812057 0.034567222 25.387833
-6.2019262 1.6717149 25.375271
-0.13781776 8.198945 25.483286
0.071060419 8.1366367 25.41864
-1.3993417 8.3792496 25.432066
1.8686719 -2.2807255 25.504826
2.4069624 -2.260056 25.570963
7.3596849 3.7996316 25.550966
7.3809729 0.98038042 25.640137
2.0934501 7.4647593 25.697329
7.6894598 1.5003607 25.782049
6.5190387 5.0451732 25.738655
-0.43989003 8.3208971 25.703037
7.8230691 1.760432 25.860161
4.8478365 6.3246961 25.835165
-5.065794 7.5899448 25.867142
0.042630434 -1.6592827 25.924822
6.7651024 0.079556108 25.913481
7.3060141 4.0869374 25.905876
6.6229668 -0.10232717 26.082062
-6.9203305 2.8214486 26.090502
5.8171129 5.749712 26.055769
-5.6189628 7.1143546 26.133434
4.9405909 -1.3538213 26.39362
-0.85021251 -1.1621113 26.385365
-3.4423685 -0.31136417 26.397449
7.2109528 0.88305843 26.329391
-7.1378775 4.4174824 26.312576
-6.3953533 6.4407549 26.408594
-3.2454736 8.351716 26.40708
-2.0874805 8.5904064 26.412262
2.8465102 -2.0304739 26.515451
-4.9662337 7.7186255 26.520414
-4.3426032 8.0044575 26.550701
7.730135 2.333919 26.62314
6.3130617 5.4345102 26.662874
-5.4882112 7.2607737 26.674599
-0.37754321 -1.3432957 26.762089
-7.1481376 3.2041032 26.715269
1.2611346 -2.0340068 26.869505
4.8810201 -1.2954578 26.850147
7.611948 2.8602405 26.805481
2.9158602 7.4181619 26.948851
7.6154776 2.8632724 27.031492
-1.6525438 -0.73582137 27.126217
-1.8803874 8.8039885 27.234541
-2.8411953 -0.42201093 27.372679
-0.67196631 8.7805729 27.323078
5.6909847 -0.62830085 27.452185
-2.4302113 -0.50816262 27.430439
-5.8815293 1.2682256 27.413216
7.7298617 2.3993025 27.41547
0.93335581 8.4897051 27.448977
-2.4703531 8.7342176 27.472809
-7.0052514 3.036881 27.580214
7.4206295 3.7490604 27.55521
5.0465651 6.7317209 27.503292
-3.6606996 8.3196487 27.517263
3.2146134 7.4590802 27.604347
2.7127867 -1.8055949 27.720009
6.6840081 0.35510957 27.795162
5.0458164 6.7984204 27.741516
5.5579939 6.4491739 27.939739
-4.2219443 8.1749611 27.913887
6.2975321 -0.14757954 28.071354
-2.7470787 8.677907 28.03323
4.2979832 7.2113509 28.137951
-4.8521585 7.9380026 28.144831
6.5280023 5.6270113 28.404926
-5.5017619 7.3537192 28.411236
3.0603139 7.7958241 28.462578
2.1072769 8.2869663 28.450451
-0.35669535 9.0199165 28.429514
4.3230953 -1.3056843 28.53767
-4.7486424 8.0631847 28.561419
1.3478489 -1.7256911 28.602646
7.2854462 1.5191379 28.633226
7.6150236 2.0842445 28.657986
-6.4883089 2.2764573 28.621708
-6.1379037 6.7978048 28.698853
5.1073675 7.0263147 28.648466
7.1654291 1.3349644 28.709007
-7.0730324 3.2361341 28.780693
5.905755 6.2981181 28.714659
-5.5554609 7.3273029 28.746424
3.6187425 -1.4008543 28.987595
5.6603642 -0.37823805 28.964333
-1.5476224 9.2400265 29.05731
-4.5910478 0.41706347 29.131319
-4.6066628 8.173315 29.133841
-6.0309482 6.9233265 29.243956
-0.41464964 9.2681503 29.284004
-5.4035163 0.99513197 29.480408
6.8240757 0.94882369 29.464806
6.8199072 0.96206039 29.544476
-7.2054629 3.8129146 29.56411
2.7482774 -1.400102 29.669226
7.541429 3.409687 29.668211
6.5896173 0.62383807 29.74942
-5.2030292 0.89767218 29.729057
6.5780077 5.8922234 29.757671
-4.9825144 7.9317498 29.786783
7.1272154 5.4089713 29.87051
-0.050304279 -1.0851712 29.927797
-5.317749 1.0000961 29.93247
-2.4320381 8.9803095 29.982529
-0.40109822 -0.97834295 30.044737
2.2607548 8.7538681 30.092129
-5.4505854 7.5229292 30.15312
-5.1499681 7.8040624 30.18359
-0.044420965 9.4685812 30.11969
5.2278833 -0.38470036 30.206575
6.0917773 0.14959674 30.275221
3.5992224 -1.0856769 30.39547
5.4914594 -0.17354262 30.390999
3.6778407 8.1205378 30.347284
1.7224844 9.1659689 30.366776
-1.4947813 9.4460106 30.409599
3.9603567 -1.0048895 30.514198
1.9622159 -1.2812252 30.691307
2.3542366 -1.239789 30.600872
1.4529339 -1.2998182 30.786173
2.5836608 8.8939247 30.710354
-0.12308624 -0.94046658 30.862261
-6.6529598 2.7288895 30.892921
2.4607511 9.0239277 30.822819
0.75772601 9.4976339 30.825869
-1.6251843 9.5264082 30.815382
-2.387507 -0.26118326 30.97776
-2.8619323 -0.16966785 31.014256
3.4961653 8.5798407 31.054535
-0.17422302 -0.89640296 31.167835
4.7490268 -0.38519666 31.172523
-4.5995598 0.68005353 31.191391
-6.8464813 3.0623851 31.140375
7.5804648 3.3614874 31.140278
-0.77447462 9.8455982 31.196825
1.8966438 -1.1700439 31.257635
3.4851694 -0.88263392 31.298182
-4.7096639 0.73728585 31.22311
-6.1209078 1.9165883 31.298206
-5.5174646 1.1537244 31.338249
5.6297565 7.2913427 31.385023
-1.1800869 9.8486977 31.435978
-2.0887516 -0.26420149 31.542654
7.1209836 2.0197859 31.589207
-2.7088711 9.2699146 31.510963
6.5654039 6.4287729 31.689144
0.76137435 -1.0733964 31.702194
-6.690403 5.9803553 31.762089
-3.3824701 -0.0020981417 31.877556
7.4469194 3.8993359 31.882874
5.8976698 0.3940655 31.901531
-0.10339382 9.9988832 31.981529
-5.5034003 1.169878 32.132084
4.8471284 -0.043822378 32.205021
6.2792654 6.8757858 32.223087
-1.1878351 10.050876 32.221622
-0.76881993 -0.60673189 32.373867
-4.7429428 0.78712249 32.339142
-4.9529858 0.89846003 32.472992
-3.8627219 9.1346912 32.457222
-4.6983657 0.76926029 32.506828
5.329423 8.2965355 32.580513
-6.4174309 2.5788112 32.633415
7.2307858 5.0057626 32.740891
5.1024976 8.7016668 32.781384
-2.718262 9.6757784 32.751038
-1.5875198 9.9877424 32.751488
-3.1246004 9.5323792 32.868263
7.3354263 4.2861357 32.961426
-4.0684338 9.190773 32.910065
-3.8330119 9.2786007 32.931339
0.51734686 -0.82019424 33.08511
0.70668268 -0.85487288 33.082787
7.2033682 5.3195739 33.012192
6.4060602 7.0818014 33.02964
5.6174464 0.52059239 33.168228
-6.3851948 2.6094999 33.114838
-6.2117381 7.1248226 33.202095
-0.54817778 -0.58920157 33.366295
7.3659849 4.0918169 33.316528
5.6474481 8.0886221 33.315689
-6.6340027 3.0991626 33.448921
7.4701338 3.5821319 33.402294
3.5711064 9.3969154 33.40646
-3.9140999 0.50595999 33.587753
6.5934095 1.7417912 33.566566
-6.9619298 4.032135 33.592545
7.2790184 4.8006492 33.540138
7.237462 5.1669054 33.548901
5.4757977 8.2666216 33.552223
-4.0605812 9.2139606 33.583385
2.3448577 -0.49472123 33.677967
7.2805977 4.8091965 33.622467
-4.1362009 9.1694479 33.642712
5.4969816 8.2344856 33.778183
0.95816427 -0.73751372 33.88588
-5.3720007 1.2560474 33.881199
6.999691 6.5908623 33.848381
5.7699013 7.9317002 33.89814
-2.2546773 9.8100491 33.846779
3.1312833 -0.33383548 33.943665
-1.5110486 -0.25602821 33.940926
6.3730893 7.2701764 33.970791
-3.6758456 9.3633347 33.981289
-2.267168 9.8114109 33.943054
0.19934691 10.128654 33.907356
1.3337383 -0.64771795 34.015278
-5.503458 1.341385 34.038658
5.8718567 7.8135519 34.06929
2.0250392 9.852951 34.044735
1.7660124 -0.53664613 34.117752
5.3222618 0.66597646 34.1973
-6.6620388 6.2682128 34.129299
-1.4744706 -0.25366569 34.228222
6.8172793 2.4112222 34.273758
-6.3108611 7.0888414 34.20364
-0.10868151 -0.60289401 34.322536
-0.69805259 -0.45749736 34.388702
4.499568 0.32574552 34.30777
-6.7634497 3.5069847 34.347004
-6.5871086 6.7806344 34.301311
4.4974794 8.9712992 34.311813
-2.2073445 9.8384228 34.338886
-2.0632851 9.8677168 34.378471
-2.8772657 9.6666889 34.556606
2.0988584 9.8846378 34.528721
-0.64602715 10.192103 34.535007
-6.1452384 7.1852942 34.625786
3.0763791 9.6851501 34.608723
0.24965222 10.162552 34.670254
-0.37172151 -0.48974496 34.86433
-4.3590403 0.94113886 34.801754
6.1967964 1.5775175 34.894215
7.1254282 5.2038183 35.031029
-4.3450241 0.98754442 35.130608
4.7292485 0.7486167 35.268097
5.5695791 7.9988608 35.278801
5.6621814 7.914712 35.259506
4.4534545 8.905777 35.251118
-1.3963175 -0.20518874 35.316818
4.2391925 9.031517 35.353638
-3.4274976 9.3014698 35.462276
-0.56192744 10.170597 35.403915
-2.3484757 0.14628512 35.571465
-4.8092709 1.2615566 35.516304
-3.4041796 9.3025265 35.541252
0.10086637 10.146931 35.524818
4.1155272 0.59905589 35.639835
-2.1687324 0.08489053 35.700466
6.9648933 6.282382 35.786003
-5.9609213 7.1909218 35.735901
4.7027411 8.7009459 35.720177
6.3236704 2.2004042 35.814651
-6.5455284 3.5174818 35.865734
-6.5806484 5.2628207 36.068542
6.554965 6.9903741 36.008331
-2.8697674 0.47155499 36.193043
5.2650023 8.1880121 36.120266
4.4420419 8.7982826 36.180969
1.3887835 9.9592648 36.170223
3.6193197 0.57414842 36.24369
-4.6516681 1.3088641 36.259232
1.5810165 9.910676 36.297733
5.685605 1.5174181 36.381157
6.4855585 2.7368038 36.367661
4.6941442 8.5957527 36.387478
-0.72404778 -0.30523384 36.498539
-6.3500152 6.6921701 36.457485
1.558043 9.8901377 36.447189
2.906853 0.25414923 36.595043
-5.8385744 2.5175748 36.555813
2.6439471 9.6319304 36.537281
4.1162119 0.90637219 36.65881
-6.0224218 2.8535821 36.689888
1.1888742 9.8899555 36.738068
-1.3773818 -0.18847008 36.817398
-4.3505511 1.1720296 36.804531
6.267149 7.1263523 36.859421
-4.162353 8.5222445 36.874855
5.2483196 7.9834805 36.966423
-4.5045438 8.2511644 36.912285
-3.9748268 8.6051722 36.978958
-0.97489655 -0.27119648 37.030006
6.6841774 3.4037492 37.043724
-6.421876 3.6167049 37.117626
0.3977946 9.8150616 37.185055
-0.83369333 -0.31143036 37.292519
-0.61582887 -0.34652394 37.245243
0.90306759 -0.35738784 37.21674
-6.5272856 3.8443117 37.338741
1.0347935 -0.32888776 37.47356
-4.3113494 1.03008 37.417244
2.5066857 9.3288164 37.563389
-5.6423254 2.3483138 37.690231
-1.1070993 -0.28075778 37.766113
1.5982519 -0.20326841 37.797649
0.6338402 -0.3964214 37.818855
-4.4964237 1.0120769 37.953293
1.4344932 -0.22040583 38.01741
-1.9804558 9.1835842 38.033009
-6.0718436 3.2263644 38.126587
6.6939116 4.9526801 38.16507
-0.13943553 9.6091728 38.171577
5.3771582 1.3565991 38.316658
6.211091 2.9719777 38.396111
-5.7945652 6.5843902 38.383278
-3.1216455 8.5706434 38.386219
-0.33588111 -0.32368922 38.481308
3.0749252 0.19330283 38.47945
2.8354712 0.10601358 38.514893
5.4251695 1.5503926 38.671852
4.7900753 1.0317003 38.713017
-3.9309084 8.1220055 38.737209
0.2117614 -0.53303617 38.888031
3.8113623 8.341917 38.989086
-0.38767964 -0.24967113 39.016949
6.6068573 4.8189487 39.057617
2.2309918 0.055695862 39.129787
3.0622656 0.31847355 39.121445
-4.1282425 0.95495516 39.160736
-6.0406752 2.5863409 39.16608
3.9269805 8.2539759 39.141647
0.52094513 9.333024 39.116402
4.9183283 0.65460515 39.280045
5.3520131 1.066031 39.239044
5.2549672 1.2481976 39.248722
5.7250786 2.2820001 39.248604
-2.8540404 9.0296478 39.273849
0.87214231 9.5855532 39.210819
-2.718081 0.38487011 39.346062
-5.0996532 1.3582418 39.30283
6.7920718 4.260488 39.352379
1.7200623 8.970233 39.392937
-3.2182956 0.17595422 39.462402
4.1060166 8.1112556 39.405663
-1.0384917 8.9948025 39.468224
-0.28619683 9.5783072 39.485954
-3.9944503 0.47134501 39.579193
4.4249306 1.3645804 39.589348
5.4343438 1.7988338 39.556473
6.7714005 4.0403571 39.526405
-4.3571367 8.0651541 39.533669
3.914149 8.439785 39.563313
0.22981259 9.2529707 39.519493
-1.4742882 -0.3937158 39.663067
-4.2608838 1.7763687 39.691826
-4.6512537 2.0310585 39.615993
6.7262974 3.829972 39.620323
-4.4874802 7.8487415 39.612698
-6.1888332 3.6451356 39.876389
0.020903155 9.1070423 39.889561
-1.2040507 -0.46048197 39.935371
-5.6106277 5.9639587 39.96294
-5.7511125 6.9421477 39.963341
-2.5870674 8.1030617 39.949276
1.2398466 8.8542957 39.97834
-2.7753558 8.941803 39.957836
-0.56125122 -0.59616041 40.005707
5.8849449 1.792803 40.056736
-5.2847524 6.1285396 40.092869
5.3916206 6.7336578 40.044601
4.82552 7.4267859 40.028881
3.8641744 7.6724892 40.119156
5.5595608 7.5392551 40.240524
2.746022 8.3113356 40.275967
-0.29776806 8.8726625 40.238152
-4.8179369 1.0600038 40.328533
4.1354885 7.8512702 40.320641
-6.2363324 5.2270575 40.429558
-2.2395997 9.0685081 40.537079
1.8310187 9.2871628 40.64587
-0.26533246 -0.71465641 40.792076
4.9322581 0.69065112 40.721355
6.2984834 2.4210722 40.710739
6.6802607 4.3216395 40.788498
6.2417336 2.355335 40.85247
6.392642 2.5826764 40.843887
6.4927101 3.3334627 41.011475
-6.1469135 4.1727171 41.061363
-5.9927182 5.7118244 41.17979
-5.2732325 7.1626406 41.186195
-2.2898905 -0.24983238 41.229671
-2.7391815 -0.077209979 41.254375
-5.8543539 2.5455935 41.214478
5.477634 7.4072905 41.205532
6.3969245 3.0050282 41.4501
-1.3726866 9.1920567 41.434204
2.413497 9.0736322 41.501667
-0.8504169 9.2723541 41.530163
-6.0699215 4.093226 41.646156
-1.8979825 9.0611067 41.662937
0.20928688 -0.91694516 41.797306
2.1866236 9.0870781 41.755733
1.3602186 9.245863 41.733818
3.1042995 -0.14258271 41.818039
-5.248219 1.7218457 41.875607
6.2160158 6.1768322 41.864502
4.539134 8.098382 41.845352
3.3602171 8.5786028 41.856133
-4.3512144 0.67103803 42.057335
1.2311156 -0.67565739 42.132202
-4.0158758 0.50311887 42.105148
-3.7783394 8.2066774 42.100277
-3.2075381 0.1023192 42.386803
0.96381998 -0.77446872 42.485664
6.1193213 6.1496477 42.477425
-2.5966856 -0.18557605 42.657787
6.2250404 2.7139406 42.675735
5.9470959 6.4696703 42.692062
-1.3751621 -0.54934883 42.771656
3.6069584 0.070737109 42.742607
-5.6592226 2.4621427 42.701443
-5.7706428 2.9241171 42.749008
3.4292309 8.4181967 42.797749
2.1290581 8.9748812 42.766407
6.3515663 3.6730475 42.868591
6.4152451 5.1883078 42.914062
4.6432486 7.776516 42.933659
-1.1668222 9.0530949 42.901939
1.4061208 9.0985174 42.914719
-0.81132287 -0.72595108 43.069283
5.3122535 7.1362724 43.092224
-3.1404204 8.2940855 43.02816
4.103158 8.0921888 43.102795
2.8607354 8.653511 43.129074
0.29404467 -1.0149873 43.271744
-3.7508688 0.3961634 43.221771
4.388876 0.47610742 43.210537
5.768775 1.976661 43.219765
4.9443655 7.4481659 43.205528
-3.5836051 8.0811348 43.25515
3.638896 0.10186377 43.372215
-2.0895946 8.765666 43.365543
2.1797924 -8.8696642 43.41658
5.8953962 6.2659254 43.470184
2.0454969 -8.8193102 43.536602
2.1230075 -8.6769409 43.633125
-0.88513625 -0.74434555 43.614502
-5.3331327 6.3802762 43.670609
-4.0188665 7.7563524 43.634682
3.112494 -8.6433964 43.796112
4.0847769 0.33544523 43.740585
-5.6211262 2.6101406 43.725796
6.14399 2.9448133 43.794891
6.1699543 5.4759479 43.794079
-5.5589242 5.7976694 43.777344
3.6704893 0.12947764 43.861908
4.8155608 0.70677668 43.862396
-5.6052198 2.6196952 43.892883
5.4127584 1.5363166 43.912968
-5.6398983 2.8611295 43.914219
6.3868713 4.6306291 43.945854
5.2971711 -8.5270233 44.027901
5.9589062 5.851366 44.096954
4.2217913 -8.3321218 44.140007
3.1664186 -0.11758907 44.184929
5.5863442 6.6547203 44.112728
-4.9686685 6.7811627 44.116497
5.7813225 -7.0521202 44.206993
4.933259 0.86065382 44.290768
4.3631849 -9.1865854 44.379593
2.0688119 -9.5741358 44.456642
3.3584678 -8.7589293 44.480759
5.7732654 -8.2521696 44.445618
7.4428663 -4.7603989 44.477695
-1.0389689 -0.71591425 44.4706
1.7121726 -0.66264397 44.4758
-2.2357783 -0.36220542 44.416073
-3.2272034 0.16047338 44.465961
6.2091513 -7.926075 44.592613
6.9343019 -7.2139168 44.516235
6.8903837 -6.8668466 44.514614
8.529211 -3.6496425 44.596767
-5.7555475 5.0094357 44.540104
5.8698401 5.8847961 44.522335
4.0106993 -8.3370275 44.648457
5.3791504 -7.1024551 44.677116
6.3081326 -6.1138878 44.729092
8.5817776 -5.9747262 44.716049
6.7029347 -5.7037697 44.731274
9.360117 -2.7421501 44.789642
8.8598709 -2.2192378 44.791676
4.725348 0.68012685 44.734653
-3.8704367 7.6515541 44.734928
8.7505836 -5.5204163 44.815849
9.3042698 -1.4414012 44.872391
9.3842134 -1.3209671 44.883915
5.669374 -6.8870039 44.927631
8.6695766 -1.5675423 44.905304
9.4834137 -0.89593768 44.940559
-5.309886 2.2382007 44.911373
3.0676126 -8.9598484 45.009041
7.9795275 -4.8198347 45.097984
9.0665693 -4.8841195 45.070877
-3.9833331 0.5534246 45.020966
6.175406 4.9548931 45.012943
4.6426406 -9.3629436 45.192688
9.8522053 -1.8658357 45.161514
8.7143698 -0.49947944 45.135696
-5.0386124 1.8569089 45.146194
-5.359601 5.7102137 45.125942
7.1009521 -7.327467 45.25399
5.7234774 -6.2834401 45.280212
7.764235 -2.6768031 45.216789
-5.7636299 4.6182804 45.215969
6.0580115 -5.8018909 45.34124
2.2029724 -0.59548187 45.317169
10.407633 -0.50232446 45.365753
9.431756 1.0312389 45.311878
5.5443487 1.920513 45.324581
-5.6199903 4.9910035 45.366875
2.16347 -9.1796808 45.405205
6.0803223 -8.2905426 45.485741
-5.5653563 3.4828465 45.417702
2.268163 8.5944681 45.405487
3.9135821 -9.3690434 45.58567
1.9705389 -9.2391233 45.59536
5.5326357 -8.755785 45.502373
2.1167438 -9.6078043 45.614243
10.712185 -0.54071641 45.663567
-4.698235 6.7427826 45.630943
4.7292233 7.1529493 45.624054
4.5722103 7.2949309 45.607174
10.16005 3.2398317 45.734352
2.7144279 -9.1842546 45.806335
6.4997306 -6.2057371 45.896172
9.0746727 1.965641 45.874016
10.398778 3.7570965 45.852077
1.5532569 8.6677227 45.81749
1.8382689 -0.70637488 45.93969
5.9271545 3.206121 45.965569
-4.8526926 6.552815 45.917686
4.346602 -9.5059528 46.049911
2.2883384 -8.7425213 46.023117
5.6813297 -7.0022197 46.000652
6.4301128 -5.0423737 46.021126
9.8037586 -3.2271359 46.014317
7.9260592 -0.61531359 46.059395
7.1253738 -7.4627171 46.108852
6.202096 -5.8606968 46.137856
-1.5455235 -0.68142772 46.142078
11.296019 0.61513788 46.1408
8.4249325 1.0177693 46.134331
10.780977 3.9862726 46.100266
6.4689436 -6.6668015 46.230495
-0.78957957 -0.8388986 46.243114
-4.9856982 1.9145713 46.2369
-0.29242295 8.750658 46.240799
4.8906035 -9.2330866 46.319756
8.1925735 -6.6948552 46.371822
7.6189528 -6.5017247 46.315357
5.7731123 -6.0842819 46.328087
11.063765 -0.0020466959 46.353886
11.372313 3.9191284 46.300293
3.2869565 7.9649844 46.331581
-4.6046562 6.6799884 46.499622
-2.9214916 -0.087956727 46.598881
4.4731846 0.56934166 46.547756
11.94458 2.8196013 46.537212
5.5725594 -8.514822 46.68803
3.4796023 -8.1447563 46.685276
7.5055313 -6.1951876 46.685158
-8.9899368 -0.22632906 46.670113
11.626375 1.5532182 46.671986
2.7537873 -8.6803551 46.769535
7.4308972 -2.4449451 46.775864
-9.5433207 -2.0122585 46.771408
-1.4345958 -0.73261112 46.70842
8.4790764 1.6305314 46.792046
5.5085554 2.033514 46.7384
-5.4639883 3.9251413 46.803223
4.5922952 7.0329037 46.859184
6.1896415 -7.5439138 46.926723
-10.425883 -1.6798702 46.937931
-8.0177088 -0.34779838 46.928284
11.798971 2.0464401 46.992744
1.976598 8.3915615 46.936455
5.426065 -8.1414671 47.018463
5.4552107 1.9201193 47.097107
5.4250917 6.2666345 47.094406
2.4006035 8.2671185 47.086716
4.6119652 -8.4715977 47.191055
6.4904175 -5.5177488 47.149551
-7.5333734 -0.90944678 47.124031
-2.4102573 8.0141115 47.178642
5.0222607 -8.1541166 47.230854
4.718895 -7.874692 47.207428
-7.7315125 -0.33830729 47.254265
-3.8846674 0.44414791 47.211571
9.1550293 1.8174789 47.214012
-5.1993074 2.4096129 47.272655
-5.4162016 4.8309927 47.28352
-0.7014038 8.5032902 47.218914
5.8630219 3.5768132 47.349724
5.8098068 5.0695186 47.393623
6.9587712 -4.1549621 47.425491
-7.4965339 -1.3202353 47.469276
3.8899431 0.13333619 47.468185
8.672205 1.966175 47.49004
-5.5038729 4.5367932 47.491344
5.9296188 4.7093115 47.403641
7.4865236 -2.6485708 47.562454
-7.9363737 -1.112932 47.500835
9.7126522 1.7082266 47.565628
-1.6444387 8.2628746 47.51268
7.4261246 -5.9747481 47.612549
-8.0008802 -2.3829648 47.605118
10.040535 -1.1398442 47.628178
-4.683043 1.4064363 47.676983
11.652685 1.6960356 47.658245
5.6016331 2.1139705 47.60218
8.4695187 2.9745183 47.661301
10.177902 4.8030534 47.696083
-4.1262965 6.9043126 47.632763
-1.6799634 8.2231369 47.684326
6.5626979 -6.4536328 47.793324
7.3247609 -3.8365421 47.704865
9.2589207 -2.4869211 47.756264
10.774895 0.30869061 47.720451
-9.5647449 0.74328822 47.716499
-5.151989 2.1623609 47.721348
4.1345677 7.2818117 47.776272
5.8901892 -6.0667887 47.806465
5.9332495 -5.9968376 47.800766
8.813529 -2.9127264 47.847687
3.5589538 -0.09685789 47.835075
9.3472881 2.7546895 47.869434
5.6167445 5.5829773 47.81601
7.7799373 -3.3921256 47.977638
-8.8662643 -0.56832516 47.983215
8.5328426 0.52641356 47.961933
-5.4258642 3.8972313 47.901478
8.1140728 -2.4596927 48.081604
9.150959 -1.9560249 48.005222
9.2073927 -1.6433847 48.061367
10.950904 1.5417571 48.080219
8.2745514 2.8630915 48.060249
8.2579002 3.0407827 48.046341
-7.5660162 -2.3910582 48.154049
-7.949914 -2.2403588 48.172153
8.5686703 -1.5156655 48.150146
8.4694319 -1.1691082 48.159306
-9.8912487 0.41176477 48.199142
8.7693863 0.92411971 48.173203
5.4077287 1.7633121 48.12537
8.831543 1.9444194 48.130898
-5.3093438 3.1960888 48.18277
0.63724631 8.4468231 48.120087
-8.7029638 -1.8801067 48.29192
-4.4501915 1.0239911 48.271202
-5.183042 2.4177017 48.286587
2.8027303 7.8941941 48.250225
-1.8146534 -0.72616291 48.323853
-10.467199 -0.11693487 48.307453
-7.2434654 0.12826052 48.326935
-7.459518 0.43311921 48.301949
11.894165 2.402597 48.33564
4.5284553 0.43769938 48.423439
10.135547 0.68787253 48.484276
-9.7741861 0.8540709 48.445637
9.193841 1.4121799 48.474483
8.7077503 4.296968 48.468712
-9.6884308 -1.7260076 48.586861
2.35337 -0.70658231 48.508507
10.238277 0.79783499 48.500523
10.538237 1.1828938 48.562267
-9.3089828 1.2130234 48.523338
4.5219178 6.8834591 48.521645
-8.9517784 -2.5068219 48.659962
-8.5967789 -2.5158939 48.640121
10.158325 1.5031022 48.664406
10.824512 1.6724839 48.648468
7.9636526 2.7857533 48.670719
11.528822 4.1552067 48.62994
-8.7140436 -1.1738315 48.773579
9.7899189 2.8454173 48.799858
-5.3263102 3.3668413 48.78017
10.71999 4.8600407 48.768768
-1.5528594 8.0398178 48.785263
-9.6217041 -0.86763084 48.838341
-1.9024992 -0.89589989 48.842644
5.6007805 2.1016498 48.899227
10.082628 2.2768462 48.842899
-8.8950167 -2.3657384 48.958084
-1.4662993 -1.0667968 48.977371
-2.6310012 -0.75946105 48.953468
4.9080071 0.96554804 48.928612
-7.5961552 -3.4824965 49.025166
-1.9155283 -1.127139 49.075272
0.38541809 -1.0600141 49.01252
4.543046 0.12513362 49.069889
-4.7572627 6.2345586 49.050842
-10.017018 -0.41979524 49.247425
-5.2314034 2.8269339 49.273754
4.4679313 6.8156261 49.217167
-9.9349184 -2.8282895 49.30027
3.4174843 -1.0021061 49.347038
-10.015205 -0.61219037 49.380959
11.465492 2.2781177 49.360718
2.7646525 7.7043591 49.357399
5.4224405 1.4844341 49.454147
5.0078392 6.390924 49.410114
-6.8738775 -1.0661148 49.507061
-9.6268587 -0.4817788 49.552021
-6.4711699 -0.030905962 49.522709
10.331819 1.2241331 49.564323
-3.0123055 7.3634796 49.576328
-7.7069693 -4.0566764 49.600136
9.1131172 1.0116553 49.694672
7.6439734 1.8876354 49.603241
5.3966889 5.792686 49.697796
-3.227977 7.2549825 49.670555
-8.0636988 -4.344243 49.752621
-7.4324312 -1.8037068 49.722095
-7.3886185 -1.7750466 49.733612
-2.0954955 -1.745469 49.709625
3.1157384 -1.5368464 49.71994
-6.5885706 -0.55741495 49.792507
-6.3449011 0.10653865 49.777515
-10.232566 0.34538841 49.774574
-10.195603 0.44273606 49.77972
7.3927865 3.0060215 49.790154
-10.093079 -2.1898031 49.850834
5.6832361 1.8094784 49.810608
5.8167696 3.1245978 49.821877
-2.0037484 -1.8527892 49.98164
3.9488738 -1.2994852 49.975342
-0.93660069 -1.7106497 50.031219
-5.2660694 2.2385614 50.095409
-3.1595004 7.2205524 50.01852
-7.1203322 -4.1485152 50.115677
-6.7851753 -1.293785 50.149155
-5.3628449 3.0719631 50.127373
1.9930118 -1.8923637 50.247536
5.2956495 0.71340668 50.248981
-9.3863106 1.5615169 50.241142
-2.3646126 7.5217566 50.209774
-1.7607882 7.7259989 50.219246
-0.75716752 7.9246426 50.23661
-1.3823328 -1.9400539 50.396027
-10.160543 0.18211517 50.340454
-7.5356321 2.2822428 50.366436
7.0833797 3.3433647 50.364849
-7.2058334 -4.45752 50.48391
-9.4475231 -1.3124981 50.454227
4.0787983 -1.379668 50.464523
-8.1445007 -0.99621993 50.484749
-4.6809759 -0.1781646 50.497593
-6.0133514 0.49881065 50.406693
-9.9298801 0.77754289 50.44054
7.0491872 3.230161 50.450474
-0.20419858 -1.8260887 50.525101
-7.4432116 -1.7405769 50.593475
7.0598092 2.2748408 50.595177
11.111364 2.3912399 50.568726
11.10111 3.0495253 50.588833
5.7646122 4.9213071 50.564949
5.6831131 5.1345663 50.591221
-4.8977222 5.9077315 50.575943
-2.181242 7.5538349 50.586174
-1.6344563 -2.1020012 50.69165
-4.5866885 -0.47693673 50.657333
8.7801485 5.0103126 50.679688
1.2208251 7.8570299 50.61544
-7.939333 -4.9808717 50.797951
4.8341579 -0.91106939 50.735245
-1.7982777 -2.1849363 50.831352
-0.27130529 -1.9661723 50.841618
-6.164156 -0.24271718 50.836136
-4.7983208 -0.10152149 50.841591
8.0539913 4.776824 50.853752
-5.1720471 5.2219911 50.815475
5.6678128 5.2001758 50.81171
4.8035545 -0.95186889 50.994259
-9.6952486 -0.83970726 50.931404
10.66249 2.0120318 50.903202
10.926634 3.2423401 50.93412
7.2490392 4.0550375 50.991325
1.4083854 7.7612424 50.926315
-8.1692638 -4.8852243 51.071701
-9.1386223 -3.9461238 51.004349
-4.6471009 -0.5522899 51.045544
-6.1246147 1.3981736 51.034134
-6.1660089 1.5205889 51.093563
5.8720617 4.6810994 51.056396
1.9844747 -2.2242088 51.120796
-5.9695015 0.16567835 51.104755
10.585794 2.0353079 51.18465
-8.8586216 2.1899245 51.191944
-6.7251501 2.6053977 51.188934
-3.863698 6.7524953 51.192261
1.9147284 7.6433663 51.121872
-0.065100566 -2.0341551 51.263615
-9.1195316 -1.9519454 51.257717
-9.8672247 0.50562358 51.260578
2.9403827 -2.0872133 51.384727
-6.4015522 -1.018599 51.372715
-9.2686014 1.9174861 51.381687
0.53758335 -1.982029 51.402237
-3.3558774 -1.5583172 51.40852
8.0469847 0.8243686 51.433182
-6.449584 -4.4540844 51.596169
-2.6313076 -1.9355621 51.535973
-4.3736682 -0.93508428 51.569019
7.5913634 4.5247579 51.511604
2.3020182 7.5668063 51.527786
0.057779651 7.8463807 51.52285
-8.6543198 -4.7859988 51.665096
-8.9738941 -2.3853378 51.668331
-8.6615114 -1.7531424 51.620728
-4.5715003 -0.80840451 51.620365
0.61436719 7.7799726 51.681007
-6.2891636 -3.7885909 51.786591
-2.7833762 -1.7988808 51.718445
-7.8950262 -1.4834375 51.727112
-5.8950577 0.022597864 51.787418
-9.8188496 0.31140697 51.779701
8.7513256 5.0464668 51.737015
2.1202567 7.5616722 51.717052
10.287648 1.9836903 51.887321
-7.4098215 3.0671453 51.882175
6.0937338 3.0779855 51.813335
6.7984161 3.8328514 51.883263
8.3135843 5.0423498 51.851696
1.9756681 7.5644631 51.804028
-6.6737514 -2.6563516 51.933372
6.1121569 2.8644106 51.970787
-5.6739464 3.9482467 51.911709
-8.4056511 -1.9550276 52.034092
1.2278861 -1.8373164 52.056587
-8.4443913 -1.2937253 52.065296
8.3424454 0.82908988 52.029099
-5.7447968 1.6647316 52.021584
8.2347355 5.0426865 52.022984
3.1298723 7.2372699 52.098213
-8.4696293 -4.9817505 52.145462
-5.1862411 0.16772842 52.199078
8.1889524 5.0429039 52.125481
8.4181118 5.0458994 52.182903
-1.844699 7.4936008 52.175926
-6.1766949 -4.0948334 52.225487
2.1094553 -1.8521249 52.204468
2.4981985 -1.8606403 52.288284
4.6924767 -0.84382331 52.281395
1.3031833 7.5772381 52.210464
-1.3790833 -1.7672356 52.3806
10.393416 2.6888523 52.321815
4.4570284 6.6629372 52.332306
-7.8905315 -5.4591942 52.418228
-6.5252705 -2.7765052 52.466408
2.7496059 -1.7216994 52.463394
7.5095758 0.85568798 52.463753
-5.9367671 2.3946071 52.426365
-5.7269039 3.4683816 52.492214
5.7355843 5.191649 52.484711
-8.2132339 -5.3176522 52.516327
10.32815 2.4680266 52.553471
10.269625 3.1022887 52.503609
-5.1815057 5.3429532 52.545753
-4.6215773 6.2343588 52.513073
-2.0707579 7.3791771 52.528656
-8.0890179 -2.3145201 52.68243
6.2148705 2.7423089 52.612465
-6.2261868 3.2677994 52.610863
2.3551736 7.443778 52.624088
1.008656 7.5524182 52.669746
-1.3494369 -1.6849557 52.772316
2.3742537 -1.6789573 52.766117
-5.5698786 0.50576019 52.760719
9.5622644 1.5441959 52.7286
4.2370863 6.8054276 52.705864
3.3777242 7.1680584 52.771149
3.1695414 7.212575 52.801384
-8.1040287 -2.5133955 52.921021
5.7454891 5.2985349 52.954346
6.269413 1.58304 53.037968
1.577466 7.459641 53.084045
-0.36689037 7.5257854 53.026325
-7.9929209 -5.6185131 53.107807
4.0536685 -0.94778132 53.167152
3.1054697 7.2186923 53.142311
-5.9508991 -5.2809176 53.28783
-9.1638403 0.58508241 53.287209
9.1463146 1.3199258 53.286507
-5.871851 3.6056128 53.299393
-3.1179609 -1.0105034 53.394333
5.9443374 4.9578257 53.321747
-5.5233364 0.94893503 53.484383
6.2691808 1.4291446 53.439754
7.0283537 4.7949839 53.485878
-4.140738 6.5135937 53.419121
-7.1085854 -0.865556 53.598625
-4.9694328 5.9827542 53.560848
0.37846088 7.4911356 53.527454
0.59451854 7.4742661 53.542549
-1.1309357 -1.3576717 53.674835
-4.8415475 -0.25589207 53.640617
-7.4611459 3.7295349 53.64534
-6.2788329 -6.4842482 53.700699
-7.411509 -6.2192016 53.780647
8.5848446 0.91268706 53.752773
9.3913431 1.7234153 53.738018
-8.8863668 1.736481 53.882919
-4.2244778 6.4356842 53.893471
-5.6809473 -5.3983946 53.903778
-7.3864841 -2.9132259 53.96299
8.9519224 1.3577659 53.938744
5.943399 2.2355137 53.90509
5.8428183 3.2422402 53.942719
-5.9010248 3.8797112 53.90604
-0.78946769 -1.2089037 54.076069
-5.2897801 0.78708136 54.068584
8.1252565 0.78588486 54.093708
-6.8258905 -6.2026539 54.161858
-0.60386199 -1.1731548 54.178772
-5.8994422 -5.2772665 54.215122
-5.7773786 -4.1445627 54.269913
3.6964865 -0.71040934 54.258793
1.7341304 7.2489033 54.206921
-5.6502566 -6.8240318 54.322205
-5.5720263 -6.8484573 54.38176
-6.6503773 -6.280817 54.329029
2.0269275 7.1840625 54.391891
-0.77089173 7.2333736 54.383186
-6.1935034 -5.5263019 54.437653
-8.8174238 1.6428542 54.436432
-5.1323094 5.2930193 54.419353
-6.3003159 -7.0191422 54.589592
6.60285 0.94205523 54.545311
-5.8452196 -7.2376518 54.642792
4.0079765 -0.52243018 54.696503
-5.5940199 0.66362798 54.651497
-5.1707044 5.0141411 54.624283
-5.6704869 -5.7236357 54.734077
-5.7498088 -3.6976676 54.73769
-3.941118 -0.36629179 54.732162
7.0004182 0.72725451 54.769711
-6.9383607 -5.607914 54.832756
-7.4410095 -3.7204437 54.845268
-5.4147429 0.48977512 54.864037
-8.5100574 2.364244 54.863571
-6.6782637 -7.0762992 54.999229
-5.5131893 -5.5964518 54.92363
4.0285664 -0.44580883 54.919655
5.0154519 0.051969074 54.970894
-4.3846784 5.7998137 54.904762
-2.7906253 6.8476095 55.012299
8.8581991 4.1982093 55.165188
7.6747928 4.9873452 55.163223
-6.7396784 -4.5931478 55.240974
-5.3973584 -3.8042819 55.264748
4.698576 -0.028589502 55.220238
-8.0489321 0.56805277 55.269539
-4.4383326 5.6697464 55.243507
-0.29707527 7.0402975 55.232159
-6.2234383 -6.4798632 55.316257
-7.134409 -6.254209 55.369911
-5.6537247 -4.6051974 55.324055
4.5131221 6.2050176 55.339787
-7.3239317 -5.7512274 55.463852
-5.7059479 -5.1885567 55.463879
-5.1551042 -5.0260787 55.490234
-6.2861962 -4.8922405 55.492241
-7.0491028 -4.7769341 55.4245
8.5598412 1.4337389 55.428947
-8.6092758 1.602522 55.498032
-4.9117699 5.1368556 55.443802
-4.8590517 -5.3959002 55.528107
-5.1574845 5.0652776 55.580833
-3.5710421 6.497735 55.59906
-3.9869125 -6.126617 55.663212
-7.0398178 -5.6824532 55.634579
-7.3983598 -4.9651675 55.602463
2.0407233 -0.55380732 55.674
4.607759 0.040220249 55.661606
0.17233998 6.956243 55.661324
-6.6070709 -5.793396 55.725723
-7.1483011 -4.2703137 55.76273
-5.4042587 -4.1886377 55.721992
9.0126314 3.5774555 55.71183
-6.6762362 -4.8206797 55.825821
-5.13135 -4.2554851 55.89896
-6.9493432 -4.0413847 55.855835
-6.5671635 0.1603196 55.871788
6.8711762 0.66401362 55.834213
-8.4801283 1.8113153 55.884525
9.0564623 2.1641474 55.829468
-4.4800177 -5.0573697 55.975727
-8.4529047 1.8692049 55.913948
7.8170314 4.9594312 55.902081
-5.4414763 -5.4988461 56.060707
7.4090986 4.9956589 56.098434
-6.0297775 -3.5406563 56.148331
-7.4765749 3.8707752 56.145145
1.6486586 6.7626386 56.129932
-6.9493866 0.35856277 56.295532
4.6841445 5.8760023 56.210522
-3.4369707 -6.0903559 56.307182
-6.4218197 -5.2911539 56.327003
4.0261574 6.2559519 56.362976
-2.3359792 6.6465917 56.314137
1.4711018 -0.10208903 56.577251
4.9615545 0.28985977 56.558475
5.4869103 0.46277809 56.563927
8.3116913 1.7477367 56.5345
6.739161 5.0590572 56.588799
8.185235 4.1153469 56.653847
-5.3321943 -6.5099535 56.716263
-1.7880892 -6.132102 56.780609
0.59283376 -0.036234319 56.740543
-3.1264558 0.065108046 56.709339
-6.2592707 4.7867999 56.757088
-5.9977174 -5.9970293 56.881348
7.183424 1.0154086 56.843468
-7.8396182 2.1110611 56.824539
-2.4542341 -6.40803 56.917664
8.0886478 1.8085269 56.929607
-7.667428 2.4208345 56.955032
7.980515 4.0962906 56.933357
-1.3446599 6.5252595 56.933308
-2.4446092 -6.3425617 57.007469
-1.9160935 -6.3999729 57.087292
8.050849 1.8257154 57.008495
-7.2756724 3.5826252 57.000145
0.1158061 6.5554543 57.002266
-5.2881255 -5.1298542 57.187523
-5.5891795 5.0898924 57.121025
-5.4377465 5.160202 57.199142
-2.0786173 -6.8324599 57.216656
-2.9314132 0.33370072 57.226143
-6.6398344 0.81536078 57.208183
-0.6477024 6.3613052 57.291527
-0.55299765 -5.6288538 57.303185
0.80155087 6.3716364 57.329464
-1.115145 -6.1414137 57.462143
-4.2511177 -5.2890282 57.400299
7.0672159 1.2866997 57.456909
-4.858077 5.370163 57.480507
-1.7802912 6.2445774 57.429604
-1.9458809 -6.6938467 57.595901
-2.2601328 -6.0442801 57.542908
6.6104479 1.1069815 57.54612
6.2356696 5.078052 57.535782
5.0832133 0.76733172 57.606667
-5.9542665 1.0540931 57.667507
6.14884 1.0965234 57.686577
-1.7153912 -6.4808664 57.735332
3.3156917 0.60188836 57.736961
-4.5049629 5.3992143 57.790783
3.1766157 5.8958654 57.757301
-1.07731 6.1359873 57.730469
-0.97271717 6.1535106 57.712433
-1.7854924 -6.4064217 57.850998
-5.0616159 -6.0891767 57.840939
-2.148128 0.57677275 57.80143
-0.56828827 -4.6101441 57.909691
-3.893765 0.98346508 57.997681
4.4173651 0.97539878 57.971222
-6.3402252 1.4376007 57.930191
-3.2549624 0.90222639 58.002853
4.4235473 1.0774137 58.088547
-3.508883 5.5975437 58.026596
2.8755026 5.8380232 58.080212
-2.9391589 -5.624999 58.164345
-2.1698136 -5.5701995 58.104267
-1.4881923 0.61040318 58.158936
7.1758308 2.6387236 58.271809
-2.7953906 -5.7187281 58.370724
7.0012655 1.8843385 58.337914
5.6291599 4.7059622 58.307808
-3.46398 -4.5095634 58.41396
-6.3806129 2.3284907 58.423943
-1.9803011 -5.7491388 58.50808
0.90591699 0.29928261 58.559193
-3.751075 5.1239033 58.572418
-0.48961216 0.27412724 58.661747
-1.1513565 0.6844244 58.692131
-1.273113 5.6106186 58.615311
-1.6107099 -5.501924 58.740517
-4.5810113 -5.0212851 58.715122
-3.8155801 -4.2343197 58.728088
5.0054731 1.7707599 58.784771
-5.0238538 3.5317488 58.774998
-1.6000466 -5.2298794 58.836967
5.9461489 2.0743961 58.802795
3.5911822 5.1425781 58.808071
3.2954006 5.2098207 58.806923
-2.7011652 3.9234302 58.900894
-3.9938035 4.3663273 58.982048
3.9204121 4.8289809 58.905514
