# .PCD v0.7 - Point Cloud Data file format
VERSION 0.7
FIELDS x y z
SIZE 4 4 4
TYPE F F F
COUNT 1 1 1
WIDTH 1533
HEIGHT 1
VIEWPOINT 0 0 0 1 0 0 0
POINTS 1533
DATA ascii
5.7696872 -7.8986149 15.009872
6.6907468 -6.9197836 15.006535
8.1433811 -6.177896 15.019769
0.91076601 -1.4571304 15.033558
8.048111 2.2368436 15.035366
7.7349739 3.2517784 15.028692
5.7870493 3.8189092 15.040123
-2.21684 5.1832047 15.073402
-0.30261028 5.5955267 15.072299
-0.68515873 -9.7342463 15.111115
5.8917518 -7.7342339 15.147372
8.1096172 -6.2583733 15.118016
-8.5147734 -2.4842565 15.128105
1.48428 0.99219161 15.166292
-0.84530818 4.7552624 15.155487
-0.70441383 5.549386 15.106575
0.40975195 -1.2404057 15.220811
-8.3834791 -0.97814858 15.286057
3.2537634 1.0365793 15.245481
-4.9339485 3.6150317 15.294724
2.1623909 4.9128323 15.258572
3.2650034 5.1887765 15.295902
9.5990934 -3.3799064 15.395788
-8.6516581 -2.7953222 15.344512
6.4258547 3.7360177 15.326033
-0.25521207 -9.9838743 15.459629
8.9763699 0.72781521 15.410334
-7.211237 1.1428673 15.400816
2.9891806 1.122208 15.498606
-3.2849884 5.3007307 15.43186
0.31398892 5.6176305 15.443245
-6.8860512 -6.7918282 15.566169
1.10151 0.71719742 15.568446
-1.783392 1.4576104 15.514346
7.0862894 3.5393562 15.552205
-6.5784659 -7.0378356 15.61553
-0.21993153 -2.7012963 15.610516
9.4408436 -2.5200405 15.682043
7.8702326 2.4624066 15.676739
2.4388487 4.9822731 15.652925
-0.73312664 -9.8770494 15.715187
8.9681959 0.64097929 15.738117
-0.24331981 4.5058556 15.796535
-4.850873 -8.2601032 15.892084
9.5169754 -2.8708925 15.893204
8.6845102 0.90382832 15.882988
-2.2340784 -9.3594437 15.96664
-4.3228745 -8.8240538 15.905573
2.8789248 -8.732439 15.918798
3.553786 -8.4511738 15.934149
4.9463496 -8.1313763 15.969144
5.3816242 -8.0430727 15.940739
-8.3411083 -0.81415355 15.973949
-5.4804811 4.0601087 15.92352
4.3021712 4.4060311 15.946068
7.5901127 -6.4373164 16.063335
1.2813436 -2.4932711 16.094362
6.8100696 3.5019588 16.023224
1.0999606 4.7545104 16.044857
5.7759962 -7.7234225 16.146923
9.2613239 -0.84839523 16.11887
-4.5952783 4.1806841 16.103617
1.752261 4.8395863 16.150591
-3.1157551 -9.1739635 16.21175
-6.8024998 -7.0412183 16.212151
8.0242834 -5.9868751 16.296745
-8.2951651 -2.8597383 16.221748
-8.0889177 -2.3111537 16.267479
-3.0687709 -2.0956943 16.223764
-6.8753695 2.5178459 16.283995
6.5798388 -6.8594084 16.340117
-8.2028389 -1.6102531 16.342293
2.6526649 4.8903685 16.353481
-0.12802754 -10.066795 16.483156
4.6117764 -8.1605597 16.474533
6.1623783 -7.2192421 16.460709
-8.0453806 -2.379427 16.489262
9.0620871 -1.7772543 16.426712
-8.293232 -1.2010963 16.492374
8.5161877 0.93121004 16.409662
-6.8512444 2.4733434 16.432775
-1.9652388 4.6022906 16.415112
-2.6302247 5.1376343 16.423962
-7.5833302 -5.1148152 16.541765
-0.6653046 -3.6648593 16.578659
6.2869415 3.513453 16.527771
4.3963861 4.1945758 16.583542
5.0711269 -8.055397 16.603245
5.1235027 -8.0430098 16.62215
8.6909389 -4.2460394 16.61409
1.1877196 -2.3831284 16.656256
-3.1957922 -1.6361482 16.641497
-0.091463104 0.2460141 16.611212
8.7727718 0.59302574 16.62294
8.8372822 0.51530373 16.651522
-3.333565 3.772522 16.687519
-7.6041155 -5.1432624 16.777515
-8.31106 -4.0352845 16.741522
-0.61517179 -3.7670388 16.769272
9.3230591 -2.7411757 16.738884
-3.3650739 -2.0346313 16.779909
-2.8262501 -0.74214721 16.751003
0.79428649 -0.52843714 16.76532
0.82448298 -0.38501284 16.788376
-1.1772113 4.3894672 16.792627
-3.7036817 3.517139 16.884834
0.15558833 -9.8525848 16.986324
-2.7361929 -9.3842659 16.926582
-7.7774043 0.14791015 16.950371
-3.8083506 -9.1814175 17.091578
-5.1965818 -8.0842819 17.028334
-8.1501455 -1.685528 17.091059
-8.2687387 -1.1862638 17.095648
-4.7094059 3.5584192 17.075069
4.1132326 4.2578712 17.036831
-2.7475259 -3.475271 17.12005
0.79433727 -0.78709304 17.179779
-1.4425443 0.63535362 17.147923
-7.0209064 1.0764253 17.134817
2.0822589 4.6299782 17.190866
-1.0024692 -10.039296 17.222282
-7.1738725 -5.7704816 17.283083
8.177949 -4.900228 17.213335
-0.14108691 -3.732511 17.289251
0.31086951 -2.5719688 17.214411
-7.2748523 0.6046204 17.200247
4.3251839 -8.1437969 17.381262
8.0267124 -5.4270148 17.352634
-7.5334392 -5.3518443 17.327997
-2.8245726 -3.4843845 17.345652
-3.4232202 -2.3966386 17.372324
-2.5780833 4.0547466 17.359722
-1.5823616 -9.8535709 17.471134
7.7764287 -6.2375627 17.478951
0.40354177 -1.8965731 17.456619
9.0693951 -0.87749547 17.429064
-2.6578982 -0.3546606 17.477894
7.8619881 1.4440174 17.470827
-5.2761717 3.1753821 17.465084
-0.94803572 4.2091804 17.454159
-3.7994051 -9.2389221 17.530897
1.5986433 -9.1193743 17.578327
4.9983697 -7.9933653 17.564518
8.9401665 -3.8172464 17.551056
-8.2510242 -0.86473614 17.523415
7.7590237 1.7453579 17.52969
-2.4345086 4.5474024 17.575567
3.1773233 4.6739054 17.562332
-4.0490017 -9.2008734 17.63987
-1.4528097 -4.8156476 17.665794
5.1197138 3.5386353 17.610132
4.2580414 4.0293789 17.617029
1.240955 4.3008943 17.63245
7.2137518 -6.4599724 17.788599
1.9621781 -3.2208929 17.778492
8.8459082 -1.6966556 17.780577
-8.1488333 -1.5565457 17.759083
-0.44028091 -0.18524481 17.744316
5.4071517 3.4550025 17.705479
-1.6962652 0.053896829 17.803371
2.8567798 0.50420058 17.847748
-6.9245825 0.73171878 17.859388
-0.94975674 4.1141181 17.898287
2.6914721 4.5496869 17.865509
-6.8813896 -6.5136404 17.927485
1.1249 -2.5171578 17.967752
3.1556923 0.28677061 17.910339
-5.3853407 2.8191154 17.92099
-2.482012 -9.6796865 18.083305
-6.9424644 -6.2758408 18.04302
-8.0782957 -4.1314006 18.007261
8.6788769 -4.0446281 18.051102
-4.1472425 -9.2491093 18.181803
-6.0844297 -7.8045998 18.136511
8.9833851 -0.81323123 18.126488
-6.4891968 2.2543166 18.148987
-6.8653102 -6.4633894 18.25643
-3.2883956 -3.2525096 18.288986
-7.8068371 -2.9114542 18.201555
-7.852993 -0.90887135 18.284931
-1.8068901 -0.35810527 18.276337
7.3818989 2.5736818 18.276009
-2.2304263 4.2608643 18.25523
-3.4215119 -9.4241581 18.373524
7.1748972 -6.4189386 18.34413
9.002409 -2.6712987 18.375238
-7.9975019 -2.0665274 18.392031
0.93601209 -0.66615915 18.336142
9.0708418 -0.24547017 18.351057
-6.556447 1.7180978 18.37392
-2.6959097 -9.6751347 18.421917
-5.9835196 -7.8809347 18.437077
8.029727 -4.8162832 18.404398
-8.0807333 -4.6498637 18.482981
8.9754477 -0.1540214 18.436403
-6.7055416 1.0004169 18.450577
-4.7111816 2.6947424 18.433935
-4.0498614 -9.316206 18.551811
1.1396599 -9.1264381 18.519911
1.6101102 -8.9782219 18.558619
4.3593769 -8.0109425 18.565485
8.5335493 -4.1281061 18.50478
8.8828869 -0.98348397 18.579571
-6.4342647 1.9197344 18.593632
-4.0756993 2.7748146 18.556005
-2.2499356 4.0861306 18.510519
-1.4906934 4.0143723 18.573647
1.6240267 4.2184458 18.543346
2.9595561 4.4188132 18.557739
3.0390267 -8.3653269 18.679863
-2.4854443 -1.1247908 18.635317
-0.99358523 -5.3528957 18.701344
2.9804969 -3.8820109 18.718151
-5.280694 2.3350182 18.714031
-4.0596528 2.6098123 18.782572
6.5112081 2.9949079 18.71225
4.7608085 3.4429004 18.775061
0.58551168 -9.5845032 18.877823
5.6931834 -7.3422966 18.829199
6.2108135 -6.8256559 18.824671
1.0251942 -2.6001577 18.893322
-2.2935703 -5.7042751 18.953337
-0.030925091 -4.3554087 18.917576
-3.1914892 -2.6636705 18.97123
-7.8988924 -2.3606224 18.987078
8.6446981 -1.9044678 18.972048
8.8313951 -0.98111141 18.995548
4.6366558 -7.8819313 19.091148
6.2016182 -6.8157549 19.003716
7.7499275 -5.3951488 19.007418
-7.9062634 -4.6966438 19.089252
0.1581375 -3.9391572 19.08503
1.6202254 -3.44171 19.02792
8.7638636 -1.2975013 19.007553
2.0516818 0.015433401 19.048311
-6.5602884 0.93050921 19.064846
-4.5165362 2.3233464 19.011215
-3.1434557 3.0620461 19.019943
-2.1596959 -9.946784 19.101242
1.5941404 -8.8898687 19.103523
-5.6622486 -8.0927839 19.102236
-1.7749511 -5.9720292 19.197254
-7.958807 -5.0560517 19.156487
8.6435318 -3.8468652 19.1091
0.3668111 -3.4588404 19.184303
-7.6558371 -1.2459037 19.100239
2.2361951 4.0667553 19.127132
3.0435255 4.2947016 19.143099
2.8327613 -8.3529139 19.241217
5.6122541 -7.328517 19.248638
-7.678215 -1.395919 19.269398
-6.480741 1.0476778 19.202698
-4.8695459 2.077898 19.218447
-0.75593323 3.4226522 19.28442
-4.4769993 -9.0500984 19.373758
-2.2363305 -6.1297526 19.358255
-0.4767518 -5.3210311 19.314262
3.5187712 -3.9592412 19.336452
4.5842032 -2.2690551 19.396288
-5.3863444 1.8664412 19.31542
-5.1479421 1.9202976 19.330421
-3.309082 2.7094193 19.313339
-2.5700049 -5.9891515 19.454281
1.2625253 -0.53754556 19.496519
-6.7631907 -0.35400254 19.444908
-0.032900155 3.2282934 19.48114
3.4414992 -8.162035 19.582012
-6.7364583 -6.7221637 19.570518
-7.6684589 -4.235631 19.500778
3.1512294 -4.1287985 19.554382
-3.2730019 -2.936645 19.583664
8.5901318 -2.3232198 19.539064
6.0239048 2.9035025 19.521355
3.8806312 3.7988198 19.519672
-3.4213846 -9.6188679 19.662914
-0.6172297 -5.6784668 19.607275
7.7224636 0.80117553 19.678108
-4.6932507 1.7722327 19.689699
2.3724074 -8.4520664 19.766201
-6.452518 -7.3613496 19.734055
-7.5209084 -3.7108674 19.780701
4.008841 -3.5886521 19.789551
-5.3914394 1.5670812 19.722832
-4.2902536 1.8644737 19.70302
-3.5032573 2.2117329 19.764912
-2.1814923 3.1971035 19.734825
2.8901446 4.0476151 19.792622
-3.7415516 -9.5455017 19.856411
1.6608517 -8.7289095 19.868549
-5.8267708 -8.10466 19.887787
3.66606 -8.077651 19.826117
5.99263 -6.8843803 19.897339
-2.3483849 -6.3691621 19.827732
-3.2689848 -5.1213293 19.807264
2.1876347 -4.1129518 19.828718
8.7527113 -3.1040392 19.876564
-0.064157262 -2.3635492 19.878124
8.5998392 -1.601824 19.829628
-4.7647963 1.671759 19.80003
-0.0072150342 -5.0203085 19.905649
2.0832989 -4.1023483 19.93066
0.21347615 -2.8651903 19.912756
-7.8681297 -2.1786721 19.941063
-6.9922223 -0.99596441 19.92638
-0.24694861 2.9119596 19.966049
2.3897753 -8.3925419 20.072252
1.7418672 -3.8237414 20.030491
2.7202368 3.9756627 20.079626
-6.7350607 -6.7545061 20.184584
6.7297359 -6.350307 20.107841
7.3815193 -5.8875694 20.125275
-7.0476437 -1.2599018 20.195118
8.6553564 -0.49933624 20.134747
-5.0339956 1.3602062 20.12606
-3.5028458 -9.7008591 20.282331
-5.3771591 -8.4775295 20.206703
7.2009974 2.0483794 20.286182
-1.9243127 2.8751538 20.214739
-1.6670954 2.8396058 20.207649
7.7786217 -4.8373775 20.313034
8.4765158 -2.4764538 20.398085
-6.5291791 -0.4625929 20.349094
-3.415801 1.8496623 20.309999
6.8952451 2.4652951 20.398012
5.7830586 2.7366521 20.312168
3.693527 3.7221231 20.376709
3.6856675 -4.1807022 20.414827
0.96308208 -2.8906448 20.429035
-7.1152906 -1.5755997 20.466705
1.6944613 -0.49641898 20.416821
-6.4813981 -0.39604169 20.429012
7.7246857 0.52024829 20.494774
-4.9531584 1.1048512 20.49572
-3.1721625 1.9477737 20.409937
1.2218841 3.6284537 20.410255
2.0809073 -8.4375305 20.542273
-5.6965942 -8.2863359 20.520205
-6.7463427 -6.7509031 20.570324
-2.0267544 -6.7230177 20.597733
-7.4857731 -4.8165503 20.553963
8.4961929 -3.6417103 20.568624
-7.6221266 -3.0704064 20.544781
-0.46459794 -2.6376104 20.586245
8.5858774 -1.1220162 20.516262
0.61861444 -9.7026072 20.651508
7.8435607 0.24612677 20.687925
2.5245485 3.6865265 20.664207
2.142134 3.7229688 20.622063
-5.5183773 -8.4681549 20.795168
4.9385104 -7.5919027 20.738089
-6.8228202 -6.609551 20.758532
-7.1507778 -5.9642549 20.753603
8.4580288 -2.881031 20.71682
8.5098877 -0.63343161 20.723415
-3.0215247 1.7896419 20.73914
2.3697181 3.7331362 20.716532
-7.5300455 -3.3454342 20.865139
7.5054145 0.77187967 20.887289
-2.9837034 -10.018231 20.900713
5.1816316 -7.3804746 20.999376
6.6412268 -6.3164921 20.962109
-0.76396471 -2.6807456 20.901175
5.389287 2.6872237 20.987761
-3.0395386 -10.025085 21.057022
-5.0676098 -8.8539267 21.04702
7.5169439 -5.1738148 21.034809
0.22686562 -3.644644 21.03208
-3.6952131 1.0932162 21.008226
2.8573303 3.709753 21.074711
-2.5043612 -9.999052 21.116543
0.22162575 -5.1478004 21.167324
7.923315 -4.3819108 21.179842
-1.8594275 -2.6574547 21.1807
-6.3878555 -0.81119478 21.130795
3.3655748 -0.26637188 21.163094
2.5792031 -8.2564268 21.249191
-6.2158761 -0.41980812 21.297129
8.248353 -0.4881385 21.268614
-5.9576211 0.28157246 21.267754
-5.4718285 0.49875152 21.204792
-3.8178096 0.85934013 21.288288
-4.9071074 -8.9495869 21.382359
6.1762104 -6.61268 21.398762
-2.865829 1.4407821 21.325918
-0.97798371 1.9796662 21.39085
1.4007134 3.007755 21.39834
-6.2994576 -7.6732721 21.470566
-2.9715285 -6.5077267 21.420048
7.2363439 -5.6169682 21.421688
4.239409 -3.8700376 21.418356
-7.4044271 -3.6308198 21.42993
-0.95224953 -2.7468157 21.474712
8.3184681 -2.3078415 21.443501
6.9055471 1.9354479 21.417271
3.3008523 3.5418255 21.465281
-2.5054519 -9.9579029 21.549503
0.62287378 -8.6619959 21.565203
3.0088234 -8.1147633 21.589142
-3.4067454 -8.0303354 21.567089
7.9741893 -0.27193704 21.539402
-1.9497707 1.8391751 21.56414
0.79980558 -8.2241364 21.64673
3.2857351 -7.8602309 21.621771
1.5455545 -7.7985091 21.698065
-2.0889585 -7.5252891 21.698708
-6.957334 -6.386179 21.613483
-7.2419672 -4.3046622 21.638334
0.24878426 1.860093 21.630407
5.9575362 2.3325524 21.654318
-2.4226675 -7.4238596 21.750387
-3.2479548 -7.1031275 21.799028
-5.4210262 -6.8858957 21.772295
3.9590621 -6.596066 21.75671
-7.011755 -6.2847638 21.730202
5.304286 -6.0905886 21.79137
7.1884193 -5.6288872 21.78738
-3.5366321 -3.5221519 21.764978
2.6498892 -0.11426014 21.766624
6.6982698 2.1056297 21.776766
4.5699372 2.8817663 21.786909
0.23075673 -6.9222784 21.852077
-3.11585 -6.8850126 21.856989
-7.1734495 -5.9707818 21.81431
0.88606173 -2.7624798 21.89711
4.9231405 -2.7048705 21.80084
-2.4440265 1.4423794 21.839165
0.80251414 2.8128951 21.817719
5.5344706 -6.8448772 21.940964
-3.2255657 -6.6734433 21.904675
-6.6823034 -6.1078696 21.900696
7.8641529 -4.3319039 21.935366
-7.2290592 -4.2196751 21.994015
-7.2137442 -3.6891117 21.999043
0.93024576 -1.6762303 21.98908
7.8472443 -0.20314528 21.993311
-5.661355 0.00037012994 21.96913
-3.5844359 0.66831362 21.919258
-1.1233535 1.6287868 21.911144
0.44979131 2.1088436 21.928881
-0.98838478 -6.1725521 22.050573
-3.6360967 -5.9777045 22.057617
-3.9000258 -5.2701011 22.039978
3.7479949 -4.6896148 22.002192
2.7365441 -4.5828695 22.073793
6.1706352 -3.4667649 22.099463
8.2756443 -3.4590161 22.059383
7.7016907 0.031840071 22.053547
5.9115882 2.2760148 22.006659
-2.807478 -6.9292083 22.154089
5.9423156 -6.3972521 22.14883
-4.3378015 -5.3388863 22.187704
0.051889047 -5.144959 22.182217
-6.9438305 -4.9898252 22.146301
3.4133005 -3.7462783 22.130653
-7.1577272 -3.3815122 22.14024
5.7055788 -2.9389117 22.178362
6.7879171 -2.6734331 22.168259
4.3764119 -0.85542077 22.162819
-2.8058085 1.0605199 22.124458
-1.5652627 1.4513632 22.153244
4.6978893 2.7184463 22.176529
-3.9969525 -9.2748299 22.295551
1.531831 -3.9293792 22.285273
-1.989679 -2.7047591 22.23703
4.3047385 -2.7604868 22.231787
0.79321575 -2.1767352 22.267881
7.1530471 -1.9478948 22.249172
8.0823059 -1.9342002 22.211172
6.7596235 1.7253757 22.244429
-0.84626251 -10.307474 22.332657
5.2212033 -6.9193912 22.396221
0.47979498 -4.9055061 22.376289
4.9723177 -3.0606532 22.343548
4.7648239 -1.8977454 22.330196
-6.2480102 -1.5867109 22.352318
0.51967335 2.0965452 22.397116
2.9336162 3.3424554 22.337936
-3.7475202 -4.4920664 22.413813
-5.9124699 -3.9296844 22.458597
4.9764924 -3.1914558 22.484011
0.85084701 -2.766099 22.486874
2.9030895 -2.5501385 22.417667
5.0435405 -2.0323439 22.479126
3.7731228 -1.530046 22.401066
7.2560611 0.11971784 22.493782
-2.3309166 1.0933683 22.435387
3.8312948 3.0352702 22.414913
3.0698073 3.3185046 22.448586
5.1264911 -6.9840145 22.528065
5.4083843 -6.7692928 22.568518
-2.0300789 -4.1151681 22.555717
1.1868874 -3.6278987 22.563078
1.1708471 -3.577734 22.529217
-6.6959047 -2.5926352 22.543903
1.2146342 -1.159654 22.579784
-4.7294207 -0.10371135 22.540024
7.3416348 0.35736185 22.519571
4.6065726 2.6794965 22.592737
6.9661274 -5.0715089 22.688726
-6.754488 -4.005877 22.670837
-1.9078866 -3.8767185 22.605316
-0.25535831 -3.4235163 22.655718
1.0357224 -1.3870661 22.690113
1.5093288 2.7379491 22.671112
-0.76058173 -3.0555716 22.772764
0.37329885 -2.5099986 22.712259
5.1322222 -2.1687946 22.778559
7.603405 -0.77960718 22.75457
2.8562956 0.27591038 22.746006
4.2372837 1.0355039 22.712795
4.4935608 1.223012 22.72949
-6.6598701 -4.7895093 22.844604
-6.6137009 -4.2340527 22.83988
-3.8773596 -2.549087 22.88166
1.0596218 -1.9051889 22.818392
-6.0023394 -1.5411872 22.871618
3.194186 1.6669674 22.82122
0.91378832 2.687906 22.841335
-2.1607192 -9.8116941 22.934893
-3.1599526 -9.5183268 22.943369
-5.3441787 -8.1383505 22.928158
5.9135904 -6.3685656 22.948631
-0.42982215 -2.4605634 22.921333
-2.5727894 0.62250912 22.959698
-6.69559 -5.510344 23.090998
-1.0757422 0.86402261 23.089315
0.46202576 1.5818734 23.003225
2.7817104 3.0646801 23.080221
2.9896412 -7.7885675 23.100586
-6.5682468 -4.0531383 23.140381
0.012455896 -3.7178059 23.17156
-4.8172145 -0.49667099 23.261501
2.0391905 2.4509196 23.27936
-5.1970348 -0.69983363 23.334173
-3.8038335 -0.62660033 23.350584
-3.9527287 -0.21833579 23.345406
0.30504581 0.40886921 23.352482
-1.9303355 0.62862456 23.306433
1.3607526 1.4803417 23.319382
-0.90221512 -2.8096581 23.448294
-1.0579939 -0.17162514 23.469414
0.52045041 1.2791846 23.485403
1.311067 2.1743708 23.451651
-0.11917272 -10.24334 23.55232
5.1620808 -6.9055896 23.525679
-2.4161942 -0.21979865 23.506002
6.8913527 0.14434664 23.539906
-0.040339403 0.76399678 23.531153
-0.034830086 -10.135366 23.651928
0.51286149 1.4119413 23.668774
3.5706244 2.5406659 23.745638
2.5059881 -7.8896604 23.862202
4.8001628 -7.1612849 23.860218
5.3255196 1.8176761 23.918072
7.2229366 -0.66422117 24.088249
5.8197904 1.5989139 24.029982
-5.9848642 -6.6825314 24.256702
6.0745244 -6.1726627 24.22146
-4.2155104 -8.7104082 24.373352
-2.4887028 -0.16726473 24.351025
1.2062224 -8.2744217 24.486452
-3.5187833 -9.1255665 24.612837
5.1229792 -6.8768287 24.644863
-6.3331833 -3.3311443 24.612711
-3.3888044 -0.45419094 24.647533
4.2984791 2.0347815 24.679657
-5.6767645 -7.0891018 24.739407
5.2473688 -6.7710648 24.822472
-6.3205481 -3.4745963 24.857082
1.5114183 1.7664846 24.869083
-1.241528 -9.7307739 24.902874
-5.5348206 -7.2873511 24.929779
-6.1087952 -6.2553596 24.91213
7.3883371 -1.8844264 25.056477
2.7078729 2.4483516 25.004181
-1.1069512 -9.7304897 25.127911
-0.54491568 0.79949421 25.106598
3.6817992 2.159498 25.15624
-4.4981017 -0.80672014 25.36544
7.3219576 -1.5289562 25.458019
2.088109 1.9673843 25.461275
2.6663425 -7.8050451 25.573307
-0.60307264 -9.7872953 25.639984
-1.5746881 -9.504734 25.653427
-6.3912973 -5.0163121 25.70071
7.3711462 -3.1817231 25.766666
6.8417397 -0.57819903 25.704086
0.70158124 -8.9359951 25.831223
-4.897933 -7.7929115 25.84523
3.6494508 -7.5656929 25.854551
-5.3167629 -7.3698058 25.872118
1.4484375 1.5528073 25.837791
7.3711367 -3.5701675 25.93623
-1.610262 0.1989629 26.144693
0.12523223 0.95763779 26.12718
-4.7683082 -7.8021002 26.252256
-3.5155654 -0.46903396 26.251736
-2.5223482 -9.1079903 26.368374
-0.23212641 0.79673254 26.39485
6.5328622 -0.12350801 26.594585
-5.5378361 -2.0068443 26.731274
-1.5682225 -9.3673592 26.871321
0.15420717 -9.4129944 26.910461
-6.0636978 -2.9079587 26.978746
-2.585916 -9.0731916 27.005852
6.341434 -5.926929 27.057339
-6.337831 -5.3557563 27.082129
3.2933688 -7.8331113 27.195919
7.1524057 -1.640419 27.225504
-0.87176979 0.46909654 27.261198
2.7930899 1.9718878 27.204861
-6.2755694 -4.8378344 27.377987
-3.6833339 -0.36948267 27.499475
-5.0570507 -7.5134454 27.537901
7.2467866 -2.8270228 27.542501
0.31150457 -9.3918705 27.658058
-6.155252 -3.8006496 27.679548
3.4316962 1.7269087 27.643702
-3.1075225 -8.8775826 27.708918
6.4754024 -5.851244 27.706488
7.17733 -1.9751983 27.793076
0.42921385 0.97049975 27.834505
4.377317 1.3231845 28.118572
4.0080795 1.461368 28.131733
-5.7282639 -2.4052105 28.229372
7.2126527 -2.7167816 28.392311
0.75786769 1.0392406 28.372162
6.9757972 -5.118145 28.446381
-1.234373 0.62003326 28.472683
-4.828835 -0.59917516 28.562042
7.2694602 -3.6318641 28.662718
-3.351882 -0.021368355 28.617905
-0.8648771 0.76921523 28.641691
-6.0027175 -6.0562534 28.850164
6.8106194 -5.502646 28.890659
-0.90135878 0.79863346 28.829506
0.034053907 -9.3981934 28.985149
-0.63660133 -9.5094538 29.089867
7.2643175 -3.6980824 29.024214
-5.0751872 -0.96199471 29.013479
-1.0440937 -9.4619122 29.197048
0.39654925 -9.3673162 29.185381
4.181509 -7.7515917 29.171185
-1.252848 0.7553367 29.125547
0.74195808 1.0895839 29.146839
-3.2722301 0.13278383 29.316746
-1.1110461 0.84403175 29.336061
4.8326845 1.0016415 29.359102
-5.3042002 -1.4556772 29.445549
-2.5420716 0.42598751 29.484701
7.2187219 -4.7818842 29.575686
-6.220798 -4.6450219 29.523922
6.4646707 -0.54136002 29.558823
7.2191324 -3.4408407 29.734604
0.63537109 1.1146598 29.745064
-6.2132702 -4.6297822 29.807392
0.60763711 -9.2450619 29.982021
7.1171331 -2.2929466 30.086563
-5.4617171 -7.1926413 30.180676
6.7297554 -5.8311725 30.279331
-3.9431357 0.042719156 30.357481
5.7203169 -7.0216212 30.536364
-6.0721617 -5.8462081 30.697359
-0.66981626 -9.3999014 30.750431
1.5990582 -8.7378674 30.713482
2.3400116 -8.4570341 30.748383
3.6361175 -8.0542641 30.76276
-4.9498138 -0.28917405 30.758774
4.9771423 0.74475765 30.735176
3.5453606 1.368383 30.749422
-4.3236713 -8.0140142 30.811121
-6.1177654 -4.0726337 31.053572
-0.63749915 1.1056808 31.090591
6.4077549 -0.60903764 31.21818
-2.7705269 0.60475069 31.200615
-1.9792902 -9.009387 31.36232
1.7625039 -8.6940384 31.367834
0.38265967 1.1955384 31.311758
2.9093976 -8.3297348 31.408573
-3.3801141 -8.5223026 31.59762
-0.77868015 1.1079369 31.577389
-2.8678944 -8.6813269 31.648499
6.9984698 -2.2700191 31.687023
-4.976882 -0.34985486 31.621548
6.0727711 0.16723269 31.603239
1.0472749 1.2491249 31.603094
5.4765182 -7.2590084 31.787706
-5.646524 -6.6491742 31.835957
6.3305798 -0.53105175 31.857334
-3.8538737 0.19740987 31.821354
4.5116801 0.82365793 31.874718
-2.9103067 -8.6411505 32.096138
5.1843863 -7.4628463 32.185024
-2.2886496 0.83195162 32.187752
3.09321 1.4168519 32.108692
3.0686936 -8.3424816 32.237156
-5.6801205 -6.5196142 32.412266
-6.0400848 -3.6512561 32.455963
-6.17418 -4.8899765 32.550396
7.0369959 -2.5491679 32.578243
5.8896437 6.2880783 32.588818
7.0739989 -2.7825928 32.694283
5.8288221 5.2676797 32.65052
-4.5737214 -7.7302961 32.756317
-6.0347295 -5.7932987 32.794552
5.6495557 5.5544753 32.70182
5.5499067 4.9837303 32.856548
1.5363594 1.2023453 32.90023
4.5213203 -7.9239106 33.077705
5.7709317 -7.1633258 33.098
1.9811971 1.257426 33.038807
6.3189983 6.3979678 33.078522
0.01566042 -9.2684498 33.152912
-5.7550097 -2.4644299 33.137421
6.3951106 -0.91297835 33.194038
-4.0867128 -8.011754 33.255035
6.1306019 -0.16196057 33.28933
3.8558087 -8.1796045 33.361103
-1.75185 1.0742668 33.313465
6.2288003 5.8834434 33.363003
-6.2064748 -5.3744469 33.479031
-1.8547312 1.0528646 33.524796
1.9313627 1.1939557 33.670837
0.34566742 -9.2915449 33.74543
6.918962 -5.6831484 33.712303
0.42207402 1.0993123 33.711117
4.3686419 3.7433114 33.763771
4.8850551 4.0976715 33.728333
-5.4899106 -6.7971578 33.872734
5.7595186 4.151782 33.983299
6.2137156 4.441782 33.923252
7.1293325 -4.1959362 34.086117
-5.0310087 -0.49191681 34.030556
4.9719782 0.4122386 34.172447
4.6633773 0.55539012 34.117031
-1.5718503 1.110164 34.122372
-2.359077 0.87775975 34.212688
-6.1654592 -5.2228484 34.319229
7.0748386 -3.4958575 34.413414
4.6949148 0.51113021 34.431347
4.8707824 3.6996996 34.42712
5.9357052 4.8300681 34.439213
6.1582141 5.606473 34.450672
-5.1841168 -0.915479 34.577377
-0.3323915 1.0903944 34.540867
6.0408792 5.4214845 34.534946
6.1950011 6.8268008 34.552055
-4.1124153 -7.8910666 34.623886
-5.0047264 -0.41663253 34.67997
7.0407653 -3.1279652 34.789551
6.6376686 -1.8305278 34.730419
0.62330687 -9.2627125 34.842407
-2.9214008 -8.480092 34.849281
6.2002578 -6.9026604 34.838928
5.9613919 4.1071367 34.815002
6.3452191 6.0311913 34.832745
-5.9321694 -5.8260455 34.987129
-5.9687123 -3.3411608 34.996235
-5.9510059 -3.1101811 34.948257
-6.1190581 -5.0564294 35.069588
7.1217442 -4.9281969 35.073978
-1.1378583 1.0956841 35.121105
-0.5295766 1.0678511 35.174797
6.7576666 -5.9176359 35.244301
-5.9326096 -5.7502995 35.307152
-0.59572387 1.0572982 35.394592
7.0668983 -4.3405161 35.437775
0.70942044 -9.2451153 35.583858
1.1981868 -9.1334553 35.570503
-4.7460389 -7.3686104 35.522675
7.0243211 -3.7591972 35.560749
-4.9332099 -0.4237507 35.526569
6.7010112 -2.4500787 35.668385
5.6910686 -0.054336712 35.625603
4.3599796 0.539967 35.671406
-2.699724 -8.5056515 35.780216
6.826087 -5.7392097 35.774918
-5.9799104 -5.5495872 35.78447
6.372344 -1.5451639 35.738605
-4.4049788 -0.025369555 35.745682
4.8665347 -7.8120842 35.947605
-5.9845748 -4.1839128 35.902565
-4.1476784 0.085310027 35.909809
1.629636 1.0091859 36.042721
4.3867884 4.2667079 36.076618
5.0459204 4.9688025 36.048462
4.6083126 5.0168734 36.030426
-4.7706718 -0.33114988 36.150314
-4.5012364 -0.21385989 36.329197
-2.6981845 0.68733883 36.321728
2.785779 -8.6934433 36.41996
5.2473059 5.4684629 36.431091
-1.5836077 1.00015 36.502148
5.2556553 5.7324944 36.583328
-4.4427252 -7.4474735 36.677475
5.2383747 5.7434807 36.639275
6.2189498 -6.6076159 36.731342
5.5082011 -7.3497691 36.894306
6.2295356 4.9213786 36.873077
6.1833258 6.0893464 36.843483
-1.2945908 0.95140308 36.928173
5.8117566 -0.74105597 37.092781
4.593955 -7.9640551 37.185989
6.8977065 -5.1360679 37.187218
4.9104743 5.4207702 37.193333
-1.9354817 0.94539541 37.29076
4.6187878 -7.9257374 37.360062
4.5061564 5.0686011 37.302799
6.2416005 -1.8282024 37.477455
-4.392333 -0.40433094 37.451839
6.8206568 -4.7739649 37.555462
6.4109883 -2.2382777 37.556114
0.33288857 0.79713064 37.646889
-2.359055 -8.5089474 37.881649
4.2714014 4.6579599 37.842129
1.9649626 -8.9818525 37.950367
-1.9195509 -8.6549425 37.91169
-3.0804305 0.22851156 37.939735
1.1414715 0.78733808 37.940575
6.1881247 4.0795879 37.981541
6.3053203 -6.0993032 38.017147
5.8003464 5.8896332 38.090714
2.8272257 -8.6849375 38.155804
-5.2374864 -2.4914653 38.13158
-1.7929147 0.79609275 38.15424
4.3114281 5.6429005 38.156647
6.2707224 5.6083155 38.11647
3.7908845 -8.3589211 38.280704
-5.6220551 -4.0389051 38.272827
7.2317343 -4.2654018 38.381695
7.0215592 -4.1882215 38.334869
6.5676775 -3.210608 38.304909
5.0816584 -0.47772902 38.342659
-1.1657877 0.67937922 38.390305
3.0482678 0.71266896 38.331528
4.4451289 3.8477948 38.358009
4.0698743 5.1568761 38.355057
1.867355 -9.0267563 38.422943
-4.6353164 -6.9479485 38.410103
3.0663905 0.63497132 38.477612
6.2481112 4.1722522 38.446949
4.6941242 -7.7481618 38.587379
-4.6999807 -6.7998314 38.531452
5.112175 6.2195244 38.58532
-4.3513503 -1.0518833 38.660572
5.1161489 -0.60884929 38.643707
3.2240076 0.46521467 38.643291
5.3492785 -0.89619744 38.756557
4.4871855 -7.9214087 38.802177
-5.5217724 -5.1003408 38.971355
6.6573372 -4.9271483 39.071209
-4.2070875 -1.0983886 39.082523
2.5351067 0.44503435 39.042286
-5.9792938 -3.9373507 39.102287
6.4625268 -5.4705052 39.224327
-0.4493525 0.31152803 39.220566
5.2169256 3.3014841 39.263905
7.0288949 -5.3118238 39.38913
-5.4340663 -4.8287263 39.359055
-5.63448 -4.0381122 39.379257
-2.819628 -0.25723875 39.339287
4.7979698 -7.4774427 39.447464
5.5237126 -1.970347 39.460747
4.5628424 -0.67205602 39.400967
-4.6757765 -6.4019222 39.576473
-0.56757301 -9.0583153 39.600822
-4.7934275 -2.7772441 39.630764
5.4850569 3.2347975 39.687122
6.4024296 -5.2000556 39.71637
7.664125 -4.9874892 39.778973
5.8689365 3.2630267 39.770569
4.3340406 4.3567495 39.727543
7.5118861 -5.367219 39.888878
3.5042062 -0.33582264 39.829254
-2.0929971 -0.18605945 39.898109
-4.6616406 -6.2402201 39.966404
-5.2694063 -5.2019749 39.901081
2.0496135 -0.051235288 39.948845
6.5789475 4.4429278 39.999512
-5.3918171 -5.5796642 40.062851
7.4213982 -4.4679189 40.060947
1.6855527 -0.13092689 40.058743
3.7045584 -8.2043734 40.146687
-5.1557775 -5.4862347 40.104401
7.518836 -5.172029 40.131275
-6.4672956 -4.8520494 40.230576
7.2565832 -4.4550142 40.216099
-2.9800444 -0.96246576 40.287392
-1.1956711 -0.25641906 40.364754
6.2699461 3.3910282 40.346947
4.260447 4.8299184 40.320549
4.2875896 -7.6807728 40.410259
6.3150215 -5.7536774 40.432587
6.8312621 -5.5968313 40.49538
5.9904599 5.6948948 40.484005
5.3223834 -6.545558 40.594036
-5.2027073 -4.3335929 40.563183
6.6190057 4.8366485 40.503761
5.7941971 5.7664304 40.585968
-6.2971849 -4.6141505 40.620163
-4.3164997 -2.7250826 40.625916
-4.7347183 -5.7714386 40.719421
6.8025856 4.1433282 40.78883
-5.598701 -5.6966825 40.843193
-4.5587549 -3.1757636 40.868557
2.3876808 -0.51139206 40.848488
5.9397554 -5.5051327 40.904072
7.1657023 -5.4329681 41.087238
1.1423676 -9.0109196 41.281181
4.4679418 -7.2822719 41.264889
5.0894423 -6.603931 41.349945
6.6764393 -5.9182453 41.399036
5.8919816 -5.2016673 41.352608
5.9115925 -4.9268332 41.382954
6.2957182 -4.5847735 41.395073
6.5480909 -4.5934477 41.322098
5.6857939 -3.6798661 41.346642
5.4640408 -3.383266 41.362881
-4.0688176 -2.7941933 41.308323
0.7228834 -0.84226203 41.307442
5.0495396 5.7668867 41.356247
5.9197712 -4.82339 41.412548
-3.7981243 -2.5066967 41.442776
4.5633445 5.3764639 41.439507
3.8599939 -7.8354998 41.511436
5.604949 -6.4271264 41.536446
-3.964015 -2.8475177 41.594437
1.1304592 -0.94184291 41.554306
1.0194504 -9.0198689 41.654404
-3.21192 -7.3804531 41.658184
-4.5397358 -6.9204807 41.657112
-0.72048521 -0.94749492 41.64576
4.7099304 -6.9195161 41.76902
-5.6933365 -5.9872546 41.803734
4.2909784 -2.0183947 41.867188
0.6804325 -1.1519939 41.938126
4.9396529 3.4315069 41.95369
-1.3449206 -8.5085211 42.009468
-5.7687788 -4.8607874 42.000248
-2.8412039 -1.8631092 42.020092
2.2614136 -8.5510406 42.148243
4.1357989 -7.3991957 42.106796
-4.0136962 -6.2608676 42.164501
-1.7281749 -1.427078 42.112701
-0.422548 -8.8320799 42.205528
6.2544203 -6.6678667 42.218498
-3.5773089 -2.7602091 42.259373
0.36836189 -1.3176048 42.281528
1.3908384 -1.2728276 42.276768
-1.5148787 -8.3699274 42.397079
-4.3472223 -5.8918037 42.398941
5.6402483 -4.7453804 42.320412
-2.7759531 -1.9172995 42.326431
6.8945303 4.6933141 42.338428
5.6531506 5.7871714 42.377975
-2.2028127 -1.7372273 42.471508
2.2075286 -1.2713223 42.409878
4.6749024 -3.1079466 42.557178
5.7194309 5.7592602 42.513557
3.4218197 -7.9542627 42.68557
4.9939055 -6.0610919 42.630219
-4.0042377 -3.5378082 42.669498
-4.1558218 -6.231461 42.81435
0.71740937 -8.915514 42.95578
-5.1695209 -6.4551635 43.051929
1.4346679 -1.5170512 43.038998
3.784065 -7.487289 43.114765
-3.9803963 -5.6106367 43.12117
-4.6480293 -4.9341326 43.263481
-1.1025722 -1.7858124 43.276569
-0.33675289 -8.9041986 43.305592
5.2914944 -5.4271884 43.362267
5.5244155 -4.4562697 43.353588
-1.2157084 -8.5494986 43.445393
4.5451422 -6.7024727 43.53846
-4.1591959 -3.7552447 43.515083
-2.831274 -7.5429063 43.620358
-3.7055657 -3.2311277 43.632492
4.7449703 3.8103366 43.616425
5.8584833 -5.096457 43.796612
-1.921221 -1.9183402 43.703762
5.0507746 3.2428153 43.786842
-5.2223082 -5.238811 43.805927
5.4446316 2.8366687 43.845085
2.6244028 -8.3105726 43.90683
-3.0700493 -2.7134159 43.902122
-3.0887995 -2.7545466 44.003006
-0.4259809 -1.5852005 44.011185
-4.0928526 -4.0131893 44.148636
3.6583309 -2.3488176 44.192238
4.655673 3.9236913 44.107548
-2.3418658 -7.8887568 44.289082
4.897357 -3.3617492 44.280617
2.7541051 -1.9526994 44.220673
0.16246207 -1.6424525 44.370365
0.30151281 -1.6362727 44.373482
7.0388985 4.8504333 44.376976
-3.608295 -6.1892624 44.479481
-0.10750803 -1.6742165 44.493378
4.8039794 3.6283467 44.402637
7.4205341 3.9649122 44.541996
5.1759028 -4.9874568 44.786671
0.00026625395 -8.853734 44.847919
4.7178931 -3.2476883 44.850677
-4.0036201 -5.1833167 44.935261
-0.17109126 -1.7457856 44.95322
4.8101935 3.4909008 45.096687
4.723434 4.2736187 45.056526
4.7362342 4.3432689 45.072624
7.392211 3.3525586 45.240959
-3.9659133 -5.1751232 45.364532
4.1174703 -2.6773431 45.466206
-1.5406188 -1.9150857 45.497482
0.5330708 -8.9309626 45.511898
4.0677795 -7.0494766 45.56086
6.6385946 2.5286517 45.579796
0.42653501 -8.889926 45.642208
1.402144 -8.6812229 45.81554
6.2248564 2.4112661 45.985886
3.8171434 -7.3958998 46.092869
4.7570009 3.3403864 46.038906
2.4486818 -8.2820225 46.160439
-3.9350004 -5.0800247 46.101849
-3.8386266 -3.2524157 46.11734
-0.55722874 -1.5038655 46.254013
0.57244658 -1.4658449 46.311672
2.3879287 -8.3383808 46.459114
-3.8985641 -3.4455106 46.414879
6.751596 2.3056364 46.47485
7.666049 3.8486357 46.481426
6.0268292 5.1282263 46.40284
4.7013979 -2.9026566 46.513275
-3.4652278 -2.7395983 46.677025
-0.6960907 -8.5791512 46.76569
5.1761532 -4.4493871 46.775085
4.6289191 -6.2297459 46.872162
-3.2991822 -2.5901341 46.831001
3.0427928 -1.6525967 46.893932
0.48749647 -8.8204041 46.958725
-2.8151751 -7.4317369 46.925613
-3.9799285 -5.0413885 47.167442
-3.3380866 -2.5287466 47.191612
3.8193719 -2.0005243 47.301365
4.7372975 3.1504092 47.342937
0.45099935 -8.8018675 47.420078
-1.8820084 -1.4424601 47.435455
6.045135 1.7250578 47.447895
2.4822683 -1.2627267 47.549267
5.0531721 -5.2301378 47.673393
-4.0979376 -4.8155022 47.63755
1.9998438 -1.0789031 47.646839
5.9191942 4.7651072 47.631622
-1.9915801 -8.0918093 47.712406
4.7805591 2.6642995 47.865005
4.8232594 2.3117645 48.119934
4.8261781 2.6218715 48.115765
-2.6291275 -7.7892542 48.264236
-2.7430885 -1.5912818 48.257938
7.2693782 4.0998373 48.299171
-2.6360726 -1.4573969 48.360016
-4.0575938 -5.523632 48.726547
4.1613827 -1.7227185 48.74485
-7.1767883 -8.580389 48.880493
2.9210196 -8.2128639 48.829697
-8.6022921 -7.810029 48.807037
-4.2603254 -4.8128767 48.822979
3.8844361 -1.4345876 48.849575
4.8702483 1.4707617 48.982296
-8.6889925 -8.4022827 49.064655
-1.1946663 -8.3797054 49.008862
-4.2086978 -5.1039662 49.005322
-6.8297319 -6.7922115 49.111851
0.63005906 -8.4654427 49.210453
-8.1706247 -6.4923296 49.211472
-4.2508559 -3.0841744 49.275269
1.9812989 -8.4720831 49.316231
4.8309183 2.1925545 49.378674
-8.6611166 -8.8043938 49.499012
-3.8574233 -2.1894188 49.495819
4.6019349 -1.6840143 49.439388
-7.397613 -5.7066379 49.540874
-2.2180784 -0.63581848 49.599941
5.2605367 -0.09751261 49.565708
0.92251289 -0.2670638 49.640034
-6.5064344 -8.8040829 49.742088
-8.4578266 -9.2290106 49.886265
0.49212164 -8.4971714 49.870476
-0.53150463 -8.6179018 49.970211
-6.2925434 -5.7469893 49.99432
-4.4636717 -4.6947851 49.98632
4.8511043 0.49992597 49.911568
7.6801176 1.4919794 49.93121
6.1830344 3.5544095 49.901226
-4.4756508 -3.3830004 50.016975
-3.3618274 -0.87799561 50.058804
-6.7688971 -8.2078323 50.150593
4.923028 -1.2618012 50.170799
6.6465888 -0.56254363 50.192162
5.0183063 -0.43721035 50.103279
4.5778384 -0.75580293 50.232716
-2.4880333 -0.35178 50.217113
5.2617865 2.5062757 50.249695
5.3414602 2.5172946 50.352386
-8.5348511 -9.3603964 50.492817
-8.9147158 -8.8150949 50.569935
-9.0217247 -7.8742142 50.56889
-8.8467398 -7.7982683 50.534607
5.7057366 2.7642989 50.585327
7.1350179 2.7879667 50.525253
2.3081796 -8.5534134 50.617599
-8.777832 -7.4013944 50.685528
-4.5231996 -2.856493 50.680626
-4.2802935 -2.0949161 50.692692
-6.9966636 -9.6350918 50.725582
-1.343956 -8.5389881 50.758049
0.76524931 -8.5018387 50.732204
-9.1044893 -8.356101 50.706123
-5.6476545 -5.8648634 50.705082
7.823791 1.434922 50.749504
-3.4705529 -7.9260206 50.819801
6.2681308 -1.3516095 50.811626
5.2747765 -1.2036625 50.881039
1.5567893 0.23521878 50.819099
-2.8203967 -8.3852491 50.972183
4.7551632 -0.422369 50.972294
-7.793849 -4.5807533 51.032936
-4.4043627 -5.9237013 51.198952
-7.939085 -7.6527572 51.253983
-5.7253914 -3.4015882 51.241196
3.1145763 -8.4861374 51.363907
-4.3388166 -1.2115742 51.395592
4.8355236 -0.25610733 51.434376
-8.1076908 -10.130995 51.519127
4.3158379 -8.1928568 51.590351
-8.3307428 -6.7549438 51.52301
-6.1643095 -9.1827927 51.603409
3.8537245 -8.3950233 51.625385
-6.6208229 -7.9032707 51.675655
-4.8593326 -4.0690947 51.643349
5.4985094 -1.0571959 51.665871
3.00302 -8.3803186 51.747406
-5.1602292 -5.1236839 51.776115
1.5742186 -8.5646324 51.872711
-2.6799755 -8.2966719 51.840164
-7.4545946 -3.6729202 51.848976
5.8523512 -2.82654 51.983997
5.7618074 -2.4237781 51.930794
5.6544375 -1.7999097 51.980701
-7.1028833 -7.5487022 52.04863
-0.47630131 0.59390545 52.07267
-6.0907373 -9.4101925 52.179932
-7.9275479 -4.4205341 52.159279
-7.7156363 -3.773344 52.102871
-4.7972345 -2.7692432 52.144489
5.8247113 -2.6013894 52.131134
2.5528312 0.74206579 52.190365
2.8348756 -8.2613554 52.208141
-4.0510011 -7.0703306 52.240776
-5.8222566 -6.7973666 52.288185
5.6929078 -5.3689117 52.258957
-3.2521131 0.45752877 52.218746
5.5266404 -0.34039685 52.368675
2.8597972 -8.1295652 52.426907
5.4736762 -0.019194379 52.431431
5.704246 1.5505934 52.437759
3.5143778 -8.0051832 52.546124
-4.8150997 -4.5316281 52.57859
-2.4326611 0.83967882 52.584332
-2.9620106 -7.6519642 52.660633
3.6193438 -7.7756834 52.748093
7.8276296 -0.23239414 52.777702
4.9610915 0.33899504 52.712097
-6.1188097 -6.6820383 52.827412
-6.1604614 -8.6711111 52.918808
0.5519281 -7.4328284 53.056057
-5.02807 -4.1618934 53.033089
-5.0169592 -3.6509256 53.054092
-5.7177548 -6.165801 53.222515
-7.1011248 -2.2624636 53.203445
6.1605654 -4.0472617 53.387817
7.6388736 -1.1691482 53.380375
3.3993733 1.1703724 53.333782
3.9792895 -6.7604766 53.49213
1.1342884 0.97435606 53.465591
-0.76535463 -7.1491394 53.545639
4.1849022 -7.0715065 53.557938
-3.4295087 -6.7978721 53.506863
7.535203 -0.21463294 53.542778
3.3067391 1.2316194 53.500351
-1.6786678 1.2905042 53.653324
4.3392086 -6.977273 53.707573
6.6070828 -3.4441829 53.73143
-0.38868564 -6.9768348 53.82642
-4.819262 -4.5507336 53.834343
0.2756325 -6.80899 53.975128
-2.8504024 -6.6981153 53.943176
-4.0769076 -6.4258385 53.994843
-5.2634463 -3.9969025 53.981293
-7.1251245 -3.5505672 53.963074
-3.5825284 0.78973538 53.989338
-7.9523811 -10.549764 54.052807
-6.2240105 -5.1822205 54.024437
3.8330445 1.1430422 54.048691
1.0347416 -6.7324882 54.113571
-6.5867195 -4.8476491 54.155266
-5.4384742 -4.5933361 54.177643
5.1886473 -6.2080879 54.208027
2.3466561 -6.578836 54.460083
-3.0043941 -5.7944803 54.402721
-4.1873407 -5.0824018 54.43557
5.080277 -5.019197 54.412453
-5.4063845 -4.2536788 54.425648
6.4397764 -3.7641277 54.445335
0.92602396 1.1278807 54.400169
0.35154781 -6.3967123 54.526958
4.4905152 -5.7075276 54.570175
-3.4603 -5.5763025 54.825947
-5.8214531 -9.3400068 54.964668
4.5966368 -6.1166196 54.912163
6.5300493 0.11329825 54.903282
-7.8763218 -10.297969 55.030861
3.8172536 -6.2180433 55.002609
-7.6176805 -8.6644974 55.167995
3.8793683 -6.0584583 55.178658
-2.8512433 -5.2378626 55.173546
-6.005867 -11.225389 55.263134
-7.951035 -9.8941479 55.247559
5.0777254 -4.422955 55.283638
-2.6394584 1.1605967 55.292896
-2.0164158 1.2510999 55.2831
-6.1576281 -2.983222 55.399551
-7.1299772 -8.5122805 55.434227
-0.84418046 -5.5618629 55.484646
-3.4466581 -5.3248186 55.477936
-5.4805641 -3.3640673 55.450855
2.5060332 -5.5895958 55.541862
3.4242663 -5.0381994 55.576653
7.0643148 -0.73472452 55.583885
7.0094638 -0.67017055 55.596809
-1.8969412 1.1876897 55.536072
6.9302979 -2.97928 55.650425
-6.0522523 -2.8009894 55.669666
1.155291 -5.437511 55.79372
-2.6234841 -4.7955084 55.770695
-2.7662563 -4.9972825 55.843296
-0.27908629 1.1335487 55.883553
1.7995133 1.106226 56.021973
-0.41873205 -5.1677833 56.102215
-5.0630169 -3.2401354 56.153191
-7.4377084 -9.1575089 56.281208
0.5949862 -5.0238438 56.200611
1.3877251 -5.0813842 56.273674
1.8151728 1.0544214 56.258362
-6.4131851 -11.664864 56.348129
-7.2949805 -8.9770508 56.342731
-2.8488283 -4.2821546 56.351982
-5.6946316 -1.5802885 56.346703
5.4182434 -3.5659146 56.441566
-5.8537054 -9.4288311 56.544334
2.517283 -5.204442 56.668125
6.6892018 -1.8413807 56.635979
1.5570242 0.96481633 56.65213
-5.6663752 -11.662079 56.705864
-5.4459786 -9.9142857 56.747829
3.0267467 -5.0737448 56.709549
-0.6113897 -4.6884565 56.794212
3.7983112 -3.8969016 56.798943
-4.7639122 -1.2139572 56.761517
-5.2762008 -10.380038 56.879158
-7.3056703 -9.391717 56.905827
5.5884624 -1.6853933 56.979404
-3.2024164 -0.039493095 56.910179
-6.6428223 -11.726624 57.076672
4.130724 -4.5721145 57.063946
-6.7323222 -9.1314964 57.181408
2.9018261 -3.9142823 57.139164
-3.3504493 -3.0341725 57.110558
4.8309512 -2.5535045 57.1073
-1.9446582 0.25536603 57.185638
0.06912493 -4.1627269 57.219501
4.0129395 -3.1975069 57.215252
4.8796425 -2.0124733 57.250923
-1.1113293 -4.0980997 57.331551
3.426002 -3.8615956 57.317291
-5.083766 -11.004316 57.436516
-6.154521 -9.1815767 57.41679
-0.14418517 -4.1122098 57.503792
-3.1115973 -4.0657644 57.543552
2.178766 -3.7681303 57.586174
3.453826 -3.3274159 57.550053
3.9849639 -2.3319378 57.57695
-2.2981279 -3.9015865 57.608269
4.0666232 -3.040314 57.670734
-1.5664914 0.17539345 57.799095
2.2765877 -3.4901314 57.818794
-1.1523581 -3.7447529 57.965122
-1.4070845 -3.2327135 58.057213
-5.1646504 -10.184683 58.178535
-1.5213283 -4.2598009 58.177059
4.3648491 -2.9239693 58.17617
3.2712533 -2.3687732 58.283497
-5.9485178 -12.010294 58.391682
-0.79153013 -3.5147867 58.338844
2.5303261 0.084597521 58.360466
1.3700539 -3.967144 58.611755
3.4340847 -1.9864311 58.64817
0.23005304 0.7880038 58.653286
-6.8002248 -9.5137186 58.759163
-2.1760006 -2.3117564 58.784019
3.275209 -2.0306499 58.746639
-2.6031208 -1.769951 58.716698
0.43613639 -5.9534664 58.85358
0.83348328 -5.9562721 58.84782
-6.9253049 -11.225274 58.926517
-7.150279 -10.403236 58.97673
0.94873679 -5.3072333 58.960026
-2.4053602 -3.2416551 58.984352
3.131804 -2.3600602 58.934727
-5.6729889 -11.825944 59.055576
-1.2231556 -3.0554872 59.077629
3.4160199 -1.5035996 59.035942
-1.7618862 -2.8131568 59.14846
2.7148423 -0.60879397 59.106384
-0.22762507 0.39297754 59.121437
-5.7265863 -11.84338 59.276855
-0.56162322 -4.5191326 59.230316
-1.8792675 -2.3572025 59.259781
1.5523167 -4.6129417 59.393486
-1.9834912 -1.8039006 59.395466
-5.1546082 -10.689751 59.423653
-1.2647371 -2.0830357 59.475616
-1.9223514 -1.9920928 59.438297
2.1790659 -3.7002821 59.626148
-5.745162 -11.75668 59.792828
-5.0083094 -11.557467 59.723255
-0.1830539 -6.2278223 59.765171
-1.4426496 -4.5598893 59.707241
-0.76684254 -0.13859694 59.813484
-1.0090512 -1.147981 59.924404
2.2464557 -0.34804684 59.919346
0.98187804 -5.6160831 60.028236
-2.291167 -1.3194798 60.017681
-1.6640408 -4.6805658 60.111141
-1.2129622 -1.0759183 60.199547
0.12428673 -0.25356221 60.12886
-5.6641269 -11.643079 60.216282
1.0069267 -6.2726488 60.256119
1.2686703 -5.8019285 60.242531
-2.7269309 -1.6403089 60.237301
0.21281196 -0.33277375 60.232948
-6.4558053 -10.698997 60.365944
2.2602594 -4.5813074 60.369232
3.4373612 -1.5094545 60.347473
1.1484268 -6.1718645 60.427925
-1.2489836 -5.9039173 60.437447
2.4074094 -2.9311261 60.416794
3.9461069 -2.6183977 60.410778
-4.2566934 -9.7477608 60.553593
-5.4207902 -8.8501215 60.523121
-1.4104056 -5.9060478 60.574356
-2.1642962 -4.4837141 60.689926
2.4217873 -4.2425728 60.693401
-3.1296077 -2.7458842 60.684658
2.9810276 -1.3711786 60.685131
-1.4723713 -0.6358093 60.603939
0.26651162 -7.0983772 60.709305
-2.2205863 -4.2819314 60.777054
3.1374426 -1.3418418 60.784515
-4.3455024 -9.8990822 60.847507
-6.1992416 -8.1477509 60.89529
-0.48079777 -0.36213312 60.884155
-6.4035563 -10.364386 61.07354
-0.8789711 -6.5843577 61.138077
-0.17632532 -0.2285734 61.152229
-4.5130811 -11.142756 61.252304
-4.3917351 -9.5028934 61.254589
0.45385486 -6.2868052 61.21669
0.5131408 -7.6581297 61.374538
-0.22705527 -7.211133 61.361492
3.4118876 -3.1036601 61.395504
0.16201781 -0.16511036 61.311718
-5.9421649 -10.785838 61.546669
-6.2327099 -8.9234591 61.54229
-5.4359007 -7.8498917 61.594898
2.2368958 -0.73571241 61.511806
-4.8442492 -11.600943 61.663403
-6.2993436 -9.2822723 61.693764
-3.460104 -10.851543 61.856567
-3.6397889 -10.447865 61.862427
-4.548378 -9.6191549 61.8102
-6.0437074 -9.0977058 61.850628
-2.2485933 -5.8226476 61.838799
-2.6341312 -4.4186487 61.812683
3.4192142 -2.9187903 61.887726
-3.3946736 -1.4715323 62.057014
-4.8545656 -10.975183 62.141563
-3.9439509 -10.779697 62.185822
-2.1270568 -6.0680723 62.172585
-4.2554898 -9.7519207 62.221298
0.079718769 -7.3219004 62.261955
-5.3265066 -3.0562232 62.38908
-5.555244 -2.8009446 62.37896
-5.501514 -2.7151842 62.365044
-3.4947739 -1.6869146 62.378719
-5.7022738 -3.211864 62.403332
-5.4105234 -2.4471707 62.487137
-0.60532022 -10.172888 62.557331
-5.5925722 -4.7517123 62.592728
-5.7455797 -1.4981205 62.525768
-4.6652369 -0.10073106 62.556999
-4.5247898 0.6922406 62.550598
-3.8144708 1.2744318 62.525352
-3.3804708 -8.9649982 62.638973
-3.7108681 -7.3461742 62.690128
-4.5183001 -7.2472348 62.699448
-4.4127235 -6.5115848 62.693462
-5.8265152 -6.0659571 62.650608
-4.3705454 -5.9427137 62.614029
-4.3137932 -5.5846844 62.659824
-5.5980296 -5.424469 62.638287
2.3552699 -5.3257828 62.687378
-5.9545498 -4.4538741 62.659187
-6.3652606 -2.2936816 62.691483
-4.4349627 -0.4020859 62.639565
-4.4905977 0.38188347 62.612305
-4.2681336 0.36436036 62.613396
-3.6433997 1.3444397 62.65226
-4.4145565 1.7896271 62.645588
-6.0173259 -9.2705221 62.738358
-2.3319912 -8.8909988 62.712048
-4.7131824 1.6177701 62.764076
-4.1131601 1.7437313 62.73336
-3.661829 2.0440347 62.796745
-2.6096363 2.6135325 62.710052
0.080115072 -10.238045 62.822952
-2.3848546 -8.6822958 62.823975
-5.3295236 -7.5535202 62.87999
2.8081825 -1.1182784 62.888634
-3.6897106 -0.39546874 62.868622
-4.5525656 2.0434403 62.849323
-1.0263815 2.3837826 62.843872
-2.144444 2.8521371 62.850494
-5.1256943 -8.1997652 62.905563
-2.8761501 -8.1285267 62.937866
-0.027729772 -7.1415544 62.933388
-4.1221628 -3.3765686 62.90287
-4.117733 -3.1866131 62.93187
3.2575216 -2.897619 62.940353
-6.3137612 -0.90633261 62.952805
-1.3697917 0.45608079 62.97229
-5.6266336 0.53076506 62.987358
-0.9381305 -8.9615688 63.04512
-2.2189443 -8.4938068 63.068405
-1.5060632 -7.2061081 63.033539
-6.0480494 -6.8930511 63.07317
-3.3224258 -6.459301 63.077324
1.7860947 -6.1751614 63.075356
2.4265049 -4.5778966 63.09053
-4.0863647 -3.4940352 63.027874
-1.4610429 2.6438577 63.016159
-5.4983606 -8.15903 63.114716
-2.8581877 -7.2677193 63.112061
-3.1630254 -6.7616587 63.116817
-4.0635233 -3.4958315 63.193787
-5.4440603 1.214278 63.146347
-0.16589233 2.6590407 63.125492
-0.49859285 2.7196736 63.197914
-3.032017 3.253258 63.151493
1.6144121 -10.181907 63.226387
-6.1179786 -6.9225407 63.238461
-6.6927567 -5.0948815 63.250481
-3.2321763 -4.5241804 63.20789
-3.957725 -1.8284419 63.246483
-2.452847 0.062393852 63.23069
-1.7625904 0.38032061 63.257996
-2.2746286 0.83365959 63.205818
0.030395173 2.7892263 63.247826
-2.7647943 3.3617477 63.204597
1.1818573 -9.6823997 63.385105
-4.5420074 -8.8272552 63.363209
-6.1978745 -6.9274731 63.327038
-6.5508347 -6.161026 63.336624
-6.6268787 -5.7484064 63.351212
-1.8856143 0.3480497 63.365799
-2.2096896 0.82812726 63.347466
-0.33020124 1.7755321 63.374268
0.60499388 -6.4765959 63.493313
-6.8569198 -1.6968255 63.409428
-6.7225556 -1.0083401 63.445129
0.32568485 0.5964455 63.437122
0.80997884 1.8705922 63.498482
-2.5174074 3.4940195 63.460152
-2.6173747 -6.930263 63.575176
-6.6048508 -6.7523088 63.596031
-3.0486987 -6.4876728 63.558853
-6.8078632 -5.872705 63.593521
3.1277478 -3.4431198 63.520042
-3.7076356 -3.1868477 63.506622
-7.0473127 -2.6560938 63.542809
2.3543251 -0.59603012 63.510429
-2.884902 -0.24738359 63.550369
-1.2560682 1.2961093 63.513691
-4.7946124 2.7966952 63.630051
-1.4859748 3.6035345 63.638382
-4.7973151 -9.0270395 63.764885
-2.9771316 -6.5595241 63.727142
1.3512728 2.3956165 63.757946
1.7693112 -8.7068491 63.866653
-2.5036387 -6.9619188 63.877998
-7.060678 -5.7298841 63.81855
-7.0492802 -5.3849764 63.83329
2.8968854 -1.5819826 63.801125
-6.1402807 1.5516872 63.830719
0.81851447 3.145478 63.883736
2.5912406 -9.2860823 63.911331
-3.1057367 -0.26298493 63.96476
-2.4690254 0.091385134 63.916397
-6.773921 0.51871389 63.914982
-0.48370904 0.55926782 63.937241
-1.5262743 0.97789472 63.925663
-2.0203872 -7.4547482 64.007439
-7.329751 -4.7650576 64.014732
-3.0323033 -0.47695085 64.05526
-0.023933019 0.7601884 64.097557
1.6867962 1.2787439 64.049309
-0.96773791 4.1205082 64.014008
-3.3862891 -5.7488518 64.195999
-1.713138 0.56232369 64.194603
1.0176576 1.0524501 64.16098
-0.64608866 4.0235119 64.114212
-0.85608828 4.1058207 64.139603
-0.45147133 4.1287184 64.166191
3.0332036 -8.6530647 64.256287
