# .PCD v0.7 - Point Cloud Data file format
VERSION 0.7
FIELDS x y z
SIZE 4 4 4
TYPE F F F
COUNT 1 1 1
WIDTH 1608
HEIGHT 1
VIEWPOINT 0 0 0 1 0 0 0
POINTS 1608
DATA ascii
7.7767725 49.976616 7.4081249
1.3592029 53.691116 7.4955645
12.793297 54.903305 7.4162521
8.9870119 50.060738 7.5498781
6.0428905 51.57518 7.5194383
9.1841373 53.923225 7.5618982
4.5049238 56.63908 7.5857673
8.4876976 54.200211 7.6262484
0.50877184 55.626163 7.6798825
1.358296 57.734764 7.6007938
6.8366604 50.559765 7.7805567
6.7374806 53.988979 7.7502108
4.5419431 54.990158 7.7288494
8.7302418 49.744568 7.8964844
9.077383 50.149605 7.8963661
9.5275602 53.45929 7.887877
9.5984373 54.438385 7.8150516
4.5320563 54.894741 7.8293676
4.2598271 56.986664 7.8314633
2.8835158 58.148926 7.8404255
8.7074127 49.716438 7.9277873
8.8851919 49.921097 7.9854803
12.595378 52.625546 7.9675159
7.4764271 54.296738 7.9063087
12.536695 52.554543 8.0300417
6.0100484 52.84433 8.0252914
1.4554474 53.241806 8.0106192
8.1145744 54.258728 8.0307922
12.990681 54.358582 8.0272894
12.916184 54.59507 8.0205307
4.5534458 56.209728 8.0716782
9.94977 52.648491 8.1805878
3.8310287 53.153755 8.1622314
10.453617 55.424477 8.1742764
11.679466 52.071766 8.2073374
0.77134246 54.347702 8.2723322
0.70370603 56.043488 8.2657557
8.116188 54.204075 8.3752155
8.3797789 54.116013 8.4114094
1.2669469 57.023121 8.4424963
9.4773111 50.598991 8.5421791
6.2818689 51.1152 8.5095291
5.9442177 51.793854 8.5308094
3.2691302 52.52227 8.5728226
3.5037951 52.664467 8.6410198
4.636951 55.030998 8.7987442
8.6813231 49.66943 8.8166113
8.4308529 54.016472 8.8615704
0.43987039 54.847557 8.8971071
1.9784774 57.078423 8.8709946
9.7614536 50.97216 8.9066505
9.7831545 54.714485 8.9915848
1.6249057 52.637306 9.0626965
0.80402094 55.52869 9.0893555
1.1698061 56.390594 9.0171633
4.6306396 55.264225 9.1734028
4.1107087 53.158119 9.2250977
9.4887123 53.283806 9.3612576
1.6306918 56.381554 9.332242
7.5911527 49.788857 9.4306202
12.036803 52.071121 9.4928532
7.1384687 53.807999 9.4963636
1.1823699 56.064045 9.4280062
1.8747213 56.462425 9.4410439
10.27886 52.271812 9.5291986
6.3442726 50.933979 9.6917439
9.3133869 53.502464 9.6866598
1.7161951 56.267437 9.6827888
5.9649916 51.613022 9.7481461
0.73701608 55.094131 9.7368259
11.346972 51.861744 9.8870745
9.664113 53.111237 9.8689919
9.6362906 54.203327 9.8342295
2.5283778 51.900654 9.9895859
13.164464 53.666599 9.9912643
8.8231945 53.701752 9.9277182
10.21129 55.083237 9.9047117
1.4305176 56.016762 9.9334888
10.391814 52.139702 10.043583
12.985624 52.834671 10.096413
9.5738564 53.398575 10.005442
10.12758 52.177505 10.230795
12.99269 54.364845 10.221151
8.0207825 49.519878 10.366064
4.6438785 54.090191 10.312085
8.5067596 49.488167 10.487903
13.160866 53.553543 10.471653
7.9732933 54.123047 10.407801
2.0970769 52.266476 10.582485
1.4365051 52.758343 10.517691
7.0107298 53.932186 10.562212
0.62453079 54.281868 10.672665
6.2623744 51.044415 10.712146
9.8618536 51.453613 10.730652
5.9028311 52.169777 10.776258
5.9731979 52.85173 10.725041
4.5104432 53.708622 10.790385
6.8051329 53.848198 10.722724
4.5929332 53.948792 10.7574
0.47647214 54.633152 10.71165
6.7351909 50.316525 10.809758
10.010478 52.477394 10.803894
6.8270121 53.943626 10.802454
4.6320677 54.059334 10.801575
6.9487414 54.103313 10.849852
12.693363 54.805698 10.871711
10.842008 55.310455 10.858953
2.3238897 56.767223 10.819078
3.7180965 52.078526 10.975899
1.9753306 52.413757 10.963184
12.483839 54.996017 10.91545
2.3896163 52.001301 11.021361
8.5595379 54.247726 11.052659
2.9932308 51.65382 11.147099
4.5161386 53.618858 11.157001
9.1367855 53.881214 11.121019
9.9250956 54.637695 11.121334
12.522793 54.949581 11.108788
4.0664845 52.607407 11.264027
5.9157066 53.157288 11.261276
8.606245 54.354454 11.263453
9.6011028 53.736252 11.360694
12.979121 54.414639 11.38496
10.116076 52.287445 11.494982
13.194998 53.506351 11.474292
6.9611568 50.157806 11.690484
2.4759231 52.013374 11.643602
5.84026 52.719856 11.628536
6.9593554 54.611931 11.642189
4.7530093 55.154381 11.630344
2.7801635 51.848434 11.77949
0.52538371 54.692924 11.726954
8.1691637 49.620918 11.833689
11.437467 51.693699 11.89685
6.4808784 54.321522 11.842904
3.1422215 56.983276 11.803341
9.3111391 50.656422 11.951045
3.5420496 56.871124 11.942496
8.7288284 50.169449 12.013021
13.028897 52.658669 12.015317
0.64975101 54.507374 12.024755
2.3914986 57.049675 12.066547
2.5710521 57.041775 12.067468
7.0684366 50.191917 12.12294
11.966312 55.202969 12.173246
9.4758863 51.302994 12.372124
9.6434994 53.727814 12.357174
5.9105139 52.157295 12.404843
5.7845187 52.546791 12.421237
9.7317772 52.000549 12.523329
9.7996502 52.198421 12.586244
13.000196 52.569412 12.546332
9.2256632 54.535454 12.59862
6.1137824 54.227077 12.645055
0.64562875 54.596622 12.603867
3.9223928 56.699333 12.656454
1.3293011 53.247787 12.764515
4.8011889 54.145981 12.774614
12.661719 54.729591 12.789984
0.065074652 56.033539 12.765631
6.7673006 57.904175 12.772348
2.820991 59.031834 12.776333
5.897037 52.123661 12.824198
2.1928556 52.466908 12.816567
13.194893 53.237282 12.808008
0.39869982 54.508354 12.877977
9.0343304 54.766582 12.870505
6.1904411 54.492874 12.914991
0.5489192 57.591759 12.989471
1.1583319 53.196064 13.073072
4.480536 56.118332 13.062181
1.7765125 56.757797 13.008736
8.7472763 57.309814 13.021997
9.6612482 53.139214 13.150574
12.166996 55.089211 13.109429
5.8215308 52.397839 13.226187
12.798241 54.577274 13.276984
11.289391 55.237392 13.289034
3.7490015 58.794956 13.218796
9.3979368 51.659058 13.354351
9.7024717 53.998104 13.325367
0.20201679 55.06567 13.308302
2.5998464 57.212299 13.302101
8.4733276 50.601212 13.466217
8.5411873 50.661648 13.444347
10.568232 54.99247 13.492456
1.0102879 57.985828 13.461334
7.0689492 50.210445 13.54848
4.1988649 51.286625 13.528551
10.134894 52.21796 13.52599
9.8533936 52.569328 13.512046
4.4292989 53.227989 13.561341
4.9843731 50.968296 13.627994
4.8707385 51.007065 13.664345
5.6017966 53.291771 13.672896
4.944963 54.633678 13.626495
0.73244804 55.446262 13.645545
4.8193121 55.463799 13.661961
1.1488895 53.128426 13.798534
9.6923876 54.140007 13.744873
6.6705832 55.353157 13.77376
6.8854704 55.51889 13.709222
6.4333048 51.100262 13.826323
1.6059887 53.098991 13.832142
8.6048717 55.446999 13.853352
7.2690277 55.76561 13.877783
3.7074006 52.444473 13.971676
10.014842 52.456573 13.961436
4.0646658 52.757462 13.975533
11.530948 55.095757 13.913136
4.8708148 55.268574 13.985895
7.8595386 55.835068 13.901287
6.9480443 57.562836 13.989762
9.8893671 45.901207 14.093285
5.750865 52.679199 14.086551
13.051708 53.739067 14.01091
1.0716661 53.832787 14.023447
7.9396358 57.292507 14.006891
2.3099024 58.494438 14.027546
9.5049105 44.918114 14.11997
10.510808 46.818394 14.142627
8.9942036 51.220493 14.173102
3.7234149 51.404652 14.150282
9.2219286 51.512119 14.141987
9.8170033 52.292793 14.155736
9.8260727 52.303562 14.149014
1.7956965 52.95314 14.130035
10.380394 53.570992 14.101601
5.726717 57.961288 14.128597
3.546952 58.591297 14.174417
10.592969 46.600235 14.293999
10.307279 47.153389 14.248985
7.6040201 50.559155 14.206266
9.0814104 51.346851 14.270986
9.1831379 51.4851 14.287933
0.81368303 53.479729 14.279787
4.3455753 56.453716 14.276999
1.2777672 58.071995 14.204457
10.942645 54.75771 14.324157
0.17889675 55.904716 14.366863
1.0093496 56.108707 14.321256
1.1273886 56.3708 14.369975
9.9146605 45.105629 14.443015
7.2855177 50.534966 14.470678
6.2583442 51.614136 14.49525
3.7453184 52.51165 14.418149
10.375896 53.686424 14.407793
7.0067706 55.937248 14.400001
0.48738474 57.116756 14.404144
3.0214128 58.589756 14.469642
8.8751583 44.259865 14.545694
6.3291707 51.502686 14.551332
10.475544 54.704788 14.545942
5.514596 50.699352 14.662047
9.4513512 52.353355 14.635425
12.240033 53.552025 14.623043
1.0613567 53.912308 14.609299
2.5670557 57.388519 14.646786
2.731144 57.378418 14.692539
7.2875228 57.366615 14.616173
8.4494123 44.092144 14.739746
8.3197584 44.434566 14.745845
9.1097507 44.711525 14.799602
6.5582032 51.290672 14.764954
3.4087102 51.473103 14.729345
10.824476 52.738243 14.791335
12.356945 52.995598 14.7911
1.581115 53.204033 14.723145
0.77156073 55.618935 14.764018
6.9367132 56.005775 14.79589
6.4378214 57.625969 14.79356
8.2163153 44.438217 14.891038
6.1098824 52.002167 14.883337
9.6414204 52.877796 14.831711
4.8902354 54.270416 14.872789
11.477641 50.179436 14.900916
7.0533638 50.892067 14.957522
5.7417727 52.797009 14.908251
10.739347 54.061684 14.974955
6.6535048 55.787937 14.915691
9.7479534 56.254433 14.974077
3.5159142 57.195187 14.934427
11.470703 49.990097 15.00763
11.138272 50.92234 15.005345
6.492877 51.461624 15.061141
9.3271627 52.232422 15.047796
1.6740544 52.362831 15.089369
11.311436 52.365334 15.042002
5.5680728 54.113564 15.017646
4.9195242 54.434151 15.020454
0.32623857 54.739269 15.004511
7.6682439 56.302078 15.09531
1.7084254 58.077553 15.032126
8.1242657 50.976139 15.168539
11.178509 51.341438 15.148216
6.4796667 51.502365 15.144309
9.0828667 52.003273 15.197101
9.6084728 54.748627 15.100046
6.625658 57.66259 15.188752
8.6886339 51.607704 15.242935
11.423373 52.079304 15.228667
11.280929 52.714321 15.214142
10.854844 54.096313 15.210384
11.389778 54.01675 15.292155
4.4123387 56.250145 15.258081
5.1434002 57.227825 15.22863
2.9497268 57.396912 15.250765
4.1645761 57.558521 15.298378
5.1551704 58.117073 15.253519
6.2315316 50.605629 15.335296
6.417026 50.608311 15.342381
7.2184758 50.953644 15.315669
4.1092792 51.228977 15.340553
11.114025 53.326698 15.353046
9.916996 54.182709 15.368702
0.39676839 54.548424 15.359252
10.885677 54.902138 15.301958
11.102962 55.071594 15.399033
8.0248661 56.496304 15.384705
6.8457465 56.530376 15.327726
5.9544506 56.628059 15.316019
1.4471298 57.972958 15.398839
5.9407301 50.600784 15.462721
4.5811892 51.050575 15.496075
7.5516396 51.031197 15.453955
3.4945424 52.460419 15.436489
0.62358177 53.83057 15.48184
11.627737 54.538765 15.448147
7.5975866 44.273655 15.544308
9.6421509 52.283924 15.570236
3.4072227 52.445972 15.555422
10.007644 52.859608 15.545593
0.68963504 53.625465 15.575764
5.8818069 54.977543 15.594973
11.368874 51.606579 15.624188
11.486703 52.958687 15.606852
0.80882215 53.450527 15.672451
0.64138466 53.783413 15.626854
5.5173187 54.559875 15.674829
4.9819732 55.922958 15.658624
7.8787794 57.417336 15.619009
3.4021275 58.458099 15.679898
5.0982523 50.860226 15.711461
5.1010475 50.859367 15.710201
3.5897262 51.397732 15.76343
8.31394 51.43293 15.788005
11.588854 52.346184 15.795191
10.295403 54.135395 15.744555
11.175236 55.466858 15.787934
11.769772 55.503113 15.777901
0.98361701 56.150124 15.723072
1.3252625 56.72311 15.726682
7.3005366 57.273418 15.770397
6.9070821 57.743618 15.773027
5.7836189 58.053589 15.743229
5.1908455 58.215065 15.718078
7.4741402 44.211838 15.802543
9.7003679 52.435253 15.881186
10.142567 53.62471 15.899958
5.5826988 54.963554 15.855206
11.007507 55.479176 15.881599
11.340179 56.042393 15.835581
8.3410521 56.593994 15.859072
5.3047829 57.052528 15.843201
0.73781943 57.199776 15.813807
6.5519629 57.488964 15.813179
7.8777175 57.489502 15.867971
7.5536246 57.582687 15.861518
4.0450411 58.31382 15.896137
3.6078684 51.387062 15.969739
10.999909 56.002483 15.935912
8.5396194 57.316917 15.945146
5.4112868 53.044319 16.069191
1.4787277 53.413795 16.056877
10.071884 53.405872 16.02635
12.440306 54.509506 16.033985
11.75456 56.35305 16.079666
6.5963111 57.54689 16.013617
5.9543591 58.069595 16.037235
6.9785132 50.622986 16.110855
11.878263 52.529015 16.101212
12.059166 54.464821 16.159782
5.0069494 58.122063 16.126993
5.2347035 50.862679 16.201828
2.8510182 51.70871 16.284279
9.2093697 51.854908 16.25783
1.3485652 52.831436 16.239023
1.0353938 53.254395 16.24272
5.6791978 53.587246 16.233479
10.153427 53.886711 16.276117
2.8779068 51.713921 16.364334
1.3683503 52.831516 16.340281
11.14757 52.857025 16.305052
11.912787 52.896507 16.313307
12.005853 54.633522 16.374937
1.3379668 57.884506 16.332718
6.3526592 52.082024 16.472063
2.9546819 52.510296 16.441759
3.6018281 52.766392 16.474581
11.157525 52.721806 16.474066
8.6682854 52.116562 16.551817
3.1999567 52.656708 16.508335
12.015167 53.812225 16.531591
12.203228 53.821125 16.519093
11.793013 54.050171 16.519379
11.737369 55.349228 16.595293
4.2686543 51.214493 16.693739
9.2052078 51.955135 16.657911
0.8304317 54.678417 16.653198
11.746334 55.168095 16.636349
11.701452 56.199528 16.666771
7.4648285 57.837193 16.662285
6.5586405 52.044422 16.731157
10.605143 53.727676 16.785084
10.100618 55.301949 16.751526
11.892563 55.922432 16.775843
0.65069801 57.033176 16.776371
7.3623171 57.540573 16.783916
2.5432358 58.327236 16.754093
9.5590343 52.52676 16.894905
11.799452 54.087219 16.865026
10.988571 54.279652 16.822357
0.65245843 54.344906 16.822611
11.725149 55.784164 16.89617
8.4040041 56.936935 16.844883
8.8913021 57.451019 16.810482
7.7730913 50.974594 16.962532
8.3663149 51.936573 16.910383
3.0130024 52.583 16.901539
9.5581102 53.720699 16.940277
9.5398731 56.757233 16.903505
1.203966 57.703144 16.962736
4.7601328 58.481415 16.916275
4.2742281 52.491421 17.034304
11.142809 55.012585 17.029331
9.1547966 57.235645 17.013811
8.3925152 52.073986 17.187397
11.651144 54.890076 17.174515
11.3283 56.30241 17.102631
2.390626 57.796761 17.159187
1.3048124 57.824272 17.14365
9.8524284 54.710793 17.255617
1.7101015 58.058064 17.248276
5.9951124 52.293594 17.34807
2.9301763 52.673264 17.336939
1.5913005 53.462566 17.389692
9.8385248 53.520153 17.389986
11.362168 54.298073 17.303207
12.751251 55.185143 17.369469
8.8153915 56.695709 17.317818
3.344085 58.172134 17.341545
4.0765586 58.256046 17.377777
5.7192488 42.848469 17.492014
8.4222822 51.392761 17.41407
9.1991644 53.065937 17.44865
10.016559 54.7136 17.492744
12.752493 55.184952 17.409533
11.943693 56.173031 17.454231
5.7542109 50.9202 17.541475
4.8687434 51.310055 17.574499
1.7153928 52.740284 17.584171
9.4568901 52.758026 17.585548
1.5382869 52.977066 17.537544
10.044024 55.18692 17.578884
5.8697038 57.968933 17.575584
2.6906829 52.703667 17.603783
9.666338 55.461281 17.67942
0.44967037 55.897434 17.665329
2.3860316 58.212784 17.784472
3.130414 58.442196 17.726562
5.2095094 51.301373 17.803413
4.0433254 51.680191 17.83601
3.8977189 51.729843 17.842909
1.6021402 53.651886 17.832464
1.5588869 54.10236 17.811958
9.4195576 55.961887 17.810274
6.496666 57.889023 17.846115
1.6893859 54.32275 17.936113
1.0644827 55.311455 17.991976
9.8703003 56.365307 17.991901
7.3310337 57.762886 17.912659
6.0134802 40.913048 18.066948
12.109129 54.070087 18.049566
0.9697175 56.036728 18.073359
6.6544933 51.157776 18.123371
8.7730436 57.669155 18.188032
6.2076511 39.681274 18.298122
4.5082669 51.682003 18.263287
8.4129982 51.817402 18.259306
9.3145828 53.008751 18.222452
9.7069521 55.590111 18.243818
12.140073 56.451714 18.257689
6.3498516 57.882679 18.279583
6.2598467 40.175789 18.357727
3.3947537 51.920658 18.322748
9.6484213 54.757271 18.35376
0.41802123 55.629528 18.304821
8.3844385 57.784576 18.375397
2.0715923 58.033539 18.337065
3.868705 58.35429 18.366795
5.2516403 51.571037 18.497513
4.9583201 51.611874 18.479357
8.7068901 52.138645 18.483282
1.0365422 53.762043 18.463953
12.037246 54.227539 18.478296
8.1518612 57.850388 18.43626
5.8745279 40.808353 18.575985
7.3838658 51.412125 18.56015
13.28755 55.993835 18.535042
0.86097884 57.192291 18.552967
2.06322 57.54998 18.561321
5.8039703 39.69799 18.655071
6.1670017 40.016781 18.690792
6.4021482 40.264038 18.64053
5.1091328 41.585537 18.629185
8.5763407 52.153145 18.656042
8.9755774 52.708549 18.616095
9.4379787 53.511677 18.667747
1.1526922 53.602146 18.644562
13.670528 54.64711 18.678104
9.3039761 55.216179 18.673409
13.082526 56.17527 18.604233
1.0888693 57.45499 18.614731
3.3784027 57.973621 18.672606
5.474577 58.369049 18.619856
6.622561 40.146065 18.721817
6.089654 41.637123 18.779005
9.6724167 54.206474 18.773993
1.1709509 55.380611 18.739552
9.3624859 55.658882 18.762039
8.2788048 57.531841 18.728365
4.7863288 58.219025 18.762699
6.693017 40.070236 18.837841
4.8629322 51.579739 18.851219
8.1211414 52.779411 18.843933
12.211493 54.355431 18.810024
9.931819 55.905083 18.807083
1.8991871 57.389359 18.865467
6.1179857 58.391842 18.865103
6.8544493 40.419426 18.918625
5.6702724 40.508953 18.910255
5.7202387 41.225864 18.936205
4.2143192 57.81424 18.997663
6.1864405 39.857048 19.096191
6.1926332 40.199661 19.040884
6.7501316 51.682465 19.095945
12.685154 54.764324 19.078449
9.847662 56.471687 19.04921
1.5971122 57.79472 19.048782
5.7821703 58.335663 19.029402
5.903532 39.289368 19.111553
5.9752331 39.442024 19.276346
6.4496708 40.55442 19.278358
5.6190085 41.152138 19.254475
4.0085154 51.438862 19.261154
12.29694 53.762474 19.235685
9.6154099 54.271149 19.296726
13.456364 54.42556 19.248871
11.667251 56.576389 19.292389
4.2907348 57.733658 19.223579
5.3326893 41.320366 19.36375
4.5812149 41.617283 19.327328
4.5027566 51.406532 19.364346
11.362278 55.368656 19.37331
9.3216114 57.276855 19.338554
3.7846875 58.162457 19.348068
5.4035735 40.906937 19.428493
6.3565993 41.039513 19.445393
4.8554559 41.875668 19.46199
0.88888663 53.852024 19.441711
0.39428037 55.326748 19.444223
12.564865 56.521255 19.463726
5.9944897 58.273331 19.497307
5.7989798 39.038948 19.577217
2.5197656 51.50441 19.576778
12.694599 53.736656 19.57254
11.701338 56.595867 19.540215
8.7437525 57.781967 19.515291
5.7484221 39.181286 19.645603
5.6235695 40.077026 19.659409
3.2865067 41.790649 19.68152
5.1064167 51.141266 19.698017
5.9521866 51.124077 19.648596
11.497269 54.807121 19.601984
12.808046 55.008102 19.623352
8.4666071 57.86821 19.698391
3.3879244 42.51281 19.703342
7.2034221 51.842644 19.781202
0.45171547 54.909309 19.709917
12.492085 56.554329 19.747984
3.2625532 42.856632 19.854801
5.8887072 39.966175 19.966331
6.2635088 40.135906 19.937037
11.041722 54.159958 19.95332
12.972542 56.204967 19.944786
11.314727 56.573009 19.966333
6.5951085 36.447247 20.010546
3.7879763 43.405403 20.006931
10.98749 54.178474 20.039122
0.45623916 56.225445 20.053919
6.6075196 38.06271 20.121738
7.5970798 51.71875 20.146864
9.5785294 54.443611 20.168743
3.0402112 58.037468 20.123468
6.5808215 34.724133 20.258696
2.6292315 41.857628 20.231659
2.7201352 43.764553 20.278437
5.1597462 50.601601 20.287476
1.2911683 51.988247 20.262299
9.0378294 53.198257 20.213577
9.4065228 53.799694 20.235781
2.6529589 57.936958 20.25226
6.0120463 37.987553 20.377485
2.8029888 43.932194 20.335236
11.665362 53.71843 20.332005
10.592123 54.395416 20.341583
13.20598 55.988152 20.359007
4.0957098 57.865326 20.315697
8.21455 57.982933 20.322678
6.7322407 33.502819 20.48378
6.9378233 35.136597 20.402176
5.3982401 39.530792 20.413263
2.3376241 42.890423 20.492857
3.4912066 44.545761 20.487906
4.9256949 50.47139 20.431431
2.972496 50.582581 20.47246
8.9114332 52.642647 20.446411
6.1952047 33.621826 20.537033
6.1183586 34.060848 20.515791
7.0557833 34.415554 20.562378
5.91716 34.85994 20.535362
6.5193019 37.67041 20.50526
6.3139019 37.855438 20.512247
13.391621 54.86821 20.559752
9.7176104 56.761311 20.570885
7.217237 58.158733 20.546501
6.6535206 32.341614 20.661795
6.0842524 33.692524 20.627132
5.2526846 39.738682 20.666643
2.2172356 43.729244 20.607906
2.8831105 50.444511 20.639704
1.3653122 51.558552 20.662048
12.354747 53.689396 20.669132
12.442396 53.690948 20.60289
3.4103708 57.754303 20.66898
4.8759394 41.596146 20.703548
12.42874 53.683952 20.754374
0.44533348 54.43322 20.723211
6.917223 36.029514 20.874882
4.1083241 44.27602 20.859232
3.6284568 44.942852 20.88147
2.7670193 45.590008 20.874853
7.5483847 51.242294 20.845671
13.229413 54.463673 20.840204
13.217272 55.961166 20.85516
11.630182 56.713844 20.823042
4.9349213 40.999969 20.925833
4.8909621 43.169846 20.91292
5.7965708 50.240993 20.983885
1.6669599 50.992172 20.941586
6.5769525 30.493359 21.031723
4.9218445 43.068993 21.005253
4.5316648 43.88887 21.052258
1.9354844 45.422947 21.007404
10.276863 55.344727 21.0103
6.6640177 29.718672 21.158768
6.6540303 29.823978 21.141066
6.3057394 30.073584 21.192961
4.3964596 40.697285 21.106964
3.2450998 45.485733 21.142349
9.5673313 56.516251 21.187696
7.4850206 29.504679 21.29896
3.5431962 40.25433 21.249474
4.5133891 42.197437 21.295084
1.8161635 42.907234 21.288723
4.6217647 49.913864 21.203341
0.74015051 52.108505 21.267694
11.003257 56.745323 21.206879
8.9166431 57.10112 21.264423
6.2687635 29.584055 21.333015
6.1051745 30.038437 21.390812
4.345726 41.117393 21.303432
4.6846175 43.746277 21.329767
1.3034229 45.194294 21.342066
13.143528 56.010887 21.375849
3.9720802 57.300102 21.363197
4.8078485 57.342346 21.37944
8.2170153 57.543667 21.382648
1.2492516 44.964596 21.490664
3.548382 45.429108 21.455637
3.4620619 49.65625 21.424107
4.3124466 49.635994 21.457352
8.3885078 51.477444 21.481798
0.62696731 52.483574 21.457943
9.4640884 53.784039 21.429586
0.47027957 54.195984 21.411999
1.3010701 55.565716 21.477665
7.8240032 30.484879 21.593416
7.1889753 34.151443 21.554457
2.0626795 42.333214 21.588631
3.2685013 46.010162 21.537781
2.1058407 46.752289 21.582808
1.9905064 56.149647 21.531124
2.5289817 56.666035 21.501726
5.9790573 57.437798 21.559635
9.6820345 55.645893 21.604519
5.8314686 32.722961 21.724276
6.2188439 34.24073 21.768574
4.1503215 45.17432 21.755444
3.2435987 46.462551 21.779654
1.3784635 46.516495 21.741226
7.9280601 50.976109 21.719624
11.079626 53.717319 21.704304
12.822574 54.126331 21.795795
13.098856 54.476227 21.725985
3.4422903 56.916424 21.710876
5.0829306 57.150097 21.744057
6.9783239 57.536869 21.710947
7.0055056 33.882221 21.868093
6.3953714 34.254711 21.822975
4.9586782 42.282227 21.893608
1.0479228 44.316681 21.81295
4.2762117 57.000317 21.824242
5.8807163 28.627003 21.952917
7.0349207 29.450712 21.981129
7.997859 29.622477 21.907787
4.8855457 42.235386 21.950993
0.50581002 52.91819 21.971666
13.205677 55.464394 21.924505
2.763665 56.350285 21.954765
7.4032869 29.239738 22.092699
6.0362773 32.874458 22.058054
6.4303627 33.576485 22.069456
6.6643224 33.690174 22.055704
4.5047436 44.18998 22.083954
1.0452833 46.408424 22.00499
5.1167731 49.006245 22.05312
2.4916449 49.625622 22.017357
9.6301708 54.61264 22.020819
1.0560133 54.924522 22.038227
4.5067163 56.885292 22.048264
6.3755512 33.231316 22.170532
2.7288065 49.386284 22.121223
5.7569475 30.053673 22.295643
1.2109251 46.797134 22.245235
1.5835866 50.450829 22.274509
0.84638393 51.863792 22.268311
9.640954 53.269112 22.266266
0.60923654 53.670036 22.216457
7.2046938 28.165884 22.339821
4.3369226 44.719406 22.357464
6.9781723 49.594383 22.367279
2.1284266 55.682034 22.320974
6.9883103 57.177601 22.372257
7.2507291 27.776428 22.426186
5.7678661 29.781185 22.441141
6.2375026 32.222301 22.473429
0.64763284 45.436539 22.418266
3.5016446 46.616383 22.408947
8.2468481 50.430138 22.470638
9.603447 52.728573 22.41577
13.147573 55.738045 22.484344
12.290493 56.709225 22.449232
6.2699623 26.235685 22.532753
7.4938564 26.664425 22.555153
6.4560647 27.178988 22.536833
8.3145971 50.707054 22.529335
13.140391 55.541996 22.538601
7.2590408 57.108284 22.513533
2.531733 42.256977 22.633139
2.4725285 42.324783 22.642416
7.2579803 49.619499 22.612282
6.5575542 28.917543 22.737549
0.45664996 53.814743 22.789537
0.99625903 54.718601 22.734493
9.8545151 56.031502 22.706987
6.9448228 24.537752 22.858986
7.1343679 24.897509 22.89443
7.5560598 26.229658 22.886602
5.8286772 29.513952 22.819603
4.3163366 43.53091 22.826904
0.51111174 46.27354 22.856583
1.2525964 47.64843 22.840645
13.087613 55.511875 22.887428
6.1352129 23.571419 22.99778
7.3168917 25.338066 22.967754
6.7253494 31.292418 22.958979
4.0910783 43.090828 22.92952
7.3402066 49.596054 22.998569
9.725893 53.336071 22.909367
10.794313 53.698025 22.980213
13.085663 55.72913 22.910362
7.7542715 57.039108 22.977015
6.8476205 23.169445 23.042837
6.4462299 28.511856 23.069744
7.1149302 28.8899 23.04812
5.9066343 29.395994 23.034035
1.9936833 43.150562 23.031765
1.7659452 43.494137 23.041019
0.97533226 44.37294 23.007492
2.7644801 47.852139 23.00596
4.5030022 48.453587 23.046101
10.223767 54.09528 23.02249
9.8289328 56.207851 23.089355
8.2366447 56.849522 23.084568
7.1019373 30.708534 23.11722
6.8689308 30.874165 23.106697
3.97315 46.332935 23.163702
3.7344213 47.106323 23.137409
7.2181454 49.447807 23.186268
13.054321 55.898495 23.126123
13.054922 55.989769 23.126337
5.2369127 56.643032 23.157686
7.6162586 26.32292 23.211481
2.4755466 42.844231 23.272106
3.362206 47.62899 23.277788
2.6490183 48.150482 23.250206
3.5163982 48.589043 23.251598
3.862339 48.652054 23.263496
8.971076 56.152779 23.296782
8.079814 57.019451 23.244164
7.3379841 22.925217 23.316021
7.6197977 26.276852 23.320412
7.6485868 26.407486 23.325859
7.4203582 27.319212 23.346766
0.60702646 46.78413 23.340454
4.4589324 48.385433 23.301327
3.6483085 48.473347 23.314051
6.6908159 49.220554 23.331945
1.9057693 49.651138 23.387566
10.111181 54.026047 23.379187
0.862872 54.437794 23.345741
12.752915 56.309803 23.353039
10.797848 57.031929 23.374611
5.6973896 23.674129 23.414173
7.5361371 26.748627 23.412102
7.2924566 26.993034 23.489809
6.7743959 29.896009 23.458744
0.99909025 44.503517 23.406681
2.69189 48.971916 23.452503
9.3606453 51.006424 23.465977
9.8488426 52.236294 23.430662
9.8260527 53.518932 23.447029
9.6266174 54.496628 23.434504
8.8529177 56.206779 23.414843
7.0115027 56.908852 23.409172
5.8833442 22.498569 23.528965
6.2549324 26.242744 23.57803
6.5797391 29.504337 23.528986
2.0986173 43.721382 23.526276
0.63312507 52.924629 23.574371
10.387805 53.709156 23.544195
4.9975276 56.462231 23.505274
6.0679369 25.67326 23.689955
6.9503636 26.575481 23.652107
2.7144651 43.400776 23.623148
2.9954593 43.519112 23.619762
2.4468479 43.690056 23.667997
0.52408206 46.356777 23.624449
2.0717247 49.290638 23.663984
12.574326 54.282295 23.649513
9.7935944 56.425781 23.601816
8.5138769 56.570793 23.631783
5.637619 56.615437 23.613899
2.1866381 43.848404 23.734962
5.3953867 48.649124 23.72702
1.371413 50.118713 23.747549
2.9872379 55.673851 23.790768
5.0026731 56.410038 23.713425
6.0778437 24.710239 23.892624
6.8834124 25.853144 23.871075
2.9705398 44.074677 23.853584
0.52972639 46.388695 23.829901
4.0539498 47.48267 23.865086
2.0887694 49.209408 23.86438
12.886647 54.775116 23.868553
9.1543713 55.516731 23.816027
8.9126129 55.896629 23.848373
5.739831 23.960243 23.98674
6.9788437 24.655241 23.9555
6.1274924 25.299671 23.954618
2.4659238 43.891388 23.9102
0.51953292 45.428703 23.911499
4.0991206 47.246506 23.977751
1.4530308 48.478485 23.915203
3.1657021 48.464867 23.993954
8.2738991 50.336578 23.910616
0.76449651 51.945408 23.983988
10.274785 53.313797 23.974257
4.1250143 46.960289 24.033684
8.0923576 49.906876 24.07456
8.7235374 50.783104 24.033665
10.012768 53.369728 24.006477
5.8329573 24.028568 24.11433
3.2527795 44.992878 24.19628
4.155786 47.282314 24.195305
3.9229174 48.109985 24.198967
3.8494754 48.325581 24.122141
6.6353164 49.012833 24.151991
1.8090268 49.290871 24.196672
9.8596659 52.444778 24.121014
0.57360399 53.348442 24.157207
3.976717 45.810108 24.246304
0.78656507 47.706314 24.236475
8.6869936 55.977299 24.267641
5.8480067 23.539673 24.384201
6.634398 24.219687 24.360535
9.8418789 53.45129 24.397152
12.345107 54.319954 24.364923
9.2841444 56.13176 24.329819
8.1912708 56.512573 24.341002
7.8026476 20.114271 24.440573
5.8786049 48.733704 24.461945
1.854079 49.142052 24.467554
7.7620411 49.670464 24.449244
8.6001978 49.888851 24.402483
9.612608 51.641178 24.416924
9.831418 56.841526 24.48115
8.6001472 17.045425 24.521166
8.0058517 19.681482 24.562653
5.8829975 22.228291 24.543625
5.8244371 22.394951 24.508373
7.1453652 23.66394 24.5947
5.9494495 48.548409 24.524797
6.2148094 48.815907 24.509682
1.2721815 50.087471 24.513029
11.053121 53.153435 24.506561
1.0375739 54.171211 24.504744
7.6006031 57.163879 24.501144
8.5183821 4.5752559 24.669619
7.7718372 16.874893 24.665344
7.4291973 23.293108 24.653585
6.3772082 48.820213 24.690708
7.8320012 49.692951 24.614967
8.0921364 50.008923 24.614853
10.179432 52.824036 24.658663
1.5945961 54.560452 24.604601
11.314959 8.0090065 24.719704
7.562212 17.520111 24.791718
7.7739921 17.600346 24.733772
8.3346539 17.734142 24.70554
0.88817072 48.31197 24.704283
5.4715819 48.532684 24.735901
9.5651503 51.217567 24.755575
11.922144 56.548828 24.711472
8.6435156 4.875566 24.812471
10.868354 7.1055202 24.844379
11.121706 9.0062141 24.893051
9.7551775 9.6803217 24.815695
9.8675528 11.720554 24.888092
7.8330345 19.25186 24.874725
9.4288254 19.715401 24.880886
6.7726026 19.996899 24.863306
0.62296414 47.789364 24.854622
2.1374125 49.359894 24.80611
9.8090343 52.593464 24.889221
1.973624 54.764484 24.831423
8.0927305 56.382141 24.873119
7.6309271 56.90633 24.824556
8.7240219 18.296837 24.953653
2.2146926 44.891304 24.938503
0.73299915 45.975025 24.965525
4.2663536 48.074799 24.906937
5.6264129 48.497097 24.96891
5.9796 48.600594 24.989538
7.6458387 49.389793 24.906565
0.64034683 52.792351 24.950905
4.9488864 56.291733 24.97897
7.6996937 56.779903 24.95969
7.3838286 57.111313 24.972532
8.9615622 5.4683509 25.068256
9.4794216 5.8122535 25.093767
12.037242 6.569386 25.053692
11.790407 8.5012684 25.015972
0.68362975 46.52002 25.03616
3.6079571 47.965034 25.024879
11.167212 52.790146 25.087381
8.1802416 54.228676 25.030582
8.1796989 54.84584 25.099806
2.5536869 55.031448 25.067896
9.2607107 56.38319 25.035057
8.7249098 5.4141617 25.121393
8.0967054 11.765951 25.103769
8.1669569 12.875549 25.138668
6.7052426 22.851107 25.124409
4.3208294 48.519505 25.134426
8.1218796 49.900723 25.103426
9.6749039 53.840641 25.175646
8.4760466 55.486702 25.193573
9.0140705 56.111771 25.104248
11.183721 56.763828 25.111038
7.6988139 4.6017809 25.25172
8.210825 5.317153 25.243835
7.1203222 22.614105 25.240208
2.3735662 45.05896 25.278368
4.0226665 47.865372 25.266979
4.4226818 47.947861 25.264849
0.62813926 52.599602 25.256786
9.8458338 52.846878 25.260948
10.401928 56.667526 25.233715
9.2849407 6.4904003 25.353947
7.6336331 12.101263 25.352741
7.5577507 22.183325 25.372499
4.273962 48.841843 25.316427
3.8056774 49.017235 25.398973
1.4970344 49.777443 25.312263
0.83823466 51.131691 25.359356
7.602149 56.669773 25.398088
6.8541312 56.90567 25.32896
7.3388033 4.77139 25.400475
8.9302368 6.3358803 25.456722
10.022987 13.012336 25.450554
7.2319765 13.973804 25.496944
8.0300064 14.005108 25.410273
6.9479604 19.622972 25.408615
2.2675958 45.119453 25.404306
4.2987804 46.432747 25.431498
3.8453569 47.719009 25.413086
3.7052565 48.770351 25.45023
8.8666782 55.23642 25.431097
10.895854 4.9535198 25.575924
8.7083988 8.0077267 25.533548
8.6835594 10.203159 25.561689
7.7888851 11.168482 25.575493
7.8842125 12.802866 25.580879
9.7177973 19.819695 25.531958
8.3651571 21.558964 25.581959
3.2292047 48.373585 25.529408
8.0107727 55.038567 25.574097
12.072911 55.577408 25.595314
9.0748758 7.0950956 25.642408
8.6366329 8.478548 25.612118
10.217265 12.963312 25.667263
8.1334381 15.238495 25.62735
5.3320007 48.164257 25.660135
0.90985274 50.77969 25.610973
9.9887877 51.348267 25.62561
10.972126 52.491123 25.634064
7.7410069 54.174797 25.697205
4.4456301 55.964909 25.623201
8.4878836 8.446497 25.78157
8.4780397 9.6232014 25.791584
8.2346449 15.439335 25.738146
9.3519363 18.701691 25.789364
8.4143581 50.194206 25.717049
9.0948029 50.792061 25.776058
1.1881721 53.656662 25.792194
11.933634 54.50576 25.713432
8.0223484 55.108578 25.707117
7.183249 5.6701183 25.878752
6.57445 16.553429 25.841379
6.5286622 16.860634 25.808748
9.2380524 20.644068 25.878132
1.3070754 50.122303 25.830309
8.7069578 55.329693 25.816189
3.9530039 55.706299 25.822428
8.3133831 8.2271175 25.980825
7.4499683 11.801425 25.998581
8.6954412 52.02581 25.980736
10.399914 52.061756 25.981995
6.4686098 5.2150607 26.08477
7.4846697 6.0849485 26.085135
8.6092796 7.1443954 26.006041
11.50449 9.9382114 26.031525
11.361863 10.663111 26.044762
9.8885403 16.581406 26.076956
7.0299845 21.508234 26.060787
7.3510857 21.655285 26.079262
0.71063083 47.249264 26.087254
0.89645153 50.482479 26.076571
10.487026 52.052315 26.026695
10.96257 52.583908 26.027018
1.2481446 53.577248 26.024612
11.075617 56.032372 26.045815
7.9671593 4.5433016 26.176184
8.1543322 8.4032364 26.158386
11.652088 9.5069284 26.148495
6.77142 14.083847 26.176384
6.5365753 18.596102 26.125797
1.1385225 50.166122 26.199337
1.0261734 53.314434 26.127415
9.6223145 53.393341 26.165937
11.479439 53.483238 26.191036
11.100276 5.122086 26.217691
11.720713 5.4177308 26.219007
6.607821 5.523376 26.208847
6.8599677 13.99406 26.201044
6.5886016 14.258905 26.290003
9.0052681 15.700185 26.292284
9.9056187 16.710497 26.294558
4.7023201 47.454861 26.276108
8.7430954 52.332588 26.249863
9.67169 53.005836 26.29652
11.38316 55.642372 26.280497
12.473902 6.2721176 26.391624
7.8936443 7.6950893 26.329399
7.9035645 8.8278217 26.391211
6.9545317 13.892323 26.35087
6.8340263 20.513882 26.374258
2.5702448 45.734119 26.375326
4.3486986 47.669712 26.330818
7.8684778 49.75396 26.398596
1.869566 54.01952 26.398563
11.561039 54.385712 26.352522
11.588307 55.418705 26.380642
6.9842472 5.9222569 26.43314
12.192223 7.1614962 26.484516
11.101671 11.601078 26.471718
7.4327273 11.746675 26.452753
1.988946 46.016888 26.463749
4.216547 46.392677 26.438009
4.4040089 47.63446 26.4522
7.8333893 49.723282 26.431278
0.51878071 52.553062 26.470469
11.430193 10.705572 26.557697
6.3413105 16.82386 26.504778
6.3635726 17.111279 26.572327
9.6621542 17.875944 26.528532
9.2078276 18.520212 26.521435
7.5532446 19.997353 26.595768
7.814146 19.987423 26.575768
4.8360629 47.923306 26.515152
0.40846649 48.321285 26.508078
0.3491804 48.855236 26.574594
9.4803572 52.198181 26.531855
9.5542107 53.398266 26.502184
8.5312319 54.470734 26.506817
2.9380193 54.879452 26.505932
8.5315924 55.252159 26.514902
11.457194 10.613902 26.658808
9.6963205 13.808449 26.643921
7.1298714 13.969782 26.634972
6.4324465 14.858652 26.659618
9.0466251 15.825024 26.607826
8.8573723 18.787746 26.600361
2.280659 45.989094 26.694195
3.2545934 47.304371 26.63398
4.8070164 47.923714 26.6721
0.85894048 50.306961 26.664764
1.0028889 53.022358 26.680717
11.235447 53.222183 26.611607
11.375386 54.329147 26.682705
3.6362712 55.2752 26.600616
9.0022173 56.031845 26.621235
10.24148 56.050121 26.669086
6.3440833 5.6587205 26.753399
11.975184 5.8243175 26.719898
12.422153 6.9510913 26.798952
12.060215 7.4216747 26.769758
7.5350285 8.1450357 26.745369
7.0880432 14.071983 26.712473
9.2434216 18.269394 26.783176
8.9714375 50.812805 26.781908
9.7995367 52.306519 26.785343
1.4567916 53.454666 26.738813
7.7696948 54.911007 26.78738
5.4601932 4.9775248 26.820992
7.3752003 7.8353038 26.835863
9.2870035 18.216122 26.804766
8.7517538 18.67655 26.898907
2.0312226 46.28183 26.88203
3.8959417 47.35186 26.877642
9.6187935 52.668983 26.846628
9.5842171 56.02766 26.890911
7.3756123 12.456877 26.991606
6.5724525 18.275585 26.983093
4.8126202 47.963013 26.980358
5.7380676 48.454163 26.958212
6.1688194 48.641239 26.900143
12.53768 6.8781118 27.066328
11.924863 8.6808004 27.061338
6.4903984 16.993473 27.082497
6.4843178 17.072781 27.05756
8.4529028 18.86923 27.017128
0.37772435 48.234409 27.048594
8.2952185 55.30291 27.017839
8.5664291 55.829868 27.016644
6.3743219 56.384953 27.080776
11.165922 5.1885839 27.197994
11.52734 5.1338992 27.195318
11.790524 5.4396486 27.116011
7.3434067 12.177033 27.10968
3.9856534 46.682629 27.126337
0.4627679 50.252987 27.12088
0.5461067 50.642765 27.15686
4.0407495 55.30901 27.115515
6.9185934 56.450939 27.141403
7.3994246 9.7147837 27.268801
11.621607 10.010643 27.207125
9.1268816 14.174173 27.257586
8.5672836 15.982092 27.238911
9.0900488 17.806938 27.262875
8.1157637 18.718225 27.278152
7.5295801 18.911318 27.240849
8.1153383 55.691925 27.290928
8.2777443 55.708096 27.273235
5.8886008 4.6653242 27.324804
11.729856 9.0619545 27.366537
7.2307639 9.452487 27.3281
8.5338964 16.119564 27.338078
0.47700784 52.06152 27.392035
9.7894449 52.42588 27.35442
7.8820915 55.601582 27.364872
6.8149891 4.4973831 27.487341
10.770958 11.173437 27.42556
8.0476418 13.646467 27.406273
9.3657703 14.008006 27.435646
8.2066965 14.672562 27.420696
7.8187556 18.477228 27.444004
5.3575201 48.296722 27.461452
7.224041 48.989025 27.464184
0.48226833 50.568577 27.482122
7.6898661 55.200768 27.444588
5.1100187 5.2497215 27.538282
10.77547 10.953448 27.59436
2.9308059 46.551147 27.583858
2.8417692 47.131977 27.508316
0.31314903 49.359779 27.517305
12.435087 5.0953531 27.634539
7.1090021 17.529709 27.696198
1.4743857 46.999565 27.692331
5.0930929 48.258968 27.632732
7.029747 48.995762 27.656517
0.2329309 51.661747 27.647919
9.9614162 52.124496 27.607574
10.879419 53.503483 27.624144
8.2434397 1.8794082 27.797894
4.9831238 5.2517824 27.760084
12.28859 6.7116885 27.758526
8.1738977 16.861729 27.796738
2.3536098 46.633907 27.762981
7.9527082 1.1652237 27.818577
7.8028898 1.8845763 27.840187
9.0977201 1.914626 27.874729
8.6101961 2.1860723 27.869246
11.630007 10.092571 27.86972
7.3736219 16.941851 27.890882
7.3925886 17.274326 27.863411
1.5503113 47.188484 27.888069
1.0167944 47.432171 27.836508
2.1157973 53.346024 27.818399
8.7931089 55.666252 27.823195
8.7568655 2.4374549 27.945154
8.0610838 4.6490073 27.922838
0.38585737 51.548367 27.918285
1.959335 53.088787 27.966215
10.714599 54.398945 27.9335
7.5946188 2.3490677 28.018517
8.0174952 2.5330267 28.042658
11.131036 4.9604883 28.045872
10.758807 5.03826 28.024918
11.729336 8.2366114 28.010252
7.8329315 12.000174 28.060581
8.5622816 12.182123 28.062773
2.1385984 46.777641 28.020237
2.2718153 46.944424 28.062468
4.6224709 55.327816 28.094498
6.3171325 1.9736729 28.181684
6.759841 9.6794682 28.141094
5.8673277 47.966972 28.198618
4.8645587 48.443924 28.167616
6.3299756 48.942528 28.132431
0.4390974 49.102478 28.175959
7.3191333 49.611774 28.177198
10.390076 52.421204 28.154659
8.2035131 55.695198 28.175545
6.4703584 56.199654 28.161415
9.3674736 4.896287 28.225676
11.105879 4.9116611 28.226978
5.2523298 5.7827029 28.269577
5.7634101 47.970592 28.272831
7.6157227 49.743034 28.223091
10.784571 53.315048 28.226627
6.5606451 4.5207334 28.383692
9.1214914 4.8609939 28.333147
4.8037739 5.2889094 28.339336
6.1311069 6.9616356 28.375595
7.6368809 10.952068 28.355524
7.7975426 11.633625 28.369381
8.6185741 1.580848 28.456636
11.796633 4.638155 28.449816
8.473753 4.7804594 28.479351
6.7936468 10.155519 28.421503
6.287169 48.108799 28.43219
4.7307687 48.819077 28.450443
5.0280461 48.805889 28.432116
5.6433592 55.689095 28.477539
11.774403 4.4617329 28.504108
5.6596889 6.4859409 28.526627
5.2192888 48.011826 28.519194
8.3371677 1.4058766 28.651222
8.4148674 4.0440903 28.604294
11.809812 4.0916047 28.603186
11.466905 4.2991467 28.66885
11.650673 6.2625456 28.65292
11.871489 7.0978413 28.646185
1.6178027 47.718513 28.605963
1.3112546 47.892235 28.676014
8.4297562 50.962231 28.65045
1.1623749 51.39817 28.690624
2.2468894 52.591541 28.640001
10.437403 52.67186 28.6161
5.4376278 0.23527642 28.741655
8.3221216 4.7425566 28.708851
8.6794682 4.762373 28.774843
6.933702 10.636772 28.729757
10.073315 11.108442 28.753052
7.7701693 50.118183 28.775972
6.9724579 0.64786863 28.851257
7.1726551 3.7195265 28.867348
7.4396439 4.0732508 28.805508
9.9908638 11.143392 28.865395
4.9267807 48.079514 28.839722
3.4711022 48.240761 28.82271
5.6082654 55.6563 28.828434
6.4996986 56.195419 28.827991
4.4187236 1.1628115 28.918762
9.6086693 4.6632614 28.920694
12.341433 5.8216205 28.961761
9.7031431 11.236004 28.902927
2.067754 48.21719 28.954161
4.6526136 49.00716 28.911852
7.2554226 49.698296 28.98922
8.5034533 50.336792 28.941891
2.0608559 51.905128 28.913958
5.7819252 55.755913 28.992546
7.9066863 1.1887132 29.025555
5.5507603 2.7724662 29.016205
11.451899 6.3875637 29.037893
11.642881 7.4225001 29.026047
5.692584 7.8239145 29.002682
3.4345517 48.444225 29.073574
5.4210987 48.608002 29.012978
1.7142662 51.153179 29.04768
6.3749704 56.113689 29.019054
10.531047 3.984832 29.123768
5.5727758 7.8299274 29.170567
11.364762 9.5360489 29.13364
4.6447983 48.830002 29.1663
1.256551 49.969398 29.170429
12.67398 3.4929743 29.296535
10.045921 3.5442917 29.21649
11.758682 5.990581 29.294422
5.3088846 6.8040328 29.252918
10.486967 10.569784 29.264837
5.621851 48.205948 29.217005
2.2216911 48.589191 29.296402
5.4269462 48.965668 29.25425
7.4351406 50.275055 29.258034
3.698802 53.307026 29.264091
8.299283 55.363708 29.292355
3.8738875 1.8281361 29.320122
10.175403 3.6511927 29.340725
4.7519336 6.2441025 29.354275
2.3029506 50.568748 29.351767
3.6723173 0.70125622 29.443851
9.3555984 2.3211555 29.4314
5.9046125 9.1616936 29.499763
8.1723871 11.348985 29.493746
6.0190306 48.767944 29.489193
2.6085451 51.291489 29.433907
9.3555984 52.231743 29.496582
9.6632948 54.728699 29.401474
8.6005869 1.7366672 29.560755
4.3302798 2.5040998 29.549614
5.1191783 4.8798008 29.588699
4.7778797 6.531652 29.591145
4.6544433 48.285641 29.536367
4.8693881 48.872597 29.56813
5.0982695 49.138062 29.563339
8.2408485 51.396683 29.514864
3.3855767 52.262306 29.506493
5.3719044 55.039139 29.519688
8.7452917 55.177708 29.585102
9.7752266 2.9933839 29.624929
5.5790215 3.4372034 29.658524
13.066822 3.8147321 29.609596
6.4922562 47.557144 29.693655
6.0439181 48.024204 29.602013
6.1754808 48.03281 29.683487
6.7311649 48.01297 29.644802
5.9337487 48.280666 29.627865
4.6397543 48.32 29.655308
9.9640379 54.361931 29.650209
6.2670546 0.4857403 29.787012
3.4191809 1.6688186 29.738129
3.9105308 2.3585706 29.754601
4.2190766 5.9658594 29.716066
5.9271412 47.649639 29.796638
6.6173635 47.684551 29.734467
6.8152866 48.037697 29.762365
3.9867096 52.514534 29.754829
7.2488155 0.87922823 29.865015
8.7177315 1.8647952 29.804596
9.4957457 2.5440555 29.847586
11.105566 6.1924448 29.842239
10.678731 9.7045155 29.85092
4.5166159 49.501808 29.81921
5.1455178 54.193565 29.829542
4.8769951 0.1454646 29.910784
3.5495191 1.4191396 29.970066
3.9488759 2.514847 29.906006
6.7984395 47.551834 29.992693
5.4612169 48.222992 29.978437
5.4927473 48.700714 29.942495
6.9104147 48.899094 29.96184
3.5848327 49.642471 29.924198
4.402998 49.703079 29.933289
7.6939459 49.857269 29.933624
7.2139931 51.008411 29.93578
4.5316391 52.682877 29.987312
3.6188293 1.3218944 30.094135
10.564442 9.5430441 30.029282
9.0706892 11.042492 30.037779
5.2941742 48.170914 30.07836
4.0596251 49.67458 30.062836
7.1145325 50.041004 30.02957
8.3743095 51.987858 30.019787
5.1993213 0.02149253 30.130447
10.773247 6.4355145 30.15863
11.041896 7.6588283 30.198017
9.0928516 11.013664 30.118549
4.6226444 49.74765 30.13612
7.0943394 49.918003 30.137096
8.6679897 1.7912647 30.288376
10.731946 6.4100332 30.277634
5.0889564 7.6465287 30.277542
5.5674171 9.2620449 30.263388
4.3041959 48.595913 30.255524
7.8466721 51.793819 30.249912
7.4663997 55.399002 30.282576
4.8274369 6.9308228 30.366737
10.350969 9.2450905 30.355331
6.2940125 10.624532 30.320406
7.4247103 48.74651 30.3769
7.370306 48.884106 30.378719
7.2243738 51.45269 30.359129
7.5030336 51.640354 30.355427
6.6384854 55.422867 30.333544
13.204311 4.7482109 30.497335
4.5673571 5.2366509 30.498363
4.9746222 7.9462042 30.405426
5.6557169 47.6408 30.453856
5.7654824 47.60965 30.481369
3.5805547 49.501793 30.489834
7.0941734 50.554989 30.472034
5.161901 51.7827 30.473999
6.7799387 54.734737 30.460974
10.273522 2.8787153 30.564125
4.8429775 5.1866999 30.565376
12.747686 5.4142361 30.570265
10.118999 9.6456757 30.508453
7.3492165 11.095041 30.540064
7.9088769 46.125053 30.5996
7.5727897 48.320656 30.571754
4.8181424 0.28623655 30.608074
9.1551256 1.4700098 30.648335
5.3904805 4.4120631 30.61311
12.013809 5.8167677 30.626554
10.729577 7.3512354 30.669437
5.8884416 10.356644 30.693621
7.3605866 11.112728 30.691914
7.8764791 52.624287 30.655016
4.6923628 53.351498 30.66852
9.4792976 1.7355833 30.761547
4.8777428 8.2703047 30.73595
3.7414231 49.390804 30.747334
7.0720186 50.035103 30.706562
4.4108977 53.247211 30.763823
6.6890683 53.913471 30.761955
5.590641 47.566612 30.80151
4.9360037 47.900906 30.866581
10.187989 1.362552 30.970379
6.8147707 10.899017 30.925983
7.9467058 11.02243 30.999203
5.6734347 47.529137 30.900093
4.5789948 50.501274 30.911037
7.3084793 50.539326 30.953819
4.2931194 50.980438 30.926018
3.6089294 53.176243 30.988039
9.7851305 2.0720968 31.07707
5.873384 5.1508422 31.081272
11.557142 5.9990673 31.099876
3.8498399 6.1279316 31.09593
9.5851841 9.9322252 31.066074
7.2115488 49.792168 31.023382
7.302742 50.692764 31.05225
6.154314 53.17337 31.052437
10.776488 1.3671523 31.199829
11.532544 1.4948454 31.150227
10.029373 2.0593765 31.143238
9.857626 7.608459 31.186779
9.7581224 8.6255016 31.15839
7.8234639 48.53162 31.129368
7.670743 49.01825 31.142948
7.1346617 50.624165 31.155699
7.082736 53.620571 31.182037
12.149953 3.8105328 31.29068
5.6094704 4.9272685 31.229713
4.6589527 5.3935423 31.225719
4.0951729 50.138958 31.234467
4.6823621 51.127464 31.280176
3.2001743 52.913097 31.269203
12.757928 4.3748746 31.347736
9.670908 7.5752382 31.371418
9.3646469 9.7621765 31.361372
4.7899365 47.838779 31.341574
4.5288057 48.670277 31.345436
4.6665955 49.376282 31.315233
4.831912 50.714035 31.338737
3.7126942 52.415474 31.395821
11.344979 3.3524218 31.49353
11.685114 3.6039662 31.457729
9.4696169 7.6291389 31.49321
9.2770309 8.2989969 31.490074
8.162406 10.711653 31.462833
4.6148834 52.410492 31.412426
5.6322708 1.2502384 31.576761
4.1174188 1.6380265 31.574131
11.850528 3.8458271 31.574982
4.9072161 7.3462057 31.503937
5.511343 9.8837881 31.579508
7.6407299 10.934129 31.543644
7.9491663 46.071091 31.529482
9.8897018 2.4040399 31.659412
11.595585 3.6908953 31.622898
4.8861704 5.5435863 31.667133
9.0697069 7.845623 31.640968
4.868032 45.808708 31.68466
7.1177731 47.606636 31.645954
7.8558784 48.519695 31.677315
6.5387616 50.676201 31.675747
5.1871691 50.763687 31.613651
5.4152226 51.22514 31.627605
9.7696133 2.9961071 31.722908
4.930665 4.5915594 31.71241
4.9258819 7.4489579 31.793339
8.9788685 8.3524532 31.706118
4.0990372 49.058514 31.769232
5.4590812 52.091042 31.727371
6.0832577 47.27095 31.839457
6.8760386 1.2285807 31.920803
9.3317518 7.2842641 31.905416
4.0937376 48.902184 31.923355
5.5134792 50.827438 31.974304
7.8355284 52.641258 31.95919
10.835047 2.4803207 32.055496
11.189119 3.701298 32.014874
4.7800369 6.1964989 32.074272
4.6818657 6.2821093 32.045059
9.2121019 7.1799316 32.095249
4.1371083 48.759415 32.025372
8.1528502 0.88999039 32.130714
5.9724841 45.391182 32.186699
7.6422939 45.776394 32.117249
3.6349883 51.029804 32.118629
7.3172054 1.3278821 32.253166
6.4012065 1.8934106 32.223301
5.8179197 1.9958229 32.236061
6.3805561 1.9802605 32.285381
5.6565981 2.0247741 32.234165
4.5292802 3.7044141 32.242546
8.9439144 7.063755 32.250996
5.925674 9.4857788 32.244637
4.5619287 45.985031 32.265648
8.8333836 47.365616 32.256508
4.2235975 48.658127 32.241184
8.0039206 49.151211 32.275124
4.8243566 50.594917 32.224419
7.9243369 1.1479735 32.325207
11.304453 2.4474256 32.325226
11.056921 3.922606 32.37973
2.8750601 50.22007 32.393414
3.6407413 50.279194 32.302063
7.4634953 50.375099 32.335163
6.2871714 51.232986 32.326954
5.1948929 51.476974 32.342743
9.6438694 0.96137184 32.430992
7.248374 1.5099889 32.433346
5.7087269 2.253087 32.416458
4.6204243 3.3397427 32.477959
8.8138676 6.7921119 32.495636
8.1068869 7.784605 32.4981
7.5174952 10.111071 32.472088
7.3898911 50.523499 32.416862
7.3894367 51.138824 32.492012
6.1162004 51.320992 32.467537
8.3935986 51.3778 32.467613
8.4268579 51.499588 32.447849
8.4872141 52.155827 32.471882
8.3512897 1.2601509 32.564072
11.268163 5.4550819 32.578018
10.933075 5.8207803 32.576344
5.3085876 47.173222 32.563156
4.6566019 47.69278 32.557953
3.7915158 49.130821 32.551666
5.7241139 2.626709 32.694523
5.6459351 6.3488541 32.6688
8.1810961 7.0870457 32.620564
3.5263019 48.372025 32.641056
4.1516852 48.940506 32.684277
8.3610077 50.69125 32.600983
4.1999321 50.772331 32.632164
11.438238 2.4945781 32.78397
6.6498342 2.5249746 32.716782
5.7083983 2.723443 32.764439
4.164669 49.53112 32.762421
7.5023131 50.552711 32.78281
