# .PCD v0.7 - Point Cloud Data file format
VERSION 0.7
FIELDS x y z
SIZE 4 4 4
TYPE F F F
COUNT 1 1 1
WIDTH 1551
HEIGHT 1
VIEWPOINT 0 0 0 1 0 0 0
POINTS 1551
DATA ascii
-20.531845 4.6547065 6.4506426
-10.878351 11.728587 6.4930587
-13.042525 14.662094 6.4897246
11.922577 14.8204 6.5088692
14.384354 -2.6976023 6.7456093
16.466669 -1.9257947 6.7062254
10.500717 14.80477 6.7287745
-11.347322 11.844245 6.8349562
-22.660183 13.382038 6.8897204
17.808546 5.2630529 6.9862871
-9.3055868 16.816929 7.2664533
14.535973 9.6770668 7.3778009
-10.543514 15.554089 7.3123789
17.558735 1.1817001 7.4511538
8.1956902 3.8559537 7.4060116
19.586496 4.9391422 7.4283752
19.275175 6.8500414 7.4302692
17.39846 3.8721197 7.5184312
-18.14695 15.553258 7.577857
13.380501 15.72678 7.5238466
11.307343 -0.98885757 7.6195602
5.5687027 7.3959708 7.6655841
-23.083002 10.617601 7.6351209
-20.779276 10.97525 7.6734285
-14.498453 14.676616 7.6219664
12.858515 -1.1577792 7.737679
9.7139797 11.705687 7.7036934
-23.073404 10.644053 7.852664
11.015456 -2.1315644 8.011137
9.1051197 3.2663927 8.067585
-13.269657 7.7251015 8.1564445
-13.178594 11.603659 8.1130829
16.383978 11.744244 8.1470804
-17.454693 16.335403 8.1485081
15.2689 4.2439904 8.3466759
-15.258042 22.248537 8.3798695
5.7513933 4.1117129 8.4610929
13.877766 10.300963 8.4188204
-22.521563 12.770939 8.5713835
-22.20627 14.140214 8.6109524
15.694218 7.1923065 8.7797985
-15.956309 9.3778324 8.7336826
8.170413 13.571875 8.7350597
-12.193772 9.5172529 9.0337267
-11.06729 14.030056 9.1034698
5.8015385 4.9855156 9.2625647
-16.057417 12.85229 9.2701797
14.118983 1.3411187 9.4949617
-9.2481813 15.009598 9.4262333
-13.05046 7.754447 9.5495644
-10.347797 8.7209597 9.5707626
8.4128237 9.1356726 9.5309305
9.9100351 4.0464163 9.6977053
10.507694 2.4931035 9.7598829
16.629763 2.5751758 9.7965488
11.419828 6.3321037 9.7977133
-16.5763 8.9630156 9.8862782
-12.970373 9.8943558 9.8468437
-14.172176 10.603992 9.8612652
-15.712959 13.166885 9.8818207
-11.705021 14.098898 9.8378563
-12.905275 14.25076 9.8515625
14.232215 -1.9670577 9.9241953
14.051632 7.5739827 9.9972334
-20.194744 10.450709 9.9288759
-17.424763 16.060984 9.9047127
18.346008 7.6281071 10.015414
14.265882 8.5735092 10.005205
16.235273 3.5252438 10.20952
6.6449237 3.9981542 10.426311
9.8877411 15.237291 10.401598
5.7315416 7.2933016 10.631285
13.429174 -1.91975 10.731323
-21.492289 15.570343 10.72699
-9.5509968 16.592751 10.978781
6.0351434 5.0682654 11.02819
-12.303479 6.8823085 11.079666
18.304127 7.2374945 11.393076
7.3461251 13.198451 11.387693
17.937206 3.6265121 11.520515
-11.401128 8.9590969 11.806424
-9.4590549 15.760041 12.172926
-9.5483809 16.467655 12.280628
-9.4653816 14.926019 12.758193
-13.598024 6.5525246 12.867765
9.2978344 0.22762042 12.964161
-14.829172 5.3439355 13.05842
-20.399076 19.470051 13.138769
-12.031297 8.3540039 13.671342
-14.370951 5.8534298 13.715102
-21.945589 12.988911 13.908008
5.6375494 9.9128933 14.230066
15.766894 1.6871742 14.472849
10.36064 14.61263 14.478323
18.577593 8.5503931 14.512278
-22.631214 14.191204 14.531794
10.245506 -1.1615553 15.331169
-13.333079 7.1611557 15.983333
7.4573822 2.003253 16.176346
-18.781143 20.934965 16.245785
18.022156 6.4214783 16.452248
-22.49917 15.605013 16.604191
-17.405684 6.1098542 17.077091
-12.137942 8.9016304 17.03245
10.245523 -0.80185896 17.123363
-12.210908 19.354256 17.135616
11.781442 14.524299 17.443634
4.8475008 9.0955048 17.575535
6.6803761 2.8489361 17.634464
-21.652449 17.939381 17.632273
-10.961583 9.8757362 17.767288
6.8514595 12.835135 18.120461
-10.010939 11.479298 18.293676
13.54104 14.560152 18.466377
16.970688 10.174798 18.576496
4.5158997 8.2735243 18.771481
4.9155507 10.270269 18.943644
-20.934683 9.1797295 19.096878
6.1026368 3.060483 19.290144
-22.190866 12.219126 19.301628
16.766769 5.4089899 19.448664
4.1008415 6.7748661 19.515213
-19.51907 7.5616422 19.762533
4.3921485 8.2953758 19.744646
6.2912188 12.487564 19.770538
-21.707434 18.376781 19.770971
-9.819109 12.506759 19.968163
17.52161 7.4020247 20.051781
17.511776 6.9809771 20.198097
16.323256 5.0095878 20.267843
10.305664 14.386917 20.210907
16.580912 10.071342 20.358318
-16.02907 20.755817 20.510756
-16.517225 6.0594168 20.667416
-21.368923 9.6459122 20.763775
-22.656149 14.169131 20.704351
11.788433 0.088686712 20.957455
15.19932 12.557312 21.067213
14.691485 12.936432 21.489799
15.821508 12.131093 21.782457
14.871851 2.1462171 21.988293
-20.872707 8.5149946 22.045277
-20.803043 8.4006891 22.288107
-11.034569 9.9483662 22.235695
10.3148 14.361007 22.33893
-13.984526 20.474127 22.797176
-18.365875 6.4597487 23.360729
-16.392447 20.67802 23.477295
-22.66996 15.976135 24.113094
-19.955759 7.1957159 24.286755
-11.213084 9.316679 24.234152
-9.9622231 14.212734 24.43483
-20.798214 7.8737926 24.583445
-22.578203 11.52927 24.898636
16.785786 6.4418015 24.918152
-23.140213 13.901231 25.184139
-20.608751 7.5051899 25.390112
-16.754042 5.3435783 25.774012
12.326193 14.417461 25.866789
14.998459 1.8724163 26.022491
4.0668368 10.677508 26.051018
5.3341851 1.4393613 26.573259
16.152889 11.729327 26.568434
-15.262026 5.5063019 26.81303
-12.482497 19.193386 26.968548
9.6480894 -1.0959456 27.116535
4.5084486 2.4382353 27.166656
-23.113991 15.076935 27.161861
4.0631304 3.3791344 27.251883
-11.684854 8.0320368 27.532375
6.152534 13.064266 27.597948
-11.305559 8.6031847 27.637094
6.5602674 0.38955301 27.829433
15.017811 1.6791968 27.868872
-11.276061 8.6458406 27.866537
-20.941086 6.7613792 28.38258
-11.620636 7.963954 28.335714
5.7571087 0.76356459 28.548315
-15.351101 5.3791938 28.52696
-11.014052 9.1112175 28.683733
-10.008646 14.078623 28.809845
-17.942701 5.0614324 28.928511
14.103342 0.42636693 29.397392
-10.014134 11.055575 29.551842
-19.923283 19.87261 29.526709
-22.670368 9.1112566 29.752443
14.498108 0.76274502 29.988842
-21.931541 7.4035425 29.920826
-16.059597 20.42971 30.231056
-21.597639 6.8361673 30.489353
-19.397846 20.168171 30.571358
-9.8252392 12.551733 30.635605
-14.571589 5.5464683 30.793015
-22.941614 9.6730862 30.79442
-18.29051 4.8110108 30.990047
-22.656359 17.944635 31.158932
4.6519432 0.94230336 31.272028
4.0802031 1.9170358 31.48979
-16.634829 20.443886 31.682455
-23.496067 14.417145 31.823578
16.578011 6.8633628 31.961325
4.4856515 0.85136974 32.371258
-22.163244 6.9871445 32.474998
-11.596378 7.755847 32.559441
15.371034 2.0273788 32.750778
-23.625969 14.274569 32.788029
16.448664 7.2002335 32.803379
8.4831572 14.112687 32.896812
-22.745464 17.68009 33.067909
-23.269047 9.3794155 33.528164
-23.426426 10.083927 33.514442
4.8382797 12.115803 33.580246
4.1587448 1.017482 33.64991
6.26789 -0.8703711 33.993599
-11.610068 17.650129 34.096401
-11.340925 17.375271 34.188705
-16.739731 20.365093 34.399353
-23.542027 10.003367 34.434021
-11.695514 7.4708948 34.581734
2.6475453 7.5649152 34.696548
11.353604 -1.9516565 34.834557
14.692032 0.5273813 34.924561
15.175891 1.2410326 34.936695
13.271606 12.815701 35.01812
11.999401 -1.9711711 35.146652
5.8020396 -0.72828645 35.100368
-12.540834 18.45195 35.156712
3.2615371 2.5913332 35.275669
-23.526487 15.231241 35.22982
-22.250843 6.4082341 35.35804
5.3408256 12.635366 35.327286
-16.731075 4.0950861 35.436584
7.9884167 -2.148885 35.512299
2.5085812 4.6187086 35.589443
-12.893259 18.755289 35.534996
2.4267073 6.9394159 35.721516
-12.052427 17.909019 35.861389
16.304535 7.0928578 36.066479
-10.569113 15.00383 36.017509
15.699795 9.1436138 36.262871
-21.577477 5.5055194 36.442112
3.0825362 2.7581956 36.508274
16.210546 5.2707953 36.716423
-10.104958 11.364904 36.80735
6.954514 -1.9953802 36.913685
-22.989098 16.528048 37.146446
-17.304813 20.32041 37.157097
14.984644 0.67783463 37.268723
3.7038314 0.81541562 37.241272
3.7514791 0.60906386 37.508274
14.523225 11.252809 37.638092
-20.672651 18.799356 37.717239
-21.044472 18.504719 37.803345
-16.117205 20.188898 37.838173
-11.03264 9.1376867 37.955162
-16.552828 3.6401539 38.371872
-22.896797 16.486759 38.613487
-15.151863 3.966027 38.902954
3.0052979 1.8070931 39.311817
10.27231 -2.6678777 39.495239
-13.04648 18.313583 39.439426
12.912989 -1.5092745 39.637024
-23.145889 15.394251 39.842865
-23.686493 8.1926336 39.912216
13.299191 -1.1679357 40.190777
4.2438002 11.238447 40.39064
-13.125492 5.2465334 40.523758
5.0627089 12.108945 40.644325
-17.186195 19.791582 40.701603
-16.777201 3.1726868 40.811695
2.0022748 6.6886506 40.883549
6.7625465 -2.9291809 41.089054
-23.828978 13.475933 41.131573
5.9099302 -2.2920136 41.241417
3.2452528 0.0051836669 41.240871
15.089186 7.6168118 41.809799
7.1134353 -3.3648095 42.346428
15.019773 1.7500389 42.656631
9.6249619 13.45145 42.66856
15.01633 7.3818417 42.787376
15.160204 2.6051562 43.500053
13.096998 10.675919 43.66848
6.9156604 -3.6594446 43.806885
-21.957573 16.753645 43.874409
9.8534737 13.224997 43.938187
-15.294018 19.129919 44.042648
-23.126755 14.949373 44.26918
13.983755 9.4221973 44.399994
13.469453 10.151 44.563404
-12.962055 17.103924 44.592464
14.775272 0.95645553 44.62281
9.8039074 13.103295 44.672325
-11.284257 14.979948 44.654999
-14.473651 18.927603 44.750824
2.1188135 7.9632354 45.137733
3.0291657 9.777236 45.126556
7.7662363 12.943629 45.12212
2.1621921 0.86252892 45.354034
-11.060337 13.222708 45.325317
-23.697071 13.498675 45.360752
-13.283813 17.385746 45.305466
-11.241164 7.7180152 45.696404
1.5055832 5.1851568 45.89344
9.3567371 12.970587 45.806297
7.4961095 12.769119 46.13958
6.3878736 12.665484 46.228924
1.9125917 1.1336629 46.351582
14.095705 8.1969948 46.529308
-19.743008 18.08127 46.989697
13.222149 -1.7289001 47.148033
8.3245964 -4.4633684 47.26593
1.5719179 6.0015216 47.441128
-13.130635 16.948046 47.471256
1.9561908 8.2988977 47.779015
-10.637612 9.9297533 47.739822
-23.997772 12.686903 47.762787
-19.004028 18.563261 47.725487
5.7184062 -4.6563158 47.979836
1.5922284 1.0583351 47.985176
2.0907571 8.6756353 48.080254
-12.338818 15.853727 48.077312
14.974712 2.348707 48.237423
2.785162 -2.2363563 48.420219
-11.666281 6.1355677 48.476654
5.8087692 -5.0956664 48.773579
-11.301952 13.629623 48.786144
-24.672321 11.072247 48.881557
-11.779256 5.7294602 48.915703
-24.514191 7.421628 48.99839
14.590665 0.59950697 49.096519
2.3912165 9.0071373 49.062359
-11.250006 13.140986 49.255314
-10.751757 9.6105633 49.41901
13.42297 -2.1193123 49.570728
-11.47176 14.47602 49.683311
12.3365 -3.172044 49.887325
-21.93082 2.6802514 49.867931
-10.854037 10.169127 49.985794
7.4930005 -5.4667292 50.234276
-12.901662 3.2205789 50.621563
-11.628947 5.521472 50.684021
0.89640731 4.1018534 50.748314
11.381407 9.6851683 50.847725
-11.185682 12.303283 50.995476
9.9157906 -5.4540749 51.018238
4.2887735 11.256157 51.093575
-20.018272 0.66618568 51.185764
-19.90226 0.6117174 51.305611
3.3255994 10.059933 51.620792
6.1318035 -6.0890636 51.774811
3.5833051 10.511721 52.073128
14.186777 5.0891242 52.131489
-11.479332 5.5330267 52.232857
-11.363554 13.416935 52.276077
-21.608303 15.66923 52.58828
1.543232 -2.4093277 52.661526
0.35794196 1.6412808 52.685764
-24.183041 11.412348 52.674049
-11.403105 13.635133 52.728569
-12.681314 15.532266 52.811623
-22.038567 15.314532 52.963551
0.61783767 0.33287537 53.376755
-18.442657 17.677233 53.352661
1.2146856 -1.7570543 53.448841
-11.274195 12.528388 53.508774
13.483813 6.0975809 53.689697
0.60401189 0.13142562 53.790123
-12.832243 15.735796 53.794106
12.967156 -3.2234995 54.137344
-12.614756 15.451694 54.252068
1.9344966 9.1369238 54.350666
-24.915234 8.0036221 54.408669
7.0469184 11.165951 54.437923
-19.904455 16.657654 54.525963
-21.947876 1.6508056 54.632324
-23.52248 3.1586804 54.663986
1.1630794 8.2419996 54.701309
11.282516 9.1796799 54.74041
-11.197101 12.442722 54.71376
-21.690018 15.423834 54.729996
-16.389263 17.267323 55.050701
5.0860643 11.018495 55.13306
8.3662395 11.232719 55.123489
-14.921862 17.171715 55.116249
0.54353076 -0.83050507 55.260765
0.83416361 8.1081524 55.554451
11.821634 -3.9587247 55.743034
12.970097 6.8660898 55.840759
3.5870004 10.922057 55.884804
-11.77178 3.806236 56.104332
0.032683492 5.0864811 56.244476
8.2842913 -6.363327 56.360176
-13.602882 16.549385 56.367645
1.0511951 -3.1754675 56.498409
-0.72224015 1.7280537 57.057907
-10.778172 10.476188 57.22411
-23.296576 13.580393 57.230568
12.834394 6.7483726 57.439247
7.3522797 -6.3881745 57.586189
-17.8186 17.061577 57.716213
13.943085 3.5238714 57.910069
-11.403114 13.955617 58.169243
-18.68841 17.096407 58.101196
-19.105148 16.779253 58.249214
13.767198 3.8950701 58.452999
5.8941956 -6.414279 59.421906
9.1158066 -5.9060283 59.942608
-0.96467423 4.5976739 59.980953
-10.158052 7.6975331 59.972004
5.3737822 11.250296 60.131325
4.1001744 -6.4839163 60.395756
-12.18693 1.8542423 60.430305
12.144491 8.0135946 60.476784
-10.395472 9.638238 60.499393
8.4132013 -6.2299652 60.55904
1.1525824 -3.9401245 60.588352
-13.56157 16.180719 60.572884
12.522429 6.9761829 60.635818
-10.886189 13.293385 60.674919
7.5821238 -6.271893 60.734879
10.999419 9.3845081 60.854202
-23.296862 13.766747 61.009544
5.7221899 -6.3667326 61.123657
2.2002461 10.852443 61.14682
13.582014 1.2761039 61.435307
-24.627209 5.3665514 61.46455
-17.176622 -1.1054232 61.785995
-11.229613 3.5504298 61.702652
4.3162193 11.405161 61.732162
9.0861502 10.658395 61.957272
-1.2810405 5.9580021 62.18581
13.624029 1.8081943 62.315071
-24.255146 3.565016 62.325813
-22.56415 1.2772311 62.671352
3.3320413 11.48934 62.746613
7.341013 11.665737 62.733139
13.785163 2.7622943 62.862503
8.0797977 11.343734 62.809437
-1.0423965 -1.0485355 63.043407
-23.57626 13.294499 63.050255
-24.42662 11.230429 63.160255
0.49147737 -3.7909861 63.340866
-17.870792 -1.2298905 63.404198
-14.390018 -0.34093666 63.656597
-14.782509 16.470503 63.670815
-14.686946 -0.61609322 63.727104
11.37005 -3.2218013 64.003761
-1.9486834 4.6606684 64.068283
-0.5806638 -2.929234 64.253227
-22.547251 0.99559218 64.275909
-19.835293 -1.1561013 64.380127
-1.8185312 6.7336655 64.842003
-24.849527 5.4237585 64.948486
-15.540304 16.513088 64.942642
11.36449 -3.0922472 65.06987
12.735338 5.3706365 65.004478
-24.190506 11.76454 65.04525
-2.2056055 4.8960657 65.246506
0.61225879 10.52907 65.284195
12.167698 -1.6541679 66.070511
-10.340229 12.451127 66.003265
-23.796068 1.9814742 66.353355
-16.197115 -1.7499634 66.440056
12.86803 4.2158756 66.628578
-24.801579 4.576436 66.623184
-2.6484084 4.7796297 66.78479
12.051365 6.8911858 66.810677
-24.867218 9.5389862 66.976318
0.19118011 10.72531 66.937721
-12.446772 14.960278 67.014473
0.55891603 -4.3687019 67.387192
-2.8475423 4.6498055 67.434006
-24.681662 3.6894615 67.786118
-12.723425 0.24998578 68.167419
-2.5032163 7.9726529 68.29348
-21.842863 -0.38308781 68.382454
-1.924292 9.5093889 68.35817
7.8495736 11.8693 68.30735
-12.068559 14.611759 68.39637
1.0221164 -4.8192496 68.485794
-3.0652559 5.0435419 68.438187
-15.860626 16.517349 68.400238
-13.160179 -0.13879603 68.788933
0.49380231 -4.4358425 68.894127
-23.833397 12.81683 68.973747
11.021142 9.8074799 69.048065
-19.387077 16.670876 69.19429
7.9630737 -5.896956 69.332756
-24.27585 11.507109 69.43354
-21.942993 -0.40826261 69.589111
-19.701859 -1.7289948 69.651314
12.27425 0.27094603 69.6409
-9.7780094 9.2571611 69.790421
-3.2169087 1.1147475 69.930679
-1.6190997 10.293892 70.058327
-11.665686 14.236193 70.170822
12.465048 1.3637094 70.333038
9.6851273 -3.9803314 70.483932
-3.8276629 2.3197958 70.431793
3.5434754 12.877614 70.984016
-11.432553 14.020001 71.118042
-22.737656 14.712688 71.163399
-19.827297 16.469761 71.392891
-23.636066 1.1613076 71.910873
-9.5557194 8.0682049 72.168777
-24.324001 11.563364 72.290001
-22.049015 15.147475 72.22039
-2.0061283 -2.6428947 72.318382
5.5659471 13.061892 72.327881
-12.592793 14.974892 72.691635
-18.252159 16.772976 72.617065
11.634184 -0.62149346 73.002739
-1.1079988 11.59763 73.050552
-18.756645 -2.1518159 73.159058
-13.057941 15.347374 73.259384
-4.5006199 4.543839 73.460129
11.86111 0.5270983 73.518448
-1.2894394 -3.3247952 73.607124
-24.853245 3.1062596 73.611244
5.0194407 13.317812 73.980423
-4.2893877 6.1595793 74.057816
3.7309651 13.333748 74.003387
-18.110172 -2.2987924 74.118774
-12.729828 -0.30788666 74.257904
-25.208138 9.2783813 74.394669
11.401243 -0.77252728 74.580559
11.44937 7.0887427 74.534744
6.644856 -5.7249537 74.788216
-12.799888 -0.40200001 74.711563
-9.2341919 6.1494865 74.702225
-9.5111217 7.9469662 75.016396
-10.092388 11.289515 75.260727
5.721488 -5.7305737 75.360847
1.2635934 -5.57336 75.669922
-23.73081 13.611126 75.608383
-23.326496 0.33037472 75.87001
-5.2549896 3.5319479 76.197205
-14.765626 16.491463 76.195847
-3.5166802 -0.58139735 76.201096
-4.5227761 1.7181554 76.43499
-14.558646 -1.964849 77.25798
2.582777 -5.5980639 77.473534
-25.116283 3.6548934 77.73922
-13.024383 -0.79856551 77.871574
10.305086 9.8640766 77.963066
2.8687854 14.0716 77.92305
-25.186531 3.9661927 78.139183
-11.784232 13.97621 78.499542
-25.629436 6.0373983 78.698654
11.232027 6.6702781 78.69043
-5.4323616 3.2847886 78.800484
-1.833503 12.969358 78.816071
-11.089121 13.365252 78.823784
-4.0525279 -0.10168856 79.095619
-20.088139 16.393194 79.085663
3.8938358 -5.2106657 79.726486
-5.8316007 5.4004974 79.778061
-15.330988 -2.7208319 79.858536
-10.084522 10.790682 79.838242
10.428553 8.724885 80.175674
-1.4874564 -3.4930439 80.50209
-4.2158337 -0.11556071 80.572891
7.760746 12.501086 80.582024
-5.4381447 2.8153086 80.642944
1.6615622 14.582813 80.612968
-4.4540153 0.40167046 80.72924
11.098587 6.4750047 80.776688
-5.7651405 6.8264399 80.805435
-21.125328 15.74099 80.988052
-19.128498 16.788172 80.997787
-4.9783587 11.169018 81.073433
-9.5790806 5.2888184 81.128555
5.8822031 13.952416 81.355568
-10.473133 12.044558 81.479828
-10.514029 2.6663663 81.779793
11.472464 3.9067035 81.76886
5.6469631 14.13438 81.739975
-20.206984 -2.2902317 81.934448
-17.737734 16.680424 81.94558
7.8191643 -3.415112 82.015923
-6.4435582 5.0819793 82.032265
-12.180843 14.029949 82.265259
-23.915226 13.193464 82.344353
-5.5717468 9.9627295 82.496078
-0.97549415 14.98182 82.453354
-14.313975 16.415909 82.796623
8.6920013 -2.3411582 82.888779
-10.661273 12.514987 82.84967
-6.4352536 6.2532978 83.049225
-20.646168 -2.2503395 83.155197
11.018423 3.1028147 83.262329
-25.852613 6.8395376 83.3508
10.251493 8.3380318 83.389313
-10.35668 3.2591937 83.577133
-18.332355 -2.5427599 83.749924
-11.336911 0.63998634 83.836967
10.276854 8.1422987 83.913803
10.658285 2.214123 84.124786
4.1696177 15.109385 84.173454
10.382785 1.1433098 84.215401
-17.830004 -2.6357257 84.576027
-17.211075 -2.7249923 84.699989
-19.997349 -2.3376682 84.655998
3.9859056 15.390198 85.164001
-23.679489 0.5048297 85.262306
0.23902273 15.609468 85.408829
-12.269302 -0.25808597 85.572998
-10.713103 12.268635 85.679588
4.8074417 -4.1897659 85.866028
-24.806656 10.916216 85.843658
10.411775 7.1299882 86.127579
1.0075836 -4.2610102 86.335693
-25.968189 7.422122 86.568184
-12.629624 -0.74010956 86.921295
-3.8244758 -1.4603318 87.017349
-25.082273 3.020859 87.194061
-1.4753585 16.378216 87.269516
-7.5540895 9.4911451 87.320839
-0.71144944 16.473471 87.450943
-1.993113 16.536465 87.40081
-3.6256299 -1.7016674 87.533936
-12.346052 14.37235 87.558823
-3.6573505 15.652654 87.548096
-22.889889 -0.18885475 87.627205
10.185118 7.1113472 87.710495
-3.3989053 -1.9640483 87.94165
-10.061897 12.078247 87.90004
-23.399569 13.752628 87.916847
-9.9095287 13.097992 88.117676
5.4352074 -3.1556015 88.877731
-9.2188988 14.390757 88.956947
-0.95634687 -3.9238007 89.027626
8.8762779 10.133951 89.056648
-14.260758 17.690622 89.14209
0.31293055 17.686436 89.13018
9.0131788 9.655427 89.382812
-17.908894 -2.55302 89.556953
-21.896097 15.035741 89.502968
-14.651865 -3.1076591 89.944519
8.5883141 10.519134 90.1576
-8.171629 16.681004 90.355896
-10.358738 17.318394 90.359779
-19.401905 17.916649 90.591881
-9.345994 -3.246449 90.997902
-25.802532 7.2518024 90.995232
-24.570927 12.49335 90.97184
-15.297001 -2.9922612 91.001595
9.5192337 3.5505085 91.059753
9.1576385 2.2283301 91.162247
-21.763638 15.696647 91.159721
-3.317996 -3.2592373 91.292931
-21.192291 -1.4893456 91.282394
-6.8959079 17.91581 91.39669
-25.651154 6.7096863 91.684944
8.4275179 10.979637 91.855247
-19.786516 -2.1726255 91.974976
-5.0433149 18.711908 91.94812
8.614213 0.95538366 92.056145
-23.973688 13.423607 92.089195
7.2728524 -0.45244983 92.222954
-23.296038 14.118851 92.204514
-4.9648299 18.944546 92.237541
-11.092318 18.793615 92.507263
-8.9542322 21.448679 93.154984
-6.65943 21.24507 93.49649
-12.880113 21.015162 93.674301
-4.1418657 -6.7087078 93.879166
-0.978082 -5.7838397 93.80101
-8.3108196 20.209917 93.892563
4.5541677 -1.6425821 94.381386
-8.6204548 -7.2549992 94.49118
-4.7305832 -3.9484894 94.487396
-10.296492 19.055468 94.468246
-5.3542991 19.115459 94.460464
-4.7831497 -3.959764 94.539093
8.8786135 8.2068329 94.54525
-15.006278 19.701433 94.586891
-21.398973 15.902572 94.639114
0.38412911 -5.1828299 94.81366
5.8400044 15.791077 94.866768
-15.232553 20.458015 94.990219
-2.4849668 20.62398 94.909081
-14.267318 -4.6653128 95.149246
-17.737818 -4.0619617 95.105507
8.9331512 5.374043 95.165779
-24.484619 11.517432 95.218063
-13.486678 20.74535 95.285355
-0.65007174 -3.5229855 95.358498
-5.5749187 -6.951755 95.53344
-3.5612328 19.166697 95.677109
-11.411864 -6.9339442 95.723068
-20.18856 -2.5436513 95.789734
-21.363157 16.911486 95.798157
5.8801737 -2.1954787 95.883644
-17.382387 17.553205 95.850845
8.1880178 2.8292136 95.92421
-25.504723 6.6222458 95.956177
-7.8628597 21.072529 95.948532
6.90029 -1.1656764 96.083168
-21.640118 -0.83599901 96.06955
4.5950513 13.952005 96.049881
-0.92465663 16.162769 96.016769
-10.210999 -3.1628451 96.190346
-4.0629821 19.122587 96.134277
-11.208981 20.816685 96.360184
-13.369843 16.668745 96.454964
3.0843256 -2.3773839 96.568054
7.6585717 11.177906 96.573471
3.4389234 -2.0959039 96.643311
7.5192256 -0.87839305 96.68821
-26.390827 4.2497134 96.65802
7.6030631 10.096699 96.663673
0.015419006 14.833385 96.681732
4.586812 18.203825 96.699036
-3.4974709 -2.0847816 96.705986
-14.959038 16.1056 96.770088
-17.543671 19.481148 96.715675
-19.700163 -2.4601102 96.84597
-24.781713 -0.11091459 96.833939
7.9697914 10.021034 96.876663
-6.7453938 19.282909 96.826118
-25.627131 8.8068724 96.949387
-1.6070232 14.736997 96.958725
-15.841122 15.792326 96.945419
0.82994622 -3.2470894 97.019333
-24.419119 2.5040603 97.002747
7.4240913 14.342901 97.003113
-13.457069 19.173716 97.041977
-17.705181 19.388559 97.046104
-11.578141 -6.9462681 97.10482
-2.0049591 20.19029 97.14167
-23.559536 -1.1832471 97.240967
-20.367067 0.34191775 97.242561
-26.128187 2.9728513 97.212662
-22.607527 12.108283 97.261055
-21.279758 18.279827 97.223434
6.4342628 13.295746 97.380905
-19.162764 14.14793 97.350395
-15.651415 18.851786 97.386993
1.8233112 18.362299 97.548836
-23.402468 8.7488985 97.652885
1.5332791 12.322412 97.604576
3.8711619 16.247955 97.661819
3.7863569 16.346411 97.666595
6.0124421 1.0240359 97.712273
-22.979986 13.597016 97.701569
4.19521 15.852377 97.756271
0.39936066 -5.2039857 97.860092
-22.293491 3.2710459 97.825432
8.4360447 5.6726656 97.856674
-21.635965 10.612078 97.84819
-19.228653 18.959297 97.843185
-13.113256 20.432175 97.857498
8.5654097 7.4322238 97.995117
-0.40505445 -5.6169472 98.014175
-22.471369 8.4007177 98.008949
-6.5088129 -7.1518717 98.138336
5.6949339 14.029634 98.146629
-17.349066 1.0567651 98.286606
7.5696139 13.720667 98.26973
-3.4517808 20.309397 98.261696
5.6180058 -0.22244319 98.358246
-17.557159 12.522504 98.334137
-9.5589867 -4.2623291 98.417099
-16.450962 1.0070093 98.462013
-15.835947 0.84259379 98.514954
-6.9858308 19.349192 98.526985
-10.592113 -4.2636981 98.618744
-19.587866 -2.5665751 98.616463
3.1037571 8.3235245 98.675087
1.0511985 1.6355451 98.766602
-14.669538 1.0553411 98.843788
-25.611998 10.234776 98.885193
-4.0820231 -4.2926388 98.917526
-12.274647 12.65554 98.909058
-16.174088 19.686239 98.932732
-3.9464869 11.546394 99.176575
6.9401259 12.308002 99.193558
4.6004834 15.169735 99.137329
-10.860156 -7.0587411 99.266991
-18.689751 -4.3598971 99.268692
8.3761072 0.5427438 99.260948
2.5258298 6.9449701 99.278687
2.0571773 6.8533478 99.460281
9.0441046 8.581007 99.498062
-23.92835 -0.76470333 99.575836
-16.410976 18.725895 99.531235
-3.3051643 10.54155 99.688583
-3.0175834 10.291264 99.7323
-6.48172 20.467331 99.713722
-9.132267 -4.3520937 99.855438
7.3196402 2.7816415 99.866493
-3.0850518 10.171881 99.805656
6.9626446 11.966122 99.82457
2.2440765 18.814878 100.03486
5.812418 -1.9277567 100.25673
-15.547636 18.858532 100.29741
-18.390697 -3.1484878 100.30333
6.1201019 -1.6817846 100.4488
-22.823542 0.33884674 100.43496
-25.599974 8.72153 100.46336
-23.802551 10.940267 100.59917
-22.823669 -1.5327448 100.63753
8.7012491 9.3232555 100.77508
-21.393545 14.761747 100.70037
-17.123621 19.201344 100.75853
-1.4022412 -6.1400037 100.88122
3.541899 16.190775 100.82158
-4.7703948 20.149124 100.81462
-11.158779 3.7048388 101.02229
7.62677 4.5340171 101.02281
-25.372934 2.8188686 101.12773
-8.1902103 8.8645639 101.19363
7.942802 12.420808 101.17007
-6.6882582 20.321074 101.13749
-1.1183341 -5.9950047 101.22051
8.4601431 1.8481913 101.24519
-2.7087183 6.0670633 101.23581
-25.907537 6.7697115 101.21458
-7.4219232 8.1163216 101.65903
-4.4082532 -6.9161291 101.77499
9.3551693 5.5333805 101.7151
-21.314783 17.229174 101.80006
-6.054038 -7.1048088 101.99235
-24.618221 6.266777 101.9296
-24.10441 4.3546085 102.1254
-1.1442074 19.45713 102.10122
-24.971928 9.8161564 102.27201
-23.035885 12.331639 102.52647
-6.7623711 -7.1815276 102.60825
-24.559139 0.52712834 102.67783
-25.153921 2.9113612 102.74704
6.6372795 1.3599839 102.83559
-8.5647125 -7.2897029 102.99438
-12.996138 -6.7508855 103.30676
8.9721937 4.5909514 103.32701
-25.591547 5.0487127 103.45094
-23.891655 8.6617327 103.46158
-23.668304 3.5442853 103.52267
0.13625389 18.955826 103.51144
-16.140448 19.095772 103.55045
-10.175145 19.861959 103.71524
-15.296551 -5.7963705 103.86687
-9.5235376 -7.1540136 103.98058
8.0633593 10.6394 103.92619
-6.6234293 -7.1539855 104.29202
8.7989941 6.9849596 104.2068
1.9449853 -4.3084617 104.33595
8.3988113 2.9230623 104.92838
1.6894033 18.365063 105.07896
-9.9687071 -7.0828333 105.14694
5.8373504 14.746149 105.29523
-18.446703 -4.0334234 105.6416
8.6867552 6.8208332 105.76517
6.4569817 -0.9479304 105.84881
4.8604579 16.087221 106.07166
-8.4095783 19.604465 106.13065
-24.108049 1.4956164 106.34396
-24.86076 6.7683582 106.39384
-4.1324792 19.190735 106.41664
-14.755948 18.779503 106.52881
-3.5510349 -6.779212 106.66705
-23.576162 11.957283 106.80999
-15.303399 18.529976 107.29834
-6.9643955 19.349308 107.35003
-22.722244 -0.61668694 107.43185
0.77275085 18.140331 107.44116
-6.6444111 -7.152483 107.51656
-22.962994 12.656837 107.7915
-22.531956 13.232341 107.91659
-3.4772356 18.869444 107.90562
-9.0205307 19.233635 107.9045
0.24088848 -5.0963449 108.60048
-23.5243 0.98111689 108.60741
-24.473492 4.9344158 108.78221
-23.466166 0.98973083 108.90669
-20.853096 15.319046 108.91107
0.45359957 -4.9686794 109.24706
1.9514046 17.565189 109.299
-6.8524022 19.041191 109.38287
-13.17618 18.557713 109.50346
-9.7672405 18.932161 109.66812
8.0056391 8.4083748 109.73989
6.6384816 12.813524 110.11351
7.4822798 1.3435035 110.39056
4.0134425 16.642282 110.40992
-14.032403 -6.0802627 110.79015
-21.169907 -1.4277065 110.81973
-7.7537217 19.152912 110.99376
-20.012726 -2.3967714 111.24429
-5.4257355 -6.7920299 111.61095
3.8639896 -2.7203093 111.70032
-23.891426 3.9254279 111.73496
7.2437215 11.6693 111.82145
-11.658455 -6.562716 111.92035
-16.33618 17.905676 112.19526
7.9134111 3.4946456 112.43837
-22.923222 12.094548 112.40364
-3.6195087 18.686192 112.66793
8.4161291 5.5459137 112.8315
-7.4034071 19.125423 112.87445
-17.601099 -3.9194305 112.90976
-23.217096 10.714516 113.17277
-9.8906326 -6.6001534 113.51854
3.524704 -2.8414197 113.83728
5.3581829 -1.101824 113.83734
-24.247894 5.8365917 113.8246
5.1220698 14.828253 114.14643
-20.095257 16.174438 114.10681
1.5332531 17.624199 114.12576
-18.52589 -3.3057475 114.21807
3.6668401 -2.6677818 114.21614
7.5938911 2.7210557 114.31787
-10.364216 18.92812 114.68406
-1.9429458 -5.6697416 114.74606
6.0839167 -0.31104773 114.99599
-22.914843 11.833416 115.58499
-4.5915623 18.804121 115.55887
-18.123684 17.524588 115.69615
-24.13369 6.4009447 115.75007
4.0236287 16.330433 116.22949
3.2630231 -2.7637291 116.82558
-20.705235 -1.3699564 117.17079
-21.602421 -0.47174808 117.26787
-5.4226208 18.909563 117.53742
-24.879202 -6.1415071 117.68964
0.53525472 -4.0636444 117.76658
7.6078825 9.1503048 117.74542
1.1532302 -3.7258241 118.07065
6.5097103 12.884361 118.1945
-16.066055 18.135456 118.2485
-21.82424 -4.7755899 118.32775
-24.164185 -6.8815432 118.40015
-16.381844 -3.9965684 118.43211
-26.810749 -6.6771131 118.5526
-23.87886 7.820704 118.53902
-26.205021 -2.6004024 118.61366
-18.592239 -2.9173577 118.88974
-24.050331 -4.6600666 119.26726
-0.86669576 -4.5296783 119.27082
-22.973101 12.665781 119.38754
2.9783072 -2.661931 119.59718
-21.851696 -0.2354618 119.6487
-10.63304 19.206594 119.60631
-22.578163 -8.2048759 119.76746
-11.08636 -5.6794224 119.86626
-22.154602 -4.4308205 119.82447
-20.062977 -2.1070437 119.82544
3.6637087 -2.1157362 119.87971
-28.681431 -6.768487 119.91511
-19.638004 -2.8348715 119.96243
0.55715013 18.006218 120.00165
-1.6929237 18.560339 120.19104
-21.227398 -4.1787291 120.20282
-4.7575731 -5.5949287 120.41373
-1.0003513 -4.5341425 120.57336
-21.977505 14.408336 120.67897
-29.243954 -3.0244179 120.7444
-22.007652 -0.11962652 120.76884
-20.575352 -9.0451651 120.9865
-27.6714 -1.1677053 121.18124
-26.284025 0.93487144 121.22794
4.9444542 -7.5399799 121.38667
-26.459023 -6.9290533 121.32011
-9.4496393 -5.7277532 121.34281
-11.514353 -5.444068 121.30302
-29.277857 -2.3467419 121.31534
-27.924244 -8.749856 121.47396
-29.80323 -5.1500111 121.46122
-28.586927 -8.3470592 121.58344
6.7679887 1.141482 121.58778
4.3570647 -7.7359171 121.60049
-24.386593 -0.47364318 121.66545
-17.899187 -8.9629288 121.72546
-20.095676 -2.0587049 121.77195
-13.318279 19.188007 121.70794
0.94770026 18.10136 121.89023
-24.616718 -10.014503 122.13654
2.0793149 -7.3075809 122.33209
-24.499817 -1.2634163 122.31177
2.4751129 -6.4157152 122.49318
-25.770193 1.785509 122.4706
3.4599483 17.2829 122.41919
-24.29916 -0.5702424 122.52667
-20.618778 16.909283 122.54774
-10.950331 -4.4326725 122.61126
-28.393692 -8.9066486 122.70501
-29.786369 -6.346427 122.72511
-16.803728 -3.819356 122.73448
9.016695 -6.8790874 122.82533
-0.74843478 18.599232 122.87352
5.2630072 -10.175636 122.92109
-16.484766 -1.1709715 122.94781
-22.53545 0.32692134 122.94984
-5.5449505 19.485722 122.97437
-9.6497059 19.713295 122.94897
-8.57689 19.83091 122.94769
10.778709 -7.4982495 123.0817
9.2040253 -2.2688925 123.06168
-25.048443 -8.0104465 123.13567
-24.297867 9.5821533 123.10998
-27.574615 -9.2563572 123.22633
-18.622223 -0.50035024 123.22786
7.7446313 -4.0938358 123.45959
11.311191 -6.5886645 123.56992
7.5478053 5.3519993 123.53271
-16.852936 -2.2309012 123.67499
-27.727072 2.562398 123.62663
-11.284641 19.625118 123.61986
-23.674492 0.86526811 123.7117
-0.9014082 -10.065041 123.86731
-12.191253 -5.0374012 123.85765
6.6077261 1.180876 123.88897
2.4818683 -11.290401 123.94503
7.2872539 4.5456991 123.96689
-15.558298 -4.1590538 124.13477
-10.545577 19.767607 124.18303
1.1448617 -4.9511456 124.26654
-8.0710659 -3.2282012 124.27699
-9.4477644 -2.7977941 124.22865
-28.053602 0.75982565 124.39922
-20.076046 -8.2481871 124.478
-31.475149 0.12618935 124.42374
-3.1352181 19.320246 124.42981
6.9066896 1.998692 124.51592
5.9458218 -9.2534237 124.61629
-21.323261 -8.0876713 124.66109
-16.58219 -3.7318568 124.6053
7.1611891 3.9620762 124.67604
-2.3477614 -6.729722 124.74982
-25.505693 -3.7299905 124.82507
8.8514233 -0.48964781 124.88814
1.4849676 -12.017687 124.90804
9.7875786 -8.4369106 124.92242
7.1681461 -2.9076467 124.99851
-22.219414 15.604118 124.97743
-26.934505 -8.8736353 125.05559
-18.001928 -8.2570648 125.08949
1.3357011 -5.2965641 125.08025
-20.52537 -9.8674307 125.1915
-4.5249367 -9.2386742 125.16667
-3.2090707 -4.7464285 125.19392
-23.015471 14.721491 125.24593
6.6301599 -3.0801642 125.36189
5.4390006 -2.02774 125.38326
-27.482586 -4.3454452 125.42833
-14.267078 -4.518755 125.50417
-9.8809729 -4.3104033 125.56009
-27.713972 0.82316601 125.57196
-25.820908 1.4780877 125.50079
-26.76602 -3.8633449 125.62738
-26.660381 -2.1375117 125.67239
-15.778546 -2.0837579 125.65449
-5.7495875 -10.12487 125.71896
-27.858936 -6.0004992 125.76392
-27.926542 -5.7744708 125.72361
10.680819 -8.4552507 125.85184
-24.628195 -5.2520323 125.89764
10.887625 -0.65497106 125.89331
8.3635426 0.46298683 125.80827
-22.741817 15.283928 125.8997
-19.395832 18.621822 125.82683
-26.435354 -5.1176958 125.99101
-12.969259 19.746548 125.92616
-26.902103 -5.0666871 126.08134
-26.932554 -4.7492733 126.04997
-13.935183 -4.5192738 126.09795
0.89150226 -12.720779 126.12795
-0.31443369 -12.650631 126.25343
-5.1004982 -6.5267344 126.24321
-0.121696 -10.491775 126.33809
-15.328398 -9.779171 126.36842
-23.513727 -6.8938913 126.34816
12.042868 -8.9939423 126.42301
11.199803 -7.5301113 126.45291
-0.574094 -3.7547374 126.46322
-23.589581 -2.1149483 126.40475
-18.296991 -1.7227943 126.48357
-30.884697 3.0077744 126.47908
-7.8073421 -9.9801588 126.50677
-8.1307716 -9.0478535 126.52902
9.9797316 -10.690475 126.69548
-8.6560211 -8.7091093 126.6306
-25.981232 -8.0236082 126.64995
-27.001629 -7.5892968 126.68268
-1.5922592 -6.4757004 126.6561
-25.465248 -5.627903 126.67826
-25.545038 -4.8801346 126.60123
-13.656425 -2.4905868 126.70744
-22.190449 -6.7110686 126.82731
11.273095 -3.2401881 126.85658
-22.702805 -2.5500138 126.8882
-5.2132444 -8.2230158 126.94701
6.1474509 -5.6381388 126.95127
-28.070553 -4.462513 126.95628
-24.023327 -1.5240265 126.98392
-31.830254 1.1991553 126.91595
-4.3057251 -9.6591692 127.05852
13.372824 -6.8060131 127.02458
5.6677389 -4.5518265 127.09015
-29.414738 0.56793886 127.05318
-18.176722 -9.2577038 127.19136
-28.383667 -1.0471816 127.13982
-21.789463 1.5204287 127.18575
-12.514893 19.937738 127.10583
-5.1205759 -4.3265896 127.23901
12.069322 0.16235667 127.21356
7.292665 4.7876897 127.27739
-3.8726873 -6.4493971 127.39656
5.5671668 -4.5825558 127.31727
-24.689499 0.87845814 127.33067
-26.684681 3.1138761 127.36923
-10.180275 -9.3845339 127.49829
-0.045619674 -4.8886008 127.49938
-14.187099 -4.3152103 127.47693
-16.840487 -2.1723928 127.43874
-8.264924 -1.1533036 127.43695
-9.9884453 -0.61847275 127.40508
5.3015618 0.031283617 127.40495
-4.3060322 19.786398 127.44477
-29.341551 0.94432634 127.54669
-3.7341833 -12.740152 127.65075
-18.286129 -2.8274148 127.63795
-2.8657141 19.581848 127.66203
-22.168211 -2.7347422 127.72683
-23.118073 0.32600257 127.77528
-12.701065 -9.8821201 127.84225
3.5417793 -3.7139673 127.83539
-24.832447 -2.8546028 127.87806
-23.735249 -2.3529146 127.81474
5.1680355 0.79201537 127.83162
-16.641199 19.430906 127.87535
-17.703852 -7.7197819 127.90316
-18.209639 -6.5751324 127.96952
-23.393936 1.6965708 127.94648
-24.317862 13.975356 127.95004
-15.263229 -10.101664 128.01544
-10.395258 -2.662796 128.00717
3.6667318 -2.4562249 128.07887
-26.379333 5.933393 128.06999
-17.176664 -10.129974 128.13205
-9.5824852 -5.4879823 128.17784
-28.186356 -4.8544035 128.1098
9.8261261 -10.897161 128.20966
-7.750689 -7.9625769 128.38528
-0.84226918 -7.4593549 128.3911
-10.659688 -5.3977308 128.39696
-18.641262 -0.7923649 128.39499
-8.5029736 -0.75130123 128.38931
-17.921124 -0.64774162 128.31203
5.362586 -4.1931167 128.40283
-21.147884 17.89677 128.47672
-11.700905 20.094971 128.49165
-18.67762 -3.7249954 128.50729
3.4727881 -1.3004133 128.57381
-24.668608 13.098058 128.53984
-12.491133 -6.0506649 128.69023
-6.9972091 -12.881761 128.77972
-0.57401818 -11.30408 128.71724
-15.414219 -6.5377464 128.77586
5.0240827 -4.1401148 128.71024
3.3479369 -1.5994147 128.75482
-24.620232 -6.0974398 128.88278
-29.20108 1.8328977 128.83775
-31.876911 2.1445098 128.88841
7.1856217 2.8207326 128.83275
9.9015303 -7.0669813 128.96829
-22.455441 -6.6973991 128.90155
-6.2483025 -4.4834867 128.91412
-29.106232 2.1564026 128.9669
-16.045984 -11.244478 129.04031
-16.497137 -8.3197441 129.03564
7.0503659 -7.1548314 129.00368
-31.447084 3.5082242 129.09142
-12.068347 -5.3923979 129.1319
-26.840919 4.4474211 129.19844
8.1272602 -7.5801682 129.27072
-25.302364 4.7613888 129.23714
-25.388142 5.5623107 129.24159
2.1115091 -11.119421 129.31287
-9.5613079 -10.50543 129.35721
-11.914799 -9.8001909 129.33339
-23.442238 -5.382441 129.37743
5.0985909 -0.18051857 129.34546
-24.064735 6.3258052 129.35602
3.4650323 -10.939074 129.47238
-14.913502 -8.420229 129.40498
-21.54998 -6.0624089 129.44962
-25.959663 2.4338465 129.45778
-2.4887211 -8.5177088 129.52766
-24.412697 -6.0613165 129.58444
-8.1392593 -4.3631735 129.52081
-18.046448 -2.2008109 129.54309
-13.95872 -8.2786942 129.68921
-13.181636 -6.0505834 129.67821
-20.443928 -1.9208894 129.61101
-25.918247 0.66244346 129.66498
-31.636068 3.260962 129.6888
-18.630936 -2.5869405 129.79506
-20.839642 18.55254 129.76718
-18.670166 -9.1245766 129.8494
-20.828102 -0.59313828 129.89755
-24.212852 -4.1920519 129.9581
7.2825623 1.3747531 129.98834
-17.686161 -11.514067 130.18828
-18.375208 -9.45821 130.11765
6.0458441 -6.673924 130.10498
4.358994 -2.6682429 130.16621
1.2872092 18.988953 130.16861
-14.094465 -11.778505 130.24294
-2.7862389 -3.9976518 130.25835
-29.18644 2.2696218 130.27608
-3.9853835 -11.36226 130.36465
6.6498075 -7.6986055 130.36006
-17.276075 -5.8163118 130.30801
-4.1876211 -2.1713374 130.36258
-12.463036 -12.169028 130.42058
-18.261086 -5.1710248 130.48009
0.95836097 -5.0545878 130.49728
-25.148224 4.5493679 130.4776
0.19172767 -10.785744 130.53639
5.8212667 -6.9283123 130.55649
-6.4574895 -3.8464634 130.51486
4.2685046 -3.3658922 130.51111
-10.163197 -10.8545 130.62798
-17.159548 -7.2503934 130.68616
-28.739265 3.7220075 130.61789
-12.709451 -12.151729 130.73494
13.200972 0.89756072 130.71097
-17.398891 19.704161 130.70703
10.595675 3.7842522 130.83441
-12.678146 -6.9987025 130.9868
-1.0164071 -3.1041472 130.99135
-24.879791 -2.2952948 130.9115
-10.383621 -6.1571975 131.04892
-17.464512 -2.963979 131.06796
-12.465168 -2.0259638 131.02924
-1.8492167 -12.60824 131.11671
-20.482677 -4.371593 131.12775
-8.9083433 -0.98525268 131.13422
-25.640863 5.4584408 131.13589
2.5332079 -9.4512005 131.29832
-13.450938 -6.4437237 131.23315
-5.1146388 20.146301 131.26431
-12.841761 -12.29914 131.37297
-6.9364185 -12.731577 131.49315
-10.900042 -6.0849638 131.42239
6.9874382 -5.8960342 131.47897
-13.315132 -3.9697504 131.42642
-21.032511 3.4986072 131.45157
5.9651375 15.223345 131.49547
8.3605404 -7.4047976 131.57133
-3.8446388 -5.5313187 131.5242
4.5715632 -4.7966204 131.55415
-4.1671147 -3.4421825 131.53362
-25.479862 5.9507141 131.53423
-5.3225379 -3.5676022 131.65414
-4.2363157 -1.6228639 131.67726
11.177085 -1.3702497 131.63928
-16.61713 19.981873 131.64751
-13.19124 -5.9885788 131.71054
-29.251488 -4.632091 131.76761
3.3122997 1.6333268 131.74414
-24.663158 3.9956989 131.78424
-5.4477139 -5.8540783 131.81866
3.005034 -11.033138 131.95284
-3.8296285 -6.8696637 131.96494
-12.514429 -5.5077891 131.97311
4.2254934 0.35133064 131.9081
7.8380504 8.6310797 131.94482
-27.684099 9.1304636 131.96629
-23.880487 -5.8500457 132.07379
-26.907804 -5.3121066 132.03159
-24.465574 -5.26229 132.06323
-12.603539 -4.1235428 132.07976
-0.026279271 -9.1163263 132.14404
-19.391975 -4.1456928 132.1217
11.055463 -2.4968581 132.13936
10.716604 4.6196513 132.18958
7.6224208 5.5295839 132.14336
-13.85547 -10.564672 132.24945
-11.288886 -3.520061 132.23158
-24.56069 1.734004 132.282
-7.9028187 -3.5862398 132.32562
-4.0643525 -0.16151951 132.43443
-29.349695 2.3721423 132.4716
-25.889597 11.564047 132.40381
-6.4129605 -10.677826 132.53993
-15.665402 -10.432692 132.5903
0.39144719 -3.8523734 132.59409
-1.9432843 -3.7160823 132.51498
-1.1436328 -3.2504671 132.60291
-9.5796776 -2.8277917 132.69011
-23.83939 -2.7940052 132.67688
-8.6809425 -1.9248312 132.62453
7.4877939 5.8935142 132.66096
-28.937759 8.7808304 132.65407
-23.637617 16.833677 132.71239
-17.757338 19.91497 132.73123
2.3165798 -5.0462179 132.82454
-0.71415412 -11.063664 132.98119
3.4764428 0.019416064 132.98271
-23.402969 0.29522127 132.95229
8.8295736 2.9058726 132.95419
-0.68627024 -7.4882727 133.05746
-4.233542 -3.8827388 133.09808
-2.6534276 -7.9554787 133.13034
-3.0779257 -4.1771131 133.17267
-9.0160627 -10.310308 133.22604
-16.960236 -2.9276848 133.27049
-4.0030513 -8.9240236 133.38589
-2.8001308 -11.209986 133.40393
-21.202259 -7.6145277 133.40016
5.8207116 16.012337 133.43713
3.1082125 -8.1241875 133.54477
-24.99791 -0.40513724 133.54568
7.0989542 14.642694 133.50407
1.5809555 -4.5116158 133.61238
2.2361476 -1.3054698 133.69267
-18.207294 -10.642004 133.78334
-10.734285 -4.2231436 133.74225
-21.348347 1.9048274 133.78607
-28.952888 4.3266315 133.70482
8.169323 6.9990659 133.77924
-31.063074 7.9228969 133.72858
-9.795929 -6.4286323 133.88603
-21.901323 -3.0667727 133.82822
-25.980721 12.919466 133.89056
-25.443485 16.044819 133.80356
9.6724749 2.7803402 133.95868
-10.213934 -3.8970513 134.00128
-4.5107327 -1.1641921 134.02267
-9.9031315 -7.9762459 134.22758
-4.8643117 -5.8017755 134.24194
-23.425407 -0.30115184 134.28418
5.539793 0.57524282 134.23953
-4.2213922 -10.267817 134.36398
-1.8924711 -9.2812471 134.39775
-11.294439 -7.5542712 134.34509
-22.033293 -6.2303596 134.34787
-3.1542113 -5.5050097 134.36302
-3.2114339 -0.36963308 134.36485
6.9144053 2.2203996 134.31168
6.9595876 4.4329872 134.30429
-24.608675 10.390449 134.33478
6.4635463 15.842851 134.37863
-13.107113 -6.4430752 134.47971
-8.7729321 -4.2979784 134.45691
-25.170662 -4.0915494 134.4341
-18.978014 -7.9304805 134.58188
-5.1049795 -3.948348 134.52701
-2.403573 -3.5331523 134.52092
3.7815146 -1.4104118 134.50815
-25.850466 14.641148 134.54585
-1.474947 -7.7050486 134.67456
3.0645883 -1.2689112 134.60446
7.8094358 7.5569773 134.63666
-8.3286238 -4.8035736 134.78914
-22.736012 -0.52836382 134.75993
7.5552826 5.2040362 134.74518
11.873398 5.3996739 134.73584
-27.846025 8.0532379 134.72099
-15.543026 -10.157329 134.87697
-14.195212 -10.114672 134.84685
-2.2227867 -8.5460348 134.84566
-15.62428 -7.9115481 134.87761
-16.884762 -5.1236625 134.87193
7.7261324 6.6353016 134.83418
-29.840626 9.4064655 134.85672
-5.3858461 -5.6741018 134.9976
-27.285942 7.8621712 134.95386
-21.773222 18.982176 134.98843
-1.0675426 20.050615 134.91505
-14.639801 -9.8135662 135.08899
5.9384975 -6.8918819 135.01801
-5.3167138 -4.958952 135.06384
-11.048679 -4.6574721 135.02126
-25.731865 -1.4965994 135.07455
-15.500121 -7.0548878 135.13338
-3.5263467 -6.3592215 135.19621
-1.7363651 -5.8841267 135.15158
8.6690359 -5.8283033 135.19936
-26.181301 4.8389173 135.19145
-3.6604271 -8.5412436 135.20599
-11.59033 -4.8081112 135.25653
1.9381425 -4.4745269 135.26666
-25.595737 -3.5248759 135.29056
-26.126774 4.2261019 135.20171
-4.3449178 -8.3215113 135.39938
9.5239525 3.5799503 135.38321
-8.0196562 -5.6685271 135.49028
-9.6791096 -5.2305274 135.41809
-30.977373 8.5143709 135.46205
-16.680399 -9.22995 135.55681
8.2446537 -6.6007023 135.56703
-22.341608 -0.14180624 135.5748
3.9787331 6.5448456 135.51051
9.2880192 -6.2210011 135.67111
11.319118 -5.0322986 135.63126
-13.901773 -3.6480994 135.66391
-22.987402 7.55163 135.68713
-6.1642222 -8.2446556 135.75264
4.6624708 -5.4984074 135.77341
-20.538944 -1.5474106 135.75504
-20.947903 0.092588529 135.78139
-26.463583 6.8834105 135.70865
-0.022537112 19.910187 135.87593
-22.333954 0.11733115 135.96777
-22.737453 10.67161 135.9151
-22.109232 18.801975 135.935
4.5102668 -6.0312576 136.05566
-1.0899408 -2.9467225 136.06374
-21.477966 19.26988 136.02216
-25.695179 2.9622126 136.11841
8.4618435 4.9965458 136.18805
-22.102652 6.8373833 136.13907
-30.404751 -0.4272368 136.22844
-16.509747 -3.0781178 136.33652
5.5930371 -7.3486452 136.47209
-28.072561 -2.5400567 136.44662
-21.463257 19.475958 136.46164
-26.478014 5.3566551 136.55974
2.7582526 5.6593142 136.5871
-9.6253433 -3.9476752 136.79082
5.9052029 1.2412051 136.70874
-27.131449 12.082462 136.70409
-18.487326 -5.0401664 136.85077
9.9107685 7.8564358 136.81039
-19.977819 -4.0147104 136.93645
1.2007388 -1.4587067 136.93446
3.8550115 -0.98045337 136.9072
1.6319114 3.1681726 137.04564
-25.50374 12.524792 137.06114
1.5042081 -0.78875375 137.10072
7.9147248 11.169659 137.10735
8.2771864 -6.1487837 137.25879
0.28594589 -2.3450503 137.29166
-26.516123 0.35684648 137.28261
-11.673335 20.974346 137.26778
9.5016823 -4.2965493 137.34143
-8.1595335 -3.7971263 137.37637
3.9908638 4.8456039 137.33064
4.2451134 8.5771561 137.4942
4.3235083 8.5536308 137.42964
-2.9614401 20.725052 137.44196
-29.174913 -0.9070484 137.55977
-20.792801 0.79299974 137.52591
1.327155 0.79416978 137.7804
5.5265369 9.2556858 137.78218
-0.060798705 -2.3920631 137.84335
1.3175874 0.41587979 137.84764
-22.518705 18.67441 137.97594
-20.084988 2.8112795 138.09079
-21.457451 20.206297 138.16879
-1.6004919 20.474398 138.19669
-19.150606 20.790388 138.25089
-11.509531 21.077671 138.26256
3.607368 -3.3610065 138.3013
-31.090479 1.5272563 138.35602
0.7029621 -1.4357032 138.48085
-30.49176 2.2660985 138.48659
-25.383884 2.6435337 138.49071
-26.0874 11.50404 138.40685
6.0479507 -4.9697323 138.5408
-19.630123 3.6786954 138.57242
-25.362488 14.339183 138.58328
10.077715 -4.5995722 138.61673
-25.192844 -1.776119 138.6373
6.3715653 -2.9691143 138.76543
2.8609324 -1.2093357 138.71024
-25.140612 14.991814 138.7354
-1.6512426 -2.8505385 138.82327
12.827275 2.9634476 138.81993
-20.016497 9.6223793 138.90483
-5.705411 21.058445 138.97415
-31.633574 8.0056305 139.03024
-22.668005 18.909935 139.01466
-15.560062 21.191473 139.08472
6.480763 -4.9281492 139.1358
5.2387381 -3.6737814 139.12192
-24.910456 1.3795673 139.17172
9.0328093 -3.6402466 139.28745
-26.191759 0.96315598 139.36707
-25.818935 -1.2407417 139.45442
-10.389561 21.17593 139.5119
-31.643181 7.1451168 139.61623
4.7223907 18.328304 139.68251
-26.199244 -1.0337818 139.72638
5.0578551 1.4722464 139.70976
-26.006893 8.3446331 139.72739
-25.763824 10.33584 139.90359
3.5067682 -0.99872518 140.25882
7.4397984 10.287334 140.23697
-20.969519 -0.81811535 140.30798
0.48751026 4.1390786 140.39015
-25.53093 9.4482412 140.33752
-21.886133 20.95369 140.37239
-27.91707 -0.36105007 140.41599
11.144581 8.5234394 140.48215
-4.6880779 21.184351 140.41147
5.1488905 -0.4830842 140.54691
-31.138149 9.6799107 140.51236
10.654173 0.077366829 140.65503
-27.940487 -0.16300943 140.75238
-18.967045 4.7180305 140.79437
-25.341667 8.1229973 140.74744
5.7360439 -0.94428217 140.84293
-22.259855 0.27039444 140.85355
-22.250694 13.28209 140.97717
-15.531713 -2.3404758 141.01953
-30.508341 11.284822 141.05811
-26.221834 -0.20148015 141.18854
8.6503191 0.56444144 141.10452
5.712153 12.058943 141.10742
-25.904802 14.772219 141.11526
0.069870442 20.955214 141.11145
0.80293113 0.71453184 141.23018
4.7465305 -1.0882137 141.32986
1.7099354 -0.40357703 141.36685
7.3375778 3.8701186 141.32025
-24.447754 13.214346 141.34933
-18.841845 9.2145863 141.41496
7.1187015 4.539279 141.56735
7.0436611 7.6144981 141.52161
-24.572136 9.8143005 141.53951
11.776951 0.001765728 141.76454
6.3026171 13.66551 141.74117
-24.209599 15.562293 141.79211
-22.409397 0.93880904 141.88107
6.8478274 5.0289993 141.88866
-24.799149 -0.16365325 141.96736
-10.075425 21.371672 141.94943
-20.206635 9.5643311 142.0752
-23.9706 14.324249 142.0295
-31.15374 5.8680787 142.15849
8.5125217 -2.8451955 142.27299
-24.438154 6.1974816 142.28427
6.4392438 8.5589113 142.24518
-23.952475 8.1543341 142.38696
-10.074159 21.406387 142.38293
3.5889714 0.81873095 142.46263
-18.270309 7.6034718 142.40198
6.1754937 9.6486454 142.40816
-21.982473 21.053867 142.4995
6.0309968 17.513475 142.6163
-28.18055 1.1032711 142.87688
5.9766994 7.0458188 142.90178
2.2165716 -0.64590579 143.09802
0.1971826 2.718538 143.08853
-6.4408169 -2.0023417 143.31743
1.9468765 -0.44423991 143.339
