# .PCD v0.7 - Point Cloud Data file format
VERSION 0.7
FIELDS x y z
SIZE 4 4 4
TYPE F F F
COUNT 1 1 1
WIDTH 1613
HEIGHT 1
VIEWPOINT 0 0 0 1 0 0 0
POINTS 1613
DATA ascii
197.62979 310.59927 9.8793974
222.17691 307.47818 9.9323425
194.38286 307.96417 9.9017477
224.54831 309.96869 9.9344139
194.26445 304.37262 10.03936
219.91571 311.24707 10.037651
221.6058 316.27692 10.00955
194.98914 302.68362 10.140817
198.24756 301.88043 10.251616
223.08554 314.73608 10.26248
195.30806 302.19696 10.324116
194.4649 307.40942 10.317093
222.66208 307.41434 10.311392
224.11636 309.03668 10.321819
224.25189 312.85211 10.318913
222.9482 314.6571 10.481771
198.69522 304.41852 10.507212
195.39204 301.92554 10.602066
198.49103 307.53418 10.637921
198.42368 307.77756 10.625584
197.01683 310.50879 10.651355
223.15889 307.53925 10.778634
223.91751 308.50787 10.73469
224.56079 309.83539 10.712656
224.33942 311.82532 10.746995
224.25221 311.94879 10.86876
223.58556 313.52658 10.844517
197.21909 300.59241 11.049636
222.60278 306.86673 11.079268
197.31026 309.84381 11.072689
224.17738 311.94022 11.043167
198.16794 308.03088 11.158032
195.64908 301.21143 11.294498
198.93808 305.33914 11.220579
194.64679 306.25232 11.214027
220.58182 314.91125 11.283237
198.43805 300.1582 11.383693
195.38965 301.34909 11.387541
194.46143 304.17047 11.359775
194.43127 304.43756 11.398775
198.29866 307.33179 11.377872
197.45033 309.20932 11.370343
194.47444 304.05524 11.407973
199.01978 304.07434 11.466214
194.65974 305.9906 11.409018
224.0238 308.47543 11.470354
219.49841 312.14948 11.4014
195.96901 300.68353 11.66613
194.7757 301.76202 11.669634
199.09344 303.96283 11.695247
199.10242 304.09973 11.672047
221.66075 306.14731 11.672236
222.27431 306.22989 11.638629
197.26721 308.77863 11.63223
219.4402 310.55469 11.690227
223.33566 312.90625 11.68991
198.93832 302.51633 11.789385
194.91087 301.45615 11.874425
221.6494 314.71893 11.80699
197.69734 299.70929 11.920496
195.04633 301.25162 11.945131
223.09045 312.95502 11.905782
220.8098 314.55814 11.990483
197.37497 299.70206 12.042601
221.88016 314.14178 12.095528
194.79019 305.14124 12.168861
199.06415 301.85098 12.36098
195.31702 306.24835 12.384672
197.5137 299.28357 12.486273
196.25809 307.50955 12.445083
196.46927 307.54126 12.407269
195.22783 305.68774 12.501269
195.38072 306.18604 12.527268
221.0594 305.9761 12.639374
197.18762 306.685 12.695324
195.70297 307.06958 12.663485
220.34509 313.51511 12.754858
223.98547 307.76846 13.048642
219.64409 311.1601 13.056213
197.16594 298.90161 13.145485
223.2132 311.37225 13.236705
194.8141 301.60211 13.389126
199.40198 302.25934 13.315609
194.7182 302.35757 13.333493
199.26274 302.44681 13.393347
219.64442 307.4371 13.42541
223.80753 309.79321 13.441973
222.39095 312.06354 13.471904
199.30409 300.14798 13.52946
197.81218 304.42441 13.56874
220.13852 312.25409 13.51154
195.00523 300.09863 13.65955
223.36917 306.29895 13.608572
224.21117 307.82993 13.648924
219.52347 308.94781 13.634872
219.6958 310.96527 13.610147
199.0018 302.98163 13.763626
197.26016 304.4646 13.782095
224.03271 308.49335 13.771111
199.62048 300.99014 13.861036
199.82837 302.63162 13.896057
223.75912 309.45166 13.819291
195.0899 299.78528 13.940258
199.68634 301.03192 13.961342
198.7392 303.34247 13.901135
221.89804 311.8566 14.185994
199.04596 303.70901 14.295945
223.5802 309.55197 14.201705
199.84152 300.63617 14.313318
195.82431 299.45825 14.479031
223.41318 306.0321 14.413785
219.75349 309.53156 14.4885
200.37433 303.21927 14.578384
223.40787 309.6192 14.591866
197.23456 299.1597 14.703042
194.99403 302.12823 14.755815
199.86914 303.77121 14.705947
221.9008 303.93921 14.720284
200.14705 300.54105 14.846216
220.95218 303.30298 14.842525
199.12521 304.62402 14.976084
223.81348 306.36276 15.042481
200.43675 301.12927 15.192673
200.26932 299.72461 15.241676
195.29359 301.15646 15.231589
199.43073 304.7529 15.202826
197.24046 304.97214 15.261002
223.90997 306.55939 15.234797
221.67946 310.72668 15.260921
222.27333 303.84747 15.326603
219.64508 304.92673 15.319487
197.84309 299.46912 15.479503
198.97006 299.62479 15.561676
195.23717 302.15836 15.535626
197.38672 305.28415 15.580847
219.19302 306.35049 15.524456
223.67764 307.14777 15.552727
200.83289 302.2095 15.601829
195.23021 302.42172 15.631255
219.73334 308.0788 15.615137
223.3212 308.52872 15.623237
223.69681 305.76181 15.763177
219.80763 308.43167 15.709515
200.60855 304.93118 15.877307
220.12421 308.95224 15.847657
222.8584 308.94061 15.856002
198.65631 299.79364 16.064295
196.06177 300.2923 16.011608
195.89987 303.84567 16.078682
221.90289 309.60895 16.017365
198.22791 299.7886 16.167139
218.29135 305.81213 16.149343
218.30161 306.45001 16.101189
221.21082 309.64212 16.165157
196.6562 300.24921 16.246044
218.74832 304.89624 16.254791
223.17612 304.55466 16.337667
218.04466 305.77597 16.391375
195.78633 301.69415 16.437357
222.67545 303.74692 16.417492
222.7394 308.42844 16.438877
220.92395 309.01959 16.404158
201.22394 300.80951 16.583088
218.83057 304.29791 16.518051
201.50958 305.43063 16.679176
220.35263 302.96597 16.722807
201.84875 304.15955 16.725384
200.31975 306.44214 16.788902
196.1588 300.93329 16.851824
196.12877 301.04068 16.83827
199.30965 306.96185 16.838112
222.66618 308.0174 16.81473
219.10707 308.91122 16.989359
196.06763 301.83771 17.05644
223.40063 304.65497 17.051886
223.54803 304.82529 17.073057
197.595 306.50323 17.031326
218.8148 309.02481 17.090738
197.89536 300.39474 17.129576
217.1796 305.7453 17.185961
201.51642 300.63248 17.223421
201.7019 301.2742 17.273092
202.10822 303.84308 17.262686
216.44165 306.86295 17.219288
216.61429 307.32959 17.254744
196.36856 301.06403 17.320101
196.21713 304.36337 17.361229
202.41013 305.32648 17.30706
196.71011 305.40509 17.387001
197.14758 306.37305 17.334488
201.67139 306.34027 17.388325
197.76993 300.63425 17.47263
196.27652 304.47574 17.465197
200.96098 306.95166 17.448986
220.42526 309.02499 17.460253
198.61258 300.41788 17.529369
196.382 301.50696 17.534632
196.35638 301.71588 17.572899
199.54703 300.52582 17.637714
221.25609 303.46173 17.607895
223.30737 304.83566 17.618328
197.09143 306.20895 17.629107
199.2001 307.60074 17.65963
199.97769 307.84833 17.644108
196.27411 302.45651 17.72547
197.31041 306.6727 17.753323
217.42921 309.2251 17.744606
216.41254 308.38345 17.822517
218.4552 309.59036 17.887459
222.76984 306.95801 17.900959
215.07965 307.69989 18.109209
202.47107 302.40207 18.294525
196.7861 305.45877 18.2059
202.88802 304.71066 18.307007
222.36971 307.18811 18.351353
199.59518 308.30481 18.361492
200.50305 308.48444 18.309837
202.42029 301.39267 18.44595
219.91251 303.62997 18.419754
197.63489 307.2843 18.4832
214.642 308.07007 18.47275
217.89833 310.04144 18.450966
196.38997 303.88501 18.551464
203.04077 304.75241 18.551765
214.81499 307.00705 18.599728
197.56586 307.12997 18.502945
215.14676 308.8418 18.596569
196.59616 303.24646 18.694622
197.65295 301.39862 18.704268
214.88657 309.026 18.796461
196.74597 302.82037 18.808466
220.83469 308.64154 18.837927
198.96078 308.4841 18.926964
217.12991 310.46225 18.910336
220.68028 304.24921 19.001238
220.89748 304.41174 19.040642
215.29285 310.11224 19.096596
203.03314 302.85916 19.126848
218.05756 303.68924 19.140713
220.33943 304.16104 19.132832
221.87042 305.07516 19.150682
198.55936 308.46301 19.107803
202.9566 301.70447 19.269266
203.7567 306.51266 19.208284
197.83789 307.62054 19.275801
200.25854 301.28137 19.317276
213.61841 307.61972 19.329672
213.19984 308.58057 19.349367
213.72159 309.03445 19.32156
214.24619 309.66266 19.366886
214.74762 310.18817 19.374928
220.36996 304.47363 19.47419
204.0602 307.27081 19.482836
203.67644 307.86758 19.459373
219.34174 309.91406 19.456493
196.81586 305.36273 19.584429
203.85179 306.00281 19.528742
214.19666 306.32339 19.577774
199.36761 301.44397 19.649015
203.22945 301.9144 19.676115
204.1832 307.37091 19.659115
199.58759 309.30481 19.680695
203.54755 303.51541 19.795343
217.28952 303.86392 19.790524
221.28937 305.27188 19.782433
221.16733 307.45395 19.780399
203.57602 308.37576 19.758617
201.78806 309.64224 19.723537
214.47574 310.67572 19.713139
212.58269 308.29883 19.877653
219.60251 309.51062 19.855072
201.22711 310.05615 19.820244
196.91347 305.52771 19.928694
197.92018 307.71277 19.915508
216.93016 303.94461 20.088617
217.12573 303.9408 20.01722
204.00786 305.336 20.001347
204.3627 308.36548 20.151079
200.58655 301.68298 20.22348
197.27965 303.73123 20.245363
203.90475 303.85883 20.29063
215.97897 303.86984 20.208309
220.12738 305.01886 20.272497
212.82776 310.19839 20.2409
213.36716 310.92633 20.321678
203.80794 302.59613 20.483295
217.60175 304.18616 20.420347
212.85315 306.8833 20.489716
212.20425 307.95215 20.436022
212.59879 310.37939 20.423903
204.01083 303.61557 20.546013
218.76762 304.44699 20.542406
219.51962 309.36664 20.529119
200.00139 310.14352 20.568806
212.13544 310.35736 20.62204
212.70703 310.97739 20.640522
212.94125 311.22495 20.645214
212.11212 307.60895 20.734726
214.19801 312.12302 20.750137
213.52437 305.25604 20.868076
217.86137 310.88712 20.871632
216.21878 311.82681 20.821053
204.40903 304.60071 20.90926
212.99652 305.9343 20.942743
199.14104 310.1301 20.998182
201.20877 310.84293 20.943626
214.03677 312.31345 21.007687
218.07028 304.58911 21.182766
213.13562 305.42438 21.128048
213.54329 312.50085 21.171991
202.73503 302.4126 21.28134
216.53793 304.38779 21.218132
220.2164 305.9075 21.23781
200.40298 310.78149 21.288149
201.07364 310.96753 21.207216
214.29926 312.45636 21.303158
212.55888 312.50101 21.38789
215.70798 304.37454 21.454212
212.1702 306.32391 21.475643
211.15958 307.91782 21.435822
202.629 311.12292 21.427402
216.50534 304.5379 21.568523
197.92615 307.50555 21.509047
212.06955 312.34924 21.594391
214.25374 312.6416 21.583363
202.83426 302.56366 21.627245
198.05264 307.75986 21.679005
211.10486 307.72363 21.60722
210.90253 311.19492 21.63718
216.11295 312.35666 21.612349
204.19859 302.79596 21.709398
219.02179 305.61621 21.739677
200.51314 311.11963 21.744041
197.75308 307.07162 21.898996
211.17577 307.25073 21.833521
199.82256 310.92233 21.818592
202.76048 311.44766 21.801758
202.56152 311.59723 21.838051
215.79297 304.62646 21.997549
210.32245 311.16476 21.966957
211.7663 312.58035 21.906887
215.1407 312.69614 21.905802
213.83829 304.37262 22.049406
219.09305 308.87958 22.091709
205.02525 309.84058 22.050915
203.87566 310.90536 22.014044
212.68832 304.43741 22.157877
218.81129 305.87 22.187599
219.25015 307.37875 22.138435
201.84431 312.24829 22.167465
219.12836 307.48749 22.270163
212.39188 313.42984 22.202202
201.59462 302.67087 22.359072
205.02789 310.32727 22.333363
210.22325 311.69049 22.324631
213.37375 304.49908 22.484724
205.06775 309.63156 22.466961
199.35828 310.9021 22.43931
201.18362 302.68018 22.532248
201.31766 302.70004 22.535852
211.23932 305.93649 22.587362
215.76144 312.38513 22.581802
197.91534 306.4455 22.648777
205.0786 309.70105 22.63625
202.78516 303.00427 22.761898
198.45758 304.1358 22.735022
211.8432 304.68903 22.793745
218.37784 309.75958 22.71801
200.46094 311.75909 22.748064
199.79025 303.216 22.866428
198.25616 305.25079 22.812126
210.48479 306.8775 22.852648
209.18497 310.82806 22.817734
204.11938 311.63647 22.823935
203.63281 303.18671 22.909449
209.02296 311.69897 22.958481
202.42213 312.82974 22.99239
210.7318 313.33209 22.952103
203.34863 303.19614 23.038826
203.92317 303.27728 23.031139
198.12505 307.85931 23.041733
202.54306 312.86096 23.089176
210.19713 312.86966 23.009418
211.15302 314.065 23.116148
198.27914 306.24466 23.282925
209.57608 308.32782 23.231808
205.1124 310.06253 23.237919
212.6445 314.14618 23.291143
205.11661 303.63208 23.399059
205.29298 305.98871 23.370981
209.12048 309.91385 23.389727
218.01382 308.91431 23.406836
217.95419 309.08707 23.452316
199.00827 310.11566 23.428316
217.02959 310.83679 23.471375
205.5201 304.5864 23.595795
215.9361 305.38202 23.56842
216.82413 305.89703 23.573162
205.26349 306.95828 23.50536
198.6396 309.1777 23.518347
209.11386 309.61594 23.546963
201.35266 303.23019 23.635696
198.55524 305.88406 23.68088
210.37956 305.92941 23.694494
198.93576 309.95355 23.640795
208.54842 311.6626 23.705198
212.42007 314.52914 23.762573
201.81378 303.33911 23.861874
204.03264 303.65247 23.809753
198.68604 309.19019 23.874199
199.33162 310.96518 23.817764
208.67352 312.89417 23.825466
208.66553 312.9342 23.852608
209.39821 313.66583 23.895998
199.435 303.98318 23.941694
198.61026 306.13458 23.904043
209.12094 308.78644 23.933023
213.52893 314.23633 23.984703
200.93079 303.68512 24.054176
210.30035 305.64819 24.018545
208.8934 309.48062 24.059156
203.06879 313.52618 24.0383
217.5822 307.30255 24.192932
198.35251 307.54816 24.10524
208.46758 311.16815 24.107744
205.76248 304.92319 24.278587
205.56017 306.57629 24.252037
209.18671 307.90536 24.22497
217.38824 308.638 24.216381
199.36725 311.00549 24.264952
208.7103 313.61057 24.218372
212.36554 314.76685 24.245209
210.12352 305.57184 24.347054
205.7215 305.65588 24.384909
215.49797 305.80203 24.362154
198.75952 306.43161 24.338673
198.58403 308.73059 24.371098
216.41759 311.14362 24.357292
215.03859 312.52042 24.342211
202.59677 314.10947 24.364225
212.59447 314.71863 24.337688
210.15768 305.37686 24.433783
203.96341 313.45554 24.453295
203.12094 313.93225 24.47183
201.94975 314.13489 24.454311
217.01059 309.28473 24.575541
205.10599 312.6908 24.508148
205.10458 312.74008 24.51619
208.46861 310.05405 24.643406
207.75633 313.09009 24.621723
204.77487 313.20856 24.647923
212.74773 305.45862 24.718466
204.01892 304.13184 24.839748
201.57913 304.12207 24.907507
205.67068 308.23593 24.986408
199.3318 305.35925 25.018639
215.0517 306.1308 25.060566
214.43776 305.92276 25.194237
216.60272 307.05249 25.1106
207.85324 311.52426 25.181103
207.80815 311.69711 25.189072
207.80505 311.75711 25.166359
207.49707 313.01099 25.185436
214.23552 313.14395 25.134567
215.33788 306.41916 25.211769
216.20882 306.97437 25.28504
216.37144 309.89972 25.278111
212.21091 315.2135 25.242527
210.36952 305.46802 25.358538
199.3316 306.03833 25.321232
208.29883 309.38336 25.311317
201.38741 313.97943 25.367538
216.18655 310.49683 25.439905
207.88193 310.76337 25.490276
215.7366 311.46704 25.439346
205.52512 311.79169 25.476522
214.64687 312.55017 25.448013
207.56558 314.53647 25.408348
205.96831 304.78729 25.581291
214.15166 306.09418 25.5284
208.82693 306.7066 25.542467
216.42308 307.46719 25.583879
199.83144 312.10297 25.520729
203.7966 304.57965 25.693611
204.73698 304.61874 25.610981
214.07257 313.17487 25.625244
201.48535 304.8175 25.763048
200.58801 305.20822 25.794403
209.80804 305.56485 25.777733
207.992 309.7879 25.737957
199.44542 310.80383 25.74255
214.76361 312.35065 25.703152
200.71179 305.21304 25.864029
206.22562 306.38293 25.812407
206.1983 306.86145 25.88055
204.25772 304.75504 25.923698
208.66025 306.59717 25.923643
215.9319 307.45255 25.979618
200.12289 313.07285 25.963242
205.52393 313.04153 25.995222
202.58804 304.66739 26.038816
198.98314 308.63434 26.087425
200.09364 312.97229 26.095797
207.70531 315.07382 26.03373
199.27658 307.68472 26.11418
199.89871 312.31665 26.188679
206.36024 306.62857 26.208094
199.59393 306.79901 26.230045
214.77682 307.09467 26.239918
208.31895 307.37479 26.240099
207.7498 309.26395 26.214966
215.63303 310.27338 26.220798
214.9803 311.9697 26.209133
206.76749 312.28339 26.207066
203.88554 304.96515 26.347099
208.39577 306.76212 26.380098
214.42108 307.00027 26.332981
215.06079 307.31915 26.322035
215.45839 310.66531 26.398968
206.71826 310.3053 26.426346
206.49683 310.87808 26.450438
200.7659 314.04074 26.445425
205.05586 314.30206 26.413807
201.79095 314.56641 26.49659
206.60049 305.85959 26.574974
215.42314 309.92953 26.55508
206.64326 310.54382 26.505234
199.95734 312.50684 26.551262
205.00626 314.42868 26.589502
213.38533 306.81165 26.694279
214.49078 307.37427 26.682152
206.5638 311.14081 26.680752
205.51004 313.54938 26.74674
212.81284 314.31528 26.747791
204.31596 314.82446 26.743694
203.98996 314.99854 26.794991
202.95255 305.24759 26.993593
213.17522 306.93484 26.936869
205.7814 313.0188 26.989628
206.30202 313.79816 26.966312
212.08168 315.12527 26.932991
204.39157 305.37161 27.069
215.02812 310.08124 27.050529
202.02103 314.88434 27.077257
206.8476 315.22495 27.01046
202.51062 305.44168 27.16593
207.77542 306.50586 27.270111
200.48457 314.26346 27.231638
212.58438 314.3045 27.255585
199.26013 309.47601 27.364464
206.12881 312.98804 27.356449
205.35123 314.32278 27.340479
206.07849 315.05908 27.346497
203.563 315.26767 27.323967
205.00082 305.54486 27.497646
202.3916 315.24622 27.449266
208.67053 316.66876 27.469641
208.04567 305.88989 27.56695
208.75484 306.12225 27.553839
199.40594 309.9245 27.530037
205.94675 314.55573 27.577019
209.53391 306.41495 27.68808
212.87164 307.55353 27.688297
200.47809 314.20038 27.601065
202.71832 305.63797 27.712013
207.11661 306.72125 27.70443
199.58308 310.47949 27.719196
205.85168 314.40488 27.768118
208.44904 316.74994 27.792067
214.29393 311.2532 27.832823
205.84357 313.97534 27.817078
205.64639 305.68976 27.917599
214.13875 311.76215 27.979527
207.17316 306.27798 28.080227
200.39285 313.5571 28.040909
205.6705 315.32346 28.037891
204.4104 315.47772 28.046158
200.02802 311.92505 28.134106
199.91318 308.54236 28.26572
207.56084 305.92383 28.343382
213.02644 313.24622 28.359913
213.87723 310.30304 28.415613
206.76955 305.88092 28.595755
208.85376 306.41608 28.50408
200.11604 308.33081 28.540089
199.78635 309.24161 28.520716
200.88298 314.44189 28.562296
209.43027 306.67239 28.612789
205.8632 315.94147 28.697374
206.77786 316.39041 28.638363
209.992 316.86722 28.685909
213.64798 309.34833 28.781553
206.935 316.51578 28.784826
203.63928 305.89554 28.963707
199.88104 309.52527 28.943504
210.32391 316.65192 29.004145
203.35568 306.07895 29.113527
209.72345 307.03781 29.186781
200.26141 312.71179 29.175575
205.80791 315.98853 29.11138
209.57275 316.76672 29.187254
200.60313 307.8801 29.2423
199.82294 310.07901 29.243828
203.8045 315.48822 29.228935
200.13466 309.40482 29.384594
212.54181 313.24869 29.39064
200.7374 314.07065 29.404751
212.94615 310.45486 29.699383
200.23041 312.47107 29.704399
205.13786 315.60672 29.77533
205.77402 315.89362 29.742142
211.0992 315.10873 29.800961
209.97733 316.7829 29.838238
203.44687 315.28467 29.978554
201.74016 307.39215 30.087265
210.36998 307.79529 30.066086
200.93356 313.95627 30.050022
209.57469 316.81528 30.074244
211.54187 308.84723 30.131386
203.65257 315.27527 30.164799
208.13676 316.58539 30.180927
211.06052 308.61768 30.320122
211.13235 308.72125 30.365866
200.34329 310.02493 30.301952
203.72264 315.24265 30.371557
212.40462 310.50818 30.488743
204.67999 306.50247 30.566708
210.63852 315.3501 30.5245
212.30957 311.42563 30.652971
209.16492 316.71786 30.695435
211.18044 309.112 30.740435
212.17445 311.2532 30.848518
212.20969 311.5827 30.804821
212.19246 311.95923 30.840004
205.84761 315.78281 30.849745
206.05171 306.63358 30.901764
201.93062 307.77625 30.923658
208.83401 316.54999 30.930275
205.87108 306.69818 31.110098
200.19061 312.03833 31.166807
212.0069 313.09363 31.108036
207.31696 316.37811 31.159735
201.03546 309.42395 31.273281
210.16821 315.68518 31.207926
207.73987 316.36316 31.220367
201.67274 308.11197 31.301634
211.8349 311.465 31.356508
200.16351 311.87012 31.36272
208.2525 316.31479 31.368448
203.09319 307.49643 31.427673
205.01651 315.32416 31.446865
201.66942 308.23285 31.512247
211.73801 312.84839 31.535395
202.57657 307.88007 31.64426
202.29985 307.9939 31.61499
209.38174 308.43085 31.642033
200.49286 313.17502 31.607796
209.07835 316.96936 31.640423
211.46143 310.59476 31.766293
201.47458 308.92123 31.818794
203.1286 307.7453 31.915195
200.53014 313.08411 31.930784
205.48795 307.07135 32.031246
206.61023 315.95697 32.075729
202.86578 308.03818 32.198067
200.69548 311.33206 32.131229
202.57761 308.19412 32.206978
201.70905 308.80853 32.224136
200.29201 311.875 32.242569
200.28479 312.34552 32.243027
205.86566 307.17163 32.313065
202.41876 308.37085 32.379295
204.21259 307.5379 32.572975
208.82066 308.78854 32.533421
201.46999 310.11096 32.761387
210.86394 312.54688 32.775734
208.51602 308.79556 32.817142
204.92413 315.07651 32.958454
205.89917 315.52109 32.944904
209.45169 315.89728 33.036812
208.61069 309.25156 33.143517
210.53008 312.34119 33.173294
208.5876 317.04333 33.192947
207.63947 307.55661 33.203556
208.48682 309.38763 33.280952
210.51553 313.11426 33.291023
203.65706 314.43539 33.255577
206.45386 316.41113 33.241287
206.35049 306.08099 33.337193
206.33975 306.89252 33.363216
204.40773 307.66101 33.344101
204.138 307.91086 33.326351
201.80537 309.65005 33.358616
200.76276 311.71646 33.31131
201.59634 313.05383 33.360531
206.94633 315.94141 33.313484
202.0295 309.34964 33.490269
210.28816 312.14218 33.454948
200.88255 310.39368 33.509403
205.44775 315.23639 33.527779
206.02972 315.47119 33.558243
209.23413 316.4353 33.596687
208.01819 317.62256 33.513554
204.94608 307.00238 33.674408
208.53436 316.56549 33.629906
204.46626 306.75287 33.741257
204.80879 307.04749 33.708443
201.45718 309.80667 33.761581
210.02034 314.65726 33.718723
203.01254 314.89285 33.771759
205.2966 315.07288 33.773067
203.66048 306.45663 33.881851
203.81171 307.45947 33.874069
203.71057 307.69168 33.894672
208.86961 308.68588 33.822418
201.70175 309.00546 33.889896
210.81244 313.13101 33.810684
205.71962 315.52893 33.853382
209.51199 315.89035 33.831558
209.4929 315.96536 33.89827
219.89371 308.89783 33.971313
200.67766 311.64246 33.992458
201.15071 312.71454 33.977535
209.93468 314.57538 33.996658
203.10275 307.97214 34.052284
209.30377 309.97272 34.066288
207.23276 315.80255 34.035149
210.13248 315.86502 34.050613
209.54593 310.91052 34.195877
209.5206 311.5477 34.189037
210.8994 314.1579 34.115467
210.60997 308.89374 34.236298
200.29573 309.52139 34.22765
199.64392 312.10504 34.284599
202.43625 313.48572 34.229031
218.29179 307.04089 34.370895
204.55882 314.51422 34.379089
219.96475 307.418 34.478004
200.04002 310.71716 34.450455
200.65604 308.75049 34.569069
200.30476 309.73856 34.529118
201.63992 313.99716 34.58886
201.79132 306.81989 34.768795
220.44946 307.56601 34.721741
211.20255 309.03741 34.740475
211.56064 312.35446 34.764397
199.79568 312.49484 34.71505
199.84212 312.51138 34.796787
200.06964 312.7511 34.764912
211.83649 310.79504 34.868916
200.89011 308.36749 34.99157
221.19431 309.12189 35.190346
211.84067 312.04834 35.155746
206.25493 305.66705 35.215515
205.44351 305.63989 35.343201
219.50668 307.33435 35.310753
200.4855 309.49896 35.343765
212.15051 310.88965 35.379929
200.5135 312.95352 35.399158
210.13849 315.69125 35.334332
220.82626 310.22565 35.475353
210.25388 315.50629 35.48901
205.52148 316.09949 35.496769
204.39479 305.5918 35.552536
221.11662 308.32327 35.56926
221.21539 309.97351 35.535381
200.27409 310.63062 35.502048
210.9303 308.04684 35.699623
221.2619 309.48447 35.603352
212.31322 310.89093 35.690037
203.39149 305.76068 35.788147
212.39494 309.49533 35.731377
212.44241 309.55267 35.73877
220.20488 309.7002 35.705158
212.47223 309.84827 35.762218
204.56372 305.55176 35.841312
200.22778 311.09622 35.877098
202.53116 314.24768 35.827019
202.90213 314.43741 35.877964
220.93977 310.6481 36.056416
220.27966 310.75684 36.082474
212.26817 312.0235 36.013023
205.89461 316.20703 36.06646
209.44986 316.51562 36.042866
219.85938 310.61362 36.135544
220.30539 310.80496 36.164978
206.6277 316.57587 36.14875
212.34955 309.30701 36.296761
212.44786 311.35446 36.258942
207.6012 316.85303 36.227383
211.47032 308.32394 36.308613
220.80652 310.82648 36.391998
220.18542 307.11212 36.426571
220.04279 309.14862 36.412071
207.7431 316.8374 36.59404
221.21277 308.78595 36.611702
210.86462 315.10992 36.617828
209.6571 306.99283 36.740025
221.00302 310.06287 36.713589
220.33939 311.17218 36.769051
200.25543 312.21008 36.728783
203.52554 305.46341 36.856468
209.78763 307.03955 36.817558
220.45242 307.02649 36.830521
219.62982 308.42822 36.839027
219.46689 311.47769 36.837425
209.95071 316.26123 36.894051
210.26491 307.2338 36.95821
220.19614 307.85889 36.949295
219.97949 307.93338 36.992149
221.25291 309.22873 36.92178
220.21877 311.3844 36.99395
209.11172 317.08524 36.948219
221.23709 309.33887 37.044403
210.7067 307.40964 37.112518
221.09218 308.65433 37.153374
219.18387 310.06268 37.134289
205.44051 315.65854 37.160908
220.28201 307.68512 37.220169
202.95735 314.21997 37.220573
210.56615 307.30927 37.334476
212.77852 310.56134 37.31638
205.53116 305.38205 37.479656
201.63977 307.29477 37.49337
220.22676 307.94516 37.484512
207.29567 316.53134 37.44698
220.95941 309.03748 37.574848
220.88487 309.51178 37.553371
204.90985 305.34753 37.626808
220.91095 309.1123 37.632629
220.45322 310.35666 37.648033
203.54633 305.26419 37.704491
202.8246 306.03369 37.753841
218.84875 310.41217 37.79763
203.97769 314.70612 37.769947
205.98309 315.80035 37.728161
205.70007 315.60455 37.811668
207.13882 305.61551 37.946022
206.70541 305.43915 38.080704
212.44215 309.10828 38.026878
220.51031 309.76721 38.01022
220.39983 311.22791 38.085728
219.96378 312.47711 38.124306
210.09593 316.34698 38.19577
220.49745 309.18951 38.278961
204.51697 305.34564 38.373508
206.48132 305.37119 38.30138
209.09196 306.26105 38.323284
201.06065 309.06033 38.305016
218.92853 314.16077 38.373795
211.26152 315.19583 38.388824
207.0963 316.25101 38.397537
211.72928 308.16562 38.402935
200.67645 311.20084 38.428864
212.72377 309.43976 38.599678
219.0421 310.36063 38.510262
218.70554 310.41168 38.519634
220.40636 311.48419 38.543468
200.95018 312.2489 38.51141
202.73088 313.9389 38.513836
210.10094 316.42111 38.559692
202.3147 306.8642 38.677719
201.39844 307.98569 38.664543
201.17104 308.93988 38.684738
219.85684 309.89835 38.634411
220.06802 310.22775 38.602638
212.8952 312.12393 38.745499
218.98721 314.59125 38.797909
205.70081 305.36652 38.857838
201.22258 312.4436 38.866585
206.67673 305.35349 38.951801
211.92923 314.77954 38.962273
212.78656 313.95532 39.020748
218.06314 314.95041 39.160461
211.72006 315.03015 39.131912
204.90297 315.23526 39.169601
209.77005 306.53397 39.24662
218.03629 315.26447 39.243805
211.16864 315.57858 39.277237
209.1212 306.07098 39.34388
202.01379 313.12238 39.45097
212.85703 313.90607 39.42794
219.94795 311.862 39.506767
217.88017 312.6384 39.593006
201.61197 309.07928 39.609047
201.19664 310.59485 39.615685
219.11234 311.61053 39.680099
205.72195 305.37256 39.715775
218.70712 311.84503 39.73423
217.69141 313.81342 39.775368
204.08337 314.31635 39.777901
218.73143 316.13483 39.704807
217.78186 316.9577 39.864693
203.36214 313.70325 39.987701
205.10318 315.2959 39.991638
209.94643 316.92865 39.961365
212.48007 308.46082 40.052227
201.73886 309.97122 40.021362
206.63043 305.39331 40.185738
213.40347 311.39505 40.124542
212.09669 315.02808 40.132233
208.08168 305.4288 40.263859
213.40489 311.55576 40.212982
204.12154 314.2861 40.258873
205.47711 305.35992 40.30164
212.82928 309.01245 40.310116
202.07155 309.36243 40.338734
201.23883 311.44138 40.309021
209.01976 317.2045 40.328514
217.65338 318.31473 40.325874
213.32494 312.28058 40.402668
219.94125 314.13211 40.45488
212.64925 314.58829 40.434086
217.42749 317.6329 40.499729
207.48959 305.41479 40.683357
209.17355 305.82855 40.686638
201.82562 309.98004 40.645821
217.31102 314.02603 40.640301
209.09796 317.24979 40.659229
213.53178 310.21243 40.724533
213.65628 310.78043 40.70414
206.7473 316.10068 40.719822
210.24335 306.57458 40.811592
218.08423 313.70126 40.886837
217.19998 317.7569 40.86496
203.98169 306.52396 40.93325
218.72662 313.39899 40.937836
209.26141 305.81305 41.064716
218.41266 313.7728 41.084076
201.49905 310.74536 41.101242
217.55295 314.15988 41.130539
212.79941 314.27844 41.193802
209.19147 317.35004 41.122898
218.46605 318.41785 41.106136
201.81906 309.91577 41.235001
213.52588 311.34314 41.27309
201.75119 311.93286 41.216274
202.79498 312.60019 41.244499
209.3549 305.84549 41.371441
219.75275 315.05103 41.353806
219.73917 315.17938 41.364758
206.96893 305.36331 41.437702
204.349 306.29257 41.466965
203.63269 313.63248 41.410206
211.30827 316.00403 41.417789
201.87563 311.92542 41.505238
218.925 314.13397 41.580799
218.86522 318.62231 41.583481
203.58336 313.57675 41.657398
216.72348 317.02255 41.629814
205.99118 315.73254 41.761341
219.56984 316.86093 41.767815
216.746 318.86249 41.762482
205.55325 305.41724 41.878937
216.78847 315.40948 41.882339
209.29248 317.46469 41.84647
203.1557 307.40805 41.963882
216.85381 315.5152 41.984203
208.96097 305.50717 42.002731
218.82716 314.98193 42.09602
217.88713 315.12283 42.021717
212.02065 315.48663 42.051315
216.9709 315.55859 42.060623
217.62851 320.17831 42.049217
206.69412 305.15552 42.189545
212.5524 308.31903 42.178162
212.56271 315.00278 42.133682
210.62302 316.60645 42.182884
216.47742 317.49133 42.18903
207.86629 316.68936 42.286766
205.74225 305.31335 42.35144
209.74869 306.04395 42.30378
216.70395 316.15198 42.389839
216.49008 316.38898 42.342983
205.36852 305.60815 42.408577
207.58621 316.55896 42.496807
210.67818 316.56412 42.432648
219.29428 318.87897 42.46233
213.08649 313.2215 42.585716
210.48004 306.66284 42.600231
208.14534 316.86847 42.642994
204.47737 314.77673 42.721413
218.09898 315.98361 42.760529
218.67441 315.96237 42.785534
206.98544 316.27206 42.749165
209.44513 317.34042 42.782089
210.2626 306.4707 42.865265
206.64243 316.09653 42.836769
216.17332 319.73328 42.814465
216.21861 320.30045 42.809151
201.68246 311.43222 42.938286
205.98972 315.76108 42.994598
218.11176 316.21274 42.944904
208.12604 316.88641 42.952526
209.1116 305.57556 43.006569
218.41481 316.28928 43.090431
215.95412 319.89154 43.186684
219.03726 320.03931 43.156784
215.9397 320.47366 43.197456
216.04019 321.18683 43.163345
216.49095 317.51379 43.233719
212.06403 308.11993 43.335293
206.36221 315.96439 43.364788
215.82631 320.4848 43.352531
212.99707 314.0079 43.465515
215.79526 321.0321 43.477524
215.8903 321.82043 43.468571
206.60179 304.53094 43.556072
202.7137 306.95944 43.517025
201.92596 308.86456 43.558353
212.78287 314.52509 43.501232
215.7197 320.79565 43.545502
205.5659 305.16812 43.628822
211.55096 307.67453 43.642475
205.5871 315.48154 43.648678
206.06599 315.77518 43.625191
217.27283 317.57758 43.632427
211.25903 307.41998 43.789497
215.70938 319.21423 43.701191
215.66852 319.48669 43.702244
215.62419 321.37195 43.757019
210.89088 307.08618 43.874058
212.59373 315.0907 43.851303
217.76912 321.80707 43.800037
205.75793 304.88159 43.95813
211.99971 308.09186 44.079319
201.27866 310.59799 44.054741
203.72656 313.83612 44.14986
215.30959 320.94537 44.113068
206.62144 316.08148 44.288929
206.2151 304.37659 44.381554
201.73756 308.00992 44.387077
212.54137 308.59906 44.365898
210.6116 316.62067 44.321125
209.16356 317.50122 44.321453
214.44383 317.57062 44.474792
216.55728 318.68002 44.426445
208.51096 305.09399 44.51495
203.52435 306.03516 44.563328
214.11981 318.77243 44.530373
201.1252 309.80374 44.696617
214.17328 311.02789 44.645649
214.06512 319.05853 44.64814
207.50082 304.48712 44.706909
201.60086 307.65018 44.736439
213.34572 313.78305 44.759975
211.90337 315.91251 44.753494
214.70692 319.06726 44.761848
213.91092 320.62915 44.758896
213.97736 312.45786 44.811401
208.62122 305.19934 44.910995
209.75246 306.16794 44.947845
201.20259 309.89362 44.940872
216.20193 318.289 44.999168
213.97803 319.97266 44.91053
214.31516 321.62692 44.931389
205.15683 304.74527 45.030434
208.27693 304.96432 45.152309
218.00827 321.81561 45.109783
213.71986 313.138 45.236412
203.42291 313.52209 45.215824
215.25128 317.65842 45.29969
214.29216 318.83389 45.298885
216.19537 321.58075 45.265488
208.50757 305.14713 45.389091
203.63525 305.20105 45.336189
204.01433 314.25934 45.345749
213.51901 318.59552 45.368076
195.06549 302.0235 45.459652
195.17654 302.31702 45.446201
207.61406 304.50031 45.436665
212.73494 314.94885 45.492805
205.63795 315.44043 45.471428
210.77322 316.647 45.459637
215.45416 317.35291 45.463665
214.94353 317.4101 45.445038
214.16089 320.7189 45.449913
214.15637 320.83578 45.466839
217.04651 321.55667 45.46529
214.44595 321.74088 45.455208
201.34224 306.54605 45.543076
203.78796 313.98068 45.564926
213.41603 317.59915 45.511143
214.22736 321.01352 45.567471
216.7399 321.49469 45.535686
214.9614 322.40042 45.574242
214.54733 311.44897 45.607681
213.61777 316.00656 45.666298
210.26151 316.98221 45.679413
213.21788 318.51099 45.658173
195.31366 302.05884 45.7742
196.715 304.15372 45.768963
201.81512 305.00702 45.754425
214.00446 310.33948 45.789013
213.1992 317.65417 45.707439
213.15964 318.19443 45.723351
218.19859 319.6412 45.701679
214.58691 321.56702 45.744301
215.38554 322.56973 45.759506
200.06503 306.35742 45.849621
201.00171 306.73694 45.865704
201.8243 311.21695 45.803123
217.29298 321.41498 45.838593
196.67218 301.42148 45.908508
206.51381 303.73206 45.93829
199.83009 306.38953 45.92305
203.93433 314.16724 45.910667
213.23102 316.53833 45.936012
208.65181 317.61752 45.969543
215.68463 322.48843 45.901764
194.87616 301.68451 46.091324
194.96968 302.53357 46.092678
203.47359 304.16455 46.018021
200.12273 306.75143 46.051437
214.04617 316.45734 46.016953
215.51492 317.28546 46.054531
217.48306 321.23914 46.078186
209.58191 306.14655 46.168655
212.20694 308.49561 46.160625
204.98566 315.01624 46.141747
211.6259 316.27551 46.111698
217.30096 318.14682 46.149925
194.22176 300.41751 46.220161
195.13477 301.22852 46.227741
197.91716 302.09708 46.204231
196.28101 304.48401 46.279671
198.22549 305.73199 46.251152
209.19438 305.80249 46.256451
206.90157 316.29852 46.265121
210.25677 317.04553 46.231625
213.04999 320.31146 46.261322
194.11792 300.47241 46.325996
207.09232 304.21521 46.333935
208.97546 305.61472 46.365967
214.48898 316.4928 46.331169
196.26852 301.75079 46.483681
196.75151 301.73679 46.405426
200.05923 307.18726 46.471416
194.59399 302.21957 46.507652
206.89674 304.19186 46.505527
210.5576 307.08429 46.598503
200.55215 307.53445 46.550793
200.54567 307.64801 46.509556
215.38364 316.7384 46.583298
208.89679 317.86084 46.555298
214.09727 321.81625 46.591755
199.78998 302.23721 46.642609
201.44278 310.0318 46.679379
214.28807 310.67633 46.615471
217.27594 319.36227 46.677162
193.72699 299.56421 46.760246
199.19864 306.96408 46.723503
213.69443 315.29465 46.767319
215.96413 322.00616 46.752411
198.47617 301.47549 46.866653
200.28935 302.15515 46.805676
194.32907 302.69177 46.854256
205.66068 315.46689 46.868038
212.24814 318.64987 46.854481
215.41194 320.7518 46.851082
195.12801 299.7482 46.906933
196.48607 305.38641 46.973671
209.22276 306.0737 46.982101
210.93764 307.46637 46.986679
213.10663 314.25549 46.925041
216.97491 318.36398 46.974937
197.96298 300.68826 47.028099
213.75533 310.13324 47.00452
211.88336 317.88312 47.008339
197.37921 301.24274 47.164619
202.13832 302.14856 47.18729
201.03783 309.45789 47.150169
216.67596 318.35904 47.145515
216.84978 320.43475 47.103207
215.73273 320.66858 47.155525
215.79106 320.93396 47.139736
195.92369 299.73077 47.262245
200.29895 301.48303 47.256454
197.21988 300.6908 47.392319
198.02267 301.0531 47.344467
193.72122 301.15253 47.39349
194.0676 303.19696 47.339302
214.23566 310.70554 47.346649
214.07625 312.68427 47.359512
213.31895 313.31522 47.394596
214.23242 315.86337 47.387703
213.93195 321.49158 47.311916
214.39037 321.71402 47.394749
195.37477 298.36523 47.478882
195.1564 298.47116 47.415199
193.26103 300.17606 47.434711
199.35608 301.08722 47.402718
211.57956 317.15485 47.443054
216.68094 319.03714 47.429329
214.19376 321.58694 47.456448
193.49136 300.59692 47.534985
200.15175 308.42856 47.527542
213.16632 313.47812 47.591118
215.36224 316.29025 47.550697
214.68008 321.78046 47.549305
196.62225 298.14774 47.650681
194.75722 298.68759 47.649132
197.06866 299.71768 47.696335
197.67429 300.69785 47.659428
201.96729 302.061 47.667294
202.81015 312.38846 47.63435
206.03549 315.61536 47.662411
211.41455 316.38965 47.631706
208.39088 317.73688 47.627697
208.43192 317.76794 47.66748
211.62703 318.7272 47.603634
213.82825 321.31662 47.675453
214.86349 321.59006 47.697144
202.27132 302.31961 47.774353
194.00037 302.62787 47.712524
211.32541 308.23898 47.73098
211.27945 317.2374 47.751831
214.28462 321.53177 47.777298
194.46194 298.82611 47.874115
194.81291 303.19775 47.841751
209.71552 307.03558 47.891655
211.07434 317.71106 47.894268
216.17322 319.70941 47.813263
216.11447 320.41983 47.839027
215.64124 321.22919 47.896111
200.53244 301.68182 47.922081
194.42526 302.30927 47.937557
193.62569 302.60062 47.916424
213.90219 312.46091 47.957565
214.92735 315.92188 47.976074
197.8362 298.30072 48.050049
194.78926 298.63779 48.026962
198.8685 301.22772 48.068497
201.27728 302.11255 48.089161
194.9651 303.36517 48.089199
204.5191 303.93893 48.013927
212.29626 309.20178 48.021629
213.78802 310.67657 48.030163
209.72775 317.57657 48.086063
197.83813 297.66602 48.19175
196.37115 300.14755 48.165802
198.12019 301.06451 48.15522
213.32596 313.55801 48.167118
214.9492 315.78485 48.297005
207.7352 317.10794 48.245834
215.72711 320.86121 48.232544
198.75809 298.5567 48.318336
193.94788 299.13635 48.304665
196.50046 300.61392 48.325981
206.92519 305.32141 48.397461
196.51698 305.46216 48.305443
206.81854 316.20026 48.363174
195.286 298.31973 48.465664
207.45502 305.70697 48.481232
208.64014 306.51794 48.467781
209.80493 307.44714 48.438885
202.98247 312.50342 48.413246
214.162 315.00885 48.43087
209.78362 317.64984 48.443893
193.29724 301.02609 48.580849
204.1539 304.02838 48.501488
199.55331 308.0217 48.584114
200.84824 309.23355 48.503067
194.11986 303.12878 48.639412
212.31398 319.95636 48.693981
199.77132 298.93567 48.721657
195.98904 300.64432 48.796906
199.06898 307.61829 48.72271
211.30876 308.8609 48.744682
202.35001 311.66977 48.732079
204.55348 313.80978 48.770752
216.05264 320.03296 48.706139
193.09183 300.00992 48.866367
208.29736 306.48022 48.866634
208.98447 318.00211 48.871902
193.65271 299.41672 48.916607
199.18085 297.10699 49.022663
200.53879 298.25543 49.048908
196.48643 300.89883 49.031776
198.24014 306.89746 49.054947
200.39497 297.37888 49.173302
197.31329 300.44312 49.14513
196.19495 304.82431 49.195095
202.48502 311.55734 49.140305
213.77197 311.65344 49.104218
209.25465 317.6763 49.171619
196.12445 303.26779 49.278076
203.51874 304.01913 49.200184
197.80429 306.47992 49.291893
211.40219 309.24234 49.233521
207.49033 316.80966 49.298714
207.82283 317.10266 49.274681
210.04997 317.6116 49.271721
215.5618 318.20435 49.294704
210.89549 318.59055 49.240295
195.76619 302.47037 49.34354
196.69348 303.21906 49.38311
196.70529 303.21661 49.386524
202.50504 303.54596 49.332787
204.9585 304.94653 49.358727
215.13242 315.37769 49.355339
215.51727 318.23038 49.375568
197.37965 297.55383 49.431847
194.40431 299.1048 49.47892
195.34477 300.69891 49.447002
202.32112 310.46957 49.485535
202.82936 312.32178 49.41301
195.43747 298.31219 49.594944
199.47672 307.87354 49.589211
201.72626 299.04877 49.657219
194.06117 299.66302 49.614578
199.21021 307.65717 49.606384
202.10278 310.1976 49.682674
203.23303 312.52084 49.6035
205.36673 314.62488 49.626518
205.90141 315.26013 49.697777
197.82469 297.47964 49.73724
198.76492 302.26105 49.761662
199.10635 306.88068 49.749924
199.62943 307.9834 49.744255
202.26381 297.46429 49.829735
202.3278 297.40945 49.863071
196.791 297.79764 49.804321
202.13483 298.81342 49.850494
197.31589 301.50394 49.856655
197.12335 302.40503 49.855743
196.95328 303.23038 49.879333
203.59558 304.48776 49.846764
211.95761 310.18616 49.811943
212.34785 310.53754 49.86731
194.04678 300.16415 49.961487
197.4395 303.45758 49.953915
201.5769 309.46106 49.966026
210.96799 318.67224 49.958374
206.00362 294.77808 50.093788
200.54138 296.77164 50.085686
198.77115 297.2666 50.078072
196.07448 298.15283 50.002983
196.92249 302.112 50.018402
197.22183 302.17804 50.017601
208.52097 307.38776 50.039429
203.41266 312.31549 50.077583
214.69321 319.42032 50.044956
194.95715 299.90326 50.183037
197.86259 303.06845 50.152084
214.71355 315.58337 50.105194
214.70331 318.95212 50.170631
198.5031 302.56198 50.282925
198.58157 303.41849 50.241043
213.19418 313.03488 50.225143
203.33044 297.13547 50.339157
195.83766 299.67664 50.3955
197.07716 300.0191 50.39183
201.69113 304.05963 50.318306
205.93021 305.98926 50.387085
210.51482 309.23663 50.362991
210.61722 309.34058 50.397484
205.32364 314.12677 50.397709
205.58324 314.59467 50.3008
204.65222 293.78104 50.494076
203.46147 296.50552 50.437668
200.33096 299.53403 50.45562
199.77074 303.85397 50.423317
200.05458 304.08514 50.488132
208.08018 307.36255 50.472137
209.92758 308.80466 50.447182
212.83307 311.43472 50.478748
212.91391 312.73706 50.41906
214.23053 314.24152 50.432869
206.56059 295.00354 50.572609
200.15604 304.01508 50.50983
200.2695 304.63925 50.560928
205.19289 294.94046 50.660503
206.41151 295.65894 50.602711
205.12137 305.75992 50.60973
210.80644 309.6554 50.611996
212.4973 312.03644 50.600395
213.96248 319.08264 50.651707
198.12035 298.06454 50.727554
197.03729 299.16577 50.702087
197.6972 299.45172 50.743835
199.55585 299.79147 50.776775
201.61626 308.32455 50.75666
212.72664 319.10706 50.730633
205.2762 295.07889 50.895706
206.6776 295.56247 50.811226
206.0475 295.94897 50.809425
202.17786 305.1091 50.834854
203.80087 305.75797 50.899998
204.68628 312.77133 50.897789
206.17552 314.40872 50.884697
211.02614 318.42383 50.844215
206.53851 294.29526 50.955475
205.70442 295.12845 50.964031
201.36659 296.6665 50.988129
201.43668 296.62912 50.903824
201.52335 296.60556 50.909397
199.09357 297.55695 50.918499
198.52911 299.20621 50.981247
202.01506 306.12845 50.969482
203.95892 306.36182 50.914757
206.88368 307.19614 50.947227
211.36722 310.28015 50.919708
211.51137 310.41815 50.95573
212.55559 311.70294 50.964558
205.6564 295.59116 51.044323
202.37878 296.39438 51.067696
207.09596 296.45355 51.044983
199.78516 297.19592 51.056553
203.01814 306.30258 51.012558
202.42653 306.89761 51.093468
202.20926 307.90067 51.066586
213.85565 314.00848 51.089542
206.48219 294.26147 51.157288
206.37906 296.14673 51.129402
202.11649 296.4928 51.181973
208.28485 296.67517 51.186184
199.07166 298.99777 51.140278
202.38734 307.29874 51.123444
206.86499 307.42798 51.125698
202.99944 309.00836 51.195625
202.84729 309.12256 51.15144
210.0433 309.51611 51.122154
213.04324 318.82483 51.100376
207.67551 295.03888 51.26749
205.47681 296.97839 51.219852
199.93564 297.68802 51.274075
200.29391 299.21915 51.207733
214.01787 316.20538 51.262024
205.71167 295.77612 51.385864
200.79535 296.97409 51.358486
204.15347 308.65051 51.378395
204.91365 312.93658 51.364037
213.88438 315.48117 51.318043
203.59317 308.21063 51.473721
204.78191 308.52716 51.456474
204.06314 309.30267 51.472878
209.60963 309.47278 51.447159
206.12335 295.86774 51.569969
208.22865 307.95917 51.593513
212.99309 318.42224 51.560356
206.60068 294.64508 51.641666
206.76868 294.80991 51.6856
204.35745 295.59845 51.693329
206.24275 296.48929 51.652447
207.52917 294.95972 51.704731
201.28293 297.53793 51.760578
206.50696 307.95728 51.775696
210.22626 311.14386 51.769772
212.68936 312.37192 51.780563
209.17474 316.63882 51.79282
207.54938 296.48648 51.805836
206.64084 296.57971 51.807892
212.26419 312.16846 51.875221
212.65886 317.90704 51.851284
211.54517 311.72833 51.95105
209.46469 316.74689 51.917522
205.67865 295.40277 52.007545
203.59383 297.85632 52.008835
206.0909 308.55185 52.099522
209.12025 311.38 52.09539
212.67836 316.5661 52.002003
211.5329 317.71802 52.000866
203.83228 296.15726 52.149559
205.89243 297.45029 52.145691
203.12201 297.91684 52.117172
204.18283 310.78967 52.13084
204.30344 295.9754 52.238914
207.67006 297.09946 52.203522
208.94194 308.20694 52.242554
208.32936 312.41254 52.274181
211.32974 313.05768 52.292221
207.14018 307.4635 52.391731
204.34489 310.75711 52.339901
204.62071 311.50381 52.398376
210.77634 312.36606 52.302769
210.45811 312.43439 52.363953
206.98383 313.70459 52.316875
207.73317 312.40137 52.46209
210.17029 312.57263 52.444801
208.91071 315.64566 52.468727
209.38406 316.07034 52.491234
203.82294 296.93195 52.509472
204.16739 297.03235 52.562847
207.93559 311.84109 52.503139
208.07288 312.90295 52.561447
208.84764 312.93079 52.589371
210.34335 316.73477 52.535339
206.78949 295.71649 52.669563
205.9082 296.31195 52.607372
208.31128 307.84937 52.616478
208.08684 311.53879 52.796875
208.02707 313.25061 52.701962
209.67647 313.39984 52.741184
208.43753 314.31747 52.788868
210.26588 314.5325 52.72271
207.25357 295.86108 52.855865
205.96463 296.90848 52.885395
207.78006 311.69861 52.903778
209.80716 309.6351 53.039486
207.8846 298.69293 53.166813
209.61707 309.06958 53.184036
204.74319 310.73746 53.151535
207.31981 296.45807 53.265747
205.71294 308.97314 53.233017
205.13435 309.77606 53.251556
208.53432 311.01178 53.376251
208.35016 297.23764 53.434029
209.47339 308.46298 53.437382
207.46199 307.43118 53.542229
205.29462 309.46167 53.540939
208.45282 307.64832 53.658867
204.74155 310.19147 53.679337
208.41122 297.41458 53.72506
208.67969 298.21838 53.792709
208.66437 298.71719 53.715755
208.15239 307.26987 53.72327
207.43933 298.53522 53.806953
208.04105 298.8902 53.844727
205.52121 309.11523 53.917137
205.15237 311.1792 53.924355
211.00012 307.16647 54.010441
205.97964 308.54471 54.09182
208.9743 310.24875 54.020741
207.88869 298.30716 54.277229
205.25113 310.96671 54.299397
209.11348 298.88919 54.398109
209.93494 306.09863 54.370071
209.72809 309.41617 54.328915
209.21303 299.04672 54.529892
209.3661 299.36359 54.631088
209.89789 309.64062 54.80439
208.00873 310.82678 54.848518
205.82822 311.12924 54.871841
210.56479 309.3674 54.97702
209.4986 309.8558 54.955425
209.20935 299.22272 55.133034
210.7662 309.27875 55.170246
210.79478 306.4577 55.207191
205.32497 309.14774 55.201263
206.59967 311.72437 55.214626
209.79517 310.24689 55.563206
210.11642 301.20023 55.62545
211.10248 307.98895 55.69413
210.63451 309.85776 55.620861
209.93102 301.48944 55.755596
206.6713 305.96246 55.710449
206.17059 310.82352 55.72049
206.22723 310.85504 55.762333
209.25594 300.4234 56.005764
210.51653 301.2467 56.076973
204.9386 309.24091 56.183807
206.99152 311.36777 56.101696
207.2428 311.38428 56.181648
209.32095 305.78442 56.270439
205.57996 306.79282 56.341057
205.86993 310.65167 56.377228
206.49496 311.18207 56.366722
208.70961 311.15259 56.32745
210.3595 310.09399 56.426907
205.36755 310.21936 56.602039
206.13031 311.06601 56.72842
209.3887 311.20029 56.874527
210.91785 306.30023 56.977768
204.84572 306.86374 56.988346
209.75684 310.83295 56.92865
207.28908 305.06357 57.098415
209.66873 305.8205 57.09874
204.91093 309.8215 57.015934
206.36523 311.44885 57.129372
207.28638 312.15857 57.144844
211.09822 307.36359 57.214237
206.66287 311.7442 57.272621
211.50415 303.1907 57.317677
211.48561 303.32016 57.340813
210.39287 306.02603 57.39418
211.12914 308.80292 57.404228
210.46957 302.61969 57.586723
206.35689 305.41107 57.518543
204.93068 306.04092 57.704956
211.25284 309.25137 57.795563
204.1869 309.37045 57.767006
203.95642 307.603 57.816456
208.10373 312.45862 57.928093
211.11707 302.78174 58.047123
211.25601 309.37592 58.021385
211.31064 309.21832 58.249664
211.24437 309.59476 58.267799
211.06934 303.73022 58.327095
210.14209 311.13934 58.367619
211.91544 303.50269 58.475685
206.24876 305.35687 58.593163
210.19508 305.74942 58.554379
205.95758 305.4942 58.649094
208.75038 312.21472 58.679523
208.9122 304.74054 58.809013
212.70593 305.05731 58.838295
204.40306 310.59836 58.864441
207.92517 312.52298 58.81546
208.18289 304.57632 59.085625
204.15999 310.13712 59.086739
212.13663 304.17673 59.143425
209.92972 305.47385 59.124592
203.71616 309.25818 59.133194
204.21048 310.24283 59.169064
211.39603 309.15308 59.212097
206.46916 305.18732 59.478355
213.1637 305.50333 59.450279
203.3701 308.24371 59.497982
210.56528 305.99615 59.72485
213.28012 306.46674 59.750507
211.41299 309.28113 59.795574
210.4955 310.56885 59.782169
