# .PCD v0.7 - Point Cloud Data file format
VERSION 0.7
FIELDS x y z
SIZE 4 4 4
TYPE F F F
COUNT 1 1 1
WIDTH 1547
HEIGHT 1
VIEWPOINT 0 0 0 1 0 0 0
POINTS 1547
DATA ascii
-3.4051647 8.3274403 2.1756043
9.3444862 -10.830914 2.2032714
3.7117896 -19.482634 2.5579348
3.891175 -19.105015 2.7559893
2.2337971 -2.8939519 2.8599541
3.3905776 12.828777 2.8539906
7.396275 -8.7278538 2.9388061
7.4517169 -8.7112007 2.9369142
2.8576639 -2.3639843 2.9550416
-3.8140109 13.666713 2.9439757
7.232964 -18.739635 3.0791948
8.2248564 -15.916199 3.1688719
-1.9315928 14.101256 3.3173316
7.2673535 -16.803305 3.4788294
1.4304955 7.7475367 3.472137
5.490366 -8.4344225 3.5945988
4.4299779 -3.7922177 3.5734487
2.0292275 8.0244093 3.5724616
8.1167336 -14.161707 3.6932032
4.4972882 -16.408123 3.9733274
7.6077404 -13.93169 4.2541857
3.865726 13.996349 4.3328381
1.6544728 -13.613504 4.4301677
2.9379773 -7.5903368 4.4282951
1.1024618 -8.2389622 4.5487332
-3.6534967 13.702276 4.505271
7.4279909 -13.207714 4.8919082
0.93540132 -7.9063663 5.601717
3.9228983 -4.9339833 5.6468067
4.8733387 -14.591044 5.7255044
2.5012369 -13.009612 5.7047229
0.40407676 9.6893816 5.8374419
1.2167625 9.8947687 5.82828
-3.0910909 12.607475 5.8868632
7.4890561 -11.645741 6.0172987
0.76999915 15.789939 6.0157948
2.6068022 15.054585 6.1317863
3.2380552 -12.911228 6.2205067
-1.3131131 11.252535 6.2764359
2.3744404 -11.949671 6.5889721
6.645937 -4.8052764 6.8978825
4.6976919 -1.9921787 6.9246116
1.2490144 -2.1993086 7.0085669
4.2673883 -12.665045 7.4446487
1.2187636 -8.9592066 7.5382671
3.6134181 10.920646 7.8871469
1.2929691 10.380854 7.9076715
-1.8545932 13.67947 8.3174267
6.5821543 -10.234829 8.4803362
6.0397458 -10.893415 8.6591053
1.8134108 -10.169415 8.6353455
-1.3279754 16.795338 8.6521196
1.6933315 16.197412 8.7079906
7.2164011 -7.9448195 9.1424608
0.60076094 -6.8168359 9.2845564
4.7609458 11.511429 9.3922853
0.52759403 -6.1962433 9.4347067
5.1991606 -2.5603223 9.4629307
3.2502503 11.108284 9.5293531
2.1736383 -10.325428 9.8040209
1.4979601 16.643042 9.8099604
5.510438 22.56768 10.19012
4.1376424 -1.9834794 10.209354
5.8974395 19.81258 10.445721
-0.95411611 16.444885 10.5395
4.6216755 21.40591 10.730545
3.6614878 16.463791 10.987498
-0.68857449 13.354192 11.072086
-1.0806042 15.952264 11.075233
6.727809 -8.0927982 11.101665
4.5605307 11.443773 11.176956
4.9904652 19.658573 11.275684
4.268117 20.481094 11.453205
4.4350424 -2.9280379 11.598235
5.5648212 12.380682 11.502441
0.071100801 16.999231 11.651699
2.0883448 -9.6791811 11.793768
1.9018803 -5.4494824 11.965788
-0.32933739 13.222321 11.902781
1.6110477 -6.3895907 12.247618
4.6765099 16.826998 12.237474
4.1719589 19.303268 12.292272
-0.1562807 16.54295 12.755908
1.8996313 -8.3466806 12.814653
6.578692 -5.8441792 12.925223
3.1583257 -10.46626 13.08527
4.4945154 -3.7233586 13.106089
6.8327465 18.386122 13.292866
1.7945611 17.861361 13.393785
7.1371408 15.259319 13.516064
1.9429388 9.7753973 13.663041
0.22799745 15.530767 13.671883
7.2403989 14.616392 13.896355
6.9290624 18.539511 14.066303
1.4154419 17.508835 14.106157
5.3718748 20.822231 14.105778
0.16863188 13.08434 14.283071
3.4651456 19.029373 14.397279
1.6345662 10.258617 14.497271
4.8407254 10.572371 15.23068
7.382164 15.089163 15.366989
2.4851031 -9.2714739 15.996761
2.3908074 -8.7450333 16.165445
3.9105158 -4.5356507 16.206083
5.8748193 -10.069784 16.534719
7.4132223 15.882456 16.510845
4.5655203 -4.3758535 16.620754
5.466289 11.275379 16.7313
2.4596994 17.757858 16.71121
3.3034992 18.568771 16.939272
5.3544264 -10.538744 17.162554
7.4172568 -7.5761266 17.137323
5.4813752 -4.5073586 17.361073
1.6195788 16.130339 17.428596
3.2424598 17.958801 17.565392
3.9270849 -4.3783503 18.029793
2.0524895 8.8475151 18.025875
6.0949564 12.939357 18.076756
2.4371068 -6.3108406 18.171448
4.1027575 18.427628 18.168736
2.1519694 -7.0704918 18.276737
5.8655868 -10.160486 18.447439
1.28657 9.533268 19.361004
5.0036173 10.452904 19.354525
5.5962601 13.38805 19.664772
5.3453784 11.017252 20.178459
5.6205187 11.732781 20.171797
5.3634858 13.772182 20.477659
3.0697811 -4.7325802 20.581333
4.5285025 -3.9985142 20.970964
5.1009817 -10.924158 21.092865
3.500047 -10.170696 21.137936
2.553587 -9.0790453 21.145838
3.1556554 8.1943941 21.42872
5.5200539 -3.9345036 21.888287
2.0286257 13.913322 22.407084
4.4603262 8.682539 22.859715
5.5099049 -3.703814 23.827976
2.6096764 -5.8227348 24.189629
-0.456855 10.902042 24.151001
4.9921927 -3.6583083 24.452759
2.5621831 6.7397895 24.511578
3.9523032 13.304656 24.747189
8.4736004 -6.9576488 24.843044
8.3621511 -9.1724129 26.010468
2.2480109 13.092672 26.149973
5.0627694 -3.4835029 26.250875
6.3863349 -10.666042 26.77104
3.5885348 -10.217947 27.197113
8.0735941 -4.784256 27.172239
8.5093155 -9.3700066 27.210835
-1.3092186 7.5409026 27.48772
1.9634125 5.1377892 27.708731
2.8582256 -4.5499625 27.899818
3.1157711 -4.2000408 27.878197
6.6410575 -10.643005 27.930014
7.3310814 -10.379588 28.199902
0.52482843 4.7675595 28.435398
-1.5277352 9.4160786 28.579075
8.0012188 -4.1102872 28.758747
4.6093936 6.9940567 28.744915
-1.4589167 6.3112588 28.963478
5.1022615 -11.433167 29.07653
0.36128902 4.3596931 29.284184
8.1212358 -10.327514 29.434868
2.3256214 12.062733 29.557354
-2.0145707 7.9765811 29.699673
7.0204363 -3.4347816 29.719019
-2.0702095 7.4745612 29.94906
-1.4445351 5.3856087 30.23959
4.7745533 7.787982 30.287075
8.2018671 -10.445977 30.446861
1.9134629 -7.3149877 31.025723
3.3290675 3.9602482 31.217297
2.5357282 -10.061752 31.727913
-0.89518166 9.9438953 31.797308
1.9298128 -7.1427021 31.989828
4.6533546 7.9482856 31.987595
5.8497505 -11.394526 32.079082
-2.6470456 5.5233154 32.072205
9.0549288 -10.309258 32.130199
4.8922982 -2.9812741 32.144035
4.0350733 10.097901 32.133045
3.8539224 4.4716201 32.355675
-0.53072512 10.568041 32.550476
-0.22698301 2.7064321 32.613701
2.849508 10.826343 32.898769
9.0399103 -10.55223 32.912529
-2.7658 7.6188693 32.970131
-1.8899238 8.6646338 33.020836
8.5550041 -3.5527177 33.103302
-2.2011151 3.7895432 33.190765
1.5276961 11.006258 33.150146
7.7782698 -10.962585 33.282715
2.5452814 -4.5241375 33.317062
0.45495364 10.691755 33.56662
2.6819777 10.718467 33.55761
4.6223359 -11.335629 33.750786
9.5660057 -9.8162451 33.793049
10.293695 -7.6239724 33.741413
1.7904199 -7.3542275 33.825886
1.6586442 1.9925355 34.0578
2.3165355 -9.8743343 34.167656
4.3210688 4.5058012 34.174587
4.195796 -3.1020656 34.227634
10.311838 -8.1738281 34.351845
2.446476 10.527422 34.58461
-1.7223229 9.0215883 34.870216
0.34387538 1.1366968 35.083042
7.5025921 -11.319522 35.367203
-1.928322 8.7746258 35.46278
-0.83623314 1.1063621 35.618382
2.2849369 10.21273 35.759132
6.9086595 -11.543726 35.811798
0.61585629 10.147479 35.972832
-0.062448457 0.51342827 36.064709
-3.8361974 5.0523262 36.223286
3.1231382 -10.892065 36.477245
-3.1699991 7.0152531 36.489937
10.562449 -7.2227306 36.561066
3.3660407 -3.4345181 36.500736
-3.4082377 2.2502213 36.514786
1.7156271 -7.6538424 36.889317
3.5628152 1.9881406 37.07056
-4.0765972 3.6035967 37.188194
-2.4465294 1.0583836 37.283405
-4.1779451 2.3787386 37.744648
3.3475909 -3.4516392 37.859772
9.3294907 -11.137429 38.10014
1.853585 -0.50995004 38.767052
-0.59312075 9.0493088 39.51281
3.7077019 7.3888521 39.611412
3.4539409 7.5834818 39.68298
3.0253663 -3.6119268 39.785511
-4.2769966 5.1683149 40.001541
7.2400026 -2.451792 40.128948
4.2956157 -3.1126881 40.40414
2.7275999 -11.037797 40.505539
-1.6067208 -1.9910908 40.793934
11.092914 -8.2063541 40.808109
4.4969578 -3.1163709 40.843018
0.21459869 8.6536903 41.003502
0.10843533 8.5779972 41.145103
3.9166131 1.4297751 41.267727
0.5329594 8.6152611 41.280457
4.0221272 2.8568265 41.487762
1.8543099 -7.9395556 41.58799
2.1932113 -1.9817766 41.647423
3.8652472 6.1599097 41.682671
1.3877968 8.3609152 41.778576
4.2936845 -12.014773 41.908615
3.9736233 2.7723045 41.998581
1.9277682 7.807519 41.902462
2.575748 -5.5770502 42.03233
0.068219751 8.2271194 42.050423
-4.9408684 3.724565 42.16996
10.011597 -11.342432 42.303978
2.0048089 -8.6615982 42.449295
-2.7468715 7.5776849 42.472939
2.6852915 -1.3744544 42.594032
0.48371232 -3.4087899 43.14772
10.431903 -6.0529289 43.452557
7.3541117 -3.2803223 43.570992
3.294903 -0.42898038 43.586784
-3.0479243 6.9810572 43.695087
7.5234175 -3.3960693 43.806694
-1.2253412 7.2943873 44.012749
2.1257026 6.2843599 44.280487
2.4236298 -9.5277786 44.445889
4.5292511 -4.1583323 44.841457
1.904146 -3.2766047 44.807159
7.449667 -3.8345251 45.19405
4.9006734 -13.002031 45.454742
-5.2627697 1.8732289 45.877415
7.2609539 -4.0016284 45.9011
-4.8203087 -4.0691051 46.280968
10.50344 -10.41204 46.325684
6.9615183 -4.0276318 46.310955
2.8618376 3.7992766 46.360134
-4.1180906 -4.8581295 46.432449
-2.3694847 -6.5783334 46.548588
3.0677664 -0.07953763 46.505886
6.1787958 -13.73555 46.620159
2.6797137 -6.9216204 46.609787
-5.6078095 -3.1759617 46.626106
8.3227463 -12.952896 46.723228
2.8564806 -1.5999602 46.780735
-5.8664608 0.33096519 46.819923
2.8999808 3.079423 47.141247
-4.1261549 3.1737223 47.117039
-3.1312864 4.5248671 47.203465
2.7654731 -0.69075161 47.484509
-1.9331269 -7.3742633 47.58028
-0.62701863 -6.8088856 47.511986
-5.9233088 -0.37836164 47.771339
-5.3490868 0.62323284 47.790466
8.6004734 -5.4816904 47.919586
2.5886245 -2.6090615 47.962772
-3.8462524 2.9841142 48.176659
-5.8224769 -0.4868466 48.201168
-2.5753641 -8.249073 48.34671
10.362922 -8.2570133 48.76981
4.6691842 -5.5046434 48.753086
-5.7478976 -5.3259077 48.99662
1.8395314 -5.0844703 48.92276
0.45407087 -7.7114124 49.038502
5.9109707 -5.2143011 49.013374
-0.091958225 3.5062134 49.149624
8.4292622 -6.1005826 49.58168
-4.2811556 -8.1917496 49.75108
4.0272074 -6.0796127 49.791088
2.146858 -10.56296 50.18293
7.3003917 -5.572638 50.183449
3.3212423 -13.556849 50.281063
-5.0669537 -0.94494569 50.598404
10.192928 -11.78954 50.725395
6.8269091 -5.3286982 50.966793
1.7288909 -0.78382909 51.23893
4.2973771 -6.137836 51.370018
0.40263397 0.27260408 51.352051
8.7196846 -6.4152584 51.812321
7.757462 -5.8000154 52.219437
2.5817392 -5.8072143 52.395348
1.7459097 -10.443761 52.498657
-2.8542867 -10.021645 52.48748
7.1499138 -5.4050312 52.547813
-1.7895908 0.10983647 52.689056
-0.98936987 0.41179645 52.610161
10.878817 -9.4787121 52.759445
3.121712 -6.4283075 52.763447
3.7046661 -6.2669754 52.720894
5.0430875 -14.892752 52.942314
3.5299616 -14.166338 52.976562
6.9518509 -5.2441716 53.005974
8.4939365 -14.671434 53.136353
0.21969986 -9.7537918 53.165031
4.648016 -5.9568233 53.148468
-2.7642283 -10.181723 53.326569
2.3347609 -3.9029548 53.370434
10.759279 -11.662251 53.420719
10.33145 -7.696023 53.411247
3.2828507 -6.3170786 53.425636
9.1987114 -14.473567 53.569241
-3.61763 -0.28105858 53.744854
7.7918792 -15.170388 54.032681
1.812278 -11.203211 54.124687
-6.4653411 -2.8347428 54.14386
3.2710629 -6.2356396 54.283199
6.8646669 -15.63352 54.395973
11.106594 -11.433153 54.356552
7.6859717 -5.4954376 54.360268
2.598386 -4.5681305 54.324272
-7.0521555 -7.4524875 54.479656
-2.0213363 -10.230646 54.642967
10.89195 -12.351398 54.829132
3.8996778 -5.9796948 54.984726
-7.1971912 -7.6902552 55.095776
-2.1787052 0.097479515 55.127144
3.7285891 -14.56511 55.70475
-7.3962398 -7.2107706 55.777195
1.8168244 -11.450049 55.83812
-3.1232917 0.083752505 55.931492
5.155797 -15.200459 56.03933
-0.57189667 -10.21932 56.18792
2.7269154 -4.1036363 56.261074
-1.1002096 -10.307925 56.430531
-5.7575011 -0.35144517 56.605762
4.0505247 -14.752761 56.935276
11.685178 -8.5880785 56.914742
11.922016 -9.0255136 57.230896
10.117254 -5.693306 57.273983
10.90934 -14.127152 57.525818
3.7294815 -5.521286 57.524117
1.9612579 -12.021446 57.639408
-7.0467553 -8.6335678 57.656693
10.173562 -5.4658976 57.994789
-5.7710061 0.1858061 57.946774
12.088262 -11.009214 58.051483
2.0563626 -12.377698 58.16114
7.8580732 -4.5697422 58.186016
-0.17162418 -0.08737804 58.278282
1.8936977 -7.7601867 58.624626
-8.2132387 -3.5024567 58.617844
-0.17267823 -0.013376355 58.725014
2.9974494 -14.337371 59.036514
-3.1839066 -10.834831 59.193672
12.259691 -8.10847 59.125576
2.7183533 -4.9839993 59.240654
-2.4111528 0.73045886 59.233643
-1.527812 -10.654411 59.366432
12.202451 -7.6486883 59.3367
5.0726318 -4.658844 59.369331
12.173982 -11.600492 59.401501
0.70675552 -9.7874069 59.435432
3.6707227 -5.0181122 59.460091
12.743041 -10.173716 59.803181
10.276323 -14.790019 59.979534
-0.68708652 0.49884811 60.046799
2.47381 -6.7451725 60.169861
2.0444717 -11.768406 60.279274
11.63648 -13.702741 60.383766
12.508144 -11.307693 60.509148
2.6524701 -4.8552499 60.658195
2.7013063 -5.9122372 60.791279
1.749121 -10.287785 60.879337
-8.6139278 -4.2952943 60.806412
-6.6621904 0.010269582 60.837837
2.1219189 -11.919498 60.934578
5.7738209 -15.488752 61.0737
-8.5704479 -6.1994572 61.060242
2.6480095 -2.3761601 61.085541
1.9666653 -11.195383 61.148018
12.097473 -13.035408 61.508034
-8.8069229 -3.4330869 61.527039
-5.7884722 -10.479704 61.620445
5.0829296 -3.9911594 61.84341
7.7537847 -3.2618587 62.012375
-0.99625069 1.0232378 62.269867
13.379663 -9.2752981 62.384922
12.317613 -4.7714958 62.317001
9.9235916 -3.8644762 62.343254
13.305492 -10.16412 62.440472
-0.53446496 -10.70842 62.577919
11.02914 -14.627095 62.635796
0.18923244 -10.598718 62.731461
1.9722884 -8.2857838 62.749012
2.5236139 -13.05175 63.069698
2.5937381 -5.6328397 63.020561
2.9209676 -4.988575 63.059433
3.8194304 -14.453581 63.647194
12.127247 -14.171663 63.963139
12.476995 -13.212614 63.901466
1.1394296 -8.8831186 63.978485
9.2187424 -3.0342922 64.030525
4.4160118 -14.708939 64.227829
2.5585525 -5.8909206 64.383026
2.040669 -0.44229978 64.387909
0.53087115 0.43744215 64.317398
-8.7910557 -8.660018 64.45507
12.06771 -14.329782 64.596359
-8.2205982 -9.1404114 64.521049
11.933363 -3.7517352 64.542618
11.591334 -3.5012896 64.942192
-4.4864907 1.7710152 64.967285
1.7052048 -7.8403616 65.040611
4.1004481 -3.383297 65.141312
2.169821 -7.0291796 65.408066
0.7561841 0.43165269 65.421646
2.6707101 -1.845408 65.529625
14.491361 1.776597 65.525932
-5.8863831 -16.923615 65.733566
-11.28059 -12.781563 65.766022
-5.6916103 -11.442846 65.886726
-9.3607254 -8.0911179 65.941055
18.876888 -12.283617 66.134453
14.371122 1.7891761 66.108429
2.6229227 -4.2830791 66.216263
18.363787 -14.404894 66.384178
-4.4239874 1.880941 66.401619
-10.288109 -13.495115 66.557129
-9.6253786 -3.9060335 66.52092
11.983226 -3.2913764 66.542007
13.980085 -10.321206 66.688927
19.262875 -7.8772779 66.651917
-10.357645 5.3715582 66.606224
-3.5210366 -18.200636 66.789078
2.0129292 -8.1083565 66.707794
-9.609457 -4.7043967 66.713791
6.3411493 -15.497529 66.815331
13.150932 -4.0420237 66.800804
-11.79946 3.9550867 66.840782
14.896009 -18.219156 67.04464
18.396475 -14.096217 67.001854
-8.6443558 -1.3550636 67.198586
18.254566 -14.458275 67.204849
12.341202 -14.315496 67.219666
13.489731 -11.801534 67.234421
13.57131 -11.605375 67.330391
13.867928 -6.7743826 67.322968
2.648303 -4.1934891 67.395905
9.8510475 -2.3825705 67.402161
-12.250769 -11.72576 67.541084
-11.425127 4.1539283 67.592285
2.8326964 -13.325114 67.676949
-14.342747 -2.2775178 67.610229
11.919192 3.1250403 67.695724
-14.479774 -7.1055813 67.733971
13.201941 -12.73631 67.800346
-13.396788 -9.3257027 67.868423
2.6676755 -3.7392924 67.80191
16.078281 -0.67661703 67.837059
-1.6750863 8.401556 67.837212
-14.307856 -2.3628249 67.961624
-13.20553 -9.6754284 68.067665
-9.7302589 5.6738038 68.014923
-2.0372796 -11.393698 68.160553
-8.4733906 -9.5131569 68.109032
-0.14352256 1.0993805 68.146423
-0.63113433 7.9104052 68.125816
11.390022 3.3874576 68.285103
6.7447319 -21.025726 68.374947
17.148056 -15.508256 68.406242
18.318846 -14.030843 68.450119
2.3227575 -6.7568107 68.414963
2.5378294 -5.9526958 68.471512
-4.3051271 7.8174357 68.56588
13.574644 -18.610104 68.678772
-8.1991272 -14.924772 68.658951
6.5954027 -20.960373 68.755127
3.4864159 -2.933929 68.722977
-0.264157 -19.671232 68.896561
-12.742724 -10.415817 68.812027
-9.8332291 -5.1725578 68.863068
-11.099234 4.1919689 68.842216
-8.4621801 -14.684359 68.9198
11.576059 -2.6372335 68.994583
-7.4059019 1.0699223 68.931122
9.9221039 4.139914 68.980835
18.314325 -13.884952 69.053261
2.9517076 -20.645168 69.164726
19.265104 -8.29702 69.140404
2.4366224 -11.390197 69.26416
-12.756706 -10.285101 69.212914
14.242538 -7.0558548 69.273148
2.1970177 -10.293283 69.376808
-8.5723095 -0.80360496 69.359627
-5.7390223 -16.601282 69.46682
4.4875574 -14.481058 69.436134
16.346344 -1.2465971 69.546692
-13.558834 -8.5582333 69.652122
17.924358 -3.3209124 69.609589
1.1522908 0.40627962 69.638481
-11.204795 3.9151421 69.613754
-5.9359183 -11.866845 69.785049
-9.855547 -6.8463736 69.732803
-7.8186836 0.52572483 69.716789
-5.4409409 2.0781951 69.742897
2.6827998 -4.7259831 69.837753
-13.307183 0.69477618 69.877899
0.79290754 -9.7727356 69.984138
17.924982 -3.3482118 69.966187
-0.12252465 -19.441 70.007614
3.3787231 -2.7453821 70.042015
-11.441025 3.5893416 70.034966
13.310171 -18.452034 70.146408
9.4449387 4.2472343 70.199326
6.4714198 -15.414004 70.242355
-4.4132104 7.3906002 70.327553
-14.070845 -3.6527452 70.40937
-5.6259522 -16.530397 70.569359
17.286797 -2.5547512 70.552788
14.79924 -9.1583853 70.658264
14.103613 -5.5489678 70.661552
-0.10233015 -19.229536 70.771477
14.556192 -17.782534 70.884132
2.0866125 -7.5012989 70.921585
-8.0324745 -10.347187 71.037041
2.7750578 -0.83200037 71.063629
9.7548075 3.9517941 71.070419
-9.9466343 -8.7422991 71.282806
12.068518 -2.333529 71.299637
-7.3110924 6.5704026 71.211655
0.03632313 -19.168745 71.301292
14.804145 -9.3327351 71.357468
-11.551102 3.1515152 71.50248
17.287601 -2.6372833 71.650101
10.128112 3.6581893 71.660957
8.8510008 -19.948896 71.729919
-7.8189249 -14.839745 71.740814
-6.9562035 -11.341516 71.731598
-13.946784 -4.5593691 71.710388
2.3496761 -10.755628 71.859917
-1.9820111 2.3736389 71.878899
11.457457 -18.861805 71.97345
18.441988 -12.563321 71.910538
-7.9963293 6.2393236 72.029114
-10.22335 -4.8752542 72.131897
-5.2138052 -16.393312 72.233055
3.0988369 -3.5261059 72.289734
13.722594 -12.565052 72.394524
14.795334 -7.3026948 72.334549
9.6153717 -19.522688 72.421501
-10.167585 -6.8790517 72.451706
1.7448111 -8.211689 72.563393
7.1731896 -20.235271 72.687195
-9.5822105 -1.7921603 72.75602
-9.1645498 -13.657153 72.865723
15.176808 -8.524127 72.877449
-12.987003 -8.8888245 72.981758
9.5553284 -1.1055468 72.921967
-8.1811819 0.57566434 72.988396
3.4892366 -2.2230289 73.03582
3.884716 -14.056767 73.178947
13.819661 -12.508357 73.159782
16.714794 -1.9802725 73.115356
4.7986841 -1.8704886 73.117355
-5.9224329 2.2886169 73.15097
-4.5920787 2.3496571 73.141678
18.16523 -3.8902938 73.235062
-10.768718 -12.347995 73.366638
-13.300974 -8.185071 73.32814
-3.8650744 -12.143186 73.419441
18.320147 -4.4287348 73.633255
5.816906 4.6387038 73.653214
14.2502 -11.525489 73.868057
0.98074365 -9.6179676 73.822632
2.6114042 -5.1145158 73.925575
2.8032606 -0.46505061 73.987045
1.5797806 6.2122355 73.973602
16.229105 -15.464137 74.056587
14.948796 -6.8978744 74.062141
-13.806904 -4.401062 74.03373
-3.4697814 6.8476253 74.081062
-10.201908 -12.727324 74.111099
-9.0006418 -0.65103048 74.279877
1.470178 -19.10046 74.342194
-4.4446254 -12.288114 74.37001
13.777111 -2.4063296 74.495712
-5.5943379 -16.073017 74.543335
2.5636959 -6.7715454 74.584427
0.49843073 0.93970311 74.593697
-8.4071312 -14.087308 74.684967
18.940689 -7.6216207 74.666382
18.767841 -10.388933 74.713974
-4.4097118 6.5848737 74.728706
-5.3700576 6.3756433 74.834053
-2.0084085 7.0090885 74.849724
-6.381135 -15.64893 75.090347
-7.5486069 -14.731217 75.050316
-13.712891 -6.4608316 75.110283
-7.9280639 1.2202311 75.157059
8.7192383 4.1245775 75.255226
5.7258363 4.6354618 75.216782
14.919592 -6.2295823 75.351494
9.148695 -0.68354613 75.352951
10.330574 -18.747606 75.472786
14.529917 0.86999047 75.429924
4.7578568 4.9550095 75.461685
-1.6192402 -11.919041 75.569099
15.101911 -6.9072747 75.509865
13.359831 -14.017385 75.635277
6.7153344 4.4468064 75.633621
-9.0039349 4.812438 75.672714
-0.74769938 -11.803156 75.781158
-22.984236 -9.1243954 75.795212
-8.6324253 5.1808772 75.707062
-11.465286 -11.318589 75.805481
1.4209383 0.3060416 75.843239
2.4808092 -10.749705 75.976456
0.12149994 -11.133631 76.009598
18.339413 -5.0690975 76.027153
-7.5757847 1.8901271 76.023918
13.830934 -17.283836 76.130569
7.9039311 4.2378192 76.180954
5.2023916 4.7768664 76.170959
-12.72458 0.37040865 76.296196
10.300932 -15.277439 76.445496
2.0579429 -7.656744 76.404938
6.0853758 -1.2770065 76.429955
-12.598302 -9.1357021 76.517487
15.199935 -6.8590059 76.554962
-0.36780995 -11.806656 76.72908
18.603214 -10.426651 76.721481
-12.793175 -8.8220978 76.766617
-9.3741579 -10.055191 76.886887
-10.551983 -2.9788926 76.901077
-9.0446434 4.5489249 76.919968
5.2628226 -19.583714 77.025581
7.1471691 -15.398728 77.013588
6.8671975 -1.0407945 77.040558
12.433835 2.1837211 77.017052
11.329165 -18.113461 77.223022
-3.0227463 -12.232529 77.237015
-1.7626581 -17.417215 77.38517
15.621243 -8.2210045 77.372971
7.6689434 -0.81008101 77.384735
6.2264481 -19.501719 77.47084
-1.6119175 6.6067753 77.459984
-7.8412743 -11.351586 77.561729
6.5052347 4.4624395 77.502357
13.967762 -13.035576 77.637512
18.25609 -5.0354362 77.612381
12.325568 -1.5920489 77.654022
14.501698 -16.57696 77.949692
-21.978355 -6.8205395 77.913139
2.8745704 -4.5093603 77.984146
15.064023 0.10031939 77.953484
0.89533889 -18.349609 78.059761
14.616179 -16.449987 78.031296
-5.8972964 -15.749719 78.069855
-2.4058073 -12.200653 78.181511
15.095924 -10.020948 78.163193
6.6073732 4.4358482 78.115707
1.4185389 5.7914605 78.285347
-3.9652367 6.2870622 78.387123
18.457623 -6.1486688 78.467934
-1.3904668 -17.480362 78.572449
-10.516321 -9.3376446 78.59494
1.5339181 -8.5705967 78.547409
-10.65324 -8.0375223 78.556038
-0.078097582 1.0347993 78.536728
-5.5389757 -12.702654 78.617439
1.4017196 -8.8063869 78.683777
-24.188536 -7.8005447 78.673569
18.359432 -5.7301073 78.630348
18.216162 -11.370081 78.736115
6.9997125 4.3550906 78.758194
-4.3307791 6.1326447 78.749626
8.4822464 -19.023987 78.857132
-0.014260709 -17.934256 78.84433
10.26479 3.3350177 78.816719
-21.766951 -6.6394391 78.95726
-20.65505 -6.5417137 78.948135
-21.562439 -6.4042778 78.965683
-21.4049 -6.1305108 78.962204
-12.42801 0.62259448 78.970398
-7.8618031 1.6914117 78.932991
3.0422072 -12.546764 79.089188
-24.132059 -9.017765 79.052773
-10.574547 2.618753 79.093491
-10.841922 -4.9680114 79.113785
2.5535045 -3.5138133 79.180885
17.084757 -13.770168 79.265297
-10.682927 -8.6690207 79.229218
11.273743 -17.867001 79.334778
-21.460918 -4.6728468 79.38208
-21.52528 -4.2524886 79.452774
-22.781784 -6.438015 79.524933
15.43486 -9.3722019 79.667297
-12.813357 -8.7032957 79.622276
-22.291731 -5.7362795 79.606842
2.6909111 -5.3084459 79.691841
-7.9518361 4.9747629 79.686951
-6.6370382 -12.477621 79.763809
-10.825548 -6.4905548 79.72525
-11.056364 2.0170002 79.74369
2.123966 -8.0966721 79.879631
13.498532 -1.7732519 79.805397
10.713595 3.1149688 79.840973
2.4950948 -5.0271468 79.993904
-22.914928 -7.4014406 80.098923
3.1912663 -3.580811 80.050156
6.1482487 -14.698561 80.133667
7.1077337 -0.77144569 80.197563
-8.4009838 0.91088909 80.160645
13.937613 -1.8750918 80.275238
-24.115347 -7.4315367 80.341339
13.856124 -13.772182 80.582649
0.88163507 -9.7170963 80.522995
-7.4674783 4.9707885 80.569305
-1.115804 6.1402678 80.574112
8.6547651 -18.717405 80.613831
-23.400145 -5.6683731 80.694672
-9.5956984 -1.0218577 80.69545
-10.50688 2.4261146 80.635803
4.9166737 -19.042755 80.762932
-12.851941 -1.3755076 80.758408
8.2784996 -18.833647 80.860077
7.517632 -15.291693 80.928688
15.367241 -5.6412272 80.988106
-7.8591108 1.8859713 80.92244
-23.380558 -10.155329 81.052078
12.081234 -1.1595802 81.099731
-12.866481 -1.5131977 81.104706
4.4211106 4.8752894 81.118217
15.408304 -15.141298 81.238174
-21.849556 -3.257575 81.259514
-9.5937796 3.2602253 81.218109
18.691568 -8.5683928 81.3601
2.2186539 -8.1673126 81.30233
-23.029446 -7.2499003 81.380562
-24.524586 -6.9453416 81.491615
-13.359615 -4.5634069 81.43074
8.2075129 -0.40293407 81.463684
-8.6737728 4.1468315 81.484634
-10.953529 -6.3941851 81.568993
-23.754242 -4.6137948 81.54847
-7.7902241 -14.226351 81.636131
18.01038 -11.297828 81.621956
-25.078527 -7.2821846 81.662384
-3.5460911 -12.601276 81.748299
14.057636 1.4895239 81.732971
-3.2246375 -16.517614 81.834564
-22.343412 -5.4512534 81.891205
9.021409 -0.17065525 81.997711
3.0084348 -18.494785 82.112
-1.2955244 -12.298588 82.169312
2.4609516 -2.3662825 82.142921
-6.7958455 1.976487 82.165924
8.6156034 -15.719999 82.269165
-6.2551804 -15.181693 82.247002
15.837213 -7.167603 82.227066
3.3549018 -3.2053895 82.281296
8.3406334 4.2268791 82.282433
-10.10198 -12.524622 82.359406
-12.881955 -8.1695938 82.303703
-12.843693 -1.7338812 82.312721
13.454842 -1.5434391 82.346603
-7.3574386 -12.150732 82.411522
1.2357676 0.0037150905 82.499969
6.0088234 -14.470545 82.583298
2.3717182 -6.0387602 82.51059
14.665394 -2.6135192 82.583633
7.4163556 -15.127552 82.64167
-7.0201039 -12.425276 82.644615
2.2338402 -7.8620663 82.753349
6.8815627 4.5340629 82.713272
15.262801 -5.0040555 83.077492
-0.018141836 -17.42548 83.104202
2.4152145 -2.1022553 83.119843
14.765011 -15.435969 83.242928
-9.5090628 -12.970753 83.280724
2.3372865 -5.8645048 83.237022
-12.838471 -2.0348811 83.227509
-10.267799 -2.0413849 83.286972
9.8286438 -15.209961 83.368294
-7.513998 -14.335258 83.352905
-4.1999741 -12.828605 83.421303
13.083158 2.1004319 83.421059
-6.1041384 -12.923401 83.500015
7.9026985 -0.43948859 83.531494
-1.8671589 6.1867208 83.599487
13.927053 1.6821301 83.667702
-1.1188183 -12.257506 83.727509
-9.223774 -0.29053319 83.781975
-1.480354 1.5777115 83.833618
10.964665 3.2487593 83.825951
17.363535 -12.58984 83.965935
9.8058767 3.8961401 83.998245
-1.9105214 -12.524104 84.01664
17.796007 -11.198608 84.064552
-11.478865 -10.590216 84.003632
-4.1449714 1.9914123 84.055161
-21.286314 -8.3757038 84.101151
-24.253979 -8.1991844 84.149078
-12.737419 -1.9998236 84.114532
-10.582159 -2.8788965 84.273094
0.4892045 0.37276268 84.220467
1.6824923 5.693326 84.350075
-21.0177 -9.7594299 84.429489
3.0768893 -18.255764 84.560715
13.741987 -16.288046 84.58876
-23.493143 -9.0560627 84.547997
2.4819875 -8.2372847 84.572906
13.125278 -16.571735 84.653244
-12.411184 -9.1886549 84.655388
15.157852 -4.7678418 84.794952
4.896914 5.084188 84.722382
-6.5170097 -14.779256 84.821793
-20.720596 -9.6249847 84.895012
15.122114 0.30669314 84.844742
9.1279373 4.2834392 84.815529
8.5574713 -15.45237 84.952988
11.784031 -0.8580271 84.989227
7.2797847 -0.58254963 84.985306
-3.7648616 1.966502 84.954407
12.020802 -16.957472 85.005341
-8.3530207 1.1840967 85.001816
3.3489182 -12.114768 85.103813
7.5019875 4.6146183 85.107742
-1.4284254 -16.766018 85.220833
-2.45609 -16.454357 85.21637
-20.823078 -3.1858642 85.24437
-13.159948 -4.5144272 85.341537
-2.8117006 -16.318581 85.499367
-3.0737085 -12.817536 85.440506
2.7424412 -9.1231174 85.443604
-11.072166 1.0733166 85.482903
-1.1992142 6.0205002 85.460762
9.7917223 -0.15395194 85.517807
1.5234195 -17.672894 85.662796
-12.754145 -7.0022545 85.644638
14.084921 -13.029963 85.705193
-2.0466092 -12.499532 85.783569
17.440186 -2.9810028 85.762009
16.028042 -0.95622778 85.769478
-10.621617 1.4906797 85.784691
-2.591311 1.7398843 85.782333
0.53236568 -17.333179 85.804352
13.15745 -16.442446 85.823189
-3.5468874 -12.918158 85.828316
-23.543818 -8.9122791 85.864265
11.34823 -0.67242301 85.836639
-4.7800856 1.8896036 85.884354
-4.6976938 1.8928032 85.879524
-10.615074 -7.9722543 85.928421
-0.14684036 0.67190111 85.998184
-1.8959125 6.1125884 85.901054
-1.4754934 1.2658983 86.082825
-1.1767685 6.0650573 86.07502
-8.3368483 -13.640718 86.125061
-22.817261 -5.1438828 86.15625
2.2221141 -3.9236243 86.165817
12.85928 -13.820854 86.277809
-23.418282 -6.3511257 86.294693
1.9388843 -2.2221279 86.263809
14.802485 -10.899527 86.417664
14.561628 -2.6097074 86.537598
10.113259 3.9643757 86.585106
11.014831 -0.52497917 86.611183
14.415986 -15.236395 86.72908
-23.151932 -8.8860188 86.728043
-8.5261087 3.49349 86.706665
-10.543398 -3.438972 86.83992
17.390465 -2.9043314 86.857979
1.1470084 -0.15702483 86.882309
-7.0707297 -12.310757 86.940933
-12.68099 -6.684967 86.972488
-8.8528728 0.38452479 86.939362
-1.8041495 1.2698004 86.979164
1.4446929 -8.3713312 87.008408
-5.5750647 4.9724498 87.047585
2.6344681 -7.6996775 87.164948
14.155657 -1.7367646 87.140503
3.4558036 -17.950897 87.211372
-8.8058681 -11.396312 87.227325
-19.713825 -3.5558157 87.260231
5.0027804 5.2508626 87.273323
10.606727 -17.208488 87.326004
-5.6831546 -15.200391 87.300125
2.1279573 -5.6401119 87.346748
14.591358 1.0515158 87.309959
-5.4796581 4.9816227 87.310387
-2.4933457 -16.385689 87.433342
18.130299 -6.1764617 87.436783
-19.532074 -6.8427129 87.512489
17.788593 -4.1825905 87.587646
-9.2358236 -0.24293977 87.586823
1.5055271 -17.487583 87.618073
12.19152 -16.558823 87.842911
7.6955433 -14.75692 87.958435
17.017591 -12.017609 87.983139
1.3654013 -0.9161073 87.936371
-11.876781 -0.40418771 87.955338
-8.319046 3.4651837 87.927742
13.747013 -13.334566 88.089569
-12.73731 -4.4486437 88.072472
12.028818 -16.570177 88.135284
3.345598 -10.81264 88.173386
-20.830215 -8.4127712 88.117813
11.321877 -16.813263 88.219711
5.3102746 5.1560669 88.293228
-1.8305764 -12.318197 88.353363
14.646935 -14.654639 88.453262
-10.567107 -7.0164137 88.409401
14.604764 0.94285542 88.455566
15.375971 -8.8734303 88.560738
4.2033978 -1.9531177 88.553848
15.578011 -13.632317 88.655212
5.8332424 -13.772477 88.782745
-2.005115 -12.361494 88.79464
0.79001677 -9.8818083 88.723045
1.9579015 -6.3124509 88.700249
-8.1466637 3.4879169 88.712509
-7.8112473 -14.02217 88.886314
-9.8022966 -12.557488 88.896393
3.9638143 -12.84572 88.903267
1.5041004 -17.361549 89.088455
5.5316362 -13.600176 89.007828
1.9755908 -5.2957063 89.060684
-18.342194 -5.033493 89.046066
17.698162 -4.3056631 89.089783
-1.5099595 -16.606396 89.131577
-12.137279 -2.2890246 89.11425
14.810531 -3.8218584 89.199997
14.329183 -1.974435 89.240753
-1.1348699 0.69239861 89.286484
-21.389481 -4.2236996 89.307312
5.7610912 -13.661875 89.462852
15.65407 -7.0878787 89.471642
-21.151302 -3.7470479 89.541786
18.007765 -6.5996418 89.770325
3.7030742 -11.767982 89.881927
9.7331505 4.2332587 89.826492
6.3695145 -17.834927 90.072075
13.937782 -12.534985 90.093056
13.839522 1.7865697 90.070053
-0.97734731 5.8204966 90.033081
18.032343 -8.2453022 90.186127
17.360277 -3.0990438 90.208908
-19.192123 -2.7152615 90.294098
-6.1599274 4.2740345 90.391098
3.2442036 -9.1597061 90.413269
-3.7197766 5.3265061 90.480331
17.886431 -8.4160938 91.096596
-9.4649143 1.4877312 91.089401
-1.0683297 5.7154818 91.129364
17.030998 -2.7229488 91.481537
-10.008953 0.74377501 91.479721
15.703107 -12.878147 91.582176
12.636433 -15.783025 91.601944
14.456165 -14.159037 91.655197
-12.319084 -6.1280603 91.690094
0.83650613 5.581615 91.8508
1.2843108 -17.103258 91.921181
-3.2637408 -16.088577 92.072289
1.0016692 5.5524144 92.091911
-9.8361197 0.71348131 92.178825
-9.3429947 -12.840436 92.268051
-10.715118 -0.32937449 92.235695
17.63858 -5.795485 92.584351
17.427469 -4.3670969 92.585312
-16.856956 -3.6626859 92.611923
6.6959634 -17.452909 92.952835
-16.741955 -2.865833 92.991325
-11.922458 -7.6044106 93.099289
-18.571581 -1.804144 93.043251
-1.2798271 5.3970432 93.301727
-10.046486 -0.010697305 93.618622
-11.23447 -1.4187669 93.888588
15.817457 -1.4542269 93.835243
8.2729111 -16.939335 93.920013
-4.1140094 -15.708467 93.922043
-16.145851 -2.4685223 94.097626
-6.5504327 -14.49297 94.365768
-5.0593719 3.9727638 94.353531
-19.987152 -2.6533017 94.444748
9.8762589 -16.026459 95.770531
16.901127 -3.6191707 95.78569
-11.169853 -2.3472166 95.780304
-8.4715891 1.0970792 95.771896
0.97090048 4.801651 95.811508
15.362505 -12.425241 96.07048
-0.011162281 4.767333 96.004562
-0.96800232 -16.374672 96.131653
-6.6568289 -14.299921 96.19648
16.739227 -13.034319 96.266968
-19.379189 -4.8543739 96.47493
16.111565 -13.765753 96.843895
16.999048 -8.7322426 97.024414
-6.2736316 2.5815191 97.084198
0.51575559 -16.653162 97.195419
19.70826 -11.492516 97.119781
17.036741 -6.087697 97.242844
-4.0073733 -15.495515 97.332924
17.32428 -13.922645 97.307236
3.9419818 4.2926912 97.441978
19.397718 -11.803734 97.557899
-19.375835 -3.487452 97.598343
-9.0314283 -0.16122657 97.663696
12.9301 1.2197714 97.684341
2.2466402 -16.921808 97.752953
17.699892 -12.285849 97.720016
-1.8119924 4.3613806 97.817276
-11.459532 -6.9483528 97.938896
8.3760939 3.8545935 97.904655
18.454409 -12.320889 98.088745
-5.7518392 -14.594411 98.188828
-11.393616 -7.1577845 98.197678
-13.938946 -1.5568815 98.205841
12.757078 1.1892391 98.390556
4.7930479 4.0696697 98.323296
6.9782538 -16.932775 98.464951
19.501982 -11.26659 98.449211
16.663164 -9.1876049 98.404854
16.755926 -8.9293594 98.401627
14.585268 -12.650162 98.502045
13.207023 -15.011047 98.649734
16.051214 -10.808464 98.690636
-13.869753 -2.5897069 98.611237
17.34586 -14.396339 98.738846
-11.336563 -6.3324599 98.722122
20.174246 -7.1858616 98.850769
-13.673997 -2.0595348 98.805634
-13.606989 -1.7547089 98.860359
-5.9178739 2.2282903 98.884521
-8.193615 -13.200797 99.014847
16.05698 -10.657253 99.042122
-17.236961 -4.8066468 99.108032
-10.888566 -3.8780558 99.102882
-5.2704878 2.4554024 99.258568
9.4347696 3.0429001 99.266083
13.233044 -13.597726 99.439636
19.838985 -11.544091 99.40683
-5.3126326 -14.710345 99.577919
-2.450165 -15.828515 99.607101
15.161375 -14.860029 99.609756
-4.5925245 -15.049144 99.704407
13.618146 -13.198154 99.775467
16.114944 -3.5002768 99.716728
15.70837 -2.9972186 99.756607
11.8191 1.3561013 99.712418
-17.791147 -4.2827277 99.883865
8.0221977 3.4125984 99.848022
-7.6630297 0.54143775 99.921684
-7.3937235 0.86184973 99.956169
17.464462 -14.380604 100.06479
-17.002266 -4.6225367 100.00598
14.628402 -15.14045 100.14227
20.584038 -8.6834764 100.1956
16.627647 -8.0085382 100.16171
-0.57321459 -16.214554 100.2209
-13.83849 -3.9631886 100.25986
-17.094376 0.51730621 100.23846
-16.168995 1.1099188 100.29843
18.908304 -4.1499133 100.52317
-18.590176 -1.6948266 100.55502
-12.642262 -1.2315918 100.57063
9.518261 -15.506808 100.76445
-12.40609 -0.69670439 100.83861
-12.600666 -0.14905009 100.83344
19.260448 -11.58766 100.90567
20.507826 -8.3197651 101.08122
-12.918341 0.67932218 101.16334
20.807304 -6.7268591 101.29318
12.470671 -13.849993 101.37532
16.65374 -7.0939903 101.38704
-15.819401 -4.3218203 101.44979
-8.7407656 -1.3433421 101.44048
18.959742 -11.997735 101.51794
-0.44174635 3.1569443 101.56659
1.5297916 -16.58514 101.67989
17.779388 -4.0094376 101.667
5.368803 2.9626827 101.65617
17.485666 -11.038581 101.72591
13.609673 -1.5035744 101.74258
17.159225 -13.64975 101.81422
-10.857895 -7.8152633 101.89131
20.614071 -3.9500885 102.02151
-18.103552 -0.95311201 102.02867
14.840616 -11.372693 102.26398
17.288456 -4.7196403 102.25383
-0.43367529 2.9448683 102.21591
16.9042 -10.21331 102.32674
15.828066 -8.8148212 102.35625
-5.2886524 1.4219719 102.32012
-4.7759247 1.6884136 102.41226
7.403101 -16.152756 102.68634
7.3973875 2.5937107 102.63284
0.84255904 -16.377834 102.75947
7.5319214 -16.101257 102.70338
-4.9089127 1.5037833 102.72311
3.905642 -16.585171 102.86551
-12.07482 1.0725405 102.89777
21.074181 -2.4327884 102.95064
-1.4546721 -15.843717 103.06464
-12.505655 -3.2336972 103.06302
14.275896 -3.2634401 103.08794
-17.671892 0.30089334 103.04737
8.8632421 -15.546757 103.12503
-10.653755 -8.1981087 103.17095
15.938108 -5.959784 103.13939
20.955147 -1.1741389 103.11044
-8.1275082 -1.281172 103.25354
9.8955145 -15.125929 103.35141
-10.760836 -7.2982125 103.39462
-11.490239 -1.0970118 103.33538
-11.411238 -0.54706311 103.31833
15.939819 -6.3115058 103.53465
17.168457 -10.743484 103.65278
18.515751 -1.6853188 103.65266
3.1758332 -16.500965 103.77841
13.98818 -3.2515361 103.7347
6.9473171 -16.169357 103.87475
11.932315 -13.736437 103.94604
-10.398264 -5.4741235 103.91713
-4.7870941 -14.586691 104.05354
-17.471714 -0.043524176 104.01462
12.923798 -12.806746 104.10867
-15.135337 -3.5475101 104.14661
17.082773 -4.2192621 104.2175
15.018883 -9.4002943 104.43125
19.293259 -5.6000929 104.48146
14.845029 -5.1929011 104.5935
3.5854599 -16.460176 104.70883
1.7411456 -16.390659 104.70641
18.800022 -6.6533508 104.71584
-8.313673 -12.27532 104.85882
-6.1483593 -0.22656596 104.81002
16.318808 -7.3153758 104.93775
-13.72497 -3.4163971 105.06693
-17.163918 0.30723929 105.0481
5.3875866 1.7534276 105.03846
14.766146 -6.3732147 105.19331
-17.147982 0.16741152 105.19896
22.186199 2.7367518 105.19835
14.13103 -10.960345 105.22827
9.5476398 0.33269355 105.23124
17.645248 -3.9421594 105.31986
18.89164 0.99906278 105.35414
-8.5933428 -2.8370907 105.48811
0.60172379 1.4822378 105.43307
8.829113 0.56106186 105.5558
-3.0814033 1.1123508 105.50236
-17.040829 -1.3243783 105.62331
20.184168 3.3119333 105.6048
11.543326 -1.3656722 105.76228
-13.491612 -3.2060769 105.87019
3.2486639 -16.344833 106.02545
-1.7421079 -15.586808 106.1026
22.01325 4.5585618 106.19469
-10.297176 -8.6719351 106.22323
-1.9847841 0.86745292 106.32535
7.2472963 0.78272837 106.41699
18.168438 -0.27157289 106.59138
11.632702 -2.2250943 106.6075
19.162218 2.9190192 106.64206
13.059721 -12.190788 106.73043
-10.110797 -6.7295408 106.88474
-15.484131 -2.497781 106.86144
-16.773523 -0.46071228 106.8334
2.1440768 -16.256021 106.91182
2.8783212 -16.239651 106.96089
-9.1665297 -4.3115468 107.07849
-3.31287 -15.055456 107.14351
-16.387623 0.45541418 107.14729
22.545879 6.6167464 107.198
23.1145 6.7040792 107.1337
18.362135 0.75402671 107.2682
20.340042 -2.0372789 107.35869
19.338812 -1.6560292 107.33746
9.6892242 -1.3971902 107.46384
23.650469 6.2800961 107.4221
-3.6449354 -14.92799 107.61916
-0.14614826 0.20623571 107.64342
1.5881096 0.31991392 107.67024
-9.7703505 -10.337634 107.74055
-4.7900386 -1.1523198 107.78185
10.306643 -2.0986965 107.87365
23.85017 2.8302813 107.94125
-10.542324 3.5497475 107.97623
4.9928617 -0.1445573 108.0611
0.28170651 -0.0080806203 108.0939
11.567286 -13.261415 108.18147
-15.733477 1.5157641 108.14551
-10.47105 3.5893791 108.26128
-10.235356 0.224235 108.39007
-6.370883 -13.808487 108.54108
1.7278893 -0.14100346 108.69105
-6.4327526 -1.9711952 108.71581
1.7350287 -0.14723125 108.72173
19.543329 5.9586883 108.72483
23.968683 10.483209 109.03786
-6.9007926 -13.725034 109.25075
-14.117447 3.5760481 109.24724
4.3342309 -16.084105 109.34169
-1.0065638 -15.82268 109.38509
-15.227129 -1.0080342 109.39012
-11.500216 4.5866494 109.39835
9.0749273 -15.044207 109.47882
9.9640255 -14.505301 109.42524
-15.414988 0.59077424 109.42087
-15.269361 0.15272926 109.58275
25.441921 8.0278225 109.5031
0.49624205 -16.221704 109.66167
1.8507144 -16.198301 109.65552
-0.035635367 -16.085489 109.65221
24.520082 3.9569511 109.64528
20.926788 0.69683957 109.74149
23.47414 11.21008 109.97086
-6.389328 -14.017302 110.11015
12.875542 -10.636074 110.10858
-9.8977261 -8.3998642 110.11125
-14.303325 3.5186639 110.11372
20.041672 8.5532846 110.37614
-3.7871735 -1.2240649 110.47369
-14.538144 -0.68498302 110.47754
-13.075686 -1.3641728 110.52119
-9.8214388 3.9173696 110.69334
-4.5746698 -1.5305427 110.74719
25.221291 5.3365841 110.74263
12.581092 -10.902622 110.87151
-10.353292 -0.83256298 110.85312
-0.37591457 -0.68765974 110.97978
-9.3711739 -10.360664 111.04816
-4.4330506 -1.505258 111.08535
1.0403657 -0.68462056 111.09956
9.0615578 -15.029591 111.10896
-5.4744267 -1.8049113 111.1105
22.519785 11.935637 111.13931
22.776239 2.668725 111.29878
-10.635088 -1.2777723 111.31274
6.7336478 -15.560561 111.44519
8.3186588 -2.3766384 111.48705
11.986294 -5.6044555 111.63844
-10.901734 4.5801754 111.78128
20.147839 9.313282 111.74677
-9.855937 -0.66107482 111.81243
23.32583 3.4648969 111.89206
3.3019755 -16.137108 111.95275
8.5399303 -2.5183606 111.96102
-12.482771 4.3654718 111.91805
12.494047 -6.7049994 112.07485
-11.807407 -1.4261285 112.1392
-6.000567 -14.452312 112.31609
-7.0771585 -13.732954 112.30434
12.052795 -6.0222821 112.32156
10.591538 -3.8129799 112.32879
-9.9190407 4.0614357 112.49545
20.222771 9.5911188 112.50775
-4.9843721 -14.841067 112.62354
-6.8561387 -2.7270548 112.61255
26.192799 13.356239 112.84654
-9.6695099 -1.0321105 112.97731
19.898275 8.99226 112.97465
25.765574 13.712833 112.95067
3.388875 -1.1531174 113.10434
12.08038 -6.4842896 113.23224
-0.73003805 -16.225494 113.46131
20.959496 10.890279 113.45435
9.850009 -3.0982933 113.87273
23.829494 6.1328073 113.87776
25.493582 14.283625 113.87012
21.399763 7.4091444 114.21621
12.232757 -8.19203 114.52364
11.802048 -6.0404596 114.57855
26.933487 10.148293 114.5535
25.461145 14.546385 114.59132
-7.9167728 -12.424187 114.97184
21.35832 11.56895 114.95245
-2.58816 -15.891214 115.08234
3.718873 -0.79147941 115.02763
1.192248 -0.55275142 115.06721
22.297615 10.120234 115.13473
8.8236456 -14.694034 115.2188
22.234367 11.429494 115.26614
21.966959 12.482478 115.47694
22.960789 8.269598 115.53949
23.379169 14.260576 115.52351
25.160347 14.696205 115.55325
-10.006189 -2.2202911 115.6347
5.1709361 -16.010347 115.76958
-3.9767635 -0.88810587 115.94455
22.049463 10.682071 115.97329
-8.0693474 0.31453449 116.06596
21.650463 10.716216 116.05695
9.774785 -13.754311 116.12943
-11.340553 -2.3791056 116.32829
-9.812459 3.8664985 116.44954
-7.1338153 -2.8558748 116.60635
-8.6854954 -1.4861884 116.61283
-14.289344 0.33926859 116.75842
11.246331 -11.682538 116.85349
-7.998457 1.9993228 116.81657
23.232029 7.7242346 116.99288
21.904671 12.425838 116.96552
1.9580061 -16.5963 117.04559
-7.97717 -12.031858 117.02415
-6.4629459 -1.8809788 117.05125
-8.3547029 -1.0624818 117.24295
25.335764 8.0133066 117.21394
8.0804348 -15.129675 117.45827
-8.5400658 -1.5857525 117.46372
-12.997536 3.2493482 117.44878
-8.3876009 -4.0227418 117.59834
-8.6245127 -9.4782305 117.72822
-0.41236728 0.10442682 117.72114
-6.865221 -13.423189 117.86424
12.214941 -6.6882071 117.81261
-8.3334293 -1.4032838 118.0127
-0.90694225 -16.495581 118.50268
7.0447764 -15.584061 118.52729
-7.9919195 -0.9143942 118.56128
0.039406836 0.28557909 118.57752
-14.184326 0.45159733 118.56406
5.2218261 -0.11888668 118.66925
8.6972799 -14.445564 118.73328
-9.0202913 -7.2482071 118.86304
8.0925531 -0.74444622 118.83999
-14.100994 0.037506536 118.80752
-14.078904 1.1604607 118.85109
-8.0628366 2.8592844 118.84971
19.883516 9.2229805 118.81175
4.7852554 -16.241222 118.93709
-1.681205 0.48375767 118.91881
-7.699645 0.56348836 118.99008
-5.8038816 -14.680885 119.06595
24.402306 13.390253 119.15378
4.5446148 -16.363102 119.31205
9.4169941 -13.715403 119.4142
11.800987 -10.320969 119.40761
21.009201 11.544365 119.46294
21.814684 12.357212 119.44267
11.660435 -10.615286 119.60164
20.234993 10.599228 119.66132
11.437651 -3.0518596 119.8418
20.726023 11.262375 119.82359
21.400974 5.2649646 119.90581
-12.523534 -2.4857092 120.16756
-8.6292381 -9.4147272 120.39568
-13.750741 2.2779636 120.3248
-4.9466825 -15.072819 120.45111
6.3741436 0.24954328 120.45679
6.6912956 0.20985946 120.41301
0.12838274 -16.886801 120.57115
-4.9907093 -15.054073 120.50066
-8.5809813 -9.6368599 120.53682
-12.928314 -2.3440266 120.50285
11.332598 -2.3042018 120.52369
25.850576 11.173994 120.51138
0.9023568 -16.99589 120.65919
7.5862899 0.085081741 120.63522
-8.4141531 -2.9136877 120.7751
10.99789 -1.3863564 120.89693
22.697201 4.6393795 120.94464
20.747726 11.211328 120.92604
5.5628972 -16.136013 121.021
-10.147981 3.7665882 121.0747
-6.2384744 -13.911796 121.15373
19.652086 4.3000188 121.3857
9.1432686 -14.489881 121.46642
-8.4537191 -10.24262 121.40025
12.859916 -9.5009413 121.61171
19.365433 4.1044526 121.66956
23.821712 11.85941 121.66805
21.587151 11.964017 121.62963
-7.3192339 -0.65583789 121.70192
18.346102 5.6073837 121.75682
-7.3591185 -1.541677 121.89895
7.6291952 0.52772868 121.82727
-7.2825093 -0.40659335 122.03174
-9.918849 3.6657968 122.12486
-13.672464 1.8320205 122.24359
9.8395767 -14.354162 122.3954
-6.7405577 -13.543985 122.50676
-4.8159676 0.62525439 122.5656
17.918268 5.1145945 122.58586
18.524446 8.2769213 122.55774
22.017111 11.461401 122.76575
-4.1622243 -15.332821 122.86448
-10.36851 -3.7255216 122.89062
-11.043441 3.5137644 122.85506
17.839748 4.9008102 122.81049
-9.1778917 -3.3667378 122.94938
-11.582791 -3.1829298 122.96178
-6.8892365 -13.337322 123.07664
3.3037059 1.2806212 123.08604
-6.6197367 -0.51818061 123.13942
23.200644 11.05142 123.15069
5.6819286 -17.488369 123.38271
-2.3762381 -16.943037 123.35218
-5.9634914 0.5117479 123.48394
-4.6405416 0.89957035 123.43159
6.7828612 -17.639202 123.5116
21.688946 2.4914625 123.63892
23.016279 10.659008 123.714
3.1821322 -18.087246 123.88082
13.812437 -7.931591 123.80775
13.698318 -4.385273 123.95076
-13.278946 2.505306 123.95927
18.879871 8.8174591 123.92109
19.088982 9.0976381 123.99516
0.31385705 -17.867807 124.13776
3.9350381 -18.400158 124.2795
6.5393181 1.3359158 124.28455
17.25087 3.6930087 124.31629
25.000923 6.3998966 124.3262
-1.2360481 -18.00618 124.41508
5.977046 1.4466376 124.42361
2.2797506 -18.210579 124.5827
22.576931 2.6883655 124.50639
-9.7559128 -3.8246994 124.60564
-5.5895724 0.84511775 124.68631
17.251825 5.0915556 124.64445
-8.2746964 2.8410635 124.79266
13.484013 -10.175438 124.86217
18.019537 1.5929714 124.8504
4.4287262 -18.94352 125.06442
18.921919 8.8770189 125.23478
-7.8367329 -2.3086348 125.3632
4.1885376 -19.081654 125.41457
20.220116 0.77245021 125.42024
21.579319 9.8031797 125.44414
-11.172606 -3.5739174 125.59433
-9.2988882 -5.0406718 125.79472
16.59861 0.63923931 125.86456
7.373414 -19.420193 125.97656
-9.1472712 -10.535282 125.92981
12.02432 -0.52883923 125.97392
9.8888168 0.77214485 125.98344
-9.2567101 -4.6744666 126.02782
16.860117 5.0647068 126.06071
-10.973751 -3.7419364 126.13333
23.285698 3.061754 126.17397
5.0294051 -19.547443 126.22468
11.780704 -0.12163895 126.25815
1.0235298 2.3505044 126.29377
14.092398 -9.1715069 126.39095
-8.2907686 -3.1806726 126.43316
-9.0537472 -3.2617006 126.69591
6.083828 -19.51944 126.92489
13.3325 -12.798797 126.9988
13.883806 -10.573927 126.96291
20.723539 -0.80638081 127.1209
7.643569 1.8584434 127.21465
-7.7044978 -2.5186474 127.3009
-13.094252 -2.4733868 127.44027
3.2952199 -19.153454 127.60608
-9.0792942 -4.8722854 127.67104
-9.2624054 -12.075411 127.74278
-9.4726095 -4.9364872 127.71455
2.7436256 2.5084901 127.74878
-9.4481316 -4.7608848 127.84659
-9.545578 -3.4781837 127.94011
-8.1686211 -3.2178717 127.93649
-7.0942097 -0.32969928 127.97843
-4.8637986 1.4707336 127.93527
-8.1624069 -15.354005 128.05695
14.657524 3.3674257 128.08232
13.141571 -14.013929 128.1981
20.164095 1.0617186 128.13449
18.495972 7.0695472 128.16806
7.0440111 -19.452616 128.27026
3.7779303 -19.169722 128.2655
-9.4234219 -4.2529564 128.25867
17.101242 -3.1425886 128.20078
4.2927489 2.4128773 128.272
-13.712539 -0.37540051 128.30739
-8.1830168 1.134858 128.31187
3.8701181 -19.161657 128.41306
-11.296367 -5.276638 128.48308
-13.536809 0.12545305 128.41966
-11.725458 2.5945785 128.49261
0.50466025 2.6653609 128.46803
14.560928 -2.7123046 128.5687
-7.5542006 -2.578366 128.5766
-12.546422 -2.3800366 128.57361
3.006989 -18.838345 128.6163
-12.851669 -4.0200138 128.68497
-6.2113395 0.70007366 128.68051
20.754784 1.3000864 128.61774
22.899736 2.7041173 128.62424
16.692398 4.499526 128.67854
17.278757 5.376483 128.62456
-13.047244 -1.7062346 128.75009
-13.250794 0.89727247 128.73874
-8.2751637 -15.167496 128.89201
-9.3677902 -3.4200444 128.86389
-13.079976 -2.5720284 128.83455
14.416 2.8446012 128.89026
20.941925 6.6369328 128.88248
19.133039 -2.9336996 128.98636
-6.4274964 0.46549964 128.99922
-13.261536 0.78532529 128.98761
-7.5398235 1.944024 129.02
20.413853 2.2023556 129.07278
-8.1491175 2.998841 129.08441
23.129944 3.2724109 129.01492
21.199001 6.440742 129.08023
-9.5970087 -6.6542406 129.15706
-7.0939689 2.4212835 129.10529
4.6888323 2.4341695 129.11913
-9.4682274 3.6521702 129.19179
-6.0633845 -2.8504958 129.22757
-12.032063 -3.5031745 129.32887
20.76639 2.3709314 129.38237
-14.414237 0.13642919 129.49547
