# .PCD v0.7 - Point Cloud Data file format
VERSION 0.7
FIELDS x y z
SIZE 4 4 4
TYPE F F F
COUNT 1 1 1
WIDTH 1568
HEIGHT 1
VIEWPOINT 0 0 0 1 0 0 0
POINTS 1568
DATA ascii
15.617708 -0.31289178 13.642012
17.835142 1.7001626 13.669631
15.929678 -0.29808205 13.723135
12.181054 0.58764517 13.70626
7.9489141 0.97518682 13.770372
12.248417 1.0457852 13.73447
13.42095 2.1013618 13.784081
10.161165 3.3412375 13.721228
13.719364 -0.012988372 13.990161
17.930813 1.295884 13.944523
16.422543 2.7776294 13.968831
11.280348 3.2654738 13.952309
9.2227259 -0.73184329 14.163868
12.049131 0.042365551 14.116721
7.8823318 1.1989727 14.175987
17.707981 2.1729972 14.224514
9.8076715 3.2660677 14.225492
13.428617 0.38007122 14.573069
17.078398 2.5760915 14.567017
14.772248 2.794476 14.65362
9.3637238 3.1620853 14.637671
11.948443 -0.34590924 14.786963
12.05973 2.4600093 14.77221
11.469956 -0.87971866 14.887568
12.293833 1.1433173 14.857445
9.9413986 3.229615 14.802349
14.481878 2.7435749 14.91465
11.338345 3.148129 14.949055
10.702908 -1.0689673 15.088938
14.099172 -0.47256035 15.151983
12.202049 0.28945518 15.176856
13.258473 1.0782472 15.131135
11.327874 -1.0088505 15.296515
15.87317 -0.59676266 15.220027
8.0799408 -0.35793766 15.354635
13.419201 0.29567978 15.364399
11.139105 3.1585283 15.345068
15.380104 2.6956313 15.528704
12.245705 0.45245326 15.651041
13.927771 2.4793842 15.616202
15.770449 2.6655459 15.646841
12.0754 2.27475 15.785457
8.3503914 2.6655593 15.825203
9.0240374 2.9479949 15.899745
10.763058 -1.2488588 15.939673
11.40785 -1.1143751 15.906003
8.2069054 -0.67323828 15.95516
14.081801 -0.60973239 15.969496
16.703943 -0.64657986 15.959335
18.076302 0.55408049 15.931227
15.56427 2.6356149 15.92141
17.14365 -0.55055404 16.02734
12.240232 1.5941935 16.006437
17.350843 2.3191767 16.05057
12.283257 0.79756087 16.334188
15.481459 -0.88254553 16.460892
13.692593 -0.31177264 16.40897
13.423683 1.4627849 16.437433
13.474868 1.6322893 16.443853
14.952992 -0.90958315 16.597584
17.434849 -0.54643393 16.592716
17.407904 -0.57550591 16.664169
14.937319 2.5218422 16.695379
15.030997 2.5291266 16.680305
13.553483 -0.015432378 16.785864
17.944809 1.5228723 16.755909
13.762186 -0.44024459 16.916489
17.604895 1.9979248 16.960293
8.0569944 2.1953478 16.960354
11.937305 2.3355927 16.96772
16.381405 2.40481 16.9781
12.004486 2.1842582 17.000013
11.924632 2.3182549 17.159111
14.748589 -1.0407091 17.260956
13.451687 0.65344685 17.242599
15.283836 2.4383943 17.26136
10.358851 2.9090545 17.377432
15.181639 -1.1135216 17.478765
17.083412 -0.8531968 17.406218
17.480993 1.9801757 17.433264
9.3958826 2.8033175 17.433502
14.951488 -1.1224027 17.588928
17.714132 -0.46227837 17.557762
13.660061 1.567299 17.570044
14.531774 2.3366926 17.503307
11.434313 2.7434793 17.507
16.680691 -1.0069342 17.643433
13.502478 0.76600623 17.60462
13.512628 0.93794918 17.601765
13.637024 1.4924695 17.6091
10.911455 -1.6470304 17.785658
16.612753 2.2020717 17.859959
10.724665 -1.6928267 17.927654
14.327022 -1.0731086 17.941071
12.184978 0.013695475 17.957565
11.501404 -1.5053408 18.04525
17.469784 -0.75597513 18.017609
17.80934 1.2927444 18.016846
7.7977247 0.39430153 18.132542
13.755333 1.4377161 18.327757
14.83088 -1.3101273 18.575876
17.851961 0.53700083 18.576777
16.081812 2.1512513 18.529045
13.638922 0.76925981 18.651573
9.5879002 -1.7868105 18.779776
9.1170921 -1.6720326 18.72723
16.466516 -1.2636492 18.804729
8.2309332 -1.1376946 18.897587
8.0313873 1.4377931 18.87043
14.054431 1.7598116 18.991217
10.799751 -1.8964963 19.015139
8.5924644 -1.4992912 19.007187
12.061658 -0.80730683 19.047098
9.1303988 2.4003778 19.080502
11.573917 2.3623767 19.131149
10.811886 -1.9418839 19.332123
7.9445257 0.28516209 19.387457
14.896523 2.0269032 19.343439
8.8178301 2.216887 19.365955
10.633692 -1.9750183 19.471226
17.033192 -1.1878304 19.475666
14.130793 1.7440155 19.498867
16.326958 1.9338543 19.44759
15.085531 2.0187869 19.441734
11.670242 2.2399304 19.597267
12.300037 0.43012896 19.607538
13.728333 0.90936482 19.633976
8.5377731 -1.4810567 19.78548
12.310515 0.5008322 19.721416
13.891663 1.373561 19.72578
17.148584 1.6060557 19.764851
16.734707 1.77377 19.798975
14.203489 -1.3038783 19.967102
10.875168 -2.0278678 20.043062
14.43461 1.7876536 20.193316
9.0285797 2.1235573 20.1012
8.2001505 -0.87664884 20.291021
8.1635904 1.0473769 20.214382
9.5804634 2.2511494 20.212049
8.2433424 -0.99540794 20.352669
8.1521502 -0.66269279 20.394493
12.396217 -0.1704291 20.388977
13.792302 1.1051184 20.385353
15.564638 -1.5891795 20.484137
9.2622042 -1.8845721 20.544596
12.433931 0.18061864 20.52174
11.15496 2.2274048 20.789145
12.486618 -0.070683405 20.897366
12.151026 1.669031 20.887333
8.5792999 -1.5190994 20.925119
8.2308979 0.79832351 20.962528
11.245386 -2.111572 21.066761
9.7118769 -2.0351737 21.04343
16.446384 -1.5467405 21.075363
13.68026 -0.65049362 21.041447
12.364582 1.1484284 21.017406
11.815572 -1.9350082 21.169132
9.7556686 2.0964134 21.107517
13.577201 0.41622347 21.255857
14.005026 1.4200253 21.267168
8.9506111 -1.8024426 21.334288
17.325283 -1.2044263 21.384117
14.187032 -1.5328968 21.421429
16.817266 -1.5015986 21.475189
12.334163 -1.29501 21.479515
17.464064 0.99683225 21.418716
10.043315 -2.1320894 21.581593
11.379408 -2.1747041 21.654999
8.4906616 1.2680696 21.610273
11.783533 1.977814 21.661209
8.670084 -1.6196085 21.721592
9.1540508 1.8095267 21.755203
11.473995 -2.193408 21.866413
17.696119 -0.48607069 21.852301
10.963171 2.0926476 21.802565
8.653718 1.3963617 22.091129
10.269855 -2.2454731 22.158247
11.318212 -2.2651544 22.192999
11.538343 -2.2218335 22.138855
14.044296 -1.5971258 22.161177
17.497488 -1.1542659 22.203316
13.666192 -1.0370661 22.298101
17.614969 -0.9261176 22.283245
13.493473 -0.24110126 22.205902
10.906913 -2.3226919 22.37599
17.082024 -1.5681957 22.36957
13.524137 0.3809014 22.328556
12.176487 -1.8855332 22.43417
16.319778 -1.8204823 22.473618
14.876785 -1.9431999 22.598873
12.297131 -1.7075095 22.574718
8.2884283 -0.14245971 22.542805
8.3296862 0.34989697 22.613441
11.942069 -2.1676049 22.701042
14.275375 -1.8689945 22.738663
13.516432 -0.52586627 22.742014
9.1321802 -2.0879207 22.805378
17.696167 -0.91446918 22.869524
8.3026447 -0.044388637 22.813267
14.009336 1.3429 22.823631
13.71092 -1.2475562 22.953266
17.74909 0.17482722 22.920259
12.590155 0.23919089 23.120663
10.161541 1.9381335 23.185299
17.541655 0.86885536 23.208866
14.804985 1.5882691 23.2428
17.088327 1.2892662 23.308992
12.364944 -1.5573003 23.444317
8.4368114 -1.4142697 23.477005
8.3079739 -0.7460562 23.492733
16.50259 1.4816725 23.476952
9.1845932 -2.3113418 23.515945
17.000561 -1.9601345 23.5411
17.417852 1.0733715 23.531536
12.107044 -2.1527324 23.66444
15.26976 -2.3117609 23.724121
17.797028 -0.96510184 23.764915
12.4888 -0.8523106 23.789183
8.7429152 1.3976294 23.710808
9.4107561 1.7903458 23.726973
9.4103403 -2.5037642 23.848555
17.320375 1.1809824 23.863068
11.22946 1.9935412 23.895424
13.748979 0.80805784 23.915291
12.110497 1.5130646 23.905506
8.5187807 -1.9044905 24.12907
17.320179 -1.9951203 24.121552
16.721914 1.4971063 24.166988
11.118528 -2.8384485 24.242121
15.689102 -2.4895294 24.249788
14.066195 -2.0838308 24.207359
17.632637 -1.7078946 24.246784
17.726746 -1.5605813 24.360107
8.2202158 -0.42456484 24.373035
10.704731 2.0583189 24.393269
11.568688 -2.7872896 24.470119
8.299984 0.50924623 24.47348
11.954458 -2.4218922 24.520969
13.896688 -1.8403999 24.521494
15.874021 -2.6412854 24.679058
11.885652 -2.5395815 24.663815
17.874559 -1.2240844 24.607561
12.277268 0.6847235 24.602264
14.653685 1.6757061 24.667593
10.086695 -2.9996672 24.772564
17.499531 -2.0849755 24.70504
12.351851 -0.56020844 24.761549
8.7809401 1.5651913 24.703787
13.656724 -0.88079309 24.81941
9.3750544 1.9082605 24.886547
8.4903355 -2.2652307 24.930897
13.797627 0.73363858 24.906445
8.6396008 1.5184915 25.049944
13.963982 -2.0689771 25.176283
13.759837 -1.4006786 25.197067
15.13188 1.8025534 25.136047
8.3056078 -2.12644 25.29052
13.756374 0.48839712 25.204014
16.423544 -2.8249633 25.368774
12.147734 -1.5407554 25.334229
17.980026 0.21881293 25.352583
10.493162 2.1768951 25.359007
8.0295105 -0.56979638 25.491854
14.719027 -2.8941746 25.506353
18.008299 -1.423945 25.572151
12.198586 -0.35625431 25.571522
16.970085 -2.7864656 25.647467
14.238396 -2.66431 25.678564
17.221132 -2.6897209 25.700373
13.858638 -1.8177238 25.730461
13.906982 0.97953928 25.712822
8.0728149 -1.9462453 25.880322
12.115129 -1.2743628 25.812954
14.12507 1.4398092 25.870102
14.050258 -2.4229491 25.981365
13.990341 -2.2682443 25.970043
18.13661 -0.91232073 25.93261
7.9597783 0.19611256 25.958118
9.861515 2.2236114 25.926945
11.607986 -3.0159404 26.08433
17.982817 -1.9270431 26.043411
18.143421 -0.074527688 26.130112
14.004776 -2.3670416 26.296131
17.474764 1.5315392 26.24048
14.542542 1.8451098 26.221458
17.978533 -2.1394165 26.341919
18.182459 -0.10181375 26.348221
17.889091 1.0881463 26.377827
16.063307 -3.2773478 26.444714
12.047413 -0.20385683 26.471428
8.2337904 1.5769669 26.443192
13.96084 -2.2889023 26.544014
7.8385859 0.42253488 26.533789
7.9510646 1.0022452 26.564251
8.2153091 1.6032729 26.559711
16.673504 1.9100745 26.545177
9.7271919 2.3348053 26.544855
14.716238 -3.2602744 26.648739
12.010822 -0.96932006 26.692013
11.787672 1.3110313 26.683588
8.5830288 1.9768406 26.663429
10.360175 -3.7567842 26.747675
18.221674 -1.5837232 26.786047
9.7136698 2.3742628 26.74033
15.471507 -3.4478605 26.854931
7.8264122 -2.197459 26.818857
14.223701 -2.9763403 26.972214
13.696589 -0.29281557 26.957657
14.031442 -2.6088784 27.085636
7.6874223 -2.1243317 27.186749
13.786696 -1.7134942 27.171604
11.90164 -1.5495709 27.161903
8.0572271 1.6878351 27.176363
11.726007 1.2826496 27.245771
11.208516 2.2548866 27.26976
14.444133 -3.3092465 27.344452
17.991226 -2.6754713 27.341141
13.708887 -0.087927781 27.34367
15.716021 2.1671333 27.305813
9.8313084 2.5106375 27.36795
10.332087 -3.9812121 27.46957
14.274757 -3.175791 27.410364
14.113401 -2.9112947 27.439919
18.093571 -2.5297673 27.40276
13.779235 0.46529269 27.426666
13.833863 0.75979918 27.441744
9.3661213 2.4496899 27.419174
17.181316 -3.3741679 27.520437
11.835064 0.49507195 27.511137
7.7682571 1.3915159 27.551399
14.485394 1.9889866 27.507044
16.898237 2.0203094 27.516373
10.93395 2.4327407 27.574961
17.319389 -3.3571849 27.624491
17.841669 -3.0055418 27.665873
13.713892 -0.01143451 27.637287
11.796742 0.63857287 27.652618
11.739065 0.95043516 27.721724
17.301582 1.9369133 27.791407
8.5443783 2.271255 27.765055
14.132172 1.6414162 27.805061
7.6914525 -2.9964488 27.954796
11.85742 -0.38591528 27.904718
13.974893 1.3130066 27.960112
17.646479 1.7712424 27.950848
11.323822 2.1278145 27.946953
14.079606 -2.9961553 28.062805
14.469368 2.0348587 28.008465
17.739195 1.7456756 28.110952
11.589547 -2.718148 28.282864
7.2717576 -0.047367964 28.288906
15.986746 2.2809334 28.239525
15.966812 -3.8625765 28.337282
8.1495991 -3.7386379 28.328705
17.509556 -3.4678841 28.316402
11.568433 -2.7787137 28.388733
18.559288 -0.88281262 28.390999
16.216341 2.2714546 28.322508
17.965483 -3.2059479 28.542608
16.358978 -3.9164023 28.691267
14.365664 -3.5774088 28.633877
11.598874 -2.5529299 28.652752
18.572721 -0.29663405 28.603867
11.608567 1.0743551 28.677029
17.495089 1.9722093 28.625872
15.282614 2.3373663 28.636257
7.0994458 -1.0137239 28.782505
7.1712608 0.29737902 28.774309
14.034063 1.5702103 28.791367
13.803907 -2.2093368 28.885256
17.088896 2.1412971 28.820925
15.92905 2.3494582 28.82906
16.635227 -3.9259241 28.952114
18.652557 -0.69814324 29.049204
17.683109 -3.6022611 29.13258
11.675106 -1.7876425 29.178503
10.535568 2.6712241 29.107689
8.49827 2.4962611 29.202389
15.621431 -4.1164136 29.310715
18.453842 -2.6919353 29.365829
6.9845047 -1.6615025 29.331743
11.709764 -0.34798253 29.321445
14.814431 2.3081744 29.375671
13.80298 -2.3510656 29.448948
11.671113 -1.5803663 29.49312
18.659403 -0.043409284 29.425201
11.431697 -3.1089914 29.535757
6.9406352 -0.07902284 29.544624
11.610306 0.58069277 29.519274
17.450153 2.0801558 29.506086
9.9830446 -4.5267491 29.664454
10.534765 -4.4333854 29.685146
7.1382828 -3.0009124 29.625895
18.316296 1.3603361 29.620892
11.610676 -1.9932675 29.750235
18.740799 -0.43442398 29.79591
11.667068 -0.26566178 29.760189
18.573904 0.69125164 29.754765
15.912007 2.4098797 29.77706
7.1069016 -3.1074221 29.83914
6.9081688 -2.1442547 29.809483
13.641562 -1.0114737 29.804878
11.668669 -0.63177454 29.846542
18.756508 -0.5960474 29.88031
18.694296 0.11688031 29.893555
18.439857 1.1907982 29.880442
7.0819278 1.2142174 29.875378
11.402975 1.5371377 29.89677
14.645855 -4.0780835 29.995687
6.8239975 -1.5793902 29.962921
6.8233609 -1.4844548 29.934467
13.972024 1.4925331 29.987976
15.844008 -4.2572513 30.072031
11.438721 -2.964926 30.079912
11.653374 -0.55693269 30.069023
7.0919809 1.3568662 30.051109
17.085855 2.2174335 30.066145
16.396439 2.3601012 30.076338
9.0958319 2.6890204 30.052589
9.2994919 2.7169089 30.030159
10.00769 2.7410808 30.015272
9.8655005 -4.6032243 30.131483
16.989059 -4.100646 30.109808
17.259481 -4.0184302 30.146633
18.78648 -1.0293566 30.112329
18.74184 -0.094127215 30.134602
10.522109 -4.4986405 30.229202
17.770664 -3.8107166 30.222149
13.650598 -1.3074228 30.25058
6.7689476 -0.47022396 30.229534
7.191474 1.628042 30.201792
17.489433 2.088295 30.207218
14.524929 2.2208478 30.258568
18.583679 -2.773185 30.358368
13.647918 -0.37218794 30.305384
8.9063187 2.63024 30.473183
8.5263815 -4.4877663 30.571854
7.0398126 -3.3318911 30.520483
9.7245865 -4.6609812 30.669533
11.107709 -4.0284405 30.628094
17.965233 -3.7782133 30.649561
18.70632 -2.4076052 30.612877
14.093531 -3.6322694 30.70702
11.430891 -2.9042034 30.769352
11.438313 -2.8682823 30.750141
6.7541842 -2.446449 30.773401
17.629276 2.0312655 30.797232
15.579568 -4.3906598 30.823566
11.358737 -3.2730248 30.808428
18.196175 1.6392282 30.848524
9.8556557 2.6926672 30.839735
10.538572 -4.5549083 30.933846
16.055296 -4.3815031 30.929728
17.849184 -3.9045398 30.947407
11.289556 -3.5391345 30.946777
6.6486225 -1.8565909 30.958372
11.599752 -0.5834949 30.932472
15.301017 2.3873 30.900473
10.665016 -4.503139 31.02606
15.58936 -4.4229407 31.047873
11.52734 -2.2082014 31.084116
18.867584 -1.1816089 31.020536
18.85272 -0.51366031 31.041748
9.4980345 2.6577759 31.073267
7.4006124 -4.0550747 31.181299
18.561049 -3.1392093 31.117336
21.143478 -0.3402524 31.176079
6.763135 0.77021104 31.176735
13.84321 1.0791961 31.176655
11.546537 -1.9667385 31.28499
18.870729 -0.66537243 31.218981
21.404119 -0.45233458 31.238773
14.000017 1.6062911 31.217182
10.418078 2.571702 31.297115
6.569293 -1.0005473 31.307991
21.079458 -0.1345865 31.313402
7.5858393 2.1273305 31.357635
6.788702 -3.1171832 31.437555
13.658495 -1.7499604 31.487429
7.7155199 -4.3137379 31.565369
21.241367 -1.2724059 31.54644
13.653297 -0.24747358 31.536186
10.828373 -4.455833 31.698778
18.894325 -1.5929525 31.616983
6.5445738 -0.52718109 31.603565
8.5867805 2.4633613 31.614624
10.618621 2.4394121 31.624023
21.354876 -0.33002046 31.759331
13.972786 1.547488 31.718201
7.8595366 -4.394237 31.814718
13.630821 -1.3236856 31.800983
11.515167 0.21227437 31.885265
13.754205 0.65618968 31.979258
20.987455 -1.1932874 32.032623
13.769184 0.7425465 32.057941
6.4722652 -1.7791314 32.12429
18.935883 -1.0010585 32.170959
18.399544 -3.6360941 32.223305
13.785455 -2.9468102 32.219604
18.934423 -0.91397774 32.202576
4.0241194 0.45895928 32.264652
21.335073 1.4807867 32.278706
18.018764 1.7509742 32.205662
9.4371557 2.4810536 32.271587
11.314285 -3.6044374 32.348862
10.3408 2.4227223 32.373024
9.2125034 -4.721693 32.430729
18.950708 -1.2568249 32.493511
21.112202 -0.97280276 32.431454
21.402702 0.13734429 32.425228
6.760457 -3.47838 32.528461
6.6130409 -3.0411427 32.521809
13.606313 -0.81403822 32.514427
13.775106 0.87162006 32.513622
17.979034 1.7496364 32.50613
11.388996 -3.3244939 32.64402
6.4198551 -1.8974681 32.673592
18.886351 -0.093826592 32.669006
9.0052986 -4.7000513 32.786129
11.138997 -4.2129016 32.713535
18.236965 -3.8575056 32.764656
13.601057 -1.617821 32.77486
18.854715 0.14493307 32.722942
6.5080595 0.31607196 32.779346
4.0007739 1.9778199 32.735882
16.271912 2.2101336 32.749264
11.583076 -0.93491101 32.895954
6.4561768 0.02679316 32.88615
3.6596389 1.9097258 32.887028
13.859846 -3.6869035 32.916973
13.833294 -3.5639889 32.92337
8.4377069 -4.5923548 33.074413
21.018135 -0.22612843 33.018665
18.512672 1.2261019 33.034996
11.190258 1.7370526 33.096172
10.055982 2.3252182 33.061852
18.343479 -3.7837396 33.136917
4.0805149 -0.073924243 33.152973
18.396658 1.3655559 33.199081
14.202116 1.8545908 33.182571
17.206104 1.9944656 33.181698
8.9994946 2.3002133 33.174232
18.979185 -1.2927594 33.211601
21.42382 0.080182716 33.29039
13.863234 1.382362 33.240715
16.834097 2.0671668 33.265461
15.253552 -4.6322842 33.368061
7.7250938 -4.3788824 33.374653
14.041429 -4.2467113 33.370308
21.050085 0.12951539 33.386559
6.364037 -2.1406069 33.409149
18.986071 -1.2944298 33.478062
11.577575 0.037356049 33.455513
10.010303 -4.7484207 33.555893
11.593372 -2.5578172 33.567978
21.072533 -0.15234414 33.500137
15.411804 -4.6420102 33.650043
8.3311033 -4.5430918 33.663967
13.49546 -1.0710989 33.676765
13.612786 0.52370608 33.65535
13.690446 1.0189989 33.689342
21.050182 1.0696182 33.613998
18.411911 1.3205383 33.667995
16.305365 -4.5589838 33.724262
18.47072 -3.6702685 33.723328
18.984806 -0.94843572 33.710602
18.965199 -0.57609594 33.795769
21.424017 -0.012229099 33.760189
4.0102673 1.4972305 33.794601
14.821973 2.0833437 33.754433
18.992619 -1.547388 33.89642
13.443203 -0.9190743 33.835461
3.6356299 -0.079089195 33.867455
3.9665418 0.4613657 33.869488
18.462839 1.2571025 33.85601
3.8326333 1.734354 33.877777
9.408638 -4.6893077 33.935287
3.6195982 1.6443194 33.948547
14.757935 -4.6750965 34.094452
17.727226 -4.2067189 34.04995
18.923935 -2.40063 34.051876
11.824238 -1.6288483 34.080029
13.41011 0.4730041 34.090065
21.424965 0.41701084 34.097931
21.052372 0.98680496 34.011917
9.3959827 -4.6779881 34.175671
11.259777 -4.5473366 34.17297
12.614336 -4.0379677 34.130135
6.9959035 -3.9488182 34.121181
11.72893 -3.763062 34.103577
6.5826888 -3.3740206 34.143402
13.248477 -3.3879929 34.148605
11.905146 -2.1651578 34.125507
18.990913 -1.7700219 34.169548
13.000647 -1.6903762 34.173447
6.2634063 -1.0841291 34.299694
6.4872446 0.62269545 34.225151
14.02074 1.670701 34.221619
4.0087633 1.6491832 34.316025
8.6048136 2.0691478 34.395275
14.946826 2.0529625 34.303215
18.941641 -2.3145871 34.485638
3.9107871 -0.48971564 34.496948
3.9637733 0.76253921 34.448086
12.891357 -4.7599306 34.651684
18.94499 -0.21937704 34.654358
6.5083342 0.7458806 34.610737
10.420282 2.1029608 34.65976
12.162259 -4.7881155 34.77599
12.441673 -4.783699 34.723957
3.6596107 0.73538971 34.748749
19.010738 -1.5701686 34.816292
6.2884727 -0.26896489 34.821156
3.6831858 1.0802937 34.878181
4.0074606 1.3114498 34.839237
6.935215 1.4112778 34.911461
7.8295674 1.861237 34.979195
10.363362 2.1220615 34.915417
21.505651 0.35300061 35.018353
3.7040257 0.89783704 35.041759
3.710845 1.5425886 35.07233
18.977654 -0.41060692 35.188091
20.8661 0.26874655 35.151127
20.871559 0.45300037 35.151775
18.792664 0.57249534 35.12484
10.458436 -4.7142878 35.284599
19.016726 -1.0580016 35.249554
21.216558 -0.86500871 35.23069
4.1420512 0.56551027 35.228756
3.6276975 1.3021204 35.204189
11.77292 -4.8224339 35.323364
11.193517 -4.791007 35.343342
15.740207 -4.5690598 35.399582
3.6338534 0.0019331211 35.372414
4.0626764 1.5157146 35.323917
15.808971 -4.5547199 35.448826
16.625475 -4.3881559 35.469765
6.2109532 -1.3408824 35.410484
16.354404 -4.4364204 35.567917
9.5032473 2.2195933 35.505795
11.428564 2.2730954 35.594788
21.068474 -0.84791183 35.616272
4.0571523 1.576021 35.624142
16.294628 2.1736817 35.674255
18.572062 -3.3070612 35.766972
6.207056 -1.0559466 35.708035
21.590496 0.50677121 35.719986
3.6590314 1.5777717 35.725899
8.610364 2.1320686 35.712971
18.959753 -0.21588644 35.845234
8.0442629 1.9782561 35.828995
9.206316 2.2749858 35.884983
11.632601 2.3979297 35.819218
9.4405651 -4.5317225 35.951279
7.3866577 -3.8922582 35.922234
20.618484 -0.33593178 35.929646
3.4825358 1.0235331 35.935593
16.693436 2.1361222 35.902405
9.3143902 2.3250582 35.981285
17.194199 -4.1346679 36.031349
7.3116226 -3.8326285 36.012539
6.2095098 -1.1220182 36.08947
3.7849307 -0.3394472 36.067883
3.8121848 1.6081901 36.035172
11.784911 -4.8098688 36.138027
18.972424 -0.36233628 36.171906
4.3282714 -0.18511268 36.146217
6.3779902 0.41264129 36.19323
17.420433 1.9509151 36.128235
12.563478 -4.8231525 36.270535
4.3274474 -0.29229951 36.288315
18.819689 0.50797546 36.281574
20.845205 0.99925852 36.274464
12.626223 -4.8268661 36.432781
6.3871899 -2.4451747 36.457382
18.902224 -2.1399708 36.468136
20.660633 -0.67377371 36.430351
18.917076 0.0036996007 36.457062
11.295746 2.7097239 36.421356
6.8454442 -3.3261082 36.569633
11.732012 -4.8230534 36.626213
12.862453 -4.8387012 36.677628
9.6917324 -4.5869789 36.607681
17.183332 -4.0837898 36.677094
17.343758 2.1047072 36.719997
14.168957 -4.804285 36.892899
18.950773 -0.63592863 36.846252
21.650154 0.039169651 36.805157
9.5398836 2.6791072 36.8386
17.826101 -3.745877 36.975948
18.305841 -3.3457336 36.957062
4.4607272 -0.22273557 36.923901
18.67453 0.85967076 36.93026
15.319926 2.7718892 36.978786
13.316155 2.9658999 36.956097
11.765985 -4.8900852 37.076057
15.665909 -4.6000452 37.019405
6.6327143 -2.9007118 37.056618
20.596214 -0.61532015 37.04985
4.059598 -0.40262994 37.09462
16.484013 -4.4027033 37.15601
3.7197213 -0.17483351 37.193806
15.764158 -4.619525 37.216209
6.4793854 0.50050402 37.244598
3.2764511 0.65153861 37.207726
17.464062 2.1183236 37.223709
9.0951014 2.6613762 37.253769
11.340639 3.0270486 37.274052
13.536167 -4.9614983 37.404766
8.0053825 -4.1536679 37.4095
9.8777409 -4.7877684 37.537529
8.2740669 -4.3046961 37.542553
18.440409 -3.1015396 37.53476
6.8877993 1.3649578 37.544323
3.2527575 0.95275724 37.612904
3.9506547 1.3533046 37.630745
9.8802662 2.8799658 37.684692
12.462278 3.1236684 37.683823
18.804827 -1.2159576 37.736004
21.709845 -0.085413203 37.798149
21.858984 0.71520388 37.769775
7.8958535 2.1839054 37.797894
8.4972582 -4.4428983 37.841393
16.986679 -4.3194084 37.879112
18.728474 -1.9224093 37.872623
18.774315 -0.84964824 37.876659
6.5109982 0.10739883 37.804466
11.059978 3.0556169 37.997158
18.618103 -2.3712916 38.067013
18.442541 0.87553972 38.174923
18.347992 -3.1484244 38.217529
18.548061 -2.5895817 38.212227
6.5208807 -1.2582517 38.238266
18.692368 -0.67493707 38.229954
10.113492 2.8994715 38.238869
9.3757858 -4.8264909 38.315372
18.423609 0.82235521 38.320198
3.3258677 0.14976382 38.448589
7.9157982 2.0625834 38.491882
8.6948414 -4.617341 38.526028
3.1221504 0.40986055 38.597839
4.820611 0.66654885 38.540829
4.2468891 1.2874931 38.565769
7.9935279 2.0843556 38.58886
15.731027 -4.9040384 38.69257
3.6335988 1.2953447 38.627235
13.804702 3.0352442 38.642052
8.056653 -4.3349771 38.737137
6.6662631 -0.33879364 38.759674
17.545425 -4.0837026 38.880657
22.148991 0.30248582 38.892677
6.8558521 0.64708036 38.805943
15.973186 2.5575318 38.860516
12.933634 -5.374289 38.924412
6.6620021 -0.94493395 38.919716
4.6959181 -0.41852337 38.924404
22.143057 0.22511533 38.961487
21.658985 1.0669833 38.992249
9.4422684 2.6146851 38.948906
13.306516 -5.3894157 39.053272
6.6809793 -1.2324811 39.047791
6.7045221 -0.60886943 39.048393
10.852251 2.9149091 39.094353
16.077785 -4.8489666 39.141735
7.7833195 -4.183064 39.122406
3.2352533 0.12263425 39.150852
22.2267 0.40129054 39.19017
22.134495 0.7984823 39.240028
21.692892 1.0847881 39.223122
16.539017 2.263505 39.21521
10.04335 -5.1597605 39.322193
8.0841846 -4.3979621 39.387905
2.9497085 0.68575203 39.384377
13.198516 2.9896159 39.375767
13.930244 -5.4003634 39.446827
15.816616 -4.9672575 39.414768
18.282679 -2.9459691 39.418747
6.842 -2.5142181 39.452312
21.932331 -0.24524473 39.457775
7.1360998 0.98913747 39.4687
21.932964 1.0086551 39.44762
11.066685 2.8839273 39.485359
14.162333 -5.3853769 39.59478
14.813193 -5.261754 39.588348
15.789791 -4.9848533 39.506706
17.838625 -3.8273335 39.545708
18.425911 -0.62069178 39.535324
6.8758645 -2.5287776 39.715199
22.245451 0.030629029 39.775787
12.555327 2.9438162 39.774887
10.61445 -5.3467503 39.813496
7.0332031 0.54277372 39.838074
6.8202715 -1.0521377 39.928207
18.392553 -1.0854157 39.973202
2.8607035 0.64761525 39.987625
2.9474258 0.94111884 39.951935
21.163244 1.2201755 39.963959
9.026144 -4.8863015 40.097195
11.091845 -5.4513845 40.154259
15.438381 -5.1357222 40.190308
16.457169 -4.7656384 40.167904
18.144287 -3.2170677 40.162296
4.3858662 -0.70497596 40.154285
3.4989445 -0.30123627 40.189468
9.9199438 2.5085175 40.11953
14.582447 -5.3587832 40.236153
15.360351 2.4366469 40.283188
11.437941 -5.505384 40.391853
13.111334 -5.5562563 40.377449
4.1686907 -0.6987009 40.358562
4.7096477 1.2525162 40.377525
9.7902927 2.4213591 40.331429
10.134779 2.5162263 40.357967
6.8617597 -1.5704415 40.425499
18.288475 -0.36066967 40.441151
17.312382 1.5560725 40.405117
11.615399 2.7632101 40.444221
16.618998 1.9107867 40.530392
17.265032 -4.3248796 40.667984
6.9275556 -0.52819872 40.653584
12.565473 2.7785046 40.628532
12.833967 -5.5613046 40.861309
21.790157 -0.69923377 40.858765
7.5231552 1.1536177 40.805466
16.370289 1.9595129 40.871513
3.6484985 -0.53583348 40.925453
3.5097125 -0.44077396 40.935337
22.196281 -0.38980234 40.92384
22.384327 -0.20281464 40.95628
7.5311251 1.1292202 40.949768
15.357866 2.2962241 40.972752
9.8788128 2.3140714 40.993874
12.197792 2.6989789 40.984909
13.701725 -5.4950042 41.015587
14.094329 -5.4369068 41.032543
9.825222 -5.1423678 41.175644
6.9865108 -2.4496744 41.179337
3.0196564 -0.027123982 41.122948
12.38024 2.6826971 41.122593
11.854866 -5.52176 41.249458
16.015865 -4.9135585 41.204391
21.864697 1.3021376 41.218056
4.6005521 1.433117 41.248146
4.0322628 1.5489278 41.203575
8.6869087 -4.6990876 41.376644
18.252151 -1.0668535 41.395012
20.232555 0.57114249 41.373493
17.363382 1.3234618 41.353203
6.9586768 -1.7299738 41.409771
4.2478604 -0.91177356 41.415379
9.1378431 1.9808512 41.470665
11.642378 2.5819783 41.48056
13.171138 -5.5092659 41.580406
8.1912937 1.5250709 41.507103
11.43508 -5.4541316 41.636223
20.195118 -0.67464447 41.619053
3.2109947 -0.30887926 41.604759
7.1356249 -0.0043135434 41.668846
17.68935 0.92282969 41.692581
11.786999 -5.4812641 41.731594
10.485565 -5.2748899 41.756287
4.3855686 -1.0170796 41.776527
7.0839677 -0.35136598 41.732212
20.125851 -0.14878877 41.775322
17.663761 0.95460415 41.703247
20.521198 1.0472946 41.708496
4.9592967 1.2864791 41.715378
17.211536 1.363364 41.731171
9.7061968 -5.0512509 41.855534
7.8049335 -4.094523 41.867805
22.840738 0.36363384 41.813995
7.0348563 -1.7222896 41.90897
2.642401 0.8723408 41.985691
16.386803 1.7743548 41.936604
15.750166 -4.9428339 42.009808
3.4196126 -0.56653029 42.06179
5.4841638 0.49271944 42.003551
17.206745 1.3192656 42.010201
9.69802 2.1081135 42.008102
15.343384 2.1379607 42.098045
14.089882 2.4355679 42.061661
13.905137 -5.3863573 42.144279
7.2267056 0.03029375 42.159897
22.911154 0.52050865 42.128109
14.807663 2.2793829 42.16758
7.0853796 -1.606523 42.204151
18.059641 -0.51299065 42.255798
10.66874 -5.2706351 42.307156
17.203403 -4.1879892 42.329727
17.774521 -3.494729 42.340687
18.099863 -1.5503801 42.365509
22.759052 0.99996662 42.333672
13.225729 -5.4372926 42.445648
11.000427 -5.3187804 42.484703
15.058369 -5.1209788 42.419823
15.309669 -5.0426664 42.439011
18.011404 -2.5804241 42.452793
20.100185 -0.25246263 42.476227
16.460184 1.6681038 42.494549
11.425412 2.4639699 42.416279
8.1703672 -4.2712336 42.522789
21.483776 -1.1901157 42.506004
17.999287 -0.49010524 42.558735
21.563791 1.4758019 42.500481
16.648464 -4.4870253 42.630138
17.808821 -3.2790809 42.654713
17.961966 -2.6071804 42.683064
22.809719 -0.17256311 42.679115
2.5343552 0.49826485 42.696678
15.436664 2.0583613 42.612389
10.998903 -5.2984138 42.737583
7.9621172 -4.0711637 42.727142
22.49929 -0.53922832 42.74369
13.611626 2.4522321 42.758972
17.413795 -3.8732226 42.899448
2.6975834 0.050288931 42.835747
17.853228 0.024842961 42.849686
16.127001 -4.6932306 42.98513
2.9162593 1.3424524 42.980324
7.3272572 -2.6173451 43.031792
2.49951 0.63785374 43.024925
2.8021975 1.2541538 43.059128
11.088618 -5.2832479 43.143486
4.0306878 -1.1122663 43.162354
7.5774951 0.53373432 43.128948
13.843346 -5.3050585 43.390205
14.578562 -5.1637392 43.34367
17.203218 -3.9680762 43.382576
20.718136 1.2807765 43.365856
3.4702075 1.6254461 43.361862
11.26679 2.3975496 43.309181
12.714186 -5.3934031 43.47683
5.409833 -1.1716237 43.40152
2.4759684 0.59513056 43.496979
17.107773 1.1508145 43.463432
3.7306409 1.6910698 43.407951
13.655471 2.4302177 43.44381
13.859138 -5.2934742 43.559845
7.3590651 -1.8410405 43.516121
7.8420153 0.85199589 43.545479
21.670933 1.5256532 43.581783
14.980701 -5.0428119 43.606842
16.153881 -4.5971889 43.691837
17.827806 -1.3818147 43.647491
21.311069 -1.3782352 43.650501
22.71199 -0.45103556 43.66486
16.513578 1.536164 43.686371
9.4050312 1.8730789 43.713291
7.4516826 -1.9633906 43.888252
4.4583478 -1.3505814 43.81144
21.80102 -1.1769197 43.821671
10.98222 2.3506708 43.828804
20.964664 1.4169707 43.907406
12.298649 -5.3745222 44.029572
7.6064124 0.026991563 44.013935
17.234997 0.92217433 44.003914
9.4587574 -4.751575 44.106556
15.949566 -4.6566343 44.130196
16.223057 -4.5184593 44.115704
17.643574 -0.40350705 44.156475
17.543739 0.15472831 44.159149
3.5788722 1.6769701 44.115814
16.105438 1.7245288 44.183769
5.9353404 0.22036663 44.230568
4.8820629 1.6251088 44.213612
17.666174 -1.4003868 44.34409
20.06324 -0.83381122 44.345875
20.007139 -0.022829857 44.305824
8.184865 1.1066328 44.375122
20.75239 1.3257661 44.3997
15.876926 -4.6651821 44.454693
8.4721756 1.3588051 44.425106
4.8757715 1.6392155 44.466904
16.3218 -4.4263854 44.596817
5.9114313 -0.81942296 44.507904
19.987825 -0.33304676 44.573784
12.735342 -5.3834653 44.637192
21.175232 -1.4581797 44.630497
4.885191 1.6452916 44.658596
13.299495 -5.3523417 44.765076
15.905946 -4.6310911 44.762196
20.000643 -0.65704829 44.76403
12.551708 2.6033251 44.791592
4.0379343 -1.2624683 44.935951
17.422842 -0.064967617 44.954197
17.070356 0.9534893 44.992676
17.501732 -1.9710143 45.008099
4.1248016 -1.3054343 45.062798
20.226818 -1.2851355 45.012886
17.436825 -0.27331668 45.052864
17.385464 0.092166796 45.010612
21.941032 1.4631267 45.092232
9.9852123 -4.9203272 45.122223
9.5514975 -4.7369552 45.175152
17.134295 0.82099938 45.174557
17.048452 -3.6573682 45.248177
5.8951654 0.85046393 45.214909
8.76437 1.5615044 45.200912
12.714456 -5.4040871 45.315857
4.5897617 -1.4903131 45.384674
21.393957 1.4881532 45.316734
10.087231 2.2435014 45.384567
11.669767 -5.3518329 45.486031
17.305353 -2.8839812 45.422955
22.489479 -0.6164341 45.421486
22.718309 -0.35823932 45.422188
20.104393 0.7196722 45.488663
5.2277584 1.5225658 45.427097
12.874986 -5.404356 45.550468
17.35944 -2.4287982 45.538605
5.162221 -1.5751508 45.504845
20.266712 -1.3766844 45.527008
20.187847 0.86626512 45.549866
4.8118911 1.6841595 45.581985
7.8292198 -0.70863807 45.621147
6.1767502 -0.43816665 45.673847
5.9839306 0.78726852 45.694782
21.959995 1.4080718 45.607521
10.458805 2.4114308 45.639961
15.699844 -4.6811347 45.79401
17.367985 -1.7936506 45.797359
2.6415987 0.57537901 45.795422
17.057302 0.84301698 45.794106
3.5188723 1.55907 45.794476
11.374376 2.6545124 45.74305
12.185933 -5.4069767 45.827728
6.1261654 -0.90271443 45.887352
22.85549 0.033458456 45.882568
16.709337 1.3479406 45.874897
21.992718 1.3780921 45.827969
21.019064 1.4050779 45.879841
4.0803437 1.7059563 45.854744
11.871437 2.7473927 45.879635
12.444887 2.7736382 45.823734
14.360179 -5.1771417 45.921333
16.290241 -4.3234644 45.943176
3.7794135 -1.0387754 45.994045
17.249748 0.10410072 45.903419
13.682712 2.7053292 45.954304
15.441871 -4.7855434 46.078468
4.3963447 -1.4111562 46.000648
13.592871 2.7356863 46.0392
7.9965577 -2.8008144 46.187706
8.2256708 0.97373962 46.143806
20.562574 1.2137744 46.199108
15.380093 2.2306383 46.230816
12.496667 2.8412054 46.216145
8.8388233 -4.2394757 46.337135
17.209974 -2.7062173 46.36594
21.759581 1.3827934 46.329071
7.9002762 -1.0813639 46.409512
7.9053717 -0.99702674 46.462708
13.572672 2.8012817 46.422066
17.299904 -1.3988063 46.591125
8.0707331 0.4636814 46.539642
9.6316013 2.1917906 46.513458
11.952501 -5.3898172 46.688057
20.090374 -1.2769428 46.616486
21.625061 1.3808241 46.625275
21.808092 1.3337201 46.660408
11.943707 2.8780179 46.610798
5.451272 -1.5780051 46.75251
22.143833 -0.74698204 46.722809
17.264132 -0.57537699 46.789204
22.247784 1.156602 46.749062
5.963315 -1.3877565 46.898441
6.2323704 -0.98041677 46.862072
22.63084 -0.1108712 46.838547
19.813871 0.056489229 46.877552
8.6914835 1.6254957 46.804874
15.111513 2.438597 46.844547
12.852233 2.9401615 46.836163
8.1130581 0.64290357 46.984467
3.7177033 1.4389534 46.928429
5.0436015 1.5638518 46.989674
10.293056 2.5400896 46.91917
10.304993 -5.0027046 47.006866
3.5525239 -0.66582698 47.049885
6.3658571 -0.045029704 47.068336
19.784599 -0.073103897 47.036732
8.0951653 0.56925577 47.036255
21.182789 1.3694606 47.095676
4.7933874 1.5930238 47.065193
10.193841 2.5410912 47.137714
21.089848 -1.352705 47.293243
3.256145 -0.26822799 47.273769
6.3269253 0.32600254 47.238613
9.6762114 2.3229709 47.200409
13.630032 2.9491963 47.297832
4.4228783 1.5553691 47.332928
10.129704 -4.9454374 47.443268
5.4464345 -1.5743328 47.458012
4.0168118 -0.98099327 47.476692
10.864603 2.8395875 47.483597
14.748175 -5.0630884 47.570953
14.894011 -5.007647 47.564217
6.371686 -0.85494304 47.586994
7.9995942 0.21101086 47.57436
20.847179 1.3111746 47.590706
8.5222244 1.5770257 47.566479
16.071617 2.08427 47.561272
10.516481 2.7527833 47.558723
6.4485459 -0.28349236 47.60424
12.8277 -5.4440045 47.723305
10.940118 -5.236774 47.733646
8.0291471 -2.8245239 47.739635
7.9386168 -2.209954 47.740948
22.557629 0.45305541 47.700237
8.9512653 2.0066767 47.744202
15.257141 2.5501528 47.723587
16.312553 -4.2692194 47.809544
17.158327 -2.9932833 47.891781
7.8743253 -1.3118514 47.892242
20.922714 -1.3869269 47.809116
9.3904333 -4.6249695 47.929359
17.349483 -1.2582617 47.986504
8.7450848 1.9146609 47.976681
12.31481 -5.474298 48.010735
22.498232 0.11073467 48.086128
17.277052 0.22287375 48.095882
19.841377 0.66442752 48.007675
13.743147 3.1067924 48.044163
10.036328 -4.9737091 48.156334
22.209297 -0.46469349 48.139187
17.257633 0.37370872 48.116913
16.901171 1.4804024 48.155304
7.8151484 -1.5152897 48.286297
21.767735 -0.88009357 48.247017
17.351807 -0.15513505 48.28096
19.904036 0.82723635 48.208935
7.8312588 -1.9374254 48.30547
21.797405 -0.84454006 48.391487
6.5403638 -0.06569846 48.38736
3.3566868 0.38634205 48.384075
17.201193 0.91343653 48.361404
17.121704 1.1201237 48.326149
15.390091 -4.9025574 48.41748
7.80235 -1.8383913 48.417686
20.758274 -1.4480101 48.441463
17.419636 -0.88902736 48.406563
8.3351202 -3.8987868 48.580322
8.3072796 1.6710739 48.535347
14.363303 -5.3266726 48.684319
7.7434006 -0.7229684 48.637428
7.8374524 0.45623788 48.694622
8.7647705 2.1609466 48.64357
9.3314695 2.5285401 48.625122
13.917627 3.2375996 48.610828
15.588826 -4.8661985 48.732475
21.383392 -1.1482543 48.783764
17.244535 1.0935017 48.743282
20.055117 -1.550722 48.853409
9.2497959 2.5446978 48.818203
9.1663208 -4.677177 48.93708
17.510303 -2.1612365 48.988655
4.5253477 -1.1207467 48.932732
19.450226 -0.34395444 48.93512
19.522823 0.34772772 48.936825
3.5112545 0.59675294 48.92115
12.422515 -5.6354184 49.047253
17.533737 -2.1944075 49.099289
17.576874 -0.94233388 49.076054
15.665565 2.751549 49.017273
10.886494 3.2913105 49.058868
10.998455 -5.4849324 49.280708
8.7595539 -4.4902797 49.279186
5.2838411 -1.5009254 49.217327
3.5518451 -0.09046115 49.229046
6.5424566 0.17817752 49.295464
3.9653647 -0.64036858 49.554531
22.367199 0.65541041 49.527866
8.0616283 1.8000219 49.524902
17.621349 -2.5440061 49.674942
5.6254406 -1.5724889 49.685509
19.725033 1.006282 49.619446
15.554165 2.9785502 49.633217
7.552609 -2.4136941 49.764732
17.418087 1.3573323 49.714363
8.5659275 2.3795998 49.752094
14.966108 -5.3079395 49.81979
5.6230803 -1.5768596 49.864304
6.3580728 -1.2498901 49.806763
7.4701509 -0.73457563 49.825928
20.58572 1.4504474 49.859245
19.583977 -1.568153 49.916336
17.774443 -1.0483323 49.961346
7.4472761 -0.66549158 49.95269
22.291985 -0.20230173 50.076916
12.963095 -5.7439127 50.174416
17.172729 1.9880488 50.195869
11.313683 3.6134794 50.166679
7.9726791 -3.9332116 50.209644
17.706434 -2.6859603 50.254547
20.506207 -1.675048 50.267231
19.596704 1.0413897 50.297432
17.464417 -3.5769215 50.32336
4.7809963 -1.3258326 50.382706
15.583562 3.0913274 50.348335
3.5677035 0.65137345 50.458988
7.8578868 1.8050888 50.412388
12.656476 3.7553296 50.416866
6.3822641 -1.0378945 50.584663
7.3396368 -0.41774124 50.597946
5.6016569 -1.591563 50.62027
17.904793 -1.3337152 50.690704
5.921876 1.0098189 50.623497
21.607742 1.3656065 50.612247
12.06909 -5.7611685 50.78418
4.6415381 -1.2636846 50.77803
6.460649 -0.40821582 50.719879
22.338467 -0.096758656 50.704132
19.115673 0.0034965761 50.741653
10.649742 3.5262582 50.746239
8.9837399 -4.8429642 50.889412
9.3396034 -5.0279102 50.944504
7.3725524 -2.5939372 50.917778
4.5315571 -1.1939107 50.996887
16.513664 2.7011423 50.966629
15.24486 -5.2846508 51.025009
7.8510513 2.0087745 51.051899
5.8760724 -1.5488992 51.155094
4.2116342 -0.949431 51.125397
6.3721652 -0.03728722 51.259014
17.7271 1.3936418 51.259541
20.066914 1.4747264 51.250401
17.310137 2.1083972 51.228706
14.814253 3.5040736 51.299084
7.2338533 -2.1365113 51.307083
21.718006 1.3468465 51.366306
8.4061937 2.5908308 51.334602
11.794224 -5.7545862 51.484169
10.621022 -5.5368032 51.478756
18.033676 -2.0179725 51.492973
7.1494331 -0.80709493 51.461479
21.391396 1.4900904 51.560516
11.768851 3.8318243 51.552826
20.282642 1.5848227 51.690052
17.574884 1.9185957 51.666401
10.763965 -5.5899086 51.708958
18.98698 -0.33559406 51.726913
4.8333192 1.3270071 51.75425
7.1045361 -2.0493331 51.808701
5.9984536 0.81585455 51.869064
11.469344 -5.7365074 51.946419
14.223442 -5.638751 51.974869
17.982864 -3.0236237 51.930153
22.092697 -0.48243266 51.973522
6.2828007 -0.057833798 51.950016
7.0655499 0.18769485 51.987343
14.418642 3.7081895 51.909004
10.410397 -5.5109577 52.021645
14.532528 -5.5755415 52.094925
5.1524401 1.3105155 52.006523
10.623269 3.6944561 52.006073
7.0387068 -2.3002276 52.134369
7.0282955 -2.296067 52.169746
18.260439 -1.4341427 52.186165
9.1162004 3.1773357 52.15733
16.186205 3.1240327 52.163582
10.609222 3.7201772 52.171257
21.78013 -0.83719254 52.21405
17.979055 1.4771364 52.244965
8.2966709 2.7454681 52.214043
9.5679865 -5.2487874 52.313812
19.461748 -1.8668494 52.373581
5.362587 1.2513222 52.374214
21.360241 1.522324 52.338951
7.3205738 1.8044928 52.392609
13.863316 3.9014788 52.398476
22.050774 -0.49585867 52.497253
6.0252094 0.67027372 52.485031
5.6978073 1.0753529 52.440372
17.976994 1.6379246 52.421394
15.61964 3.4314547 52.450531
14.194888 -5.6724424 52.552559
17.22823 -4.417026 52.562733
18.390875 -0.92857778 52.579884
18.954153 -0.15496889 52.50013
18.303452 0.52483177 52.598068
7.2069216 1.6858599 52.566219
17.945505 -3.6649776 52.691864
21.405491 -1.1608473 52.622543
18.0669 1.5678511 52.607719
17.511391 2.4188147 52.656906
3.5281024 0.65622413 52.755299
21.679649 1.3789269 52.73764
19.359112 -1.8625119 52.821915
22.245689 -0.08987648 52.804592
7.0064645 1.3534484 52.816853
5.9375153 0.76251388 52.911961
8.7867222 -4.962472 53.094627
17.336746 -4.4062691 53.04229
22.167322 -0.21756971 53.0882
18.477558 0.10844884 53.012745
7.0430746 1.625843 53.000629
8.4091034 -4.7692065 53.175117
18.214291 -3.3511462 53.153313
6.6963301 0.14254376 53.168816
14.931149 3.7889628 53.18676
19.012438 -0.95515198 53.248043
21.40867 1.4952717 53.292374
12.236242 -5.8114843 53.31572
7.3029509 -3.9330161 53.348938
6.1137819 -0.55531991 53.302952
6.6905012 0.66084647 53.422981
9.8913918 3.7230539 53.427299
14.909458 3.8254251 53.448467
15.40598 -5.338109 53.5555
5.4335775 1.2775904 53.56274
7.0662231 1.9843993 53.509689
12.70505 4.1468568 53.593208
4.1276035 -0.93942285 53.643745
18.15144 2.0381255 53.642467
10.630054 3.9465027 53.679146
19.072233 -0.68497646 53.745293
16.745047 3.1834245 53.79509
3.4765658 0.08760941 53.866859
7.8002658 -4.3943634 53.939697
18.466215 -3.0933497 53.973557
6.5360293 -2.0588262 53.93866
3.7382994 0.89746058 53.921318
7.7992129 2.8241954 53.932228
15.427437 3.7185075 53.943344
11.193144 -5.6097941 54.085022
18.368992 1.7991111 54.022141
6.9346576 1.9719646 54.042068
7.2147722 2.3612685 54.073715
5.8711867 -1.5942843 54.115513
19.322937 1.235235 54.105476
17.258221 2.9474463 54.168846
11.402994 -5.5949788 54.271744
17.851337 -4.0337329 54.207321
6.0241227 -0.34961364 54.247715
6.4779558 0.39257404 54.259682
18.70377 0.71038598 54.270592
19.537642 1.4883183 54.255417
7.1245017 2.3004954 54.239174
10.216759 3.8597918 54.219734
12.677408 4.1613574 54.275555
13.588799 -5.5923672 54.354111
8.8334484 -4.8844748 54.353436
18.062407 -3.8203359 54.337273
4.2227726 1.2430047 54.321068
18.562363 1.4350299 54.353924
12.618653 4.1630907 54.308884
11.854504 -5.6001186 54.466267
19.222321 -1.4276794 54.491379
6.3839092 -0.48456645 54.440285
12.452394 -5.6087933 54.512154
10.370722 -5.3540239 54.514435
18.573399 -2.9471035 54.566757
20.130907 -1.904978 54.573792
19.213196 -0.60350066 54.557167
3.5648694 0.49659243 54.595711
18.335485 2.0138412 54.513103
16.644989 3.2786002 54.552513
12.091255 -5.5580592 54.637951
13.561695 -5.5026655 54.690556
13.747016 -5.4831896 54.690483
21.845375 -0.33144522 54.603142
6.3629746 -0.15668875 54.681526
6.4268408 0.49057296 54.663528
22.008942 0.46851945 54.663078
6.5039444 0.9332521 54.635521
7.4564724 2.65908 54.655537
14.292054 3.9888704 54.663284
14.569162 3.9386032 54.69603
9.4356766 -5.0066991 54.789291
16.208002 -4.8616834 54.711983
4.031826 1.1227067 54.725414
11.410028 -5.4326077 54.86898
18.561096 1.6330874 54.852043
6.3321786 0.032299094 54.994781
15.081244 -5.1330671 55.028278
18.893124 -1.4670218 55.05117
6.0298233 -0.72349757 55.098358
6.4536524 0.96132368 55.040871
12.594897 4.1212144 55.040226
8.7121 -4.6489568 55.119858
6.8065872 -3.2764297 55.181927
18.779316 1.0080895 55.194969
9.2835693 3.5549288 55.1036
10.058356 -5.0509534 55.251377
15.940462 -4.8203464 55.207664
19.808264 -2.0377409 55.295464
18.929722 -1.3681043 55.298691
3.8731885 -0.4566381 55.252647
6.0353346 0.15082841 55.212509
5.9797964 0.79866868 55.257084
5.7928271 1.2545693 55.232193
20.666805 -1.4639646 55.34734
19.286102 -1.1931896 55.355427
6.490109 1.2550261 55.313225
16.982515 3.1037543 55.310181
10.873802 3.9351864 55.37291
13.045139 -5.2757559 55.46571
18.809902 0.98272985 55.409599
4.6380048 -1.3288023 55.59996
21.051914 -1.0580633 55.526329
18.606342 1.696955 55.566223
17.468464 2.8374689 55.565182
8.0613127 3.0157371 55.542313
10.264693 -4.94873 55.673962
19.289238 -1.5956156 55.605183
15.008492 3.7490292 55.660645
12.123999 4.0393901 55.631481
19.232687 0.70679241 55.715206
15.351948 -4.7423887 55.899899
17.373344 -3.9838843 55.884029
5.5869293 -2.0538371 55.80621
3.7280874 0.26778972 55.822006
21.684172 0.23677792 55.896133
3.8344467 0.6934824 55.885479
16.11772 -4.5051379 55.908157
5.2397113 -1.8636138 55.92477
20.167772 -1.768854 55.975063
3.7766855 0.1675034 55.991585
13.197325 3.9882836 55.925507
12.486465 -5.1479273 56.053143
5.5100698 1.6713679 56.041931
10.840525 3.8256431 56.088943
12.850904 -5.1025696 56.128933
21.524294 -0.090570427 56.195305
4.5757365 1.4148662 56.134636
17.948765 2.5034032 56.164291
14.008726 3.8682246 56.125984
15.634958 -4.4977279 56.268604
8.6602764 -4.1965332 56.289639
4.9144578 1.5935862 56.262108
18.560604 1.8608589 56.242126
14.330204 3.7881145 56.291588
12.829723 -4.9584317 56.369835
15.170614 -4.588182 56.335056
6.1512794 -2.1407068 56.346848
19.364288 -2.0861628 56.33305
6.6832447 1.9136357 56.35733
12.06805 -4.8998542 56.41827
21.50444 0.06666135 56.409973
15.848873 3.3783619 56.499882
12.191349 -4.8148022 56.519173
18.607075 -2.6741624 56.553513
12.747557 -4.7895932 56.652023
16.18383 -4.1585445 56.602863
20.84478 1.4660053 56.690166
17.848896 2.5428381 56.713913
11.51515 -4.5888901 56.803185
21.000904 -0.64873296 56.896301
12.16258 -4.5645671 56.937359
12.576599 -4.5957274 56.909721
17.401989 -3.5173759 56.916294
4.9820995 -1.3807904 56.986946
12.82663 -4.5407872 57.067825
4.1702514 0.80500734 57.002876
16.434599 3.0709324 57.084087
13.766079 3.6998429 57.069252
12.718437 -4.484735 57.16151
14.310775 -4.2790527 57.163429
20.529781 1.5688689 57.199066
6.408463 1.7719313 57.159966
17.6185 2.6168017 57.16851
10.17483 3.4360139 57.180252
21.254786 0.26150328 57.231823
8.25072 2.8330753 57.275986
12.321367 -4.3116932 57.312416
12.812985 -4.2950034 57.337555
10.304444 -4.049284 57.38163
16.801832 2.8917761 57.360565
12.368671 -4.3071904 57.458279
12.70085 -4.1866741 57.496468
5.4002142 1.7208678 57.432114
13.724692 -4.2028179 57.55381
11.914082 -4.1907339 57.562111
7.5885191 -3.0529768 57.564373
20.270954 -1.2761092 57.529984
21.005455 -0.28104949 57.511749
7.4229927 2.4514787 57.584801
8.3225079 -3.2836535 57.696068
20.282457 1.6289617 57.641525
8.8918419 2.957845 57.646709
16.502012 2.9188271 57.675587
10.889975 -4.1073594 57.792206
12.781 -4.0814061 57.744804
12.172243 -3.9855947 57.773277
10.786711 -4.0463247 57.803474
10.377645 -3.7180424 57.885105
10.006059 -3.646723 57.880924
16.361204 2.923609 57.833469
14.485562 3.3687711 57.812614
11.246408 3.4632788 57.841911
7.8151655 -2.9578481 57.903679
19.467552 -1.7307347 57.941452
4.3918324 0.42656559 57.905548
7.7188625 2.5167458 57.937653
10.851826 3.358778 57.965412
5.1458025 -1.0433779 58.021374
9.2451601 -3.2732933 58.147812
15.584383 3.0442004 58.142487
13.993828 3.3590729 58.162949
7.8697586 -2.7550831 58.251877
7.1351576 -2.4270797 58.248791
20.745869 -0.19211745 58.257233
4.5672946 0.57556176 58.23077
8.871583 2.8040328 58.277374
10.401484 -3.40643 58.322823
7.5221915 -2.5554199 58.345634
17.106728 2.6123445 58.324097
10.819592 3.2413421 58.361149
15.438814 -3.2071867 58.41415
4.6994219 0.72701657 58.405396
5.511548 1.5247397 58.444614
6.976779 2.116081 58.431259
5.6246123 -1.1777102 58.509033
4.8534751 -0.15820059 58.594265
18.575329 1.943378 58.533112
8.0914812 2.5245209 58.568966
7.433826 -2.3284128 58.632774
5.8457785 1.6186311 58.605961
13.46096 -3.2213175 58.785782
9.5542383 -2.9394002 58.734413
18.463818 -1.8308463 58.71056
7.7377443 2.3865647 58.727886
16.423719 2.7173491 58.725388
8.5638046 2.6146734 58.801388
11.595436 3.2303896 58.870049
10.914444 -3.0490012 58.932648
20.443312 0.06292218 58.974895
20.503996 0.46042427 58.927704
18.928654 1.7244834 58.959721
12.276432 -3.065058 59.05249
5.1684885 0.77067053 59.055252
19.666094 1.4686271 59.019547
17.278078 2.3948395 59.08297
16.896887 2.5066643 59.099972
9.7131071 2.8453157 59.047333
10.56291 -2.8782072 59.120407
13.589728 3.1316266 59.197449
16.208677 -2.4609036 59.241413
5.5626225 -0.46327674 59.205956
19.015049 1.5933552 59.203632
7.4280605 -1.820199 59.379154
19.334417 1.4085877 59.352497
8.4462223 2.4457293 59.343102
18.235941 1.7652019 59.485535
10.725127 2.9401901 59.419342
5.627007 0.4939748 59.591618
9.297781 2.6003904 59.564751
19.532679 -0.39539978 59.602448
5.688046 0.58567935 59.63269
6.2172117 1.1447413 59.640106
14.779387 2.8200059 59.627224
18.054085 -1.2719975 59.753666
6.7606931 -0.96756852 59.705772
6.0107417 -0.20625225 59.750355
6.2297897 -0.23688608 59.886768
16.770763 -1.8946421 59.944542
17.203051 -1.6996973 59.962364
7.2787743 -1.1100643 59.994015
14.872305 2.6554434 59.980064
17.648575 1.5530393 60.162346
17.78212 1.289428 60.276745
8.3149357 1.842178 60.293831
14.82326 2.5459414 60.206947
8.445735 -1.6752287 60.340351
8.1052895 1.6556145 60.341003
15.106752 2.4209414 60.309395
14.940556 -2.2245545 60.445549
17.408062 -0.83874422 60.49593
17.605766 0.96408784 60.488857
