# .PCD v0.7 - Point Cloud Data file format
VERSION 0.7
FIELDS x y z
SIZE 4 4 4
TYPE F F F
COUNT 1 1 1
WIDTH 1612
HEIGHT 1
VIEWPOINT 0 0 0 1 0 0 0
POINTS 1612
DATA ascii
123.27814 11.1101 12.174651
125.77719 12.063311 12.166624
140.11359 21.244595 12.116733
122.93466 16.915657 12.248453
121.20528 11.473455 12.318195
122.08965 16.353577 12.300287
123.8994 17.247839 12.455727
143.88838 18.755247 12.439293
144.36429 24.625889 12.495292
119.16625 13.974772 12.569009
140.92773 22.466358 12.570569
123.25583 16.963776 12.698458
142.61426 19.211884 12.692117
140.06207 21.632778 12.659075
124.46379 17.060619 12.781627
124.37132 17.103882 12.790577
140.43556 22.029877 12.714249
123.79272 11.112447 12.889893
142.79959 19.02269 12.833311
121.95256 11.666078 13.078199
119.69175 14.457479 13.081888
144.99905 24.391701 13.04037
128.13248 15.419269 13.196239
146.47202 18.179161 13.16382
146.70168 20.726799 13.153683
146.54292 18.225618 13.258345
128.3149 12.802808 13.319808
120.41351 14.755943 13.355122
127.66046 15.678645 13.365066
146.38464 18.242043 13.319904
143.81682 18.648363 13.357727
139.79575 21.120468 13.332367
139.60654 21.452087 13.348506
140.13002 21.983536 13.363228
140.34131 22.188236 13.344702
142.36247 24.504562 13.388077
122.79271 11.317543 13.498666
140.13303 22.026596 13.463028
143.12054 24.913422 13.49408
147.26726 19.131107 13.502212
141.91765 19.46447 13.50737
128.66743 14.208605 13.695629
142.64616 18.858177 13.65913
143.61404 24.750328 13.688866
120.86036 13.440304 13.731895
127.65411 15.750734 13.715194
140.57526 20.38932 13.792321
139.83447 21.825211 13.708139
124.22128 17.217014 13.844746
145.05087 18.400072 13.883201
142.90976 18.775988 13.809691
147.26736 18.808569 13.865462
146.42535 20.757217 13.827749
146.30472 21.817482 13.803685
144.18059 24.56562 13.88215
146.76117 19.928421 13.900949
140.04333 22.13706 13.962737
125.48048 11.446884 14.050678
128.90695 13.21941 14.005446
139.59077 21.064009 14.011802
128.62349 15.320829 14.110252
126.94213 16.176277 14.143826
145.58791 24.071754 14.100412
142.87885 24.92889 14.175611
124.82037 17.201433 14.270636
139.76468 21.967159 14.23651
146.16087 22.830204 14.278037
123.3793 11.807907 14.355722
128.80194 15.201082 14.392299
142.96313 18.697845 14.316265
143.14435 18.661425 14.308414
145.53903 18.649574 14.374353
120.6628 14.320066 14.456131
140.28638 20.384893 14.450918
122.50989 12.631773 14.507297
129.53485 13.450317 14.597525
146.11008 22.414814 14.515711
146.2562 20.449392 14.608253
129.81711 14.433454 14.795149
143.34839 18.672699 14.763103
120.75471 14.129158 14.850159
127.79685 15.904664 14.826483
127.2285 16.174824 14.822161
146.01273 23.170837 14.830273
126.36957 16.603931 14.918955
141.08708 19.615927 14.924395
124.79568 11.175267 15.029981
124.64575 11.313541 15.013928
144.44919 18.87974 15.063871
140.49161 23.004436 15.09988
145.08549 24.199692 15.046226
125.04645 17.238539 15.19508
121.49558 14.397786 15.26943
145.90265 23.048388 15.274801
127.14505 11.588804 15.349142
139.5905 22.07295 15.300085
126.59547 16.595863 15.413353
124.94891 17.006531 15.471746
145.86743 22.423096 15.470182
140.59518 23.200787 15.404389
139.20534 20.882605 15.514398
140.10703 22.719715 15.500111
124.76814 11.551409 15.617507
130.36337 14.096045 15.634626
145.82771 21.734549 15.689051
145.83459 22.365696 15.604656
127.54784 11.557686 15.759037
126.92467 16.498714 15.710217
139.70335 20.392761 15.856684
145.76503 22.668732 15.851001
122.35211 14.549238 15.972348
124.61887 16.442356 15.930003
145.75124 22.136147 15.953681
145.75668 22.323769 15.915253
130.98557 13.36589 16.087225
123.86188 12.51438 16.142519
122.26128 13.740506 16.199665
138.66396 21.07482 16.239363
141.67075 24.556515 16.212624
140.1566 22.924719 16.302298
141.44479 24.355026 16.329897
123.19939 13.174843 16.446609
123.00404 13.321239 16.447639
123.09797 14.853385 16.444868
144.07675 24.404503 16.442842
130.59235 14.048024 16.549837
142.23657 18.278894 16.576538
125.62515 16.352238 16.652607
141.87466 18.040325 16.650303
143.31468 18.864786 16.667114
125.25044 11.80706 16.755083
145.3257 23.982885 16.798948
145.52077 23.908558 16.70005
126.04042 11.323622 16.88796
124.35343 12.534207 16.856722
130.88245 12.891528 16.89109
122.72025 13.819954 16.973499
142.16818 24.738731 16.933155
125.13609 12.046921 17.000515
130.81848 12.75952 17.014746
124.82967 15.642984 17.032192
143.63559 18.883289 17.08176
139.3481 20.057194 17.034794
143.2789 24.725388 17.034492
130.09845 14.602829 17.182266
126.59019 16.432835 17.198353
145.47688 21.147678 17.123552
129.18359 11.845287 17.228731
125.07861 12.376234 17.284079
138.57581 21.311825 17.256405
126.56038 11.028066 17.328047
123.95293 13.198246 17.347773
140.50934 18.692232 17.359482
138.98875 21.873924 17.383261
129.81003 14.892301 17.447308
124.53548 15.039667 17.562412
124.6015 13.047326 17.625868
125.64287 15.588255 17.640598
128.80609 15.704429 17.778564
140.65994 18.410414 17.704315
130.99216 14.37948 17.869717
144.61505 19.404072 17.886393
127.55715 11.280949 17.915081
142.6545 18.115387 18.059277
145.3815 21.961021 18.09354
126.89053 11.030262 18.154301
127.76434 11.346802 18.187344
140.45601 23.923054 18.34481
124.313 13.848535 18.456629
145.38058 20.043852 18.42585
141.65201 17.782465 18.553085
126.0572 12.0923 18.611362
140.26953 18.456665 18.639923
145.0619 19.806774 18.684349
145.33719 21.913271 18.637053
141.10356 24.488594 18.710899
138.20673 20.655779 18.862207
126.42149 11.874812 18.999325
130.95561 14.88121 18.905268
125.91418 15.266165 18.988941
129.62532 11.982189 19.010572
130.45518 12.702143 19.071369
124.93786 13.483639 19.081678
124.88966 14.52212 19.024256
140.64819 17.692959 19.032358
140.40605 17.801846 19.064117
141.31996 24.398853 19.051575
126.72617 11.681039 19.295462
131.23103 13.391449 19.258471
145.06897 22.584873 19.264713
145.04291 22.744106 19.252804
140.23528 24.025314 19.225807
125.02558 14.512489 19.302929
143.43668 18.907774 19.373425
130.73767 12.990963 19.443815
125.85227 15.053764 19.428978
128.70723 16.328815 19.457422
131.14249 13.346107 19.504971
143.66708 24.380339 19.596693
144.6264 19.641674 19.653706
141.0117 18.229439 19.731331
127.7504 10.87231 19.916412
141.61739 24.222975 19.96125
128.92538 16.365318 20.029408
138.66641 22.47464 20.078026
129.29375 11.855086 20.27718
139.31248 18.115906 20.260153
145.0914 21.06605 20.200645
138.33011 22.075649 20.239002
144.29895 24.198128 20.374594
143.57579 24.253965 20.34861
127.32094 11.57618 20.524799
138.21709 22.030535 20.53471
128.18094 11.041544 20.624804
131.70427 15.489655 20.697992
127.20894 11.920862 20.896866
126.87939 12.305975 20.886854
125.6214 13.785962 20.864485
126.52306 15.03097 20.867899
132.89574 15.19582 20.883801
139.07771 18.214979 20.928188
140.38734 18.717688 20.970947
141.08221 19.027046 21.067413
136.85834 20.952681 21.016069
128.20656 10.906163 21.131395
144.05215 19.607224 21.374218
141.47427 24.0299 21.37719
125.74392 13.874533 21.410017
125.68634 14.225733 21.534113
128.81845 16.547544 21.510612
139.54961 24.161436 21.508944
129.21996 11.87534 21.691311
126.73023 12.802009 21.691345
125.72138 13.94297 21.617765
132.54581 14.548472 21.682508
133.04697 15.305163 21.604864
129.5473 16.607412 21.680252
137.78244 22.354483 21.730377
127.67976 15.637467 21.868492
129.38164 16.703054 21.840723
144.09068 21.601913 21.813946
127.89503 11.529519 21.998257
127.70901 11.727798 21.927923
126.30125 14.60253 21.986084
131.98746 15.76524 21.938025
136.93369 19.808926 21.982645
139.89027 18.723482 22.00124
138.72371 23.506413 22.038265
133.05135 15.423442 22.153238
131.92429 15.836904 22.162073
131.40367 16.020927 22.12715
141.49229 23.90987 22.174253
139.7159 24.236233 22.180056
138.53448 18.432827 22.213879
143.94124 21.053768 22.299484
140.5076 24.074585 22.288055
127.99527 11.506693 22.399227
132.31729 15.742253 22.393221
129.64079 11.784775 22.437841
127.30375 12.345962 22.579161
125.79639 14.135868 22.550106
137.57571 22.734396 22.586063
128.92978 16.421522 22.704933
136.54759 19.534128 22.797834
144.02502 19.522926 22.753197
136.08762 20.318913 22.723473
141.06416 18.647917 22.808899
136.63734 19.224041 22.959894
143.21088 22.254951 22.999378
126.66811 13.191597 23.065155
143.19775 18.931053 23.002449
128.49014 11.120998 23.199036
131.22766 16.310341 23.166601
142.92633 22.882011 23.191549
142.83031 23.400635 23.122742
129.24036 10.803171 23.262486
143.31322 18.851696 23.299879
132.25485 15.977274 23.374336
135.27029 21.225334 23.317308
134.02963 15.287342 23.473499
143.3597 20.766537 23.404148
127.92972 11.846212 23.539516
143.7225 18.85265 23.562571
141.4353 23.716702 23.56518
138.48433 24.301464 23.547186
140.47879 18.313877 23.67848
135.99777 19.482672 23.6392
142.84891 22.064955 23.673849
126.66817 13.29425 23.782412
133.7516 15.000765 23.723892
137.73032 18.228416 23.74572
139.36914 18.277832 23.722761
141.33702 18.37274 23.777414
135.57816 19.949919 23.805149
135.11195 20.485622 23.973934
135.12874 20.330378 24.095682
142.36618 23.118097 24.004515
127.45593 15.090184 24.142023
135.87584 18.144585 24.103752
135.79323 18.745966 24.117432
134.53018 21.17358 24.166273
129.99631 10.872587 24.285742
132.35468 13.745803 24.250507
130.18335 16.930979 24.260292
138.69565 18.212862 24.228464
141.95853 18.325645 24.226513
127.03432 14.751715 24.308414
133.78687 15.647451 24.37956
135.23853 19.870003 24.370117
135.09944 21.789551 24.439718
142.48389 21.742571 24.410942
129.81703 10.784668 24.565481
135.97644 18.10638 24.538692
136.07732 22.634962 24.574505
131.75475 13.021783 24.655731
132.98096 14.149282 24.644012
139.7417 18.209541 24.601151
141.15469 23.653368 24.648705
127.90393 12.167353 24.798637
136.78775 23.423479 24.740347
127.11796 14.723076 24.844765
128.10257 15.43915 24.898302
128.90152 16.090477 24.894291
131.06699 16.729118 24.830696
140.77728 18.220119 24.816044
131.34351 11.620965 24.90448
127.96454 15.322654 24.986649
143.02934 18.282934 24.990524
136.03516 18.063578 25.033152
142.92845 18.662363 25.036503
134.46942 20.332836 25.044281
142.07948 21.921299 25.020565
136.99829 23.872475 25.088356
134.78543 18.751158 25.175644
141.63522 23.32313 25.184042
138.45345 24.289885 25.101959
129.44533 16.514355 25.253845
139.2453 24.064838 25.239475
128.06221 12.102261 25.306173
138.0739 18.091696 25.375187
128.65292 11.452203 25.44137
133.08578 14.024377 25.471079
128.82985 15.954516 25.419159
133.91205 15.865923 25.583714
133.91251 20.628462 25.569607
135.90692 23.081875 25.507513
136.76126 23.960888 25.562962
131.43149 11.087664 25.619524
134.50894 15.132405 25.609053
132.24155 12.247169 25.78764
140.8689 18.1607 25.76623
141.46634 22.695269 25.755302
141.90392 20.80261 25.86408
138.13753 24.308777 25.837566
130.93912 10.895845 26.024849
137.2702 18.003258 26.099857
139.35135 23.969906 26.01593
136.85748 24.379671 26.033592
129.4234 16.363705 26.193626
135.24893 17.942352 26.12771
137.21126 17.996689 26.153904
137.93423 18.019539 26.132092
142.12466 19.358061 26.150293
141.61678 18.392754 26.209534
142.05748 19.505165 26.201385
138.38695 24.201538 26.233885
130.49324 10.723815 26.379684
130.56187 10.742033 26.385471
133.11458 13.277252 26.399185
135.09013 15.417294 26.328436
133.51103 19.791029 26.388195
133.51718 20.432817 26.303722
133.46153 21.677811 26.313431
134.24469 15.946403 26.495253
129.19341 16.126842 26.453035
135.35669 23.208824 26.401737
141.96518 19.095833 26.560387
134.30371 22.506483 26.591408
132.96742 16.431332 26.628036
135.97314 17.914568 26.66893
141.82431 19.466019 26.638321
140.96783 22.803925 26.689909
129.0148 15.932726 26.727139
132.10487 16.756849 26.708757
131.31679 17.043198 26.709229
130.73643 10.726639 26.85149
129.44316 10.859344 26.818108
141.40109 18.53101 26.851418
133.02794 20.436701 26.81727
133.66321 13.647181 26.946142
132.97484 11.892848 27.016308
141.11755 21.176903 27.098431
129.23181 11.190712 27.196606
136.38664 17.885878 27.120443
140.00262 18.400215 27.159689
140.90491 21.950016 27.114883
131.80267 10.968378 27.243227
132.60165 20.60247 27.244999
128.69742 11.775249 27.330017
137.67464 24.297863 27.32378
135.40767 15.737715 27.439854
132.43793 20.388395 27.443035
134.42178 14.333706 27.599762
133.0052 17.74654 27.58316
136.2748 17.942623 27.572752
133.40627 11.845479 27.644718
128.99869 15.791923 27.632885
134.55476 16.079308 27.609829
134.39749 16.134495 27.605503
133.43684 16.484253 27.636913
134.55154 17.784262 27.660444
132.44035 11.076712 27.742502
137.09952 18.12266 27.776999
132.33774 18.789114 27.742729
127.43274 13.040581 27.823782
135.49786 15.800691 27.875309
137.57513 18.232363 27.916832
140.84541 20.506123 27.90369
140.661 21.010096 27.996565
138.39838 24.036034 27.951603
140.33446 22.369602 28.0987
134.45741 13.47122 28.155043
140.23438 18.711761 28.196075
140.86565 19.846102 28.179148
135.0593 17.953932 28.309599
132.74065 22.3871 28.358978
126.88192 13.950638 28.403257
139.73279 23.659649 28.45858
134.36475 23.720781 28.469509
137.77669 24.159821 28.482523
134.05925 11.935754 28.500937
128.50862 12.101105 28.566311
135.28816 18.045593 28.522717
133.07529 11.118128 28.725388
132.51636 17.063244 28.782827
131.45523 18.432594 28.713293
140.62691 19.623878 28.712559
134.39061 12.135819 28.844959
134.46306 18.013176 28.872486
127.47032 25.954929 28.875799
130.37732 16.80637 28.974249
133.75847 17.933836 28.977383
139.1554 18.75927 28.990726
139.04083 23.784769 28.942009
134.98532 24.534966 28.990189
130.96707 17.311777 29.037556
134.73343 24.346708 29.014801
134.95435 24.577364 29.097212
128.04852 14.751148 29.14921
131.28711 21.799225 29.113241
134.03787 23.881958 29.138771
135.08394 24.75699 29.17029
127.10786 26.409855 29.126171
130.90961 10.452214 29.208431
128.88545 15.472396 29.21035
136.33966 15.809645 29.291183
130.4319 16.817207 29.236891
130.69894 19.694435 29.225849
136.66364 24.399544 29.241543
129.27377 11.462826 29.347797
127.37172 13.280349 29.364605
136.1839 15.483352 29.37907
127.99417 14.665979 29.419111
139.65491 22.144491 29.526543
128.433 26.8332 29.589832
128.35162 12.382278 29.680946
127.0294 13.845138 29.676064
140.16057 19.369232 29.669704
131.04491 22.023045 29.668228
135.79515 24.603287 29.657148
126.26749 26.63377 29.603401
127.25555 27.276516 29.652697
139.29124 23.571302 29.752945
136.41284 24.424603 29.719011
128.86183 15.360195 29.864916
134.64537 24.810907 29.872427
127.37272 13.343803 29.911282
130.37851 17.826738 29.996504
134.7196 18.09355 29.962776
129.05748 11.75407 30.067511
139.41783 21.886978 30.086864
127.41297 13.336488 30.175272
135.95364 17.863449 30.186661
127.66298 14.2542 30.297806
129.69211 16.04265 30.281086
137.21634 17.056597 30.265884
139.67377 19.969561 30.259735
130.26974 21.9958 30.249605
139.09125 23.233082 30.267691
126.4799 26.053173 30.236061
127.21638 26.105848 30.279449
129.39095 11.469736 30.355814
130.26775 16.993805 30.392363
137.05548 17.486572 30.341602
130.17488 22.034624 30.3885
136.67798 18.317562 30.472595
129.1978 20.784109 30.400518
129.41383 21.696259 30.458546
138.96098 23.530825 30.422935
133.71997 24.429674 30.486708
133.18297 10.926485 30.580109
127.24889 13.866275 30.51125
137.24506 18.890388 30.574024
131.49966 22.780357 30.518383
129.18095 11.706115 30.641308
130.06767 16.896294 30.662954
129.26259 19.946344 30.611311
128.6445 26.356815 30.602076
126.9445 27.758141 30.642746
137.96011 18.200869 30.737303
136.88539 15.395478 30.876223
139.31168 20.338369 30.83585
139.21509 20.918711 30.825985
125.59312 26.346462 30.895769
134.2966 11.209988 30.929852
128.28326 12.598558 30.925751
128.89587 20.16715 30.977438
128.83943 20.353514 30.981218
138.75229 23.202003 30.951674
126.71579 27.753244 30.997482
129.87862 11.108885 31.045403
139.25398 19.344933 31.131552
139.05685 20.775051 31.190166
127.73944 26.321148 31.145679
133.32886 10.911612 31.206198
137.28369 15.820524 31.263672
129.31071 26.58016 31.252203
127.17547 28.00161 31.385979
129.5722 11.454165 31.406271
135.82794 24.400593 31.45076
135.24567 24.541191 31.491598
134.49586 24.762108 31.414341
129.17426 17.444195 31.570539
128.42719 14.776527 31.627928
129.10439 17.5653 31.617584
138.47826 22.774733 31.64439
138.33467 23.198122 31.782415
131.37515 10.26368 31.882133
139.04153 19.598721 31.820734
135.51613 11.569398 32.09914
129.02774 25.923193 32.057838
128.37849 26.210804 32.060074
127.36091 13.560247 32.112858
128.92928 16.484266 32.15889
138.15913 23.155407 32.14587
126.1429 26.775558 32.113461
128.01773 19.546888 32.266953
134.14909 24.754795 32.295624
129.93643 11.261748 32.391708
135.99051 12.377698 32.351295
137.60233 16.963791 32.307667
138.30508 18.79892 32.347984
136.40639 13.151665 32.467884
127.40588 13.539122 32.497261
137.61734 17.159071 32.412472
129.40184 26.305023 32.449654
125.78212 26.724945 32.49382
129.15155 27.392071 32.51791
130.22292 11.024896 32.612076
129.46603 11.749927 32.673935
128.49791 12.601787 32.67379
136.40292 13.032403 32.647354
128.47728 14.7141 32.654823
128.89725 25.884434 32.696732
130.55634 23.248545 32.704823
127.12852 26.475838 32.746071
127.94231 28.080059 32.797604
129.32506 26.072319 32.956577
129.27118 26.613501 32.979591
138.12099 18.939556 33.066742
127.98641 19.864267 33.002716
128.73398 25.865528 33.08025
129.21107 26.876076 33.032139
130.56499 10.785183 33.15477
127.55007 13.443305 33.124077
127.83298 19.367426 33.151512
138.40335 20.80143 33.117462
127.95512 16.747297 33.250748
133.12927 24.935549 33.237541
134.66643 11.073264 33.35989
133.06915 24.921974 33.490753
127.77905 16.354061 33.582878
128.30435 21.417418 33.576519
144.04559 7.4629121 33.696587
134.85323 11.151266 33.686726
137.54958 16.133291 33.667618
127.52315 17.277237 33.608528
132.29767 25.113085 33.66835
129.21999 26.699638 33.624744
132.49916 10.382916 33.726955
137.86412 22.304466 33.7547
135.53603 24.178366 33.711426
135.27742 24.244425 33.785278
145.61261 7.941092 33.89706
136.35519 12.638858 33.844933
127.51148 16.328089 33.912819
125.89186 27.210697 33.918961
128.11591 12.99635 34.051216
136.50746 12.947153 34.09996
130.94806 23.505495 34.048626
145.373 8.4663525 34.127754
132.48013 10.344252 34.166878
130.57089 23.06085 34.122986
136.95398 23.725607 34.190552
129.10046 27.186028 34.194221
127.93883 28.088966 34.105984
143.8736 7.2265549 34.232037
128.5174 12.658408 34.260216
144.75792 7.9433527 34.305847
137.63782 17.291201 34.337048
135.16014 24.207092 34.367672
133.36655 24.69504 34.31501
146.14497 8.7787666 34.550873
137.65201 17.468472 34.523159
128.3492 27.934092 34.536934
137.8779 19.431614 34.624184
130.90775 23.376923 34.618855
136.80699 23.461575 34.684956
145.76924 6.8897066 34.746258
130.41428 11.097186 34.822884
137.65895 17.538546 34.838882
128.6974 27.814539 34.812119
144.07343 7.2904105 34.996967
137.5985 21.44511 34.976501
143.08804 6.5665212 35.107525
127.69193 19.432137 35.160995
128.03595 21.342524 35.174553
127.91679 26.025314 35.142128
129.01955 26.876936 35.188099
128.37294 27.852989 35.112366
143.13942 5.9912295 35.24876
136.07634 11.747778 35.268452
136.85831 13.614799 35.219902
127.44183 15.762899 35.27758
132.15453 10.374323 35.333763
137.59874 16.678431 35.36935
136.78532 22.788471 35.302654
132.20184 24.758911 35.360317
132.56984 24.728909 35.318005
146.27238 7.705265 35.478207
145.93382 8.2248554 35.493778
136.03775 11.748528 35.416817
128.49454 27.781504 35.435349
128.99271 12.453982 35.566895
136.23283 23.721449 35.506859
143.39371 5.7695789 35.691742
136.30182 12.082499 35.755787
129.09509 12.40638 35.760342
127.84442 20.230219 35.77866
142.57703 5.7599359 35.849888
143.90495 5.7766805 35.985722
128.45976 12.911234 35.925293
127.73686 18.957834 35.938484
135.91655 23.64402 35.984722
136.14432 23.616116 35.954216
135.30544 23.749752 35.982506
136.42017 12.327194 36.075027
127.96858 21.158981 36.047379
126.84184 26.380266 36.022572
132.94269 10.758915 36.198524
137.14371 21.486225 36.130661
128.93402 22.414242 36.187256
133.70345 11.004477 36.244823
132.76782 24.486034 36.239555
130.80847 11.080706 36.3899
130.63364 23.278336 36.386032
131.27574 23.582949 36.316906
128.79503 26.200052 36.384918
142.79716 5.6061869 36.44899
134.89214 11.436459 36.433861
137.48325 15.135835 36.438457
131.20311 23.571266 36.475071
141.50343 5.6501393 36.546673
145.2567 6.6472559 36.519314
137.5256 15.66823 36.557938
133.27931 24.188126 36.580833
127.58701 13.532783 36.656399
126.77682 27.550039 36.604095
130.61937 11.306394 36.711632
137.75908 19.117369 36.774387
144.88484 8.3759794 36.834373
134.25581 11.278944 36.881824
130.9946 23.521051 36.819107
142.67775 8.1158695 36.960995
137.60641 16.677605 36.932152
137.64989 17.260572 36.921406
130.6579 23.375059 36.946007
134.70735 23.473747 37.013451
128.73761 26.064177 37.046993
127.77519 17.323641 37.101101
134.48419 23.523388 37.155598
127.86594 18.109951 37.241348
128.54721 27.679255 37.289139
140.85773 5.6047897 37.345089
141.28764 6.8342152 37.324203
135.3913 23.230513 37.356087
128.31131 20.438993 37.491131
131.15558 23.694424 37.44231
143.76184 5.9833632 37.546799
128.0105 15.596302 37.560749
134.66626 23.374718 37.541069
131.22356 23.737354 37.50547
131.3781 23.814045 37.51115
135.68306 11.854197 37.687469
128.07486 16.874657 37.678822
128.18501 19.065323 37.72971
127.69064 25.696585 37.765785
134.42395 11.488268 37.864872
126.5456 26.537109 37.861492
132.64537 24.268604 37.94487
128.84909 27.62516 37.934044
141.42949 7.5125737 38.059937
144.15111 8.002491 38.002903
136.78551 12.703223 38.049385
129.51425 26.761238 38.000389
141.42943 5.5974631 38.150795
144.22499 6.8957691 38.199684
131.69324 10.682711 38.14587
133.09326 24.023464 38.146423
128.25342 17.374121 38.206814
128.25983 17.412842 38.23246
132.04955 24.259493 38.276943
128.46078 25.552078 38.295116
140.87628 7.1353765 38.384251
134.60226 11.620574 38.316647
129.30344 27.348473 38.312111
140.38013 5.6526551 38.428177
141.10832 5.6343541 38.457146
133.21866 23.912788 38.463017
127.2221 27.583769 38.41811
128.38377 27.67205 38.427597
137.34471 20.344963 38.559559
128.84641 21.446873 38.568092
129.25154 22.230587 38.522552
129.22557 27.562277 38.54314
143.68999 6.6084895 38.650658
141.07629 5.644433 38.74086
139.521 5.8446331 38.707943
136.24052 22.273031 38.79818
129.79263 25.897957 38.784622
136.55002 12.342718 38.87801
136.78941 21.247444 38.834587
136.50439 21.766731 38.846287
129.65358 26.863977 38.867622
127.15388 27.513613 38.890396
135.67305 12.083755 38.945633
128.77795 13.412593 38.956657
128.74185 14.997209 38.968555
129.34593 22.128311 38.964958
128.59729 27.631989 38.949791
142.86555 6.279386 39.013527
139.11447 6.4265556 39.056236
141.34837 7.3690162 39.036869
136.39511 12.329613 39.047985
137.76202 18.340515 39.05167
136.95802 20.861881 39.025444
142.00906 5.9574366 39.179482
132.784 11.165956 39.195118
136.13315 12.262371 39.117161
128.85002 13.552779 39.182495
132.19571 24.261154 39.131172
141.4305 5.8291736 39.298603
133.48361 11.441778 39.210365
137.26907 14.681728 39.252071
137.81165 16.990923 39.349693
129.17805 21.724319 39.377998
137.43524 19.714001 39.492378
128.89902 27.582035 39.424263
136.48761 21.520142 39.536446
138.14163 6.3586102 39.686436
141.95665 6.5794239 39.615303
139.44649 7.3674927 39.603859
139.48425 7.4382782 39.659882
135.88106 22.534525 39.695541
137.9093 17.436375 39.791775
129.01485 19.375298 39.742908
136.41823 21.590673 39.795238
130.0593 25.399502 39.799599
128.15591 27.6709 39.700901
137.91708 5.9614644 39.888615
141.69362 6.8174477 39.868656
129.97592 25.300974 39.859032
129.16945 20.097509 39.950661
134.12836 23.334999 39.960518
126.90469 27.273003 39.957832
137.19754 14.976737 40.018398
135.25848 12.195948 40.150467
137.17796 14.997833 40.137943
140.44484 5.8132944 40.286411
137.27084 6.5998788 40.205601
129.30824 14.864658 40.237526
137.65082 16.489185 40.284019
137.55959 18.769733 40.254848
136.82895 13.981636 40.349663
131.94128 24.129351 40.319767
126.21779 26.693932 40.371407
137.56982 16.11525 40.451759
129.16205 18.022995 40.40873
137.83563 18.091061 40.489799
136.75217 6.3974662 40.566319
129.44965 14.625194 40.533634
136.70425 6.2565966 40.634808
138.2757 7.6776242 40.62122
137.50374 15.789408 40.697834
129.12843 16.240076 40.632439
129.52673 20.610624 40.696022
129.56245 21.306114 40.62273
137.57927 5.566751 40.746529
131.73296 10.972665 40.797249
134.30231 11.859293 40.794472
129.11339 16.277412 40.756882
137.92801 17.995016 40.759544
130.15022 22.244595 40.711735
126.53249 26.986696 40.779434
126.6665 27.071112 40.73391
131.20886 11.602967 40.852737
129.25711 19.97587 40.914749
129.79289 21.999123 40.906136
130.85107 23.109348 40.92297
128.03886 24.708559 40.94804
126.60358 25.414564 40.910606
139.29401 5.603024 41.027569
140.66951 6.2289147 41.045868
137.53503 7.6658845 41.036163
135.74516 6.7666917 41.193359
137.35638 7.6960106 41.170918
131.05634 11.654896 41.1838
137.67644 16.021706 41.148582
130.43768 24.893322 41.260696
140.19569 6.1586876 41.35928
136.08432 7.2731552 41.378811
134.30634 22.957617 41.315613
139.80161 5.9997835 41.405033
135.31618 6.8776436 41.42836
129.67889 13.017421 41.479797
137.79323 16.172541 41.464481
138.01193 17.485405 41.487373
129.2193 27.588634 41.40155
137.24974 5.4709959 41.597755
130.84828 11.800267 41.532776
128.92418 17.678118 41.541328
139.71184 6.0477085 41.6119
140.37971 7.0850177 41.645767
137.93536 8.2329378 41.671021
129.30766 27.583326 41.608353
134.77094 7.0168276 41.780716
139.49165 8.1384811 41.728352
128.97983 18.271742 41.789516
127.70973 27.592745 41.791588
133.44698 23.23526 41.841274
128.30008 27.633698 41.834068
136.69693 21.916821 41.906853
130.64555 24.856667 41.974213
137.92996 18.22917 42.009842
137.89313 18.49435 42.024635
137.01443 21.15086 42.051785
131.07393 23.596193 42.041965
126.32866 25.568707 42.042439
134.87401 7.4326162 42.136116
134.68901 22.652279 42.162514
128.42137 24.06039 42.173691
134.47557 6.3053923 42.286537
130.61938 24.443754 42.253082
126.64905 26.913406 42.227432
134.42334 6.2566619 42.346493
134.15787 7.3631387 42.393398
135.33777 12.383639 42.307297
130.53433 24.375063 42.373863
130.89804 25.106213 42.396584
134.22681 12.002832 42.441711
135.84079 12.503864 42.493206
137.91492 16.714111 42.453999
131.20245 26.089258 42.450367
134.50784 5.6061726 42.584621
134.33607 12.054871 42.524605
135.13441 12.309222 42.500404
136.38176 12.651602 42.501453
130.8293 23.448706 42.519337
131.9545 23.751123 42.553902
136.03769 5.387486 42.682178
136.63692 5.361968 42.628975
139.22301 6.2525134 42.676399
133.71164 7.0312719 42.632771
137.69154 19.671907 42.638397
129.1595 20.482445 42.621826
130.927 24.759752 42.695465
133.61087 7.133265 42.77515
132.07671 11.107511 42.744392
136.87617 12.867474 42.729836
137.87408 18.658548 42.76194
135.11891 12.274847 42.813385
138.32202 8.626152 42.920151
126.31834 26.035549 42.915909
130.14038 27.516205 42.942001
131.33405 10.972675 43.076321
130.40125 11.965969 43.021049
131.38632 25.833431 43.050114
136.02 5.3183689 43.188843
135.41203 12.324975 43.128891
135.342 22.54723 43.131767
137.79259 15.694489 43.205006
126.31504 26.199921 43.216877
135.26808 5.3720255 43.336632
137.80659 8.8227921 43.357174
129.11696 13.986196 43.391502
137.83817 18.939827 43.389099
134.2901 22.776024 43.32655
128.68007 27.56801 43.337776
138.94392 7.0393372 43.464127
136.23654 9.0042067 43.432411
130.32965 11.95195 43.463654
133.6295 7.9618502 43.565029
137.33946 8.9473562 43.591881
137.41614 8.9415531 43.597401
133.24843 11.662907 43.59259
128.79755 16.954048 43.524841
137.87469 18.68487 43.593052
132.05713 23.53336 43.589413
127.80987 24.054308 43.544529
126.27688 25.92247 43.571854
135.86075 12.400029 43.629208
137.51488 14.136026 43.673794
135.53876 5.2492752 43.879185
128.9164 20.216927 43.856777
129.59918 22.461254 43.836166
137.9465 18.182623 43.956463
137.85986 16.385025 44.081116
131.45451 26.203991 44.075871
129.23215 27.493795 44.076591
136.49947 5.5649734 44.138985
131.15376 24.61343 44.136528
128.63637 27.51416 44.187557
130.12613 12.014259 44.207474
129.60689 12.537003 44.273026
128.8851 19.473412 44.292397
128.89432 19.12175 44.375252
136.36191 22.438032 44.380608
134.77733 22.756575 44.340775
134.52197 22.812126 44.388191
135.91898 12.334122 44.480263
137.63074 14.371554 44.458549
137.71463 15.120296 44.435112
131.20076 24.645496 44.415359
134.67282 9.3011007 44.572014
134.64046 11.976774 44.545784
129.75145 12.334902 44.539536
137.73763 19.7066 44.586655
133.39507 23.055679 44.577061
138.1189 7.6942978 44.696995
135.86014 5.5278397 44.720577
136.98047 9.0778503 44.714123
135.25653 5.349978 44.828518
137.6951 6.2406836 44.870457
129.0851 23.572096 44.884426
137.57211 13.896714 44.956436
133.43114 5.7913036 45.035477
129.81952 22.924068 45.007004
136.37788 9.3327808 45.19698
137.46684 13.155904 45.165524
128.71745 18.164738 45.151955
134.56277 5.4411888 45.215965
133.93613 11.712051 45.287132
128.88138 14.314389 45.256783
128.79738 15.425396 45.295456
137.83044 16.242023 45.275021
137.96265 18.114182 45.2383
136.81673 22.414248 45.255547
129.50412 22.663078 45.255959
130.30557 23.434887 45.218494
131.08391 23.676113 45.206055
134.64552 9.4242334 45.305889
128.73055 16.251192 45.321983
137.967 18.086403 45.331329
137.41922 21.934685 45.397312
134.00464 22.991026 45.331245
126.36362 26.257029 45.339867
131.04605 10.846313 45.411243
132.56131 11.314602 45.494621
137.68594 14.964762 45.440742
129.17436 22.376261 45.43985
129.71461 23.677208 45.481133
128.48935 27.303711 45.457886
135.97948 12.249531 45.532032
130.05072 23.252026 45.573227
130.11658 27.308638 45.56797
134.90755 9.4182167 45.670792
134.17439 5.5978384 45.765686
132.84549 6.0784583 45.757309
136.82613 6.1573 45.778137
135.60168 12.124088 45.757648
137.80968 19.232832 45.770897
128.4698 20.609768 45.781853
136.82249 22.453226 45.767971
129.40131 27.280447 45.791214
137.22716 6.9330311 45.822777
136.84143 8.668726 45.809418
132.4597 11.250196 45.874001
137.49092 21.526154 45.861984
128.8494 13.640606 45.962471
128.66982 16.126312 45.975632
136.80652 22.470129 45.990993
136.1342 22.607872 45.95853
133.91072 9.3765545 46.025185
132.65282 11.284822 46.036938
128.66254 21.991833 46.084023
130.2462 23.535822 46.087494
130.35896 23.64473 46.083988
135.5193 12.053934 46.188007
137.45473 12.57565 46.148167
126.42625 26.111942 46.192551
132.35779 11.181246 46.230026
129.4864 12.258775 46.2463
128.7746 14.25907 46.230751
137.75688 19.629509 46.236679
131.26157 23.603479 46.282604
131.25836 24.332472 46.298553
137.54646 13.320738 46.395638
128.82521 13.422476 46.312641
129.68817 23.044861 46.368027
129.16493 23.436283 46.310387
130.9818 23.657927 46.343697
131.9834 23.446091 46.411491
130.75381 27.11725 46.417412
135.70413 9.3742504 46.576527
129.42693 12.248424 46.587627
133.22328 5.9980636 46.668587
133.68434 11.493322 46.674675
135.7352 22.656191 46.60453
128.43044 23.80262 46.692959
130.86302 26.959673 46.60043
133.70503 5.8726759 46.708992
136.89006 7.1875443 46.703876
131.0742 8.6911764 46.799622
137.17995 12.380661 46.759289
128.40962 18.86635 46.742023
131.28979 24.31916 46.745472
128.01535 26.994135 46.78307
131.811 7.291029 46.886215
136.20752 9.0721636 46.869385
134.35977 9.721962 46.861053
131.76958 9.9478788 46.833305
136.15387 12.146349 46.886662
128.78308 13.112375 46.878647
134.864 22.824253 46.819775
132.71866 23.900806 46.802616
132.80231 24.983906 46.89579
132.27 11.074053 46.940125
134.69974 11.210546 46.994503
131.84418 23.445232 46.915222
133.01678 24.599937 46.941105
128.28407 19.595425 47.041893
136.6947 22.675894 47.000145
133.25792 24.128635 47.06797
127.02702 26.324797 47.004761
131.43187 6.9049444 47.156582
137.98991 17.855625 47.119408
129.71475 22.202652 47.195904
130.88387 11.174233 47.248199
129.31758 12.294394 47.233402
128.99399 22.4303 47.245365
131.39449 26.68824 47.2342
135.26273 6.1589842 47.34436
137.81107 19.089729 47.3908
135.53851 22.655746 47.303177
130.56729 23.434933 47.328751
136.6375 7.3954306 47.418522
132.34946 8.7685356 47.450333
136.07007 9.0910063 47.486092
128.8793 22.421112 47.492821
129.01346 23.551208 47.447144
133.49275 24.350813 47.405704
128.2784 27.023268 47.481514
129.67174 27.180374 47.473351
136.0629 9.0599785 47.573296
137.56958 12.260339 47.584667
137.27161 22.58482 47.551056
132.59236 26.256884 47.5457
131.54489 6.8552451 47.624393
135.91031 9.4276533 47.661793
137.87569 15.189653 47.679314
128.79295 22.301384 47.60141
128.42081 23.905546 47.687141
129.5349 22.156792 47.749939
130.36751 23.247814 47.775234
129.75444 11.817061 47.872791
137.02425 12.119513 47.834324
137.85281 14.507261 47.861725
137.97011 18.273298 47.882797
133.36185 23.995163 47.820511
126.82013 25.821892 47.83316
132.11398 26.585262 47.871189
131.29237 7.0956283 47.971817
136.16629 8.5799923 47.910378
130.99918 9.155941 47.940907
136.68974 10.19186 47.993877
134.73361 11.200239 47.987663
134.69194 11.614992 47.998238
128.67087 13.572662 47.923988
134.87886 22.800966 47.926163
127.04719 22.939104 47.938725
135.06195 6.2285252 48.070324
137.48196 10.015285 48.043335
127.99533 24.118208 48.086655
134.69461 5.1555882 48.164558
137.96722 18.354696 48.110924
130.43179 22.178925 48.101028
133.86493 24.139828 48.128979
135.51654 5.9268355 48.271584
132.97038 11.236209 48.284012
137.7952 12.895101 48.26873
128.44534 16.238089 48.287971
128.51453 22.404804 48.211834
136.13379 23.086977 48.247795
130.53282 23.139938 48.249496
128.87392 23.653509 48.278343
131.35095 26.987152 48.281879
131.28966 11.453623 48.393677
133.57118 23.961472 48.344757
135.65996 9.6836252 48.403862
138.05901 16.549782 48.421497
131.14903 23.837179 48.403233
127.15674 25.174179 48.460213
131.27899 27.187866 48.410873
131.57785 6.9175706 48.587872
134.82094 9.9709663 48.524986
132.28593 11.104891 48.542061
132.80986 11.338666 48.591911
137.35774 21.745777 48.517448
137.09656 7.4591746 48.649326
137.48286 10.264557 48.607849
128.70731 13.105803 48.628628
128.61163 13.887856 48.688385
128.54652 14.495955 48.637222
130.61455 23.035667 48.647575
133.12723 23.079193 48.605141
131.7339 24.661642 48.660667
132.48225 26.011993 48.614407
133.84071 6.2621412 48.790653
132.52994 11.305305 48.709652
129.63522 22.799335 48.763924
136.27106 23.289158 48.724197
135.88637 9.1913443 48.839664
136.96019 23.420626 48.834743
131.19031 23.800404 48.849144
134.96962 5.6225471 48.922901
132.56845 6.1375971 48.980431
135.74609 6.5234189 48.987656
131.82285 8.8147144 48.913914
137.95158 13.560196 48.987885
130.35492 22.174677 48.933525
131.43015 23.1525 48.902958
127.35829 24.908394 48.921467
126.13847 25.326954 48.917782
132.06955 26.647884 48.912251
128.5538 14.289089 49.032486
130.05739 22.043892 49.090408
127.94184 22.440084 49.019379
131.6972 24.317226 49.013412
133.97644 4.994494 49.166603
132.67064 6.0705385 49.165012
130.21596 7.8904591 49.191879
126.49107 24.146227 49.110008
125.92508 25.057367 49.105453
128.0032 20.936514 49.241211
128.67409 22.272701 49.22216
131.13612 27.39677 49.224594
137.76501 9.7265396 49.358894
138.09808 14.719494 49.398067
134.85928 24.285608 49.329643
133.13364 26.187006 49.309227
131.29778 10.531809 49.438545
136.21573 10.952599 49.446495
132.67239 11.782219 49.472477
128.57124 14.051893 49.428986
132.56841 26.421598 49.43327
132.01344 6.6471043 49.541039
135.93555 11.579045 49.510902
131.77524 11.719156 49.55558
138.09326 14.373909 49.535637
138.13618 17.596283 49.598045
131.71111 7.3277025 49.630936
130.48125 8.8450089 49.684799
135.68068 11.172682 49.641243
138.06332 13.68313 49.674862
136.03818 23.605482 49.618233
130.88057 9.7633533 49.705307
136.86977 11.670237 49.764946
129.74022 11.915163 49.776451
137.21478 22.32342 49.789948
127.7338 24.409061 49.778057
137.15282 11.704979 49.809589
134.54791 5.5622058 49.968132
134.9326 6.4837961 49.975105
137.16907 22.58555 49.92395
127.19521 23.330996 49.960445
134.43465 23.512592 49.910995
135.10779 24.253963 49.916763
135.36162 24.563192 49.948799
138.15445 16.505594 50.083187
131.18253 22.728834 50.07214
134.43207 23.565845 50.049339
135.45102 23.696774 50.04895
126.30621 24.742699 50.087257
131.4261 11.133235 50.140678
138.14542 15.17609 50.131626
131.28186 22.647152 50.187439
131.62347 22.802902 50.157001
135.00122 24.144249 50.18486
130.83679 27.715549 50.118584
130.77168 9.780673 50.242973
136.99265 23.658539 50.223667
129.06694 22.206404 50.356495
126.3205 25.373669 50.314823
131.3876 7.1483021 50.455353
137.70364 11.6514 50.44706
138.1573 14.664386 50.416904
138.08162 18.560852 50.423443
136.64279 7.5930729 50.526062
138.19086 17.333099 50.586899
127.8992 21.100355 50.591232
136.95041 23.853912 50.51255
137.57994 11.137621 50.638283
128.188 17.401012 50.606533
137.62326 9.5974293 50.756668
131.22957 10.978235 50.711071
137.62357 20.636086 50.750244
136.01814 24.497707 50.757587
126.46644 25.460848 50.74894
128.05952 26.855246 50.778568
132.01178 27.073593 50.763828
128.99405 27.892475 50.704758
127.86201 21.354961 50.849617
134.69681 6.0008121 50.9804
127.86147 22.705051 50.993553
129.24542 28.101706 50.963341
128.18587 17.050701 51.022751
129.54115 22.020969 51.076431
133.96561 5.4419236 51.123516
137.20029 8.7493544 51.179558
138.15839 12.063627 51.106701
137.61835 20.783747 51.16386
137.10512 8.5485926 51.252808
128.53412 13.935898 51.257721
138.21024 14.944162 51.291687
138.2316 17.385456 51.285179
134.50589 5.9561386 51.342419
131.9248 6.8627453 51.366241
137.6077 9.8173256 51.325775
128.09447 17.87804 51.390659
136.97385 8.2926493 51.400055
137.95078 10.701446 51.41531
127.90453 20.290035 51.439304
137.75946 20.295731 51.563141
133.61928 26.203953 51.531784
137.94748 10.784128 51.615376
136.88362 24.091599 51.619545
133.65353 5.5002513 51.746506
135.42596 6.8529906 51.756989
129.84473 8.4242744 51.760704
127.56435 23.342682 51.720413
131.29289 7.2317543 51.867149
130.62363 10.220141 51.867516
136.95755 23.710423 51.875538
135.66907 25.151772 51.877792
131.91919 27.286825 51.894157
128.85696 27.444101 51.897926
136.02794 7.4479365 51.939453
131.31395 11.878433 51.914543
138.19479 17.198305 51.929016
128.55121 22.013071 51.917336
137.82852 10.675673 52.021027
138.19247 18.112894 52.067749
126.66721 25.529167 52.058067
132.14711 6.753109 52.148994
138.1241 13.821264 52.100304
127.52724 26.22204 52.143707
138.12178 16.874435 52.211044
137.64017 20.328835 52.239643
132.85544 26.759634 52.22924
135.79083 7.3526597 52.348537
128.49776 14.920031 52.372467
128.43588 15.547232 52.361652
138.13979 18.114496 52.368961
136.93466 23.340874 52.326061
129.77937 8.1025047 52.444839
136.95593 23.107285 52.460289
136.28554 7.8601751 52.562756
129.71667 8.5586157 52.56007
130.6944 10.884295 52.762203
137.96597 14.740071 52.764923
137.98172 18.467762 52.740669
129.76038 8.8245401 52.837158
137.96936 16.808365 52.841671
129.30756 27.695244 52.856213
131.5488 7.1087246 52.918159
138.00725 17.606092 52.930588
128.62881 22.02997 52.901913
136.30202 24.577641 52.999321
135.44969 25.403896 52.962475
130.13087 28.424931 52.929214
133.81424 5.9225764 53.065289
135.94084 7.696043 53.068878
137.90921 16.043949 53.03582
137.92625 18.452391 53.055157
127.87759 21.44381 53.036182
128.54312 21.613041 53.008537
137.10068 21.818981 53.084885
134.30176 6.365941 53.196671
128.75705 13.609482 53.198921
128.25256 18.550163 53.174408
137.02419 22.122906 53.115917
129.42834 27.743366 53.189671
137.80391 12.493251 53.340141
137.56918 19.565758 53.351265
134.55258 6.6440835 53.424709
137.93837 17.90481 53.437698
128.3399 22.652645 53.448029
126.79213 25.029554 53.591892
137.72714 13.208014 53.671707
137.07231 21.335716 53.667465
132.69128 6.4791384 53.798019
134.64674 6.8343534 53.785591
130.40306 7.7767725 53.777504
137.71533 14.9506 53.776909
128.50299 17.241867 53.795589
127.9473 23.420691 53.764458
132.91158 6.3039522 53.815784
128.78885 14.303217 53.806789
128.42917 22.422554 53.877235
129.6026 9.0267944 53.996742
128.88942 12.962482 53.953651
136.66408 22.832275 53.953434
134.27075 26.159426 53.972527
130.54564 28.291956 53.913025
133.20561 6.0817394 54.03236
136.62086 8.6140642 54.0214
136.71841 22.518761 54.024902
137.58849 11.738569 54.147827
136.53813 23.147907 54.181664
129.93228 8.0544386 54.280693
136.95811 21.194061 54.284237
128.46088 21.641088 54.254951
132.71696 27.081099 54.253868
131.36531 7.2435865 54.379875
129.84357 8.1062336 54.350761
133.66676 6.2232189 54.419613
131.18629 7.3472481 54.479694
137.48392 11.714423 54.495506
126.80778 25.471657 54.428425
129.5833 9.3051872 54.533752
128.90416 14.305929 54.521461
129.7619 9.8833656 54.649101
135.55331 24.726229 54.622124
129.31267 8.7498226 54.734329
128.23581 20.60368 54.750881
128.40096 21.651302 54.738014
136.21255 24.007607 54.729595
137.42957 13.4198 54.872013
137.49551 15.01704 54.859688
137.58875 16.39963 54.856598
137.39951 13.091684 54.981689
137.65276 17.47636 54.903057
131.80128 27.67429 54.924644
129.92841 10.677255 55.07114
137.52271 15.849072 55.022758
131.32927 27.92926 55.069557
133.13049 6.2485695 55.1618
134.63255 7.2376337 55.116283
128.71553 17.467625 55.26783
128.53578 19.059696 55.283882
128.28372 26.610386 55.269955
131.48431 27.67897 55.29142
130.58043 28.362986 55.28743
130.48773 7.9065046 55.37376
128.64418 18.207825 55.350731
137.29472 13.335073 55.409927
137.01793 20.15309 55.421741
130.60562 28.249598 55.499554
132.34299 6.8295121 55.587589
135.15913 7.9137087 55.579762
128.17107 21.616114 55.561844
127.29436 25.787676 55.525459
133.96222 25.712723 55.546303
128.89919 16.23439 55.63385
136.77441 20.909454 55.627819
136.44768 22.126045 55.61676
137.45636 18.286175 55.770847
128.61089 19.116684 55.787979
134.85403 24.960396 55.710304
134.77908 8.2295208 55.829632
136.27295 9.73559 55.887585
128.85809 17.081495 55.881905
128.84264 17.185614 55.853291
136.63995 21.271187 55.821312
133.72995 7.169333 55.913803
128.13078 22.969734 55.962807
133.96173 25.477531 55.927414
130.18109 12.379427 56.040451
137.2227 14.135042 56.07869
128.20361 26.392117 56.049568
131.31033 8.3117857 56.177597
132.81616 26.26379 56.157219
129.85449 9.3344612 56.202435
128.41541 20.678488 56.256546
133.4379 7.3185921 56.560703
129.33406 10.240192 56.521675
136.97749 12.538023 56.584858
136.78401 19.827597 56.517159
128.29054 26.05777 56.551933
132.09583 26.713438 56.523506
132.90042 7.7074103 56.616814
136.93187 12.241455 56.642414
128.17091 22.833214 56.681328
129.50865 10.190353 56.751747
136.52357 11.701324 56.792072
134.34837 24.821093 56.764908
136.84183 13.49991 56.828804
128.2686 22.597733 56.892105
130.92038 27.412289 56.833008
133.45639 7.7347927 56.962105
133.55003 7.8051353 56.962391
129.18301 14.789835 56.918049
137.07526 17.9195 56.965832
127.89534 25.049612 56.975033
130.1274 26.840099 56.961231
130.07632 10.175739 57.063919
135.29097 23.580252 57.031124
128.96213 17.98295 57.15522
128.68192 19.744583 57.129921
130.03795 26.653044 57.135029
131.69533 9.337307 57.258621
128.91245 18.482588 57.294029
135.63293 22.904415 57.200356
129.71202 26.33696 57.292953
136.41838 19.465231 57.301628
135.77324 22.151768 57.353512
129.21629 15.668123 57.46513
129.07741 17.409128 57.46125
128.94711 25.204699 57.459469
129.10318 25.3337 57.479233
136.41037 15.933849 57.579971
128.92754 18.59306 57.556236
135.26196 11.309783 57.651604
130.32784 26.22917 57.69178
131.37572 26.908323 57.615829
135.38658 12.222445 57.796883
129.21599 16.483746 57.740669
133.51651 24.340408 57.794243
132.97098 9.1478138 57.823357
136.16129 13.862826 57.876587
135.99564 19.980179 57.834492
130.51907 26.153332 57.831009
135.08775 12.121518 57.998314
135.34125 12.501947 57.905083
136.15991 14.408051 57.900169
133.30931 9.191514 58.055172
135.01456 12.108999 58.050861
128.83737 19.531265 58.071049
133.75465 9.0995998 58.181438
130.82857 10.926535 58.150024
135.1721 13.098956 58.191383
129.28378 16.218311 58.187496
135.55569 21.061104 58.170769
131.62048 25.982857 58.193558
131.00768 26.069178 58.119339
132.9436 9.635788 58.23373
133.88809 10.058052 58.370232
129.373 14.533735 58.383774
132.23709 24.91065 58.333344
134.1985 11.267584 58.451935
130.423 11.519531 58.435619
129.45171 12.691554 58.444767
131.93768 25.028994 58.467079
130.83885 25.119205 58.419174
134.73511 21.393438 58.574158
128.71182 22.63209 58.598969
129.05212 23.025398 58.586987
132.74068 23.84902 58.540703
134.67326 13.390605 58.648815
129.00787 18.963093 58.668045
133.81726 22.227859 58.659027
129.84682 23.619257 58.665005
133.38338 22.664986 58.719696
132.15936 11.279163 58.872967
135.81926 18.767921 58.88121
128.96088 19.388683 58.853863
129.08374 19.823471 59.08654
130.49518 22.8727 59.145653
129.56058 18.110916 59.229855
134.74545 20.201214 59.285332
130.01117 14.058002 59.390934
133.82324 13.831428 59.413509
130.04221 15.626235 59.497536
135.28168 19.582369 59.559883
136.4581 17.524204 59.697598
129.70004 19.505547 59.628494
134.50714 19.819435 59.685051
133.72849 20.45503 59.660286
130.12241 21.131176 59.675465
133.05965 21.127302 59.699028
131.50174 22.10498 59.653107
130.24467 16.014196 59.726929
132.78391 21.219574 59.830547
133.8631 14.870445 59.900284
130.40585 16.953503 59.904518
134.11034 14.961832 60.096115
135.40009 15.437244 60.052963
131.30739 21.112146 60.02314
134.23622 14.981215 60.114517
130.6752 15.565071 60.154373
130.62917 16.489594 60.12833
133.08672 20.180182 60.158352
135.37021 15.38187 60.278851
132.50279 20.223221 60.28701
132.10211 20.371662 60.252846
130.83592 16.356327 60.335247
132.36285 19.861664 60.425171
135.51144 15.676879 60.564995
131.75162 19.64049 60.535568
131.32065 19.741724 60.520042
135.96906 16.374716 60.627533
136.64787 17.275927 60.68108
132.30077 15.115149 60.811367
138.2424 16.893137 60.844398
138.32309 17.864441 60.852379
135.57352 15.29394 61.085911
136.52063 15.638181 61.171753
137.50015 15.928062 61.10281
137.69711 18.724604 61.220631
133.06886 14.950564 61.418465
131.1562 16.728701 61.467903
131.15674 18.269184 61.478264
138.72504 17.408726 61.757294
138.44809 18.223263 62.046921
132.68689 15.224318 62.145767
138.02991 15.977538 62.145821
134.35474 19.964092 62.166439
136.86621 15.000006 62.230091
137.06476 17.117624 62.286198
138.50255 17.326269 62.254898
132.25052 19.31031 62.256916
131.13429 17.675858 62.404022
132.17856 19.288755 62.608559
135.00616 20.293436 62.627251
137.64026 19.50124 62.768143
138.63712 16.817656 62.910053
134.43538 20.365582 62.965347
137.55774 19.758984 63.082184
131.36789 19.043119 63.104809
130.97583 16.837809 63.204334
132.7355 14.912895 63.330894
138.46106 16.294136 63.320797
138.62787 16.734177 63.327309
138.01096 19.48107 63.366631
138.73291 17.548782 63.465546
135.14922 14.095928 63.635757
137.95575 15.160606 63.628113
138.88602 17.016092 63.607742
136.95396 14.434813 63.719215
137.65125 14.729098 63.73225
136.86014 14.348118 63.881481
130.80057 16.205553 63.840336
130.81866 18.320347 63.834988
135.12268 20.839977 63.855618
133.72021 20.475163 64.060699
137.9039 19.888084 64.150528
130.6561 16.238644 64.382172
137.05693 20.474865 64.309929
135.59906 20.626669 64.329727
132.36429 20.063751 64.508934
138.24835 18.778797 64.602791
135.35225 20.642942 64.616165
135.35953 20.879015 64.64415
137.92313 15.379676 64.743767
134.63979 14.090144 64.917709
137.91237 15.39232 64.90921
138.32967 16.233528 64.973869
136.73331 20.496601 64.922066
134.7991 20.957026 65.135612
135.04626 14.023404 65.257263
136.18115 14.226879 65.469986
130.90875 19.439592 65.778275
137.3853 20.381708 65.739731
132.52539 20.602499 65.783112
137.0022 20.453773 65.826187
132.88493 13.773643 65.990898
132.00066 14.190833 65.990898
133.01416 13.539816 66.00811
130.21474 16.851212 66.045021
138.53363 18.814123 66.042938
136.13643 20.549534 66.093796
130.17796 16.153496 66.172409
134.24696 10.975968 66.243416
133.07401 20.822512 66.219627
138.16257 14.980844 66.384956
135.38417 10.904361 66.461929
135.59776 13.734354 66.503036
138.73743 16.114145 66.50016
137.57153 20.268032 66.51545
131.97499 20.491756 66.549675
136.58293 12.580777 66.692657
136.42299 12.927247 66.66188
134.96243 14.025278 66.688942
130.61252 19.46987 66.740829
137.18245 11.681978 66.847656
135.37404 13.989671 66.87133
129.9968 18.100677 66.881027
137.14821 14.074928 66.971634
138.19464 19.77346 66.957115
137.56534 13.673836 67.094818
132.647 20.853134 67.058937
129.91039 16.448099 67.180435
