# .PCD v0.7 - Point Cloud Data file format
VERSION 0.7
FIELDS x y z
SIZE 4 4 4
TYPE F F F
COUNT 1 1 1
WIDTH 1553
HEIGHT 1
VIEWPOINT 0 0 0 1 0 0 0
POINTS 1553
DATA ascii
104.87818 0.23371902 14.605942
105.28305 0.23371902 14.633785
112.50476 0.23371899 14.672876
113.23805 0.23371902 14.668906
125.78875 0.23371899 14.763854
117.69965 0.23371902 14.883839
118.02596 0.23371902 14.887191
122.39753 0.23371899 14.892769
123.11169 0.23371899 14.89101
128.75441 0.23371902 14.817901
106.82253 0.23371901 14.932103
117.84696 0.23371899 14.906717
121.98508 0.23371901 14.952744
124.84539 0.23371899 14.965616
103.99341 0.23371899 15.091969
104.88055 0.23371901 15.002793
115.50792 0.23371901 15.025391
111.59299 0.23371899 15.146468
120.13976 0.23371901 15.116116
121.98241 0.23371899 15.183226
126.51338 0.23371901 15.148153
126.80509 0.23371899 15.155012
125.3737 0.23371902 15.272447
125.27907 0.23371902 15.390842
127.00707 0.23371899 15.391888
112.6308 0.23371899 15.414694
114.47424 0.23371901 15.463891
120.67049 0.23371901 15.491811
127.35015 0.23371901 15.493273
119.465 0.23371902 15.545148
121.46532 0.23371902 15.502297
122.2905 0.23371901 15.511354
122.44699 0.23371899 15.503338
117.76413 0.23371899 15.689238
122.12388 0.23371901 15.699282
118.55569 0.23371902 15.778055
106.66486 0.23371901 15.827934
115.55284 0.23371901 15.819683
125.78963 0.23371902 15.987709
127.27625 0.23371902 15.92738
132.5728 0.23371902 15.930624
105.83337 0.23371902 16.076323
117.49399 0.23371899 16.059044
109.02466 0.23371902 16.181086
112.44367 0.23371901 16.265081
122.77129 0.23371901 16.204569
118.13162 0.23371901 16.306541
131.92085 0.23371901 16.307217
108.47454 0.23371899 16.427425
121.62697 0.23371901 16.433239
108.69811 0.23371902 16.553501
116.51479 0.23371901 16.50061
117.98985 0.23371902 16.563557
106.27441 0.23371899 16.684851
120.11241 0.23371901 16.696804
109.02031 0.23371901 16.771095
122.67024 0.23371901 16.704063
126.49299 0.23371901 16.771103
127.69156 0.23371901 16.723238
131.83012 0.23371902 16.852936
121.32584 0.23371899 17.070585
127.37682 0.23371901 17.018646
106.95591 0.23371899 17.189291
117.01018 0.23371902 17.141872
112.18323 0.23371901 17.275213
113.44933 0.23371901 17.251806
120.61978 0.23371901 17.205748
122.43354 0.23371901 17.216166
103.4298 0.23371902 17.325768
106.42831 0.23371899 17.366825
107.56364 0.23371901 17.361208
109.96868 0.23371902 17.385963
112.37623 0.23371901 17.317663
114.67409 0.23371902 17.383705
117.15346 0.23371902 17.319511
104.69429 0.23371901 17.488806
112.35089 0.23371899 17.493439
115.67706 0.23371899 17.453724
119.62909 0.23371899 17.42347
122.83139 0.23371899 17.42124
114.98395 0.23371899 17.540932
116.04303 0.23371899 17.501448
125.13844 0.23371901 17.529442
131.79393 0.23371902 17.500637
110.40038 0.23371899 17.626503
118.38274 0.23371901 17.69768
105.88699 0.23371901 17.704166
116.45456 0.23371901 17.722385
103.08192 0.23371901 17.826803
109.23875 0.23371901 17.839684
113.80338 0.23371899 17.800499
116.80342 0.23371902 17.882935
120.06862 0.23371901 17.829967
120.14438 0.23371901 17.816074
122.5554 0.23371901 17.869703
122.93547 0.23371901 17.887466
123.30803 0.23371901 17.868063
127.66743 0.23371901 17.839531
106.26752 0.23371902 17.989496
114.78641 0.23371899 17.969742
116.09029 0.23371899 17.980604
117.06741 0.23371902 17.988031
104.20063 0.23371901 18.083157
105.00122 0.23371901 18.052494
109.04286 0.23371902 18.097528
120.02568 0.23371901 18.067221
121.52143 0.23371901 18.085983
116.48787 0.23371901 18.179926
119.42316 0.23371902 18.102512
122.52046 0.23371899 18.148849
104.36176 0.23371901 18.291714
104.83513 0.23371901 18.346363
113.40366 0.23371902 18.367413
117.07635 0.23371899 18.397261
125.44872 0.23371901 18.358574
131.25925 0.23371901 18.386086
116.77205 0.23371902 18.407112
118.08886 0.23371899 18.413551
128.54002 0.23371901 18.449003
104.33719 0.23371901 18.511557
120.60623 0.23371901 18.587591
127.04692 0.23371901 18.537849
131.46127 0.23371899 18.504057
114.49595 0.23371901 18.639874
115.53773 0.23371901 18.634808
115.9221 0.23371901 18.609365
119.91634 0.23371899 18.60593
109.46964 0.23371899 18.797749
113.95025 0.23371901 18.760447
132.24615 0.23371901 18.769472
105.61119 0.23371899 18.8538
110.17389 0.23371902 18.852268
116.69788 0.23371899 18.824053
122.08246 0.23371902 18.888165
116.89558 0.23371902 18.928246
120.38264 0.23371901 18.955744
124.46281 0.23371901 18.967007
110.34946 0.23371901 19.025188
112.40678 0.23371901 19.097013
104.65836 0.23371902 19.196533
114.86444 0.23371901 19.142776
122.90224 0.23371899 19.114618
125.61539 0.23371899 19.133533
131.40155 0.23371901 19.122845
106.1398 0.23371901 19.227398
114.77783 0.23371901 19.204052
122.27399 0.23371901 19.256226
119.27333 0.23371902 19.350866
130.2616 0.23371901 19.383862
131.46152 0.23371901 19.394274
103.11707 0.23371901 19.490841
105.125 0.23371902 19.443745
112.19939 0.23371902 19.42963
114.67639 0.23371899 19.437325
105.70481 0.23371902 19.536716
118.71454 0.23371899 19.520332
130.7816 0.23371901 19.595821
105.77135 0.23371901 19.638504
110.26995 0.23371901 19.649195
129.30479 0.23371901 19.607222
108.67351 0.23371899 19.740459
106.03383 0.23371901 19.839497
112.75398 0.23371901 19.855366
118.68254 0.23371902 19.83651
120.496 0.23371899 19.879354
130.6291 0.23371902 19.839489
104.34583 0.23371899 19.922096
111.34727 0.23371899 19.918833
119.37645 0.23371901 19.937979
120.92457 0.23371901 19.941628
107.05676 0.23371901 20.005659
125.16228 0.23371902 20.058157
107.33278 0.23371899 20.138784
110.93362 0.23371902 20.148083
114.03189 0.23371901 20.16766
102.21429 0.23371901 20.261799
103.77728 0.23371901 20.233746
109.72471 0.23371902 20.27125
123.78541 0.23371899 20.262112
125.33322 0.23371899 20.29982
128.71556 0.23371901 20.287006
129.31271 0.23371899 20.242886
104.96765 0.23371901 20.357962
114.93379 0.23371902 20.320435
115.20503 0.23371899 20.300304
115.79167 0.23371902 20.386921
107.62662 0.23371899 20.408058
117.47877 0.23371901 20.448961
110.8134 0.23371899 20.571074
115.16123 0.23371901 20.587479
111.7261 0.23371901 20.609011
131.75853 0.23371902 20.664701
124.28424 0.23371902 20.75034
124.49024 0.23371902 20.709024
126.09457 0.23371901 20.72348
129.39833 0.23371901 20.707636
111.13285 0.23371902 20.873405
119.6049 0.23371901 20.828993
104.84489 0.23371902 21.074211
109.29447 0.23371902 21.064411
119.4454 0.23371902 21.038822
125.66009 0.23371901 21.044456
127.09126 0.23371901 21.06415
130.97746 0.23371901 21.069715
106.98455 0.23371902 21.157652
118.02964 0.23371901 21.123652
124.56021 0.23371899 21.194263
128.41628 0.23371901 21.12801
116.03789 0.23371901 21.286123
118.53113 0.23371901 21.393291
124.55058 0.23371901 21.305737
108.79066 0.23371902 21.423244
111.11252 0.23371901 21.485386
125.13853 0.23371901 21.476402
121.22121 0.23371901 21.581205
125.6507 0.23371901 21.51112
126.79626 0.23371901 21.56922
118.28166 0.23371899 21.666931
118.45048 0.23371901 21.657091
103.9013 0.23371902 21.715343
105.42274 0.23371899 21.799557
117.21552 0.23371899 21.778141
121.7751 0.23371901 21.733294
102.6104 0.23371901 21.839891
104.86369 0.23371901 21.821976
115.44653 0.23371902 21.823576
111.51047 0.23371899 21.952358
118.89552 0.23371902 21.975897
116.22697 0.23371901 22.019304
122.57851 0.23371902 22.089066
109.88818 0.23371899 22.126081
117.89458 0.23371901 22.123259
120.11213 0.23371899 22.147768
121.13837 0.23371902 22.104012
127.61939 0.23371901 22.174822
112.45524 0.23371899 22.264294
131.38504 0.23371901 22.232529
105.7016 0.23371901 22.352261
116.80633 0.23371901 22.3507
122.13288 0.23371899 22.314405
126.40111 0.23371899 22.355057
131.23882 0.23371901 22.306808
103.65394 0.23371899 22.441668
124.54637 0.23371899 22.440325
110.73892 0.23371902 22.594028
112.39236 0.23371901 22.571459
120.84336 0.23371899 22.615381
121.02785 0.23371901 22.64106
105.25968 0.23371902 22.748501
118.32122 0.23371901 22.769285
124.15952 0.23371902 22.792009
129.87848 0.23371899 22.87392
102.54106 0.23371901 23.026482
112.1194 0.23371901 23.06476
130.36023 0.23371901 23.028698
124.59537 0.23371901 23.183495
102.96531 0.23371901 23.266449
115.95717 0.23371902 23.225204
129.3519 0.23371901 23.218567
130.20837 0.23371899 23.268965
104.46715 0.23371902 23.345081
103.77126 0.23371901 23.45677
106.66766 0.23371901 23.411003
112.349 0.23371901 23.478432
125.06975 0.23371901 23.484432
117.6858 0.23371901 23.694397
119.44951 0.23371899 23.612429
121.66917 0.23371899 23.774349
124.97681 0.23371899 23.783112
108.02157 0.23371902 23.804518
109.52336 0.23371899 23.851362
117.03381 0.23371902 23.871803
126.20479 0.23371899 23.827368
114.18009 0.23371901 23.902908
121.86479 0.23371899 23.908566
126.36221 0.23371901 23.938726
108.07851 0.23371902 24.028536
121.96915 0.23371899 24.014484
126.76149 0.23371899 24.073952
116.12183 0.23371901 24.183203
118.12419 0.23371899 24.126286
121.03534 0.23371902 24.176325
101.87077 0.23371901 24.251005
106.59761 0.23371901 24.262615
111.51736 0.23371901 24.246445
107.17039 0.23371902 24.359922
119.24092 0.23371901 24.307667
122.52997 0.23371901 24.380035
127.4948 0.23371901 24.362869
103.61852 0.23371901 24.464203
124.78528 0.23371901 24.47876
102.47872 0.23371899 24.532146
110.10662 0.23371902 24.513321
114.76056 0.23371901 24.598276
117.82436 0.23371901 24.521057
118.51728 0.23371899 24.580069
122.19777 0.23371901 24.597694
111.185 0.23371899 24.68779
120.92 0.23371901 24.675331
124.57372 0.23371902 24.668461
103.50122 0.23371901 24.788456
105.0158 0.23371899 24.737282
110.17303 0.23371899 24.734043
112.86166 0.23371901 24.729382
119.28209 0.23371901 24.752493
122.54114 0.23371899 24.833227
103.63554 0.23371899 25.041973
108.24191 0.23371899 25.051735
119.59813 0.23371901 25.048727
113.85851 0.23371901 25.123074
119.70831 0.23371901 25.147865
121.05231 0.23371901 25.125383
104.55129 0.23371901 25.247124
113.42166 0.23371901 25.205561
124.3606 0.23371902 25.278688
124.5582 0.23371902 25.272701
125.97118 0.23371901 25.250685
126.5273 0.23371901 25.279129
107.00769 0.23371899 25.300804
108.40955 0.23371902 25.357986
112.26009 0.23371899 25.303558
113.7491 0.23371902 25.33551
109.99432 0.23371902 25.462887
115.966 0.23371902 25.451263
117.42917 0.23371902 25.445841
121.84511 0.23371901 25.473831
118.86987 0.23371901 25.571278
120.24031 0.23371902 25.543941
120.44262 0.23371902 25.598192
126.61201 0.23371901 25.582676
129.40503 0.23371899 25.529495
109.94196 0.23371901 25.616798
124.50501 0.23371899 25.794437
125.36874 0.23371902 25.783417
126.33829 0.23371902 25.735027
102.30591 0.23371902 25.858253
103.66926 0.23371901 25.822256
108.25166 0.23371902 25.883999
114.14333 0.23371901 25.872477
117.08336 0.23371901 25.893208
118.95766 0.23371901 25.822815
122.81802 0.23371901 25.802704
130.97681 0.23371901 25.859604
108.17652 0.23371901 25.954887
124.19477 0.23371901 25.997236
129.77266 0.23371901 25.99086
102.83467 0.23371901 26.03273
105.89705 0.23371902 26.088749
130.17191 0.23371901 26.07165
104.49625 0.23371901 26.107395
107.11448 0.23371901 26.173986
121.70235 0.23371901 26.187517
130.92432 0.23371899 26.164433
110.33372 0.23371902 26.281633
128.76303 0.23371902 26.293169
107.49834 0.23371901 26.392195
112.97729 0.23371902 26.3948
102.41711 0.23371901 26.418541
107.25966 0.23371899 26.484476
111.11043 0.23371901 26.443707
112.36794 0.23371901 26.4625
119.26819 0.23371899 26.466652
124.32394 0.23371902 26.474003
126.62502 0.23371901 26.441736
131.6907 0.23371902 26.49992
103.36913 0.23371902 26.548866
122.89778 0.23371902 26.507591
110.32101 0.23371899 26.664888
112.42242 0.23371901 26.62154
122.84892 0.23371902 26.645447
104.65891 0.23371901 26.775707
106.68568 0.23371899 26.748552
109.88474 0.23371901 26.714409
110.90456 0.23371902 26.775551
113.1758 0.23371899 26.767944
126.8261 0.23371901 26.776073
127.64848 0.23371901 26.750484
103.8902 0.23371902 26.861252
110.98697 0.23371901 26.83672
113.71376 0.23371901 26.897942
114.08741 0.23371899 26.804148
103.8373 0.23371899 26.905571
109.96268 0.23371899 26.918575
120.59943 0.23371901 26.900564
126.85595 0.23371901 26.943876
132.03429 0.23371901 26.976927
123.44003 0.23371902 27.038727
126.16496 0.23371902 27.012568
129.44041 0.23371902 27.09107
109.74642 0.23371901 27.150049
116.4916 0.23371902 27.198343
124.7374 0.23371901 27.103634
102.81575 0.23371901 27.276821
130.49258 0.23371899 27.200068
104.57877 0.23371902 27.354357
129.14975 0.23371902 27.365366
101.77856 0.23371899 27.563288
117.14522 0.23371901 27.551977
121.01699 0.23371902 27.516092
123.67793 0.23371902 27.575832
132.20137 0.23371899 27.570724
117.72773 0.23371902 27.664907
121.05699 0.23371899 27.652267
124.5665 0.23371901 27.64735
101.55094 0.23371899 27.741562
113.65463 0.23371901 27.705032
119.03426 0.23371899 27.775999
124.35641 0.23371901 27.738916
111.87952 0.23371899 27.865149
123.00862 0.23371899 27.889946
132.48244 0.23371901 27.803534
112.52318 0.23371902 27.971935
118.60668 0.23371902 27.969425
115.84496 0.23371902 28.056444
118.85005 0.23371902 28.044371
123.32916 0.23371902 28.072607
126.87167 0.23371901 28.118883
128.93851 0.23371902 28.189156
132.5919 0.23371901 28.188919
109.20499 0.23371901 28.247122
113.83625 0.23371901 28.278988
131.52362 0.23371901 28.299765
110.03121 0.23371901 28.372604
116.80553 0.23371901 28.332859
117.71957 0.23371902 28.338293
124.19174 0.23371901 28.36245
101.54436 0.23371899 28.413668
111.35752 0.23371902 28.483276
118.3781 0.23371901 28.447531
124.54241 0.23371899 28.482906
130.91116 0.23371901 28.441843
104.70724 0.23371901 28.514599
105.64287 0.23371901 28.585651
121.9597 0.23371901 28.560822
124.73511 0.23371901 28.526642
125.02451 0.23371901 28.534073
126.61415 0.23371899 28.525749
127.17232 0.23371899 28.721292
125.56275 0.23371899 28.859394
126.57665 0.23371902 28.973816
127.38721 0.23371902 28.953403
131.07544 0.23371901 28.955713
106.27306 0.23371899 29.00466
115.82542 0.23371901 29.080683
118.31985 0.23371901 29.038618
128.25995 0.23371901 29.000437
132.11105 0.23371899 29.066183
113.47402 0.23371901 29.170807
119.95551 0.23371901 29.187141
103.11201 0.23371901 29.212086
110.92873 0.23371901 29.227518
124.98666 0.23371901 29.236782
126.16942 0.23371901 29.219536
130.98044 0.23371899 29.248766
111.57785 0.23371899 29.387251
113.27776 0.23371901 29.391352
111.62094 0.23371901 29.49235
120.76663 0.23371902 29.462143
125.43143 0.23371899 29.457453
128.47482 0.23371899 29.413864
128.63513 0.23371899 29.434479
100.86093 0.23371901 29.560806
104.88686 0.23371902 29.588989
105.37757 0.23371902 29.544436
124.86572 0.23371902 29.54641
133.41141 0.23371899 29.547169
101.65233 0.23371899 29.623981
114.0443 0.23371899 29.662909
114.19905 0.23371901 29.765463
115.64941 0.23371901 29.715672
117.64142 0.23371899 29.708492
123.5302 0.23371899 29.769035
127.92525 0.23371902 29.713272
132.14989 0.23371901 29.721722
112.5341 0.23371901 29.866743
114.01485 0.23371902 29.857216
114.97504 0.23371901 29.864758
115.79138 0.23371899 29.854887
104.26006 0.23371902 29.903961
115.97369 0.23371899 29.942219
124.55314 0.23371901 29.938465
127.87776 0.23371902 30.016359
130.02914 0.23371901 30.070034
101.52387 0.23371901 30.154335
114.65356 0.23371899 30.100883
129.78923 0.23371899 30.17857
101.49969 0.23371901 30.266685
113.5793 0.23371899 30.285212
132.2533 0.23371899 30.204683
108.91166 0.23371901 30.309658
115.04359 0.23371901 30.353209
116.25869 0.23371901 30.351681
100.64758 0.23371901 30.400494
104.60849 0.23371902 30.494343
109.81167 0.23371899 30.435963
110.49857 0.23371901 30.431376
123.66822 0.23371901 30.467524
132.86974 0.23371901 30.478664
102.1601 0.23371902 30.599766
105.25303 0.23371902 30.52887
122.13642 0.23371901 30.519136
129.18198 0.23371901 30.575073
130.15877 0.23371902 30.538521
131.30534 0.23371902 30.541954
106.57841 0.23371899 30.634672
121.157 0.23371901 30.601282
126.88219 0.23371901 30.630812
132.90964 0.23371901 30.629816
129.20515 0.23371901 30.751831
109.15579 0.23371902 30.888912
109.21529 0.23371899 30.852686
118.2315 0.23371899 30.827162
118.86398 0.23371902 30.898573
132.96759 0.23371901 30.89245
121.92362 0.23371899 30.968079
126.78093 0.23371901 30.907955
106.62175 0.23371901 31.078156
108.34637 0.23371899 31.078892
109.09439 0.23371901 31.078533
128.06964 0.23371902 31.011703
105.81992 0.23371902 31.135275
116.78427 0.23371899 31.196737
117.27164 0.23371902 31.198084
128.85991 0.23371902 31.141407
131.88992 0.23371901 31.139566
113.95796 0.23371902 31.288643
115.31023 0.23371901 31.214672
117.69319 0.23371901 31.240294
130.3327 0.23371901 31.209024
106.74155 0.23371901 31.393274
103.42444 0.23371899 31.42284
109.88612 0.23371902 31.4865
123.23692 0.23371901 31.473827
100.99698 0.23371902 31.561958
103.89072 0.23371899 31.544746
107.34143 0.23371901 31.529713
120.95897 0.23371901 31.558388
121.58763 0.23371901 31.557756
122.42903 0.23371899 31.568542
124.89548 0.23371899 31.517828
111.59767 0.23371901 31.603111
126.56305 0.23371901 31.60697
130.05339 0.23371899 31.687231
110.12841 0.23371901 31.732895
110.84714 0.23371902 31.775625
107.06692 0.23371901 31.847958
127.50793 0.23371901 31.855663
109.51212 0.23371899 31.912193
112.10192 0.23371901 31.929205
124.35286 0.23371899 31.988171
105.61491 0.23371899 32.092865
117.27211 0.23371901 32.080353
124.05351 0.23371902 32.059303
102.7812 0.23371901 32.147373
103.61337 0.23371899 32.198647
113.50322 0.23371902 32.163086
121.67604 0.23371899 32.176476
124.2403 0.23371901 32.112751
110.86109 0.23371901 32.281796
111.62959 0.23371902 32.203033
133.12045 0.23371901 32.254326
121.06255 0.23371899 32.319801
105.9366 0.23371901 32.477505
123.14105 0.23371901 32.489353
131.94347 0.23371901 32.414719
100.96744 0.23371901 32.524918
108.02443 0.23371902 32.573853
122.30441 0.23371899 32.507504
101.43689 0.23371902 32.612625
119.38264 0.23371899 32.634178
120.80843 0.23371901 32.636543
129.88022 0.23371901 32.607391
133.90234 0.23371899 32.64743
101.95466 0.23371902 32.766605
109.71188 0.23371899 32.776909
109.217 0.23371899 32.851044
119.00087 0.23371899 32.887363
121.50016 0.23371902 32.837029
123.96185 0.23371899 32.846569
130.09341 0.23371901 32.89513
110.62316 0.23371899 32.968666
114.69981 0.23371901 32.902908
117.08777 0.23371901 32.912289
124.5927 0.23371899 32.954266
126.37259 0.23371902 32.951683
127.43572 0.23371901 32.964462
130.78342 0.23371901 32.914116
101.01562 0.23371902 33.030792
110.88328 0.23371901 33.04908
115.62408 0.23371901 33.049129
119.01381 0.23371899 33.074894
123.19089 0.23371902 33.063484
127.52142 0.23371901 33.051918
107.56398 0.23371899 33.12011
129.65396 0.23371901 33.191765
103.9818 0.23371901 33.215466
106.71938 0.23371902 33.266392
101.86019 0.23371901 33.46796
110.17564 0.23371899 33.419346
105.21286 0.23371901 33.513306
108.98203 0.23371902 33.543358
111.23685 0.23371899 33.562309
130.68857 0.23371902 33.548027
109.94873 0.23371899 33.672813
112.94907 0.23371901 33.678562
117.0253 0.23371901 33.698425
122.11048 0.23371902 33.661827
123.48552 0.23371899 33.637726
105.06309 0.23371899 33.793953
108.06528 0.23371899 33.715496
113.65334 0.23371902 33.723019
120.74419 0.23371899 33.721169
100.47198 0.23371901 33.816788
109.12674 0.23371899 33.898132
129.0191 0.23371902 33.883026
100.72134 0.23371902 33.99081
101.82161 0.23371901 33.944641
104.24119 0.23371901 33.945934
131.72154 0.23371899 33.946793
102.46656 0.23371899 34.095779
106.47662 0.23371901 34.064034
105.50095 0.23371902 34.108418
110.2731 0.23371901 34.184952
104.63244 0.23371902 34.23584
104.92513 0.23371901 34.283798
108.0023 0.23371902 34.221298
120.44655 0.23371901 34.259422
127.53036 0.23371902 34.215595
121.08585 0.23371899 34.344158
126.52589 0.23371899 34.349674
133.87808 0.23371901 34.39547
117.05707 0.23371899 34.595345
120.2068 0.23371901 34.510796
105.23558 0.23371901 34.605289
108.50533 0.23371902 34.608761
133.40344 0.23371901 34.699017
115.85364 0.23371902 34.732281
128.34219 0.23371901 34.742889
131.05881 0.23371902 34.712952
102.29636 0.23371899 34.804276
104.4671 0.23371902 34.881065
105.82233 0.23371902 34.83971
110.39011 0.23371901 34.801796
117.68361 0.23371902 34.865005
121.21413 0.23371901 34.827335
121.9175 0.23371902 34.847496
114.6705 0.23371899 34.926979
124.46237 0.23371899 34.900799
130.89136 0.23371901 34.957264
131.79257 0.23371901 34.976791
132.67197 0.23371899 34.902737
108.03464 0.23371899 35.112431
126.76085 0.23371902 35.129662
114.57672 0.23371902 35.200794
130.24992 0.23371901 35.292797
114.41084 0.23371902 35.380215
126.12074 0.23371901 35.352505
132.93195 0.23371901 35.370602
111.42706 0.23371901 35.409554
100.52907 0.23371902 35.51215
112.36365 0.23371902 35.596951
112.31847 0.23371902 35.664486
115.45706 0.23371901 35.655735
126.92828 0.23371901 35.674572
127.98744 0.23371901 35.641609
107.64316 0.23371901 35.711445
114.44608 0.23371901 35.721878
116.75873 0.23371901 35.723835
130.0712 0.23371901 35.736671
101.28581 0.23371902 35.885536
112.91678 0.23371901 35.827045
113.07479 0.23371899 35.823677
115.50584 0.23371901 35.816853
123.66823 0.23371901 35.894318
133.81909 0.23371899 35.834038
105.96148 0.23371899 35.970291
110.85763 0.23371901 35.907211
117.09496 0.23371901 35.983597
118.57767 0.23371901 36.08511
127.57966 0.23371901 36.016003
131.3475 0.23371899 36.03233
120.13683 0.23371901 36.11245
120.5574 0.23371902 36.179722
132.54829 0.23371902 36.108574
101.84011 0.23371899 36.218487
104.46389 0.23371902 36.202293
116.53433 0.23371901 36.28157
119.52471 0.23371899 36.203903
127.01907 0.23371901 36.245983
107.77345 0.23371901 36.392426
111.41161 0.23371899 36.313271
118.80826 0.23371901 36.3564
121.95602 0.23371901 36.340618
128.78459 0.23371899 36.385193
101.47153 0.23371901 36.401535
114.21408 0.23371902 36.425335
120.9426 0.23371899 36.469463
106.88396 0.23371899 36.576241
133.42328 0.23371899 36.501884
104.59017 0.23371901 36.682419
116.0649 0.23371901 36.682476
120.15154 0.23371899 36.674412
120.81625 0.23371901 36.663872
121.34348 0.23371902 36.695007
127.76549 0.23371899 36.640762
128.0296 0.23371901 36.611233
128.8506 0.23371902 36.625992
131.82971 0.23371901 36.643654
133.97763 0.23371901 36.648445
109.60666 0.23371902 36.70013
114.22194 0.23371901 36.754562
115.12908 0.23371899 36.751469
115.98814 0.23371901 36.713829
109.98723 0.23371901 36.856461
115.55125 0.23371901 36.83136
116.65995 0.23371901 36.869709
117.56499 0.23371901 36.897079
124.48012 0.23371901 36.946869
129.36217 0.23371901 36.931007
111.01425 0.23371899 37.066879
134.65778 0.23371901 37.15189
101.47211 0.23371901 37.283066
122.03333 0.23371902 37.209908
122.31792 0.23371901 37.255501
127.48851 0.23371901 37.247681
109.78761 0.23371902 37.348412
118.11606 0.23371902 37.307434
129.58133 0.23371901 37.337124
132.29541 0.23371902 37.320202
100.52235 0.23371902 37.420364
106.55338 0.23371899 37.460907
118.86667 0.23371899 37.435852
124.0927 0.23371899 37.460846
104.14799 0.23371901 37.573204
116.06197 0.23371899 37.572231
118.22577 0.23371899 37.522728
132.91635 0.23371902 37.502678
103.08337 0.23371901 37.621429
108.96094 0.23371899 37.783176
110.16452 0.23371899 37.781395
116.03726 0.23371901 37.746616
120.00108 0.23371899 37.738712
129.74455 0.23371901 37.706539
100.63103 0.23371902 37.875404
110.45519 0.23371902 37.895523
116.68179 0.23371902 37.862129
127.89899 0.23371902 37.863869
104.34617 0.23371901 37.995811
118.66827 0.23371902 37.948784
126.863 0.23371901 37.921474
127.15691 0.23371902 37.941605
134.91649 0.23371902 37.931725
101.6614 0.23371901 38.075665
104.16428 0.23371902 38.097557
118.25465 0.23371901 38.088608
124.41723 0.23371901 38.037926
108.98437 0.23371901 38.154171
117.24757 0.23371901 38.189098
122.83597 0.23371899 38.113846
108.53941 0.23371902 38.244858
108.67999 0.23371899 38.254032
114.68539 0.23371901 38.250706
117.47173 0.23371901 38.209225
119.25548 0.23371899 38.284908
125.4547 0.23371899 38.222458
115.55946 0.23371901 38.355629
125.57488 0.23371902 38.385124
127.67074 0.23371902 38.300636
128.53961 0.23371901 38.453159
130.14313 0.23371901 38.485359
110.6319 0.23371901 38.570557
113.91363 0.23371901 38.531879
117.91814 0.23371901 38.565346
118.85757 0.23371901 38.571701
122.38907 0.23371899 38.583225
126.36742 0.23371899 38.521004
128.70767 0.23371901 38.547287
133.64651 0.23371902 38.543835
113.12283 0.23371899 38.661076
100.42493 0.23371901 38.744808
129.11737 0.23371901 38.7827
100.12556 0.23371901 38.840927
106.13846 0.23371899 38.926819
107.75307 0.23371901 39.022171
134.19005 0.23371901 39.005699
103.55862 0.23371902 39.115612
109.54866 0.23371901 39.191345
128.90431 0.23371902 39.178368
132.55521 0.23371901 39.17321
102.76308 0.23371899 39.24786
109.7719 0.23371899 39.277752
113.91777 0.23371901 39.205551
126.33727 0.23371899 39.277637
132.75966 0.23371902 39.237118
100.1608 0.23371901 39.307735
107.58842 0.23371901 39.386875
109.01814 0.23371901 39.392502
110.37267 0.23371901 39.36964
120.42482 0.23371899 39.32687
121.54652 0.23371902 39.364132
130.19853 0.23371901 39.374527
106.35335 0.23371902 39.474716
110.08865 0.23371901 39.443607
111.33794 0.23371902 39.467026
107.18134 0.23371901 39.50325
122.88177 0.23371899 39.515564
132.19757 0.23371902 39.570484
126.74778 0.23371901 39.689537
127.3416 0.23371902 39.677944
110.82089 0.23371902 39.791893
122.71629 0.23371899 39.729057
129.0927 0.23371902 39.72393
103.60235 0.23371901 39.889313
101.43342 0.23371902 39.968338
104.90577 0.23371899 39.933956
105.53979 0.23371902 39.983177
119.82663 0.23371902 39.976974
109.1864 0.23371901 40.089027
112.64096 0.23371901 40.189907
102.05609 0.23371901 40.216152
102.12048 0.23371901 40.22744
103.14223 0.23371899 40.239594
105.76191 0.23371899 40.236378
106.02699 0.23371899 40.286171
109.60735 0.23371901 40.214088
115.99104 0.23371901 40.261658
119.52831 0.23371901 40.285252
108.82132 0.23371902 40.330818
109.27494 0.23371899 40.352264
121.11469 0.23371902 40.348625
121.49883 0.23371902 40.39698
122.90439 0.23371902 40.384712
107.07724 0.23371901 40.435448
107.1525 0.23371901 40.4277
114.95847 0.23371901 40.484989
121.56084 0.23371901 40.423229
122.63281 0.23371899 40.426376
134.36885 0.23371902 40.412453
135.20589 0.23371901 40.481895
113.80352 0.23371901 40.534405
115.51814 0.23371901 40.584358
130.81496 0.23371901 40.540371
131.85155 0.23371901 40.598465
106.1951 0.23371901 40.62307
106.47157 0.23371901 40.672733
121.8114 0.23371901 40.667236
129.53069 0.23371901 40.656078
132.11649 0.23371901 40.690891
104.94585 0.23371901 40.71209
112.47385 0.23371901 40.739307
125.55047 0.23371902 40.760223
131.21643 0.23371899 40.723652
100.63737 0.23371901 40.85881
113.41639 0.23371901 40.844696
130.5482 0.23371899 40.895126
131.28568 0.23371901 40.837502
103.5197 0.23371902 40.994522
109.03182 0.23371901 41.008976
114.54735 0.23371901 41.061523
122.63278 0.23371899 41.010765
123.92778 0.23371901 41.027359
125.11971 0.23371901 41.005474
103.13745 0.23371899 41.111668
111.87728 0.23371902 41.121601
116.81633 0.23371902 41.104103
124.69336 0.23371902 41.16592
135.63667 0.23371901 41.176655
119.86417 0.23371899 41.212418
103.37915 0.23371899 41.370178
113.36675 0.23371901 41.381992
119.59757 0.23371901 41.376724
101.74787 0.23371902 41.481224
106.0552 0.23371899 41.447765
107.47925 0.23371901 41.496986
110.25007 0.23371901 41.453949
116.89476 0.23371901 41.472813
130.70154 0.23371901 41.404125
108.15813 0.23371902 41.518936
114.34085 0.23371901 41.545147
109.11233 0.23371901 41.614319
121.42914 0.23371902 41.680748
125.1689 0.23371902 41.689465
134.1909 0.23371901 41.636261
135.19965 0.23371901 41.601757
135.37276 0.23371901 41.608185
101.20544 0.23371899 41.702972
103.6451 0.23371902 41.790764
104.94186 0.23371899 41.756332
106.61091 0.23371899 41.741295
107.32684 0.23371901 41.704903
112.56362 0.23371902 41.713516
117.47831 0.23371901 41.738213
130.3484 0.23371902 41.781967
107.51221 0.23371901 41.821075
111.33002 0.23371901 41.820736
126.93719 0.23371901 41.808681
133.79031 0.23371901 41.802841
134.47966 0.23371899 41.84267
111.03603 0.23371899 42.084087
122.70413 0.23371901 42.00386
101.29665 0.23371899 42.122757
117.66181 0.23371902 42.109501
119.29655 0.23371902 42.128967
134.88341 0.23371901 42.162392
115.05164 0.23371901 42.258511
125.72102 0.23371901 42.251122
104.3396 0.23371899 42.344219
119.19853 0.23371899 42.392914
126.69659 0.23371901 42.344383
127.80081 0.23371901 42.305336
132.69398 0.23371901 42.388168
104.91675 0.23371901 42.52422
116.59354 0.23371902 42.51083
135.0265 0.23371902 42.577675
135.24858 0.23371902 42.503765
105.1392 0.23371901 42.6539
106.2487 0.23371899 42.640491
112.09048 0.23371899 42.654804
115.82933 0.23371902 42.603767
133.74103 0.23371901 42.666893
103.66261 0.23371899 42.73592
114.82917 0.23371899 42.798351
116.28824 0.23371902 42.700817
107.05743 0.23371901 42.881409
109.31868 0.23371901 42.822044
109.67245 0.23371899 42.885132
111.75494 0.23371902 42.8437
124.51399 0.23371902 42.860764
129.75063 0.23371901 42.836906
102.1271 0.23371899 42.966011
116.22775 0.23371901 42.938747
100.4326 0.23371901 43.026871
102.71301 0.23371901 43.035759
111.93365 0.23371901 43.041756
114.36945 0.23371901 43.042118
124.7734 0.23371899 43.099133
135.25687 0.23371902 43.044861
123.85855 0.23371902 43.134346
130.90207 0.23371899 43.179695
134.52554 0.23371899 43.177574
101.45644 0.23371902 43.293087
106.37016 0.23371899 43.200607
128.60129 0.23371902 43.289631
112.51749 0.23371899 43.34832
124.07657 0.23371902 43.38879
107.44343 0.23371902 43.479626
108.21054 0.23371899 43.437233
112.08192 0.23371901 43.480507
119.00896 0.23371901 43.452435
135.56078 0.23371901 43.468124
107.23362 0.23371902 43.558632
114.5603 0.23371899 43.556183
128.68257 0.23371902 43.504921
109.53159 0.23371901 43.652981
111.06954 0.23371901 43.684097
115.37195 0.23371901 43.657375
119.01125 0.23371902 43.660603
105.88431 0.23371899 43.716621
108.07446 0.23371902 43.785904
112.70868 0.23371902 43.778526
121.38974 0.23371901 43.723785
123.51024 0.23371902 43.715981
133.15799 0.23371901 43.715935
101.92854 0.23371902 43.850235
105.34306 0.23371899 43.894676
118.3709 0.23371901 43.814129
133.81059 0.23371901 43.840565
100.68478 0.23371899 43.916286
104.13594 0.23371902 43.919346
111.92872 0.23371901 43.988914
127.90223 0.23371901 43.956062
107.28136 0.23371902 44.016472
109.59264 0.23371901 44.068619
117.14827 0.23371901 44.010498
120.84914 0.23371901 44.040455
126.48452 0.23371899 44.091816
130.36124 0.23371899 44.000675
135.66429 0.23371901 44.143253
101.57934 0.23371899 44.205006
104.23602 0.23371902 44.285156
119.52052 0.23371902 44.262756
100.95094 0.23371899 44.393021
102.08609 0.23371902 44.450741
109.76663 0.23371901 44.429195
114.88074 0.23371899 44.457069
119.94763 0.23371902 44.43713
123.12457 0.23371901 44.406799
135.53484 0.23371899 44.465004
106.91896 0.23371899 44.500813
108.24301 0.23371901 44.574741
128.1566 0.23371901 44.556427
134.1088 0.23371901 44.540199
135.21007 0.23371902 44.574371
105.55167 0.23371899 44.605644
109.14088 0.23371899 44.627819
113.35905 0.23371902 44.630386
134.71814 0.23371899 44.664665
109.35039 0.23371901 44.795128
104.74287 0.23371901 44.843449
106.08379 0.23371899 44.89394
108.28563 0.23371902 44.834591
116.12772 0.23371901 44.80777
119.06606 0.23371901 44.870384
127.50966 0.23371899 44.820671
135.35461 0.23371902 44.875504
99.97435 0.23371902 44.962761
104.06628 0.23371902 44.940117
105.34628 0.23371899 44.937267
123.59137 0.23371901 44.934643
111.37993 0.23371902 45.070572
114.63315 0.23371899 45.037697
126.68755 0.23371901 45.02562
128.32706 0.23371902 45.038124
133.10925 0.23371902 45.014057
100.26089 0.23371899 45.121666
115.74393 0.23371899 45.11821
127.68817 0.23371901 45.167583
117.28722 0.23371901 45.269356
124.86009 0.23371899 45.2006
133.47623 0.23371902 45.211258
100.79164 0.23371899 45.30455
103.24524 0.23371901 45.344261
117.45531 0.23371901 45.395695
125.40449 0.23371902 45.357193
103.89293 0.23371901 45.43293
120.73746 0.23371899 45.401863
131.56604 0.23371899 45.468811
108.37621 0.23371899 45.588779
109.62607 0.23371902 45.663486
111.34082 0.23371899 45.660225
114.14046 0.23371901 45.69944
115.08145 0.23371901 45.689259
119.56896 0.23371901 45.685375
120.43835 0.23371901 45.602943
121.23897 0.23371902 45.668724
125.40422 0.23371899 45.609699
128.99187 0.23371901 45.773975
130.11206 0.23371899 45.753651
103.50269 0.23371899 45.882904
133.65611 0.23371901 45.829197
105.89459 0.23371901 45.920834
114.2343 0.23371901 45.948952
112.4397 0.23371899 46.019562
118.42492 0.23371899 46.05035
118.56766 0.23371899 46.047817
118.93377 0.23371899 46.014877
125.78578 0.23371901 46.037254
133.34331 0.23371901 46.087132
133.45065 0.23371901 46.099236
119.01836 0.23371899 46.19294
120.21131 0.23371901 46.103077
117.96601 0.23371902 46.200237
103.7838 0.23371902 46.368889
104.19358 0.23371899 46.335423
108.53025 0.23371899 46.445457
113.00404 0.23371901 46.467724
106.45891 0.23371899 46.518959
110.16019 0.23371899 46.555717
115.63467 0.23371899 46.537773
121.70125 0.23371901 46.515995
125.23734 0.23371901 46.582016
131.84277 0.23371902 46.522537
133.65309 0.23371901 46.504131
110.73992 0.23371901 46.650009
111.51147 0.23371901 46.664719
112.85506 0.23371901 46.676262
125.33382 0.23371902 46.693295
128.62181 0.23371901 46.627972
129.47311 0.23371899 46.684486
101.36554 0.23371901 46.729866
112.4151 0.23371899 46.779076
125.28239 0.23371901 46.78458
128.26859 0.23371901 46.731548
112.23598 0.23371902 46.87101
119.80753 0.23371899 46.8601
124.41964 0.23371901 46.8498
125.99617 0.23371901 46.843239
103.26388 0.23371899 46.941376
124.03963 0.23371901 46.971661
129.12891 0.23371901 46.968117
129.37857 0.23371899 46.900284
130.65781 0.23371899 46.982914
131.75314 0.23371902 46.93174
125.08218 0.23371901 47.001968
134.29341 0.23371901 47.056438
104.06158 0.23371899 47.173367
106.51901 0.23371902 47.103996
107.31808 0.23371899 47.195648
107.45564 0.23371902 47.252922
124.89577 0.23371901 47.291527
114.84468 0.23371899 47.366348
118.23376 0.23371902 47.372395
122.24368 0.23371899 47.332932
123.52393 0.23371902 47.327583
101.28683 0.23371902 47.430477
106.60881 0.23371902 47.486229
110.47079 0.23371899 47.437809
127.51054 0.23371901 47.472179
130.91083 0.23371901 47.407887
102.30997 0.23371901 47.557121
104.62057 0.23371901 47.537067
107.37303 0.23371899 47.586456
109.90901 0.23371899 47.549244
120.1601 0.23371902 47.548218
104.75188 0.23371902 47.697643
109.75588 0.23371902 47.621857
119.67383 0.23371902 47.605507
121.88067 0.23371901 47.647385
125.26141 0.23371902 47.668846
131.17474 0.23371899 47.677711
101.5172 0.23371902 47.779778
102.56345 0.23371901 47.773403
111.04358 0.23371902 47.795368
119.87474 0.23371902 47.740562
123.1664 0.23371901 47.731255
101.12039 0.23371901 47.857845
106.91779 0.23371899 47.887909
104.26509 0.23371901 47.985573
120.90979 0.23371899 48.089096
101.95428 0.23371899 48.116798
114.61913 0.23371902 48.163391
124.10918 0.23371901 48.123543
133.07671 0.23371902 48.141998
108.76841 0.23371901 48.292633
111.14123 0.23371901 48.207806
134.58488 0.23371902 48.237789
117.00613 0.23371902 48.321106
126.25173 0.23371902 48.348381
131.85175 0.23371902 48.384193
108.3204 0.23371899 48.414436
118.26772 0.23371901 48.493805
100.44392 0.23371901 48.521599
117.68937 0.23371899 48.545464
124.60783 0.23371901 48.592327
134.17233 0.23371899 48.556389
100.95263 0.23371901 48.698593
106.77214 0.23371899 48.601852
116.10926 0.23371902 48.634399
122.63995 0.23371901 48.664719
124.4314 0.23371901 48.693359
131.54947 0.23371901 48.621109
102.30699 0.23371899 48.774704
119.47509 0.23371901 48.78521
120.25908 0.23371899 48.70752
132.03073 0.23371899 48.734165
135.26506 0.23371899 48.799316
100.81966 0.23371901 48.823616
105.00873 0.23371902 48.851944
116.08476 0.23371901 48.82217
119.97018 0.23371902 48.864037
120.39359 0.23371899 48.910172
134.87099 0.23371902 48.93491
109.83669 0.23371902 49.024384
113.154 0.23371901 49.000725
116.62025 0.23371899 49.018192
105.06557 0.23371902 49.198128
107.30482 0.23371901 49.188019
108.62981 0.23371902 49.119728
110.39482 0.23371901 49.178108
121.90027 0.23371902 49.317612
109.5004 0.23371902 49.475964
117.2908 0.23371902 49.435799
125.20576 0.23371901 49.481956
128.73933 0.23371901 49.416874
109.08842 0.23371901 49.518932
109.21959 0.23371902 49.578949
122.95624 0.23371901 49.507034
131.19362 0.23371899 49.538887
108.18881 0.23371902 49.66457
109.51857 0.23371899 49.654007
118.94545 0.23371901 49.652802
120.51091 0.23371901 49.642395
124.11382 0.23371901 49.691044
127.26295 0.23371901 49.63295
128.82739 0.23371901 49.621376
130.41298 0.23371899 49.693687
134.87582 0.23371899 49.627026
133.73639 0.23371902 49.717827
105.06141 0.23371901 49.895336
127.1312 0.23371901 49.828899
132.20039 0.23371901 49.847507
133.33606 0.23371901 49.876995
117.18442 0.23371902 49.950245
117.84085 0.23371901 49.995979
121.49129 0.23371899 49.99678
106.58505 0.23371901 50.035278
114.51933 0.23371901 50.053009
134.48302 0.23371901 50.018967
103.40531 0.23371901 50.14846
103.88506 0.23371902 50.13018
104.86414 0.23371901 50.196732
111.59097 0.23371899 50.122089
116.25484 0.23371901 50.146732
117.4193 0.23371901 50.196136
117.72036 0.23371902 50.182442
121.33401 0.23371899 50.187229
103.92384 0.23371902 50.206512
105.46483 0.23371901 50.273502
113.14448 0.23371902 50.236404
115.66979 0.23371901 50.250908
116.00013 0.23371901 50.244717
101.60026 0.23371901 50.337475
104.67584 0.23371902 50.313427
104.91766 0.23371899 50.448914
120.2113 0.23371901 50.421749
128.64828 0.23371902 50.461143
110.31879 0.23371899 50.506649
125.04267 0.23371901 50.555084
127.45522 0.23371901 50.578106
102.57495 0.23371902 50.619461
113.35269 0.23371902 50.696121
121.46226 0.23371901 50.688114
122.39941 0.23371901 50.687073
133.51109 0.23371901 50.662918
105.69394 0.23371902 50.731606
107.59578 0.23371901 50.720451
109.94418 0.23371899 50.713093
124.28784 0.23371902 50.796875
126.01556 0.23371901 50.789986
120.72795 0.23371901 50.808941
106.05487 0.23371902 50.970215
120.09892 0.23371902 50.970825
126.42859 0.23371899 50.930393
112.69199 0.23371901 51.094158
128.44443 0.23371901 51.028614
114.74461 0.23371902 51.176949
121.56745 0.23371901 51.124157
125.1401 0.23371899 51.11565
132.9915 0.23371901 51.126007
104.13018 0.23371901 51.204933
102.34789 0.23371899 51.359642
113.06839 0.23371899 51.332348
117.05453 0.23371902 51.318508
117.68678 0.23371899 51.343964
122.89136 0.23371902 51.362206
104.33668 0.23371901 51.405117
107.09997 0.23371901 51.497543
109.04639 0.23371901 51.541916
112.64153 0.23371899 51.565681
119.05684 0.23371901 51.576836
122.49926 0.23371901 51.598122
129.57707 0.23371901 51.58609
131.38103 0.23371902 51.583427
107.03517 0.23371901 51.655621
110.2345 0.23371901 51.697433
111.18152 0.23371901 51.655991
127.81643 0.23371902 51.606117
133.61212 0.23371902 51.659882
115.60522 0.23371899 51.744713
124.57367 0.23371901 51.759415
129.54463 0.23371901 51.729645
109.95142 0.23371899 51.991119
133.61758 0.23371902 51.968231
113.38107 0.23371901 52.04702
124.08049 0.23371901 52.137924
133.89088 0.23371902 52.19405
101.32018 0.23371899 52.26244
112.32287 0.23371901 52.222095
130.6405 0.23371899 52.218857
112.47451 0.23371901 52.358078
123.77905 0.23371901 52.393883
124.68948 0.23371901 52.39035
124.93284 0.23371901 52.325371
125.92471 0.23371899 52.391155
133.66983 0.23371901 52.305756
102.91651 0.23371901 52.40757
105.80042 0.23371901 52.4011
107.32478 0.23371902 52.490242
115.98521 0.23371901 52.498791
122.71914 0.23371901 52.435665
124.48091 0.23371901 52.490654
130.75519 0.23371901 52.46859
106.07423 0.23371901 52.54763
107.39367 0.23371901 52.527153
107.88893 0.23371902 52.595047
113.42035 0.23371902 52.52063
128.30052 0.23371899 52.580124
129.03902 0.23371901 52.581253
133.22136 0.23371901 52.533264
104.19867 0.23371899 52.638264
115.59747 0.23371899 52.676956
116.75895 0.23371902 52.695251
117.03422 0.23371899 52.607559
119.77432 0.23371901 52.640102
124.18336 0.23371899 52.672604
126.48544 0.23371902 52.614285
115.07896 0.23371901 52.719437
119.82069 0.23371902 52.760986
123.81326 0.23371899 52.793743
126.51858 0.23371902 52.751736
130.3806 0.23371902 52.764996
124.66322 0.23371901 52.807209
106.46965 0.23371901 52.912113
123.01803 0.23371901 52.983398
122.03079 0.23371902 53.067036
129.23909 0.23371902 53.076839
101.40205 0.23371902 53.143463
102.17088 0.23371901 53.159672
124.5873 0.23371902 53.218834
130.22321 0.23371902 53.283932
103.96815 0.23371902 53.313786
128.62259 0.23371901 53.351604
133.11478 0.23371902 53.354576
105.62075 0.23371901 53.568298
115.61151 0.23371902 53.59256
103.98859 0.23371899 53.602882
107.7457 0.23371901 53.62455
110.44466 0.23371901 53.671337
116.62936 0.23371901 53.672192
118.38017 0.23371901 53.696053
100.65294 0.23371901 53.781662
112.09712 0.23371902 53.749878
112.15428 0.23371901 53.725056
110.56769 0.23371901 53.831551
118.47016 0.23371902 53.89991
119.74447 0.23371902 53.886269
127.18921 0.23371901 53.887161
109.70527 0.23371901 53.97998
120.77576 0.23371899 53.947639
110.70924 0.23371902 54.006702
132.77034 0.23371901 54.173019
101.08597 0.23371901 54.207352
102.74297 0.23371902 54.22081
128.58406 0.23371902 54.230453
129.66043 0.23371899 54.251404
104.81046 0.23371899 54.390873
106.74561 0.23371901 54.300518
113.74873 0.23371901 54.326973
118.97526 0.23371899 54.364994
119.26092 0.23371901 54.364674
129.63673 0.23371901 54.34293
132.38805 0.23371902 54.451691
113.96432 0.23371901 54.658012
117.06728 0.23371901 54.650482
125.23885 0.23371902 54.699364
133.12875 0.23371901 54.61623
126.10278 0.23371901 54.754906
113.96901 0.23371901 54.863205
117.5226 0.23371901 54.872719
128.84126 0.23371901 54.830402
100.58018 0.23371899 54.973862
104.84072 0.23371901 54.997128
123.34839 0.23371902 54.930748
119.65125 0.23371901 55.036209
114.18568 0.23371901 55.153011
107.37623 0.23371901 55.282547
109.65189 0.23371902 55.215504
123.01768 0.23371902 55.253498
124.49355 0.23371901 55.282784
110.77061 0.23371901 55.348381
112.65634 0.23371901 55.398178
114.36228 0.23371902 55.336525
119.72394 0.23371902 55.347218
122.41661 0.23371902 55.344154
133.16747 0.23371899 55.301315
129.65736 0.23371902 55.419624
106.61374 0.23371899 55.528923
110.34193 0.23371901 55.628967
118.29373 0.23371899 55.682415
123.79113 0.23371901 55.639713
106.12408 0.23371899 55.725033
112.6387 0.23371899 55.723785
102.69037 0.23371901 55.877548
111.39401 0.23371899 55.990532
104.34743 0.23371901 56.217434
112.55962 0.23371901 56.282913
116.39611 0.23371901 56.373158
123.10942 0.23371899 56.319706
103.86409 0.23371902 56.410175
106.62153 0.23371902 56.421761
120.12604 0.23371901 56.485939
122.93723 0.23371901 56.424591
111.41667 0.23371901 56.531204
117.55827 0.23371901 56.543015
120.41188 0.23371901 56.557846
107.69104 0.23371901 56.686409
109.11131 0.23371899 56.675533
106.73626 0.23371901 56.743343
116.07848 0.23371899 56.770916
121.3937 0.23371902 56.717621
124.32877 0.23371901 56.750019
128.77542 0.23371899 56.831528
130.53699 0.23371901 56.815025
131.56265 0.23371901 56.85836
107.66594 0.23371902 56.921555
126.49518 0.23371899 56.956154
113.442 0.23371901 57.034081
127.24261 0.23371899 57.026962
131.05786 0.23371899 57.015942
108.22321 0.23371899 57.110699
116.74629 0.23371901 57.192085
121.43674 0.23371901 57.185562
103.70631 0.23371901 57.286591
108.69248 0.23371901 57.281475
109.59201 0.23371899 57.280087
114.15786 0.23371901 57.239746
117.76356 0.23371901 57.263756
122.74977 0.23371901 57.216011
102.21518 0.23371901 57.328735
108.70082 0.23371901 57.309288
127.55955 0.23371901 57.386013
100.75098 0.23371901 57.450478
101.45578 0.23371902 57.427238
105.67615 0.23371901 57.423531
109.54121 0.23371901 57.438358
101.01178 0.23371899 57.518341
101.32234 0.23371901 57.587841
103.2789 0.23371901 57.56266
117.22598 0.23371902 57.589195
132.20821 0.23371899 57.512665
105.03955 0.23371899 57.602791
116.82001 0.23371901 57.617737
128.74464 0.23371902 57.65461
109.1372 0.23371899 57.710732
112.15148 0.23371901 57.750286
113.82724 0.23371899 57.705872
118.73345 0.23371901 57.734745
117.40793 0.23371901 57.804359
120.60529 0.23371901 57.868416
100.78823 0.23371899 57.958538
115.77695 0.23371899 57.908463
124.69333 0.23371902 57.980122
127.35191 0.23371901 57.991528
128.52826 0.23371899 57.945183
105.11659 0.23371901 58.002155
106.61395 0.23371902 58.014698
112.10674 0.23371901 58.030312
113.9821 0.23371902 58.01939
121.55374 0.23371901 58.003899
124.46239 0.23371902 58.031254
129.62762 0.23371901 58.055046
114.83923 0.23371899 58.151077
122.49347 0.23371899 58.165314
104.21976 0.23371901 58.219193
104.83787 0.23371899 58.299591
122.29663 0.23371901 58.284081
129.5788 0.23371902 58.248894
131.30765 0.23371902 58.286049
109.04941 0.23371899 58.318665
116.3701 0.23371901 58.370049
121.85402 0.23371902 58.30986
110.73245 0.23371901 58.427883
122.25945 0.23371902 58.460648
124.56542 0.23371902 58.406487
126.32768 0.23371899 58.409698
132.35075 0.23371899 58.421879
116.0072 0.23371901 58.532299
117.9197 0.23371901 58.553162
120.72253 0.23371902 58.567787
124.28522 0.23371901 58.549793
130.48746 0.23371902 58.519936
106.22408 0.23371899 58.667912
106.67225 0.23371899 58.609413
113.70583 0.23371901 58.695412
121.24142 0.23371902 58.656601
121.57115 0.23371902 58.635059
122.47681 0.23371901 58.687141
127.28812 0.23371902 58.63382
111.4446 0.23371899 58.753349
120.6599 0.23371901 58.753132
123.52298 0.23371901 58.747749
128.11969 0.23371899 58.76503
121.77337 0.23371902 58.861679
125.67224 0.23371902 58.855003
127.54224 0.23371901 58.88641
125.13931 0.23371901 58.990807
129.88153 0.23371901 58.994835
105.89853 0.23371901 59.07666
111.15816 0.23371899 59.030819
116.53856 0.23371901 59.029793
120.56724 0.23371899 59.041451
123.43307 0.23371901 59.026928
128.83427 0.23371901 59.035107
129.97632 0.23371901 59.020977
100.68984 0.23371901 59.155743
109.99469 0.23371899 59.103863
110.39237 0.23371899 59.158142
114.03635 0.23371902 59.113426
117.68847 0.23371902 59.348553
118.70705 0.23371901 59.362583
128.70325 0.23371902 59.389973
106.07939 0.23371901 59.434189
113.94835 0.23371901 59.462856
119.99977 0.23371901 59.412975
126.32561 0.23371901 59.531178
128.892 0.23371901 59.546364
114.70674 0.23371901 59.773727
129.45807 0.23371902 59.739742
129.52315 0.23371899 59.768162
111.34439 0.23371899 59.875919
125.80722 0.23371899 59.91951
106.90894 0.23371901 60.055382
118.40031 0.23371899 60.029549
112.08868 0.23371901 60.188622
108.56144 0.23371899 60.288197
116.51865 0.23371899 60.223953
125.70601 0.23371899 60.216888
101.63477 0.23371901 60.496243
111.29811 0.23371902 60.423946
119.98538 0.23371901 60.449722
104.23677 0.23371902 60.536633
107.32301 0.23371901 60.502785
112.17583 0.23371899 60.584404
107.67785 0.23371899 60.63102
112.27606 0.23371899 60.627918
113.94849 0.23371899 60.666084
125.67754 0.23371902 60.676338
103.78374 0.23371901 60.708603
130.5658 0.23371901 60.757854
101.89715 0.23371901 60.804977
114.41077 0.23371901 60.828663
116.16587 0.23371899 60.845154
118.84784 0.23371899 60.837299
120.18945 0.23371901 60.875744
102.31755 0.23371902 61.066383
124.6858 0.23371902 61.07378
117.87047 0.23371899 61.157265
118.2905 0.23371902 61.203896
109.84443 0.23371899 61.320862
126.77689 0.23371902 61.341881
114.22295 0.23371901 61.44582
115.4539 0.23371901 61.482426
123.46442 0.23371902 61.434906
122.8667 0.23371899 61.548252
108.20586 0.23371901 61.655312
125.77939 0.23371901 61.654037
102.07248 0.23371902 61.827095
102.72575 0.23371901 61.81163
108.36254 0.23371902 61.815178
129.26913 0.23371901 61.919212
116.85057 0.23371902 62.048134
119.31847 0.23371901 62.054653
120.2029 0.23371901 62.062782
104.27357 0.23371899 62.119949
119.12134 0.23371899 62.120609
122.29786 0.23371901 62.266438
102.50452 0.23371902 62.313492
114.69984 0.23371902 62.338894
106.10434 0.23371901 62.418407
109.9007 0.23371902 62.444489
119.03942 0.23371899 62.479191
123.84679 0.23371902 62.423286
113.43684 0.23371901 62.510071
114.63309 0.23371902 62.573997
108.8588 0.23371901 62.661022
112.06773 0.23371899 62.683537
108.41019 0.23371901 62.723534
127.86784 0.23371901 62.707748
108.21169 0.23371901 62.880333
118.3483 0.23371901 62.832573
121.77352 0.23371901 62.806694
122.56901 0.23371901 62.826126
111.53043 0.23371899 62.93932
