# .PCD v0.7 - Point Cloud Data file format
VERSION 0.7
FIELDS x y z
SIZE 4 4 4
TYPE F F F
COUNT 1 1 1
WIDTH 1612
HEIGHT 1
VIEWPOINT 0 0 0 1 0 0 0
POINTS 1612
DATA ascii
50.52359 22.871994 16.461281
51.074894 23.841393 16.498035
53.200611 23.886366 16.472998
53.478443 19.350536 16.64621
50.537197 22.638803 16.636662
54.065094 22.890821 16.609692
57.969929 23.474739 16.600245
60.673107 20.145424 16.703568
53.012512 19.185745 16.866545
59.884605 24.865402 16.84446
61.771889 20.58144 16.915478
50.550961 21.870754 16.934757
60.061584 24.726952 16.958012
59.768326 19.695765 17.168873
51.366348 23.5177 17.114473
61.51395 23.505489 17.150581
59.37571 24.48103 17.144945
61.266083 23.768101 17.290869
60.981102 23.971106 17.358133
60.030861 19.446819 17.494289
52.744263 23.427176 17.410999
53.626846 22.77494 17.58371
59.06361 19.674503 17.704956
61.738678 20.513727 17.796919
50.962982 21.498899 17.723534
53.193611 23.06073 17.735485
61.275261 20.137535 17.835926
58.587185 20.357813 17.825657
51.502739 18.968321 17.937042
51.353565 19.054169 17.946192
58.228134 22.800205 18.086731
50.988907 19.470541 18.333632
61.485622 20.030449 18.493042
52.818489 18.381355 18.521503
52.067547 22.794455 18.552696
51.02013 19.032532 18.658047
54.352814 21.093468 18.772482
50.9688 19.616043 18.877632
61.765327 20.416435 18.800121
51.270676 21.059189 18.974684
51.215134 22.332848 18.970827
61.74715 21.80603 19.048084
53.418877 18.932285 19.130056
53.301849 18.882729 19.227036
60.067722 19.297054 19.295792
60.755306 19.407047 19.267273
50.952873 19.753326 19.27199
51.194389 20.858719 19.25605
58.806839 23.184607 19.235332
52.0495 18.512119 19.304106
52.936916 18.615847 19.306274
60.005032 19.381393 19.448734
51.054092 22.164505 19.492908
54.038353 19.287027 19.529461
58.71579 19.833912 19.709751
58.601433 20.123461 19.906799
51.009911 20.666508 19.96207
58.819637 19.747066 20.0742
51.086807 20.947762 20.045393
57.591038 21.794312 20.013548
59.401131 23.358719 20.083904
60.259556 19.610046 20.168676
52.464748 22.605499 20.144625
52.397106 18.616405 20.208694
50.951569 20.62981 20.25271
59.380676 19.923328 20.352177
58.751102 20.204086 20.371559
57.938236 22.706825 20.371071
59.413231 19.935354 20.450562
58.353745 20.628679 20.584694
57.679062 22.349625 20.56761
52.173409 18.654943 20.658745
52.55735 18.97533 20.654032
58.117111 20.840569 20.695698
59.341831 19.671297 20.787537
61.510738 23.124233 20.715046
59.943779 23.608788 20.731083
60.371964 20.104397 20.975267
57.620842 21.518873 20.923752
58.376778 23.372374 20.919573
51.738686 18.879318 21.035454
54.532806 20.160419 21.088602
62.12487 21.19858 21.043833
54.404579 22.306824 21.165615
61.846478 22.91853 21.383902
54.406326 19.24947 21.456093
60.239094 20.021549 21.407373
61.721687 20.059494 21.492928
61.439941 23.47953 21.490839
51.139885 18.876587 21.505974
57.807186 20.909859 21.574814
52.573357 23.161163 21.671982
51.933071 18.843668 21.796658
61.738522 20.001961 21.797346
58.426479 20.170998 21.741646
52.262291 23.172274 21.764473
62.662579 21.044344 21.977053
53.209816 23.321709 21.936016
59.085411 19.369202 22.086735
62.068539 22.868965 22.005232
53.238827 23.36355 22.032557
60.259285 19.409267 22.139343
57.78051 23.196791 22.104652
53.200253 23.427179 22.174507
57.48835 21.557205 22.215153
50.329575 19.023409 22.368629
62.018677 19.873556 22.379612
54.405849 22.690197 22.307812
50.546783 18.766016 22.460566
57.69664 20.995234 22.400265
62.633823 21.948734 22.497849
57.449318 22.798149 22.413412
59.905842 18.92548 22.53076
62.858429 21.059143 22.571194
62.420166 22.394855 22.51795
50.506546 22.842022 22.573032
62.48793 20.392326 22.664278
58.728325 19.648064 22.712341
62.607792 22.058023 22.751158
51.943607 18.246082 22.874554
60.948765 19.222626 22.848074
58.981148 19.353598 22.832537
62.079071 19.798717 22.860695
58.230385 24.117365 22.852636
60.4907 24.554024 22.860043
61.610161 19.5397 22.990963
53.50024 23.684885 22.909698
57.88176 23.743168 22.977869
53.012875 18.284012 23.276665
54.153389 18.53574 23.253588
54.274712 18.68096 23.262098
54.379112 19.372234 23.295221
54.785172 22.399345 23.373611
50.354443 23.506811 23.36154
57.63361 23.538574 23.38706
63.054558 21.285355 23.482609
62.644722 20.36659 23.522955
52.997021 18.318428 23.668217
54.230385 18.664064 23.672005
54.637009 19.956806 23.602942
61.277603 24.959057 23.697508
62.092236 19.668798 23.785297
57.919838 20.400219 23.784588
67.574829 23.109917 23.877804
51.747498 18.288628 23.96722
58.617695 19.560617 23.915186
58.140907 24.616253 23.970791
62.983337 21.981602 24.089344
50.816177 24.012476 24.097607
54.384659 19.369471 24.111145
57.182178 22.110651 24.105732
57.384342 21.464207 24.212105
62.922264 20.777397 24.321667
61.796879 24.83428 24.365252
59.586514 25.233997 24.397194
67.178925 21.225424 24.437931
62.580391 23.773577 24.458202
62.459419 24.021885 24.404739
58.702377 25.034641 24.483299
49.310192 20.44137 24.514273
54.936283 22.376917 24.502838
67.505753 22.680296 24.579533
60.556915 19.275047 24.696302
61.190979 19.42379 24.673252
63.085175 22.16264 24.629395
60.20834 25.322348 24.63224
51.718018 18.384945 24.725492
47.395576 19.515152 24.797413
57.36953 21.14411 24.786861
67.778717 23.706781 24.781164
57.855015 24.6154 24.775246
50.284897 18.474682 24.875576
57.112419 21.873268 24.837278
62.599564 19.880848 24.978512
67.893921 22.425892 24.993979
60.158974 19.264128 25.091227
54.91922 22.731752 25.089355
63.106773 21.020985 25.166061
51.774521 18.283443 25.26829
49.585758 19.40766 25.229986
63.109932 22.630787 25.280054
53.717278 24.497601 25.244934
59.193363 25.461258 25.280655
46.492294 20.244308 25.315868
57.02655 22.627758 25.377621
68.202194 22.692965 25.3006
50.779789 24.372032 25.300804
46.760994 19.738729 25.406246
57.659363 20.449692 25.583748
46.729313 20.817684 25.527773
68.090042 22.925344 25.546471
46.458508 17.34199 25.611006
58.442741 20.226147 25.695267
62.889328 20.455282 25.664883
62.399246 24.31604 25.672401
51.563095 24.771368 25.655409
54.483654 19.887501 25.768869
55.253338 20.681831 25.750744
67.623512 23.739798 25.723213
53.470776 18.865936 25.814985
46.097603 18.939177 25.861874
49.833549 18.995831 25.8451
59.484005 19.512505 25.848049
62.671127 23.890282 25.860142
52.729771 24.852032 25.87332
59.316437 25.677992 25.801193
62.685493 19.927214 25.920467
51.716854 24.91209 25.960625
51.386787 18.082487 26.021069
54.224678 19.711185 26.05533
49.182495 20.144703 26.049545
49.300442 23.018055 26.079126
67.78685 24.451572 26.041025
59.351009 25.777348 26.045988
55.061897 20.126497 26.113651
55.403648 21.606445 26.11281
63.30085 21.602598 26.126635
49.032669 21.752712 26.155806
57.674248 25.118999 26.128262
61.897888 25.146051 26.155966
63.168274 23.168297 26.347313
53.560398 24.936729 26.380898
57.91925 25.40675 26.380583
46.134224 18.615959 26.492338
49.021088 21.189487 26.473598
68.280067 22.730274 26.545242
68.10614 21.892687 26.695992
53.116508 18.554781 26.788349
58.41787 20.080673 26.799698
55.447189 20.876066 26.734219
49.277557 23.303463 26.723564
68.269402 23.761524 26.71139
52.354549 17.840218 26.873152
49.578869 19.11602 26.884907
62.763054 24.031212 26.862026
49.1562 19.694519 26.995462
63.37011 21.555275 26.915606
68.277069 21.909258 26.976646
53.216656 18.660576 27.006948
68.510811 24.10297 27.052626
60.475628 26.014961 27.065079
55.588448 21.636589 27.175892
45.626286 17.695478 27.291193
51.637505 17.915697 27.286013
50.796879 18.087833 27.255192
46.09742 18.198811 27.244808
60.200645 18.762562 27.225248
49.656467 19.048546 27.257015
45.088295 20.122128 27.225201
55.547806 21.111942 27.285326
58.982662 26.070759 27.278183
46.087688 18.219337 27.3414
45.249878 19.155991 27.353359
57.892628 20.147404 27.371803
55.429512 23.084795 27.313318
68.476349 23.614904 27.381342
68.085342 23.919147 27.367561
60.358608 26.100456 27.346617
50.174026 18.397121 27.469431
65.805061 21.696114 27.426048
56.515659 23.541861 27.461193
68.199944 23.645233 27.481491
53.05542 18.301071 27.520374
57.444954 20.350937 27.519672
63.356438 21.888212 27.544048
63.353123 22.010443 27.590399
56.465927 22.26762 27.515629
63.300976 22.745472 27.50565
49.758022 24.339369 27.525623
61.222157 26.063038 27.554626
60.008377 18.942921 27.602055
44.881386 19.961084 27.609081
45.138584 21.275539 27.676754
52.46151 25.468563 27.671719
52.018764 17.824848 27.733677
45.977497 18.963282 27.78828
68.536324 22.563549 27.733444
54.28783 25.117773 27.718815
49.950809 18.712801 27.825897
56.565201 21.890625 27.853828
55.290192 23.968575 27.844097
46.298851 17.858692 27.905737
67.631104 20.969398 27.920496
55.637131 21.000685 27.999651
55.734833 22.349182 27.96109
55.157005 24.153465 27.986305
53.832867 25.398209 27.9209
57.297203 20.462027 28.083281
60.4077 18.529602 28.193666
55.598579 22.949594 28.184816
68.218933 23.827955 28.128599
53.680954 25.431496 28.131998
45.409763 18.324947 28.225185
50.077946 18.569727 28.268713
62.584175 19.63356 28.202768
55.621082 20.748768 28.213326
55.565254 23.094589 28.235023
56.996792 25.21489 28.295464
51.050888 17.999786 28.397062
44.695976 20.846403 28.322878
48.846256 21.655216 28.303509
55.393242 23.962357 28.327679
48.005165 17.499697 28.457386
45.578556 20.498491 28.472837
65.284782 21.317368 28.450094
61.031921 18.796043 28.564938
49.041054 20.283564 28.513264
68.584137 22.053221 28.577509
68.75779 22.720066 28.525902
68.69294 24.320047 28.522093
50.136772 25.005156 28.542189
57.641449 25.917746 28.546667
47.564247 17.724747 28.66695
46.003124 19.149536 28.696367
55.579193 20.547947 28.645233
65.974472 21.037666 28.667139
50.204735 25.042011 28.66584
50.776482 18.06616 28.790485
50.9291 18.055065 28.780746
49.783386 18.956951 28.798958
66.488342 21.978466 28.787495
63.353462 22.254471 28.753502
51.744045 25.532827 28.739449
68.125168 24.197771 28.801262
53.757568 18.753546 28.989971
55.184418 20.136221 28.978497
57.790512 20.172565 28.981899
67.453072 20.917595 28.938673
67.710281 21.017382 28.982479
48.871941 21.707485 28.905302
56.481419 21.893511 28.958744
66.085312 22.115662 28.981983
66.394554 22.155455 28.986309
59.423157 19.131832 29.020893
67.52462 20.952362 29.006809
63.362743 22.00857 29.023693
68.77124 23.098818 29.059261
53.293549 25.576485 29.065521
58.728447 19.598373 29.123085
54.755264 19.746819 29.113518
58.385345 19.829666 29.167732
63.330044 22.265228 29.173191
50.68922 25.241072 29.124157
45.191002 18.273136 29.243526
58.456821 19.770061 29.234039
68.119629 24.20895 29.26968
50.296783 25.152328 29.234762
62.502644 25.123455 29.247803
51.524376 25.506483 29.250858
62.106667 19.255138 29.393433
49.021614 20.715229 29.394337
44.700871 21.039431 29.393221
66.344475 21.071779 29.397427
62.303474 25.388466 29.392567
46.3279 19.135063 29.43541
57.421494 20.43247 29.489573
65.574913 22.098087 29.482901
49.343159 24.18795 29.472685
44.826385 19.099066 29.504526
66.330849 21.029488 29.538998
65.321205 21.633305 29.543816
68.610321 24.270943 29.504436
62.907631 24.374739 29.521776
54.201664 25.653702 29.595837
59.515347 18.983255 29.68531
54.750156 19.71381 29.606012
67.952812 21.465467 29.688206
46.65102 17.94227 29.762503
65.495575 21.276834 29.749228
45.169266 21.449409 29.752222
62.957603 24.232607 29.710449
45.441681 18.014189 29.865105
50.830791 18.017975 29.841105
49.056225 20.547993 29.812441
45.835182 21.106749 29.898825
55.825172 21.786722 29.892471
51.877838 25.681763 29.848265
62.708649 20.130709 29.929871
67.227615 22.858349 29.945381
45.154236 18.487062 30.083179
56.536568 21.585871 30.073448
48.924622 22.601801 30.039249
60.316288 26.501347 30.07782
51.004848 18.029711 30.170433
67.082428 22.93498 30.18486
49.80341 25.049734 30.113516
50.373234 18.486841 30.296085
44.835869 19.060503 30.230495
55.2155 20.207355 30.285103
48.967918 21.376675 30.293917
56.261684 22.252934 30.297632
66.250412 22.663116 30.20966
68.404266 24.215462 30.235382
52.294422 25.765049 30.200594
52.24295 17.97377 30.339567
47.338779 19.146368 30.320978
49.337654 19.682663 30.325409
44.644527 19.797548 30.301334
66.104568 21.06955 30.335562
55.27549 24.41556 30.302153
56.125408 24.800667 30.38533
61.825478 26.106663 30.309772
59.443394 26.617609 30.337589
45.479836 18.173794 30.403015
68.485893 22.868519 30.435253
59.975639 26.705231 30.473553
52.844505 17.945045 30.518745
62.081619 19.288721 30.547621
62.28936 19.551142 30.584845
57.896393 20.086334 30.531891
55.83886 21.644417 30.535866
56.150188 23.334539 30.535889
61.35289 26.585548 30.58503
62.763741 20.444305 30.65308
61.668304 26.273113 30.674036
58.106018 26.744789 30.61084
47.66272 18.24744 30.711061
46.147152 20.927773 30.755173
45.921741 21.290731 30.723854
47.418385 18.140831 30.854187
61.993958 19.280861 30.823198
55.858292 22.747902 30.819666
49.766479 25.006742 30.843449
52.417027 25.684654 30.831573
61.762833 26.159595 30.815432
53.538269 18.33507 30.909866
58.490768 19.651541 30.961851
67.393684 21.271847 30.955353
67.873634 21.597614 30.942383
59.295273 19.077307 31.027758
58.614067 19.557009 31.026119
56.699203 21.084072 31.066977
52.657234 18.047052 31.135338
65.640686 22.020485 31.105711
56.219025 22.471157 31.182604
68.318771 23.72678 31.103897
62.069942 25.804813 31.154112
56.914246 26.390709 31.186035
46.715683 19.996311 31.248491
63.145519 22.807709 31.241997
54.656567 24.968723 31.285925
54.737267 24.935732 31.203562
59.091923 27.358288 31.266499
45.11829 18.705275 31.356068
61.016399 19.124046 31.31237
62.522812 20.391937 31.36845
55.893135 22.223759 31.306482
67.045807 24.02125 31.313028
67.184113 24.090115 31.371044
53.082764 25.571751 31.376736
56.209732 25.726254 31.356518
58.337482 27.516695 31.372747
46.945278 19.724169 31.413631
62.631615 20.639297 31.462563
56.001945 21.166065 31.414976
55.621269 23.043421 31.405777
55.651665 23.184111 31.405518
66.562103 23.148247 31.410879
55.596855 23.396381 31.426943
49.639179 24.791912 31.455605
54.195415 25.947468 31.493151
56.640129 26.557722 31.454542
48.995132 21.588589 31.535404
67.790222 21.584114 31.582329
55.872425 22.079479 31.537092
55.805313 23.173519 31.543556
61.839806 19.359095 31.673569
49.883121 25.193966 31.637379
54.05127 26.351549 31.690199
57.533154 26.462959 31.632545
48.984222 21.669392 31.719612
50.788467 25.635017 31.723715
53.874405 26.401752 31.771574
67.252853 21.300354 31.854998
66.987297 23.871077 31.808231
54.857319 25.063091 31.815964
52.024773 26.263777 31.814627
55.887604 26.266747 31.8398
56.953941 20.094332 31.910793
57.519787 20.229836 31.968012
44.963196 21.139233 31.942369
67.656082 21.485199 31.992449
55.795296 21.69058 31.930456
48.945465 21.930147 31.961367
49.79628 25.048187 31.947083
56.169094 26.895468 31.95491
45.43824 18.633244 32.019703
57.998337 19.864084 32.078331
63.060833 22.023775 32.098667
66.723328 23.334095 32.025005
62.593819 24.901035 32.076694
53.489048 25.462021 32.098988
45.852509 18.629578 32.141243
66.896996 23.454636 32.197075
50.569031 25.509542 32.121532
45.853535 18.665525 32.28392
46.510605 19.59351 32.205421
62.051563 25.817944 32.254871
46.547878 19.139145 32.35767
54.835243 19.517042 32.368622
56.115917 23.671263 32.335423
56.155602 24.223007 32.376492
51.241867 25.413349 32.323898
51.514355 25.4366 32.389061
61.683727 26.222437 32.32616
62.378506 20.41465 32.43924
44.645031 19.646275 32.548325
60.28001 27.516403 32.501793
58.737968 27.843536 32.51123
49.289719 20.359797 32.642021
67.724701 21.619953 32.650608
68.193581 22.428003 32.63504
66.41375 22.897024 32.672264
55.069656 24.704353 32.683872
50.049194 24.992395 32.611027
55.455231 26.349113 32.636642
58.155025 26.664371 32.641045
59.161663 26.786144 32.630146
53.955559 26.879974 32.689045
46.196529 18.840771 32.763187
50.459793 18.94421 32.720901
59.068176 19.142973 32.736179
58.112835 19.805225 32.709026
55.334274 20.401245 32.794155
62.392273 20.465063 32.759998
63.059151 21.320084 32.795158
51.046402 26.122738 32.7118
59.339413 26.783213 32.731377
54.367546 19.12566 32.827839
57.822342 19.425682 32.85854
58.098789 19.893478 32.876797
62.988152 21.238464 32.882538
50.797813 25.461052 32.871834
50.393929 25.504816 32.850361
57.517189 25.98634 32.856018
56.107002 18.764502 32.997093
50.117252 25.176441 32.949814
61.804249 26.042557 32.926105
49.986202 19.238699 33.017052
48.959293 21.91305 33.064575
56.435589 22.892368 33.014908
49.234032 23.643173 33.039413
56.517166 24.100698 33.097397
61.819931 25.973482 33.079262
55.358223 26.397415 33.019382
56.995834 18.879538 33.186535
55.624001 22.202431 33.129753
55.558823 22.906036 33.194092
50.413395 25.460331 33.131611
56.906002 25.5345 33.192101
49.996475 19.08182 33.286308
67.820175 21.867865 33.217205
66.262283 22.047377 33.230759
55.501812 23.35849 33.220699
57.344845 20.494606 33.378349
49.11665 23.118282 33.320564
59.182922 19.216688 33.44408
60.961411 19.29591 33.412258
59.495399 19.862362 33.446293
44.636101 20.516001 33.479652
66.741219 23.622528 33.438438
50.928329 25.54427 33.447891
61.11805 26.687115 33.420593
52.089527 26.978151 33.422913
58.249512 28.099426 33.451633
53.296444 18.447973 33.534149
60.728203 19.252752 33.506828
49.487053 19.605009 33.506485
55.335682 20.636086 33.513077
55.480827 22.721603 33.571117
54.981995 25.606718 33.530079
56.467873 26.089527 33.593323
58.96088 19.579006 33.688568
68.080025 23.546869 33.653484
49.863914 24.376747 33.637207
49.881668 24.44676 33.642925
55.148964 25.013275 33.623337
54.647057 26.761745 33.681023
55.664265 27.112 33.664852
50.512878 18.439735 33.770737
56.484932 18.485453 33.798019
55.353657 26.665983 33.708382
54.30978 18.721516 33.872723
45.845314 19.130638 33.870739
66.335793 23.059273 33.846325
66.265396 22.451128 33.960709
62.774033 22.937038 33.940063
56.654381 23.88138 33.942848
67.038208 24.047295 33.984085
62.366985 24.696835 33.977169
46.238548 19.386307 34.073021
56.766258 20.903912 34.061485
55.320053 21.523825 34.011238
62.492569 24.22551 34.061249
49.793392 24.364731 34.08102
55.439728 25.64983 34.009148
68.11396 22.656946 34.137901
68.071617 23.552795 34.189732
49.910515 24.22401 34.174026
50.561348 25.896584 34.140114
57.418385 18.696739 34.222763
57.665886 18.796165 34.242638
55.162392 20.947308 34.205215
56.934673 21.405373 34.289337
49.270119 22.635733 34.200127
50.011456 24.68746 34.270653
57.850842 18.894049 34.369385
57.235455 21.360893 34.382591
55.40432 21.704807 34.319687
55.300514 22.209538 34.337791
55.74028 24.919081 34.348103
53.449059 27.315666 34.342911
59.598236 27.874443 34.352859
50.940914 18.086164 34.472317
55.021873 20.017557 34.458984
67.917862 22.283354 34.482635
62.456783 24.246603 34.490829
55.770287 24.858299 34.451653
57.430565 18.73065 34.548363
46.180462 21.91398 34.522926
61.48867 25.532797 34.595863
46.520004 21.349941 34.62215
49.070122 21.618803 34.694088
63.080696 21.906321 34.663368
57.163567 28.168962 34.633106
49.386204 19.453983 34.758217
55.456509 19.807911 34.75359
54.928886 20.090309 34.72327
46.630283 20.873777 34.726368
50.190899 25.259604 34.796906
56.84185 18.603046 34.821453
57.091427 19.649632 34.812298
63.057529 21.909496 34.89262
56.849777 28.070312 34.816189
54.794613 19.66468 34.902615
66.208176 23.08535 34.946815
50.198784 25.278656 34.959633
61.272251 25.524815 34.988369
54.825539 19.715181 35.027203
46.642548 20.391891 35.080643
62.663597 20.788483 35.014252
55.13295 26.472328 35.075279
51.91993 27.140442 35.048279
54.321808 27.141537 35.070934
53.867416 27.350502 35.026344
45.766937 19.524351 35.117435
48.903122 21.255894 35.120323
49.158123 21.91465 35.165539
45.885349 22.343317 35.186142
49.147049 21.931534 35.282402
62.072685 24.687508 35.247715
60.842785 25.916973 35.225529
59.844727 27.526245 35.241409
53.942638 18.558767 35.34193
44.942276 21.787373 35.331375
45.035343 21.925373 35.307922
46.092464 22.38381 35.37178
66.147926 22.505251 35.389545
68.166412 23.124634 35.357864
61.084198 25.899002 35.309547
60.895287 26.180187 35.388786
51.580605 18.130074 35.413101
53.238724 18.498058 35.44561
66.109344 22.964127 35.448639
62.609436 23.095858 35.432747
50.077423 24.919645 35.424736
54.94178 26.709915 35.485466
56.099693 27.697552 35.408775
46.727444 20.582884 35.507027
66.123657 22.830523 35.583809
49.51368 22.989582 35.590519
66.108215 23.235819 35.565598
50.111385 25.072029 35.583519
61.100391 25.458944 35.578724
51.063713 18.285791 35.654667
49.527348 19.24342 35.65826
58.263752 19.664192 35.605698
50.383492 25.678938 35.66433
53.990585 27.273613 35.615395
58.685265 19.27306 35.764446
66.131241 23.445621 35.728813
49.78252 23.527887 35.700703
62.818237 23.75663 35.728287
66.265099 24.093769 35.899612
56.571636 27.849308 35.823242
54.784622 18.455347 35.919697
44.890686 20.618355 35.97506
67.128387 24.584465 35.932671
51.535564 18.337984 36.074596
44.900703 22.001415 36.098343
49.907078 23.930845 36.028282
60.850601 26.048061 36.087677
55.575165 27.094151 36.089535
45.857628 19.761192 36.154205
67.122421 21.769325 36.15892
46.145203 22.70009 36.156731
59.254738 27.912285 36.127037
57.224628 18.319817 36.216194
44.763603 21.485634 36.217239
53.072662 27.26886 36.259125
49.184673 22.444098 36.346508
50.078957 24.888042 36.382256
50.255733 25.445572 36.37315
61.279827 25.655258 36.393929
55.872841 27.418657 36.305408
50.387184 18.627392 36.415012
50.002594 18.865448 36.400505
67.736931 22.227724 36.404522
53.462166 27.223076 36.437424
59.938705 19.743731 36.557037
45.377033 20.033966 36.508427
59.252621 19.501842 36.629124
61.236881 20.002762 36.629318
44.779942 21.111074 36.654793
65.894203 23.608564 36.645279
53.590839 18.556067 36.714497
62.684742 21.378738 36.757977
53.268093 27.153172 36.782482
59.50906 27.598808 36.745888
47.232281 21.991467 36.817238
49.385132 23.295835 36.826622
50.126278 25.197624 36.81823
60.88633 26.156849 36.852364
51.052132 26.40185 36.871868
49.632469 19.558134 36.908028
49.21048 22.147385 36.920353
46.266678 23.031263 36.937416
58.900845 27.83893 36.972313
50.413292 18.939857 37.08255
49.32618 20.489168 37.070568
47.129028 21.069241 37.092522
44.768929 21.681988 37.053402
65.891792 24.148855 37.020782
66.034698 24.403536 37.003429
55.914265 18.102495 37.176674
53.84795 18.387579 37.116096
47.073154 20.940144 37.120712
47.251892 22.427183 37.165051
51.609734 26.610783 37.193367
54.790543 18.128967 37.285046
58.07658 18.603539 37.209084
61.13765 19.924568 37.298843
45.599968 20.019007 37.279572
65.984421 22.591253 37.24094
61.881165 25.118755 37.27932
51.264622 26.441353 37.274937
55.716351 26.880638 37.24654
54.981487 18.112167 37.333042
52.284424 18.423334 37.398918
45.362297 20.216244 37.32
67.052773 21.828632 37.356846
66.382034 21.902054 37.314064
65.708115 23.799616 37.363979
66.29184 24.85132 37.364738
54.77692 18.135689 37.430515
55.110165 18.112097 37.488716
56.805321 18.204498 37.453537
45.256721 20.348232 37.433495
46.885334 20.62529 37.488277
49.233746 22.340326 37.493343
45.873257 23.199673 37.418797
65.85778 24.3787 37.45504
45.773155 19.98324 37.556305
45.675461 23.130016 37.516571
49.358738 23.242746 37.529011
50.778481 25.794991 37.511532
53.164131 26.884094 37.546669
56.351681 18.1042 37.62471
58.840591 19.045303 37.651028
62.260078 24.057108 37.658882
49.932068 24.660786 37.692497
49.333435 21.212624 37.75341
44.836632 22.068436 37.776466
57.294327 27.543804 37.703007
58.682877 18.922554 37.806412
50.159454 24.893549 37.894611
67.202141 25.024305 37.809433
58.228973 27.478497 37.848518
46.750301 23.433514 37.931614
58.877968 27.386992 37.927429
57.480858 18.222067 38.027199
45.959419 20.000208 38.077526
66.001167 22.220766 38.035152
46.294487 23.478149 38.039936
66.066132 25.013361 38.038231
52.749001 26.564718 38.058231
55.935673 26.681976 38.075665
57.618702 27.358307 38.033253
60.737667 19.902327 38.114548
46.948494 20.649797 38.190414
53.462585 18.298735 38.281128
65.490898 24.250383 38.277828
61.522179 25.303402 38.202084
50.950798 25.568516 38.208076
54.268806 18.250961 38.320827
53.7654 18.302443 38.303043
59.746571 19.382774 38.353706
45.011791 20.782326 38.361275
62.272865 21.811073 38.398952
62.280128 23.616205 38.35463
53.207756 26.483006 38.320057
54.441303 18.174135 38.558811
52.929298 18.381254 38.533562
53.396194 26.334335 38.548649
58.029305 18.285685 38.65329
62.267143 21.920351 38.764301
62.294147 22.497618 38.737259
45.934296 23.666599 38.776154
54.678082 26.151405 38.785973
66.049164 22.072184 38.856735
51.575882 25.74876 38.878525
60.316853 19.661257 38.973709
45.853386 20.061501 38.922195
61.19492 20.299538 38.97821
47.320457 23.64204 38.94257
57.016579 17.834665 39.006432
49.869129 20.393696 39.062344
61.775223 20.953236 39.034126
67.965866 24.713911 39.015881
56.477303 26.434116 39.080631
59.744728 26.595766 39.076584
67.907303 22.351742 39.122086
68.255142 23.875694 39.103554
46.866524 23.901901 39.146049
61.456463 25.013723 39.112957
67.936592 22.376791 39.284744
61.637619 24.737707 39.203621
50.798832 24.967417 39.229492
53.515678 25.951733 39.207062
60.61924 19.722179 39.343819
44.770844 21.594023 39.318909
59.278412 26.615799 39.31424
50.214523 19.998081 39.414383
62.12117 22.513046 39.411987
67.304031 25.279854 39.403004
61.296623 20.257065 39.557446
66.074089 21.957428 39.593468
50.742973 24.690298 39.579288
58.407646 18.193338 39.658638
58.878231 18.66654 39.629631
47.049595 20.69915 39.620163
65.141335 23.478344 39.697823
50.183922 20.270334 39.755836
60.818909 19.706406 39.864162
67.064087 21.649763 39.816093
50.173164 23.586926 39.874779
65.065102 23.889847 39.888687
61.491272 20.249235 39.940907
50.149189 20.530334 39.947563
50.93454 24.738668 39.968597
54.614876 26.047089 39.949379
55.527916 17.403351 40.027493
50.081596 20.744041 40.026955
68.164024 22.978745 40.011143
50.784218 24.47546 40.067333
53.739037 25.841616 40.082935
47.549294 21.255856 40.104084
62.04266 22.01906 40.171669
50.198799 23.531294 40.121716
53.275322 25.686508 40.18158
50.39296 19.855806 40.28809
45.06514 21.168365 40.265434
50.339695 19.857666 40.366283
61.6464 20.458902 40.357552
45.089043 21.109383 40.320335
62.059059 21.627258 40.350601
64.903526 24.494602 40.346386
61.550556 24.532511 40.334076
53.121628 18.187002 40.496567
48.314114 22.392172 40.454784
48.33532 22.465652 40.450096
49.874218 22.463446 40.41906
62.005638 23.258848 40.412109
61.684944 24.290304 40.464695
61.172997 24.972916 40.482189
67.132294 25.469528 40.482151
50.947205 24.557148 40.544285
50.483749 19.495066 40.630543
46.503685 20.298935 40.621716
49.85228 22.289612 40.606377
46.681419 24.299809 40.600616
61.637306 24.466593 40.62149
65.796089 25.586992 40.659863
54.152302 17.690823 40.719841
57.908318 17.780085 40.767998
51.071358 18.856071 40.769287
47.023125 20.750114 40.738968
62.028107 21.493076 40.714485
67.487892 21.874474 40.728981
67.957672 24.402948 40.706486
52.59375 25.379885 40.792183
53.391228 25.629616 40.788883
60.4384 25.623201 40.794441
57.909763 26.191856 40.762772
57.738075 17.704008 40.873924
48.420086 23.294638 40.862762
64.8293 23.922501 40.899914
64.930466 24.825506 40.826622
54.267227 25.965572 40.848221
56.511539 26.265629 40.849701
66.069633 21.911598 40.95853
59.570885 26.063393 40.951599
48.497303 23.231279 41.027695
45.632618 23.761078 41.083061
67.018372 21.672373 41.148952
67.897186 24.45507 41.135902
51.305645 24.85825 41.139221
67.374214 25.343531 41.132072
54.91328 25.875011 41.100975
58.523582 18.066231 41.268909
59.082378 18.619598 41.234737
50.472019 19.553251 41.265408
61.97966 21.369328 41.292564
65.56575 22.682634 41.263615
48.612255 23.085344 41.215546
45.558224 23.604919 41.20929
66.50769 21.815838 41.318905
64.790405 23.802696 41.361881
47.724129 24.257568 41.364445
58.663643 18.129709 41.403164
50.944893 19.128077 41.409031
65.720718 22.413647 41.430218
64.614388 24.646996 41.494507
67.405884 25.27634 41.49231
48.378201 22.298101 41.556477
62.018524 22.53508 41.591507
61.727409 23.829437 41.560551
61.57748 24.201345 41.524616
45.111797 21.782043 41.613121
67.832077 22.633324 41.662537
50.138344 23.056248 41.615509
50.205658 23.186028 41.645988
67.451035 25.216665 41.617165
59.691559 25.776377 41.618534
57.114441 26.342915 41.632858
56.496231 17.644716 41.795193
49.966137 21.071516 41.764969
67.898834 23.087826 41.783119
48.429703 23.85458 41.759613
61.299171 24.407692 41.760147
55.647568 25.745352 41.745094
59.119137 25.756042 41.786537
66.42762 21.792511 41.81152
45.647079 23.67758 41.826569
61.228344 24.440075 41.838142
65.577316 22.587105 41.940598
66.767868 25.75466 41.920021
57.486221 17.70969 42.010715
48.353706 22.051165 42.085049
48.639763 23.132225 42.032246
56.660511 26.2076 42.077896
46.135654 20.663654 42.185398
61.829807 22.85133 42.183304
55.763977 25.80876 42.148449
54.580559 25.962227 42.188446
55.847977 17.493032 42.223221
60.345963 19.44355 42.216187
61.669395 23.412676 42.231819
55.57922 17.459604 42.355305
66.761887 21.854841 42.393948
50.090015 22.382065 42.329556
54.918667 25.945492 42.355148
67.711769 22.500763 42.489395
64.746635 24.887146 42.40432
57.621925 26.277559 42.456581
50.245144 20.713331 42.5434
67.744156 22.603493 42.507553
46.015022 24.087994 42.563305
67.587067 22.320908 42.644333
48.550224 22.404121 42.626087
64.640846 23.613834 42.641224
57.385799 26.364717 42.620693
53.128845 18.547001 42.700447
51.248459 19.460907 42.741428
50.723228 19.946877 42.746727
58.549629 25.968037 42.723595
64.847618 24.985558 42.803085
66.619919 25.765421 42.825928
54.709202 17.349121 42.90094
45.286522 21.826389 42.967884
50.192028 21.224934 43.038242
46.026054 24.004288 43.062111
57.166138 26.307577 43.023247
55.459301 17.270384 43.199364
52.924236 18.555822 43.176208
45.43425 23.010456 43.153973
46.77668 24.507015 43.113331
64.579552 24.565067 43.186287
58.353676 26.047333 43.151772
57.637665 26.299423 43.109917
52.256989 18.974592 43.221504
65.94854 22.181416 43.249992
48.822247 22.883579 43.282612
64.501694 23.853668 43.243896
55.831245 25.903145 43.25716
53.966881 17.374821 43.396687
58.767776 18.081196 43.359371
47.837471 21.287766 43.324821
45.822464 21.304604 43.383949
50.430973 23.265022 43.324703
55.952465 17.318727 43.435089
58.638031 17.846083 43.49725
58.900818 18.242811 43.400841
60.496872 19.786892 43.465187
61.443787 23.318882 43.411423
57.787048 26.257278 43.465363
61.574051 21.507498 43.526485
61.591167 22.734255 43.548691
67.778702 23.20491 43.516754
59.051445 25.749222 43.548775
66.075958 25.712412 43.585728
56.073162 25.94525 43.556126
56.623726 17.143463 43.665871
54.144447 17.232243 43.607265
60.100708 19.408987 43.695435
45.494995 22.842972 43.675518
64.942657 25.220776 43.608871
59.096821 25.720644 43.614189
58.505009 26.035101 43.619854
53.021854 18.06119 43.716503
51.158039 19.891735 43.775063
50.802197 20.231855 43.78569
48.172493 21.103184 43.744007
67.405182 22.523464 43.700397
64.402267 23.022453 43.724609
46.300655 24.216404 43.7649
51.287895 24.631168 43.770828
59.629349 25.459513 43.786232
54.699028 26.114302 43.722137
58.723171 17.90048 43.89164
64.311722 22.863493 43.805012
57.017399 17.012932 43.957893
45.572357 22.219357 43.977287
47.16489 24.632711 43.995155
58.090595 17.282089 44.054111
46.30624 21.341524 44.02729
50.26984 21.751577 44.09679
60.285675 25.164509 44.024109
66.121796 22.228226 44.126289
48.892288 22.360409 44.15353
59.90657 18.999899 44.226734
64.043701 22.481724 44.291458
50.373684 22.87418 44.236996
64.112267 23.3892 44.254303
52.813957 18.156902 44.357426
59.336582 18.501823 44.330261
63.940018 22.973917 44.356026
67.429504 23.722263 44.389687
48.330708 20.874937 44.497757
61.62635 21.323433 44.444473
61.017815 24.38464 44.410725
61.281742 20.287989 44.667027
49.120026 21.698421 44.621384
61.750931 21.776907 44.643486
63.917408 22.106382 44.624336
58.604572 26.04991 44.682144
50.352898 21.108906 44.769878
65.112679 21.453758 44.79018
59.337093 25.683153 44.721001
56.577084 26.123232 44.728596
58.590256 17.85009 44.843834
52.172543 18.7064 44.818027
59.06049 25.853535 44.83868
47.17094 20.976597 44.977814
50.300842 21.205208 44.972637
47.445114 24.829897 44.950386
54.120998 26.472893 44.903229
58.320656 17.631718 45.074936
49.068043 24.141529 45.032211
46.803902 24.542101 45.031937
64.228645 24.894638 45.091278
65.195358 25.661652 45.084831
58.570614 26.131702 45.046875
49.370174 23.246702 45.111141
67.141327 23.951069 45.199047
60.724125 25.011147 45.130714
51.717823 25.470894 45.194942
56.251648 17.024996 45.206261
64.992737 21.326624 45.273491
50.278439 23.686222 45.210106
50.335812 24.041712 45.254238
60.193634 25.334408 45.215351
54.06646 26.478489 45.21843
50.431282 20.528759 45.328835
46.36515 21.78204 45.384819
54.728996 26.494987 45.325401
61.655159 23.838068 45.482925
67.075256 24.316013 45.449268
59.329674 17.930172 45.506561
50.17577 21.311253 45.521965
49.41201 23.290827 45.578541
50.525024 24.467308 45.537346
46.927238 24.614548 45.533592
51.507431 25.458231 45.526554
58.331421 26.38657 45.579514
48.619225 20.735689 45.697842
50.256264 20.890814 45.669834
46.62133 21.422958 45.680878
49.465015 21.683247 45.677376
66.972717 23.890749 45.682297
54.678139 16.970991 45.744656
61.501839 20.191378 45.747402
47.013977 21.060503 45.761967
61.820839 21.170692 45.720966
55.371971 26.463228 45.726303
50.043144 21.942379 45.831551
53.36924 26.367809 45.85099
51.583176 18.665314 45.934441
61.813992 20.892164 46.029785
66.234444 21.936981 46.058666
49.370491 23.748129 46.015293
47.075039 24.658209 46.050335
51.255394 25.49332 46.016518
60.107849 18.049889 46.153152
60.603897 18.56712 46.160942
61.853622 23.753815 46.101051
61.948021 21.151947 46.234482
46.791054 24.473833 46.282795
60.080544 25.501015 46.284138
65.256783 25.683804 46.245571
49.934071 23.436289 46.365257
60.867058 25.053982 46.347187
54.823231 16.929527 46.478302
60.4963 18.259733 46.491539
50.363766 20.261887 46.401352
62.083496 21.570492 46.419136
66.750671 23.137901 46.401917
58.964043 17.192873 46.568321
51.21722 25.689369 46.576275
52.489994 17.675394 46.662796
46.436161 23.872055 46.661354
56.243546 26.237427 46.646801
57.220531 26.500181 46.695328
54.387386 26.99971 46.688911
46.407158 21.986275 46.781235
60.050797 25.574284 46.707363
50.979893 25.50712 46.815891
59.676678 25.843338 46.847801
52.085823 26.092192 46.861691
55.631996 16.719614 46.960403
59.556911 17.406979 46.923691
64.740959 21.068687 46.971756
64.40358 25.728909 46.925308
47.694954 20.670313 47.098858
50.020615 20.850157 47.069633
62.164646 21.240784 47.057159
49.529064 23.681801 47.093307
49.448433 24.17959 47.066525
50.777802 25.369614 47.063343
57.044785 26.484165 47.0681
46.643181 24.123245 47.17878
61.831432 24.23727 47.108788
47.889145 25.068985 47.128307
65.856361 25.27199 47.102322
54.118896 16.762812 47.259636
59.818085 17.499218 47.219513
46.963028 24.426041 47.290031
47.186287 24.622896 47.202538
50.320709 24.898666 47.228874
50.513855 25.131245 47.241676
65.826111 25.253962 47.263252
53.285034 26.633831 47.262119
57.38625 16.519594 47.334141
51.844559 17.911221 47.335022
49.991722 20.882069 47.304989
65.245918 21.22752 47.308201
66.571106 23.114895 47.341759
63.538528 24.355431 47.356499
50.504837 19.704857 47.409081
47.798546 20.680542 47.443161
62.307194 21.342945 47.457912
62.45813 21.986574 47.413136
66.536369 22.611984 47.457897
63.392197 23.822819 47.41996
66.610008 23.913134 47.404179
57.146263 26.542767 47.486549
54.079876 16.726383 47.503235
58.734909 16.925034 47.519352
60.370056 17.990959 47.533005
50.36261 20.048286 47.570137
50.331924 20.118637 47.544182
64.066628 21.147099 47.524113
62.450638 21.842049 47.559456
49.758743 22.497612 47.517632
47.276611 21.188034 47.668419
63.486008 21.375534 47.610878
62.271408 20.859831 47.75671
65.14798 21.213917 47.754784
46.922756 24.280384 47.73423
49.43972 25.146866 47.715649
52.162605 26.359997 47.757309
53.738834 16.745445 47.948833
60.570671 18.178331 47.904938
64.444031 21.053072 47.93882
49.548752 24.611828 47.910595
50.875557 25.668291 47.905426
63.925358 25.68671 47.996132
56.894737 16.364208 48.041443
53.422791 16.925858 48.021
49.884827 22.027092 48.064743
46.651535 22.197556 48.074471
66.328751 22.629978 48.062889
48.70546 25.432407 48.088577
52.509544 26.471092 48.044651
57.039173 26.561489 48.071651
58.657417 26.756374 48.012222
55.286476 16.604998 48.189308
46.628342 22.371511 48.119438
49.582359 24.611008 48.112328
54.399078 27.194496 48.145412
49.739128 23.151867 48.222652
47.221378 24.501837 48.212917
47.780136 25.099716 48.237213
56.871063 26.506582 48.286377
56.001694 16.538399 48.394646
66.064735 24.530556 48.340767
48.50666 20.791033 48.429359
61.451458 25.165901 48.415131
55.279961 27.098362 48.47628
47.299019 21.387096 48.591866
49.657242 22.209267 48.503647
61.571892 25.040016 48.514534
49.54261 25.335915 48.580402
58.152885 26.821873 48.563099
55.431126 16.687515 48.674221
61.560982 19.198538 48.660988
46.821571 23.167316 48.670044
63.004219 23.139091 48.674973
49.805412 23.110056 48.730724
53.253914 26.669575 48.747929
54.23983 27.12254 48.854942
59.025215 16.879103 48.930763
50.867851 18.660563 48.967049
61.655132 19.330051 48.945793
65.597321 21.666279 48.948002
56.854156 16.591791 49.070602
59.556114 17.028276 49.048145
50.305519 19.763908 49.00425
47.269707 24.274353 49.081017
47.690807 24.795589 49.044052
61.078663 25.587898 49.077454
51.970825 26.508823 49.068661
59.141964 16.733418 49.133404
49.354156 22.862085 49.173393
64.796631 25.505669 49.161842
54.667019 27.296274 49.139885
58.491989 16.488449 49.272007
59.427261 16.804836 49.204956
50.145584 19.800282 49.362297
50.068314 20.254128 49.303921
62.973301 21.418783 49.365917
63.132427 22.921324 49.334099
51.387291 26.250969 49.37606
50.248314 19.51318 49.481705
48.679863 20.91964 49.412014
48.701553 20.913702 49.409225
65.448997 24.775467 49.442924
64.779091 25.455807 49.472214
49.679974 21.421043 49.593773
47.183598 21.62286 49.555298
49.605305 21.617115 49.502945
49.8927 23.283253 49.552952
51.751457 26.500538 49.549751
54.70752 27.271969 49.543015
60.924244 17.795242 49.636566
59.11729 16.446735 49.706741
50.661407 18.68499 49.711235
49.163033 22.972992 49.716251
65.027306 25.250561 49.795731
49.237267 25.623394 49.781918
57.956238 26.942719 49.741051
59.182861 16.42478 49.889915
49.638195 21.851765 49.855625
65.7173 23.807938 49.863808
61.374565 25.535645 49.860744
56.515251 26.597939 49.851677
58.682922 16.316586 49.981731
65.68676 23.737511 49.982422
57.412148 27.043247 49.921349
55.4076 16.817373 50.021736
60.866302 17.284214 50.094948
50.901947 17.938745 50.06443
65.104385 20.936478 50.035946
65.990746 22.473242 50.005341
62.984062 23.37635 50.094769
49.411728 23.746948 50.019127
64.077431 25.618774 50.010113
55.015957 16.802132 50.107918
50.510941 18.430958 50.123955
49.309181 22.916855 50.12936
50.05769 25.28434 50.177715
55.538891 27.311527 50.193012
54.034744 16.664551 50.29826
62.899109 22.242893 50.291481
49.973701 23.593681 50.219612
51.818558 17.222424 50.356487
50.214386 18.912216 50.311295
66.023483 21.807625 50.387432
50.040409 22.159964 50.323357
49.399788 22.921623 50.341309
65.722237 23.165169 50.309769
62.807674 23.535101 50.341343
55.922592 16.646896 50.480179
48.625626 20.998703 50.414387
52.694149 27.157187 50.477329
53.010105 16.835266 50.538094
60.551956 16.909079 50.527584
64.583755 20.615477 50.567677
50.022057 23.886337 50.527199
62.502243 20.343365 50.616318
48.11438 20.902037 50.615864
66.141983 22.062857 50.680801
47.45779 23.940891 50.657951
60.887871 26.247673 50.644142
54.46241 16.732126 50.732849
50.8913 17.770546 50.738079
50.1726 25.806559 50.710339
60.186409 26.426151 50.709633
53.204399 16.83379 50.867195
49.936325 19.089672 50.86026
62.145481 19.00421 50.807533
49.954872 19.114788 50.813217
62.176605 19.10955 50.823212
62.233196 19.204163 50.883846
57.014606 26.804546 50.894573
55.388718 16.944107 50.972656
62.348099 19.986143 50.955811
47.544323 20.954445 50.912598
47.316723 21.068699 50.993313
49.787758 23.477602 50.986088
62.806068 24.129105 50.939102
50.159241 24.880468 50.998024
58.7472 26.571285 50.957813
51.188698 26.785168 51.08596
54.186089 16.779408 51.180775
54.913788 16.852783 51.121433
62.270355 18.855907 51.151821
49.751389 19.363344 51.180809
58.838871 26.566399 51.105236
58.438957 26.779316 51.118317
52.568844 27.309881 51.108791
49.674866 20.435238 51.21077
62.673996 21.220766 51.220432
50.126942 22.925982 51.206684
62.096638 25.621351 51.221378
52.068092 27.217087 51.25322
55.417362 17.006662 51.326321
51.375175 17.487049 51.362263
49.631882 19.895767 51.393372
62.480148 20.188393 51.350807
47.021755 21.314949 51.365082
47.849266 24.45731 51.353943
48.01202 24.566095 51.307182
62.513321 25.252657 51.370121
63.072578 20.264139 51.477833
49.630962 21.538813 51.409786
61.050232 26.403257 51.4949
52.611107 27.417511 51.45121
49.610809 20.513836 51.576271
47.866093 24.517794 51.558712
64.185356 24.664047 51.592133
49.638218 19.49831 51.603226
62.460411 21.962614 51.685345
56.814545 16.589184 51.701561
58.957016 16.512514 51.703545
62.754066 20.213034 51.717033
65.226006 23.842264 51.786812
59.179214 26.630123 51.768845
54.090939 16.938765 51.823193
62.360146 18.825172 51.899025
65.122467 20.408943 51.820518
64.880051 24.227818 51.811333
50.196175 21.901915 51.914665
61.649532 25.942617 51.90591
56.815437 16.731819 52.049286
55.055443 17.097282 52.033894
62.94149 19.925724 52.016518
49.621525 20.526827 52.041149
65.405762 20.567255 52.0439
50.028511 21.355663 52.098793
50.061745 25.462725 52.001747
59.982861 16.86936 52.143932
53.638859 17.073885 52.27354
53.211517 17.125202 52.244102
51.925888 17.477329 52.202118
63.586288 19.736069 52.234745
49.243855 20.42551 52.27636
50.154377 22.299568 52.289375
48.454712 25.245184 52.273754
50.370834 26.39642 52.27182
53.108215 17.191309 52.359177
49.622635 19.279869 52.387756
62.367039 21.724882 52.323353
62.413486 24.773376 52.324799
52.148525 17.487411 52.476734
50.708965 18.133522 52.477581
62.346252 20.745228 52.429016
50.408092 26.213133 52.433384
53.949341 17.159344 52.505554
62.431038 19.188572 52.518951
62.327484 21.160654 52.556911
52.252281 17.515675 52.62841
61.859249 17.907183 52.63187
49.866142 20.943607 52.630032
50.207966 21.551764 52.607204
56.282433 26.944782 52.631577
52.630497 17.459198 52.706581
51.309731 17.934528 52.766102
62.732288 19.57538 52.788399
64.635185 20.059952 52.768784
50.129208 20.652042 52.788269
47.47691 20.956976 52.772362
46.687817 21.785786 52.789555
62.430225 25.155844 52.709171
62.558952 25.136951 52.7066
48.772705 25.647562 52.782619
50.592617 18.34779 52.80616
49.813705 19.022514 52.873798
50.798454 26.823273 52.959171
61.53006 26.183289 53.096218
54.13588 27.426392 53.052902
56.177624 17.237904 53.138878
49.853584 20.049088 53.14328
47.045811 23.813906 53.183407
64.28743 24.898024 53.101883
49.629322 26.097031 53.138214
49.823227 19.8811 53.266663
46.704853 21.901966 53.236637
56.58931 26.701021 53.225113
52.175274 27.276533 53.245975
49.96328 20.147223 53.321877
48.408478 20.436937 53.304035
47.097958 23.869759 53.389332
48.135796 25.116318 53.394051
59.525723 26.923571 53.40023
50.358192 26.262802 53.550205
65.915367 21.47401 53.621616
62.271896 25.595749 53.620872
48.496552 25.709982 53.699776
48.624256 25.818436 53.651215
55.247906 27.627985 53.674698
60.754013 17.7192 53.700089
47.39991 21.107046 53.706985
56.540916 26.711048 53.785088
51.104729 27.06896 53.834927
65.872421 21.410299 53.953144
65.868195 22.239658 53.966026
65.713539 22.614357 53.935165
64.257828 25.003738 53.952595
52.224316 27.361191 53.997875
62.00975 18.699081 54.01712
65.569458 20.778872 54.062401
63.348499 25.53583 54.079731
65.405571 23.294535 54.120274
61.383354 26.43483 54.176079
51.004208 27.015474 54.192745
57.512291 17.481041 54.266617
58.006413 17.483948 54.238091
50.04464 19.485573 54.200344
46.979832 23.468496 54.210693
47.120338 23.723921 54.281101
47.941402 24.786308 54.230221
59.236851 26.944679 54.278694
64.494873 24.683147 54.344749
50.994179 26.872618 54.480648
58.163811 26.981678 54.47805
52.304337 18.420929 54.53968
47.445786 21.22208 54.571243
60.755581 26.606617 54.50111
61.386635 18.536915 54.691429
65.234451 23.337484 54.710609
54.527031 27.4751 54.715897
53.214943 27.608459 54.759506
62.280952 19.055975 54.82016
65.631165 22.357492 54.829792
62.788418 25.789433 54.869678
62.344585 25.899212 54.851406
53.970032 18.207134 54.93565
53.697121 18.32432 55.043747
54.291168 27.46417 55.066822
50.865627 19.3013 55.170998
58.005108 18.017258 55.251209
53.390896 18.500319 55.265991
52.679359 18.682018 55.268188
55.584755 18.280571 55.375908
59.751076 18.326557 55.328812
52.203133 18.882172 55.3125
47.535149 21.455589 55.353947
49.716759 26.385073 55.306717
48.698132 25.656532 55.449623
50.489223 19.872343 55.505657
65.274933 22.435995 55.525162
61.034714 26.589617 55.548271
47.166214 22.479801 55.671829
54.929615 27.279671 55.620811
47.8344 24.082861 55.74678
57.663536 26.495127 55.753899
56.224518 26.523502 55.733093
58.766106 18.346172 55.842815
54.631996 18.662495 55.819969
47.329624 22.812376 55.848858
63.645512 25.13875 55.863083
47.557072 21.902145 55.96067
47.39183 22.111917 55.959621
52.281841 19.350227 56.039074
51.426491 19.718903 56.025528
56.612644 18.680824 56.277504
64.383362 23.004892 56.279198
53.327557 26.908041 56.292313
50.740562 20.698853 56.347015
58.653946 26.591694 56.359646
53.201069 26.869322 56.362568
56.226707 19.167547 56.429176
47.874397 22.82093 56.451439
57.000313 19.14378 56.507702
63.611038 20.1661 56.52182
63.907291 21.736629 56.538971
60.920959 25.851717 56.574253
53.433205 26.93071 56.560028
51.801189 20.057793 56.656685
62.32135 20.057465 56.689564
58.95533 19.096704 56.750126
50.257393 20.629543 56.776073
62.004883 25.558899 56.749374
62.244438 25.556456 56.721741
58.874756 19.813881 56.849293
62.675098 20.073429 56.80481
63.037979 20.25425 56.804176
53.698917 26.905855 56.836258
63.350567 20.904358 56.960381
63.334309 24.011066 56.983231
55.344719 26.509163 56.92812
54.16143 26.857731 56.956814
57.376251 19.660183 57.075829
48.987659 22.452503 57.053844
61.082314 25.453875 57.02858
52.804626 20.591831 57.105141
49.584885 21.192873 57.166138
63.614025 22.621382 57.183807
48.759697 23.142441 57.187485
49.318703 24.769051 57.118065
60.481079 20.303967 57.204147
61.297668 20.427298 57.270206
51.540783 20.801882 57.23938
61.604263 20.679613 57.341339
51.706585 20.917355 57.380234
50.073742 21.278612 57.32029
50.177811 21.281353 57.336948
49.465012 21.944416 57.355247
58.075615 25.804523 57.355171
61.67186 20.832455 57.400124
62.594276 24.10236 57.498478
59.100327 25.903732 57.460419
58.407402 20.182962 57.592667
51.872917 25.973543 57.584354
54.060242 26.539137 57.501762
63.04847 22.541176 57.613647
62.650955 23.785599 57.603481
50.066532 24.895212 57.620522
61.126282 24.857206 57.69989
56.867393 25.393366 57.661762
58.727928 25.770973 57.653393
54.682545 26.421476 57.602055
49.561844 23.308455 57.791508
61.86557 24.24855 57.766079
55.63916 25.753193 57.734207
54.874954 26.156229 57.786697
50.116779 24.275944 57.824821
57.999077 20.282068 58.002502
61.929611 21.878178 58.079514
53.153709 21.155663 58.120922
61.445553 21.564573 58.117432
62.201881 22.598076 58.138382
56.555576 25.184799 58.155617
52.216736 25.443668 58.138584
50.80883 22.614685 58.203091
61.775967 23.56502 58.217999
51.625595 25.052252 58.224392
52.739067 25.391571 58.348499
53.688908 25.698219 58.325996
53.77475 25.696667 58.339115
51.552876 22.119801 58.468166
61.647781 22.635534 58.470325
54.993782 19.853765 58.521187
52.61615 21.704773 58.596519
61.226364 22.170801 58.630821
51.398167 22.960655 58.682007
55.361912 19.807312 58.794571
60.935448 22.509613 58.739021
56.851368 24.436222 58.784523
53.315071 25.11797 58.754677
60.832993 21.863441 58.830292
60.748161 21.989149 58.807896
60.459435 23.695621 58.883018
58.756401 24.488777 58.817265
61.019527 22.459757 58.912651
52.17762 24.040424 59.071133
59.53056 21.30739 59.197273
57.269585 24.155441 59.179893
60.324203 22.797966 59.268471
59.643898 23.614828 59.243652
52.488258 23.739426 59.204498
52.542976 23.744774 59.352737
56.325203 24.332279 59.344158
52.439396 23.057732 59.427773
59.567543 23.092262 59.474842
52.431068 23.169704 59.481308
53.522694 24.225893 59.448704
53.927345 24.274757 59.499115
56.891441 24.256462 59.481529
55.241035 24.374535 59.411591
53.001209 22.70949 59.561272
