# .PCD v0.7 - Point Cloud Data file format
VERSION 0.7
FIELDS x y z
SIZE 4 4 4
TYPE F F F
COUNT 1 1 1
WIDTH 1551
HEIGHT 1
VIEWPOINT 0 0 0 1 0 0 0
POINTS 1551
DATA ascii
9.6060381 -0.86812687 19.298405
3.3600581 0.089375585 19.21701
0.23482448 1.1635001 19.242907
3.1241899 1.2986386 19.314329
-0.62624228 3.5137205 19.371038
4.0259018 3.8287611 19.365231
-2.8717952 -3.0141034 19.441015
4.7970848 -2.3539085 19.435083
10.351336 1.4897118 19.551918
4.994225 4.6474133 19.634695
-2.4725177 5.0613203 19.768681
7.836318 -2.496701 19.995293
3.7300663 -0.54213917 19.921824
10.392529 0.5507983 20.009056
-6.8136292 1.7730415 20.099346
-0.22288334 2.1786954 20.077475
-3.8034348 -2.9016619 20.191494
8.1789684 -2.3052423 20.151114
-6.0869913 3.8110304 20.123821
-6.7329454 1.8440905 20.324129
-6.0168223 3.7877538 20.396927
6.752799 5.500493 20.386576
-2.1784029 -2.8237581 20.414526
-4.4166517 -2.5457044 20.425039
-1.1717446 -1.7774113 20.493681
0.070864923 0.25676575 20.542904
-0.70194715 3.2762895 20.569063
-2.6712751 5.0209703 20.570374
-3.8980029 -2.8777747 20.623949
-5.2633762 4.390348 20.668095
3.5272303 2.1279316 20.754135
10.209088 0.98587501 20.934383
9.2753315 3.4490647 20.963467
9.1493673 3.7032778 21.089777
-1.4004167 4.2181897 21.0966
-0.28913471 2.2373803 21.160522
-0.86092889 3.6043882 21.126301
8.5565834 4.2330418 21.179689
9.0487337 -1.3721273 21.249966
8.6666727 -1.9923362 21.448795
-4.7394257 4.4590621 21.465126
-6.1328506 -0.50070256 21.506165
0.33794111 0.70155978 21.597614
-2.9138236 -3.2935946 21.66375
7.3586388 -2.8681326 21.652752
6.2293291 4.974113 21.621435
5.6879997 -2.9470968 21.717125
4.7448235 4.1284828 21.728813
-2.7118275 -3.177125 21.814564
-5.8670511 3.3224032 21.830132
9.7481556 0.096774101 21.920912
7.2347598 -3.0031834 22.060982
4.0775986 3.3587494 22.000046
-5.9900074 2.8334281 22.177105
-0.065159678 -0.045223594 22.279243
-4.9200058 4.1839433 22.273695
7.9641404 4.3407979 22.218102
9.0735235 -1.4313669 22.371521
-6.0673141 -0.71203893 22.360863
-6.3721824 0.032384515 22.378187
9.9545593 0.52853757 22.340445
-0.16092695 1.8305316 22.362019
6.2512689 4.8587499 22.324442
6.8990841 4.9171948 22.346226
-6.104557 -0.63144732 22.459757
0.31920964 0.66406822 22.493465
6.3658414 -3.3950005 22.537369
9.4318342 -0.5703069 22.521477
-6.5743937 0.82718015 22.578829
7.0698891 4.7433715 22.706598
-5.4061241 -2.0584934 22.84721
7.9887762 4.2056608 22.898149
-4.5748358 -2.709126 22.915504
-5.1078639 -2.3065724 22.916512
9.1518383 3.1415167 22.910057
-0.080686875 1.614996 23.180389
9.7369928 1.1667354 23.281029
7.8540125 4.2229018 23.244221
-3.1675746 4.8100758 23.254314
-6.40345 1.2730947 23.412106
-0.19188827 2.0172422 23.488123
-0.97475469 3.7135415 23.560574
8.4912977 3.8991861 23.550854
-2.9816651 4.6447468 23.595253
-5.9167399 -1.1802558 23.603846
4.1409988 3.4778514 23.702538
8.2023106 -2.6394451 23.825733
-5.977284 -1.3383179 23.879173
-0.48560357 2.7646389 23.815384
9.7403717 1.1937362 23.963209
8.5821943 -2.5739837 24.186684
-1.1005217 -2.2607684 24.130331
0.22159113 -0.41401333 24.206356
-6.3964314 2.8175781 24.262909
6.0737944 -3.3874388 24.332981
-2.3605399 -3.1548016 24.334484
-1.4692817 -2.6772454 24.367968
-5.3246918 3.8205621 24.438091
9.6159363 1.6088848 24.624157
9.084404 3.2420249 24.653204
6.9254212 4.5124178 24.648571
6.9559722 -3.5493071 24.716896
-0.47774756 -1.7948425 24.778971
9.3300247 -1.1211537 24.747383
-1.4642161 3.992259 24.761724
7.8838854 4.145246 24.749504
4.9010377 -3.2426906 24.888372
-6.5097284 2.409795 24.844315
5.8252926 -3.7145572 24.920795
-3.755378 -3.6615324 24.961929
7.4946637 -3.3720832 24.90214
0.36478895 1.3127043 24.986826
0.14590777 2.0308592 24.984905
-6.0841832 3.4942238 25.045174
5.4429231 4.3001118 25.034904
9.4985676 -0.84987396 25.197117
-4.1520796 4.355689 25.132345
2.5222197 0.046931908 25.228888
9.9511595 0.62103844 25.231627
5.6080303 4.4569736 25.384483
3.6306853 -2.2512443 25.445475
3.6692929 3.6347444 25.468363
8.8325033 3.8487396 25.486115
-2.1253159 -3.9265642 25.598814
-1.1620449 -3.4345927 25.537006
3.6078401 -2.2437754 25.526953
3.400965 3.0836191 25.636795
-1.7873942 -3.806402 25.703045
2.7928872 1.1422622 25.70718
8.1265497 -3.4353144 25.803375
3.6715765 -2.4706433 25.844294
3.0407705 -1.4032806 25.817636
6.5496898 4.9305205 25.896141
9.2027121 2.9812548 25.903702
-6.6864781 -0.93612033 26.079102
-4.7096567 4.2649007 26.00312
6.0922403 4.816205 26.007027
-6.565773 -1.3283719 26.277031
-2.2067089 -4.2679148 26.324047
9.5404234 -1.0405402 26.403984
4.4313283 4.1177382 26.431677
-5.515769 -3.1908283 26.59123
-2.6071675 -4.5047183 26.608688
3.2528052 -2.0578892 26.608662
0.44967777 1.835059 26.68185
9.498085 1.8817179 26.794596
-3.5220118 4.8576069 26.74947
6.077425 -4.6203556 26.874306
-2.717242 -4.5878339 26.809347
-4.3031487 -3.8215785 26.816364
8.7087698 -3.2754245 26.801907
-4.1813927 4.5449109 26.843998
2.8290968 1.9158964 26.964359
2.8810937 2.0492907 26.900566
7.4750128 4.4859214 26.993742
-6.2828021 -2.2668493 27.098881
-6.9457183 0.47600359 27.067516
-6.3475318 2.9654703 27.058952
-6.2935419 3.2141726 27.159889
-6.1503673 -2.7907326 27.226982
9.0515251 -2.3522122 27.354324
4.0195575 3.9085646 27.372627
7.7136974 4.329051 27.340794
9.0750561 -2.2872906 27.467096
-2.3354707 -4.7069111 27.525394
-1.3405433 -4.3673067 27.569691
4.7231221 -4.390708 27.52968
-6.5916271 1.7592765 27.655872
5.8417692 -4.813211 27.729977
5.3110833 -4.6884203 27.719
2.55864 1.449743 27.731544
4.2396188 3.9976623 27.797878
2.4611509 1.1933835 27.839191
6.1278362 -4.9226036 27.960791
-6.5704632 -1.1203439 27.995764
-4.2636757 4.4440908 27.986111
3.5281105 -3.4774396 28.159838
0.97808158 -0.19226715 28.152731
6.7532964 4.6696973 28.142435
0.42177677 -2.0377016 28.216269
4.29076 -4.5037384 28.303753
9.5037136 -1.0837789 28.324526
-6.3159928 2.8507159 28.42775
-0.27708885 3.6822662 28.436378
0.96035731 0.5947839 28.528366
-6.215291 3.323204 28.572651
-1.3769898 4.1769719 28.541897
8.815506 -2.975723 28.672005
0.90532744 -1.4024608 28.679489
-6.659647 -0.73612601 28.694868
8.8401127 -2.9078515 28.788012
2.9947326 -2.4752398 28.855457
0.95336688 1.1599083 28.94108
3.8786459 3.8072524 28.910751
1.033269 -0.66417146 29.038385
2.3372917 1.1354007 29.139851
5.2332411 -5.1438985 29.3596
6.5645123 -5.0290833 29.421844
3.520818 -4.5130987 29.4946
2.6795695 2.7269421 29.432049
3.4961069 3.621583 29.430904
-1.1591661 -5.0202088 29.545868
-4.1386304 -4.4200377 29.535917
9.1368008 -2.0828257 29.589203
-5.8723216 3.5706654 29.553738
6.8151922 4.4536524 29.55909
0.20766139 -3.4135301 29.688705
2.2776048 0.16188347 29.616703
-4.2204309 -4.4120541 29.743622
0.40319306 -2.8596528 29.71093
2.8462801 -2.7614865 29.772285
-6.2871962 -2.1450162 29.762863
-0.76855981 -5.0204268 29.856932
1.031463 0.13871503 29.827309
-0.80267322 -5.051321 29.936922
3.4323459 -4.5795894 29.905106
5.128273 -5.3238363 30.066681
-0.69618577 -5.0706363 30.08847
0.0093578994 -4.3138442 30.093756
0.60664761 -2.5407016 30.059078
0.94702035 -1.8807557 30.128695
-6.5147309 1.5065455 30.215532
8.8394413 -2.8922079 30.332253
-4.1715183 4.2275543 30.396523
6.2152734 -5.4280963 30.422026
0.41102803 -3.3960176 30.417204
1.0447879 0.41012579 30.441406
8.4246855 -4.0061264 30.589392
0.68310106 -2.7521226 30.608259
0.83126211 2.6665499 30.611664
0.77484989 2.88131 30.676365
2.2071187 -0.47245991 30.715036
1.0844678 -0.24102175 30.75428
-0.3495881 -5.2244248 30.896894
3.0754018 -4.3197021 30.894358
-3.4992604 4.3821316 30.857986
9.2982578 1.2183626 30.942074
9.1385031 1.8660913 30.971973
7.1157084 4.1465759 30.920902
0.53938615 -3.5210984 31.048927
1.1643788 -1.8333029 31.092581
9.2689724 -1.4026614 31.17511
1.0904622 0.042166591 31.197868
2.2695546 1.4487855 31.153994
-5.801228 2.1968832 31.183123
3.5906355 -5.3199959 31.291677
6.5944257 -5.33146 31.298616
4.279501 -5.4932313 31.328083
2.3870559 -2.6699078 31.351585
9.53582 0.32434329 31.348839
1.0325097 1.5583844 31.32799
0.23551163 -4.7180576 31.436007
0.39036989 -4.3381848 31.526995
-6.137219 0.74947131 31.508333
5.7978392 4.3766418 31.544788
8.3570204 -4.1820168 31.666994
8.4053078 -4.0515141 31.657129
-0.40138113 -5.3828149 31.749016
2.6414824 -3.7241552 31.759872
-6.0073752 -1.1880155 31.751652
-1.9283351 -5.8181543 31.896822
3.8296885 -5.4227748 31.80904
-6.0562806 0.92996764 31.886736
1.0809592 0.93261021 31.885845
8.6682234 3.7146568 31.863056
-1.9222707 4.1406164 31.815037
9.5620127 0.053721413 31.939442
2.2560585 1.8776119 31.935837
7.822237 3.9229999 31.944651
2.3374465 -3.0734823 32.07011
2.0816774 -1.7272334 32.27916
2.1065547 0.35324982 32.270046
-3.4127605 -5.3899212 32.432663
-5.5102072 2.9828374 32.49913
8.7709846 3.1744971 32.413448
3.0908899 -5.4831686 32.591911
2.1505756 1.819495 32.54443
-1.0207828 -5.6218996 32.680668
6.7484074 -5.3775983 32.675644
1.3542218 -1.6733967 32.79916
1.8567753 -1.6739615 32.799122
-5.8289919 1.4997807 32.786232
0.44140184 -4.9932303 32.811195
2.765377 -4.7526059 32.847443
2.1234388 -3.0027673 32.830921
2.063005 0.34985888 32.810112
9.166441 1.3168297 32.850838
-0.81769025 3.6445074 32.883854
-5.5195594 -2.5979102 32.912704
2.9447279 -5.4993687 33.251106
8.3330488 -4.1220636 33.332806
3.7570982 3.2014546 33.512398
-2.3807158 -6.066206 33.640457
4.9942951 -5.8746347 33.632164
8.1965294 -4.474822 33.679855
-2.8530576 -5.793839 33.754147
8.4311409 -3.7422287 33.731617
3.2776089 3.2143176 33.830158
-3.4260044 4.1592488 33.878677
3.3492031 -5.9176989 33.94046
5.0747614 -5.9794064 34.097935
-4.9410748 -4.3131776 34.046864
0.0068359971 3.4826171 34.043633
2.7145529 -5.4534693 34.145058
1.327865 -5.3887205 34.162872
-4.956542 -4.2339401 34.235161
1.5374039 3.7650881 34.260475
6.0627279 4.412324 34.206261
1.6704459 3.8565919 34.333889
-0.1937997 -6.0758362 34.440395
2.0776193 3.9502044 34.408989
6.8179479 4.2198792 34.406567
1.6852753 -6.1360502 34.573326
0.58702147 -5.7482395 34.556278
8.4919806 -3.4247882 34.533165
8.7486 -2.5859411 34.528114
8.6225386 -2.9766834 34.675037
12.673328 -0.6076197 34.651077
9.0145912 1.4703321 34.616158
0.16612333 -6.1603155 34.707535
5.338438 -6.1476817 34.720936
8.7834797 2.4393926 34.764565
-5.5086017 2.2786944 34.867676
-4.9340553 -4.2003345 34.937805
8.6250401 3.0879481 34.90284
12.287613 0.60664499 35.081577
0.75661451 -6.373107 35.110798
12.065102 -1.4510014 35.128662
7.4141588 -4.9682302 35.296886
-4.8301086 -4.4940815 35.232346
-5.9072666 0.39895552 35.241573
12.651909 0.6847468 35.260429
8.9388781 1.5557646 35.201435
-5.4479561 2.3929896 35.22456
4.6231275 4.6155205 35.24408
0.79044652 -6.428267 35.319939
-9.0587711 -0.6467877 35.375439
7.36199 -5.0001144 35.47467
9.3796759 -0.31003445 35.406433
-8.6237249 0.63133299 35.4109
-10.245101 -1.021306 35.546326
4.8181539 -6.9070597 35.674805
4.9149323 -6.8897119 35.687321
13.321706 -2.0786934 35.619366
2.7275889 4.6781707 35.676876
-3.7046113 -6.2977467 35.732674
5.0021253 -6.2481532 35.751568
-9.9668865 -1.0925589 35.889763
-10.122952 0.08893159 35.877472
6.1271882 -5.8919225 35.914757
12.433234 0.6508528 35.991287
8.7270622 2.1666899 35.978668
-3.3151684 -6.6459513 36.089287
-9.7759399 -0.95057243 36.030041
13.351768 -0.0027726591 36.099876
5.2709193 -6.8027205 36.114464
-0.31051645 -6.3142376 36.163994
-5.1115575 -5.3122473 36.148674
-5.6413054 -4.8343592 36.164089
12.981536 0.85203034 36.134918
-10.077878 1.1371592 36.130547
4.3952413 -7.0491452 36.216164
9.2982464 -0.2019251 36.209839
2.2452831 -7.5746107 36.312462
4.4915252 -6.9233856 36.326664
-10.634224 0.013387859 36.380959
-9.903429 1.3998888 36.362366
8.7992287 1.7065001 36.350651
-5.1038637 3.4389863 36.345657
7.4063764 -5.8642654 36.474022
9.3698006 -0.54126078 36.441795
-10.856106 0.66712165 36.405083
1.3958254 -7.6749077 36.51981
-0.037766602 -6.4158578 36.550182
13.457289 -1.0514781 36.51857
-5.4871244 1.6747437 36.599693
3.0420408 -7.302906 36.673744
-3.8038495 -6.3365374 36.651375
-10.12916 1.5183502 36.639198
7.2059851 3.9204533 36.684006
-0.99241304 4.8554058 36.608288
-5.1897817 -5.0120573 36.795773
-10.862663 -1.2685604 36.733772
9.8121052 0.68246257 36.764572
5.8218336 4.4986343 36.783768
7.405364 -6.1112437 36.824471
-5.7390413 -4.0644464 36.815536
-5.9995775 -3.9303906 36.821629
-9.8101683 -2.0018935 36.851059
-10.423459 0.75200987 36.856583
6.3280411 4.2819028 36.826427
-2.0432701 4.6806741 36.842213
-0.2455997 5.5314007 36.83036
-11.201632 -1.1949747 36.904705
9.8034887 0.48852208 36.909061
-3.7345376 4.5955057 36.904041
-1.9492316 4.7110505 36.960403
-0.60880184 5.5169315 36.927383
-0.43679732 5.5097032 36.956249
6.0559297 -6.6160879 37.036163
-5.0672531 -5.0424862 37.046883
8.8388557 1.3784978 37.01683
-3.7486472 -5.9573164 37.121674
-5.4135871 -4.6316285 37.180164
9.2770548 -3.9485734 37.131004
12.591485 -2.9932785 37.108322
-6.4806805 0.36181426 37.120216
5.9030147 4.4397044 37.152863
-2.5219398 -6.6481838 37.20797
0.54473376 -6.6974449 37.243412
9.0689268 -4.7870073 37.262009
8.3686867 -3.5739655 37.211006
-6.1808252 -3.1628911 37.223061
-10.095808 -2.0269458 37.290176
-10.482256 -1.4156078 37.299278
4.2726669 5.5298529 37.201569
9.0381699 -4.9029078 37.343819
9.6971064 -2.2452512 37.335899
-6.7143264 -1.0016025 37.377182
-10.932208 0.76785421 37.346916
5.3369827 -7.0383554 37.433804
-0.94496459 -6.9103756 37.402061
6.1228714 -6.5826492 37.417385
9.1384144 -4.4732232 37.482452
-6.519166 -0.32935306 37.421299
7.9646964 4.0487247 37.429657
7.546916 4.2881484 37.426826
6.7813516 4.7261257 37.445732
-0.18669245 5.5236855 37.406082
-0.94558012 -7.2783837 37.507103
0.066380478 -6.5974908 37.56181
8.9447079 -1.8490187 37.560169
9.6113319 0.26115441 37.574055
-10.620737 0.63372386 37.598423
-6.0281625 1.699819 37.591393
8.632329 3.6470668 37.508671
7.7204094 4.0596223 37.593567
4.1199899 5.4199204 37.533588
-6.1309776 -1.9709679 37.612354
9.8015671 -1.7888187 37.610878
9.5149956 -1.6173592 37.600178
7.9551301 4.0478411 37.632244
-2.6797726 4.3621368 37.634548
-3.2517302 4.7968102 37.643864
1.699067 5.376708 37.664158
-0.55145073 -7.3764439 37.720867
2.6679037 -7.3767695 37.789085
-11.48741 -0.55500245 37.701447
9.6147909 -0.05699861 37.763206
-2.7263205 -6.9888601 37.869675
-5.9610701 1.6897998 37.822567
-5.1373048 2.7036419 37.856003
-2.5024023 4.4245629 37.83469
5.8079753 4.439518 37.823505
2.9374409 -7.4663353 37.961967
7.3439541 -6.2698536 37.974632
-3.8434112 -5.2851615 37.93486
7.7027874 -4.8659277 37.903931
9.555584 -2.6995819 37.958565
14.841825 -0.93803692 37.970631
13.784599 1.517436 37.965782
-6.155386 1.6647052 37.945663
6.9239569 3.9556525 37.987331
6.7177839 4.045835 37.943508
5.1710296 4.7915921 37.993042
-1.0052197 4.9664917 37.956467
-4.3712645 -6.0403833 38.049835
-11.117794 -1.3050277 38.072159
-11.334867 1.5706375 38.054413
14.606792 1.5852784 38.019577
-4.8406844 3.7036366 38.044945
1.3946198 4.9691334 38.023682
2.1326005 5.4856176 38.004459
0.94204372 -7.4793382 38.163277
3.0989695 -6.749897 38.148582
-2.2549467 -6.4564281 38.1758
-4.2516336 -6.1370435 38.11491
8.6127758 1.9698589 38.173187
3.8199313 4.9758277 38.192162
-1.1292012 5.524313 38.191383
1.2056906 -7.5780501 38.271564
5.1388307 -6.6979704 38.287933
9.288455 -0.81499928 38.256393
-11.621491 0.46408513 38.238213
9.268404 0.70155948 38.232716
7.4441428 4.3180232 38.242516
-0.82047969 -7.412066 38.303436
-5.0806794 -4.3366904 38.397514
12.862743 -1.967824 38.352303
2.1406775 4.9829535 38.37524
7.4259686 -5.417943 38.475422
7.6391354 -4.9512653 38.423363
-6.3348942 0.71857923 38.424839
7.0754023 4.5257263 38.4627
2.1043992 4.985527 38.440689
-1.4525374 -6.548367 38.558655
-5.9751682 0.40451932 38.551292
-10.623231 0.53067786 38.564587
-5.1834021 2.4423981 38.519878
9.218008 2.5236919 38.585667
1.114392 5.478126 38.553535
5.7974911 -6.3566513 38.650623
-2.8511469 -6.0817471 38.612137
6.8868413 -5.535202 38.630669
-4.5155077 -5.0749693 38.645889
-10.597502 -2.3472199 38.672047
13.659281 -0.39831519 38.689445
-11.533762 0.65092868 38.6996
8.9269266 0.71032077 38.630352
-5.8568277 0.84252548 38.662071
-4.2260871 4.1366205 38.657715
-3.0980892 4.5348473 38.643051
3.3023527 4.9955063 38.692863
6.0920534 5.0846739 38.602356
1.4040445 -7.6314869 38.717823
6.3656812 -7.0285635 38.759968
-0.98425531 -6.6397648 38.713284
-0.5899657 -6.6932378 38.701221
-2.8295836 -6.1113615 38.785336
7.4004602 -5.155128 38.748962
7.4818144 -5.0908976 38.711426
13.633205 -0.53714746 38.728542
-11.130363 1.760072 38.727009
0.29933363 5.4914665 38.735527
2.2925608 -7.6368484 38.896515
3.6465919 -7.5957451 38.817841
3.3466363 -6.9735069 38.884975
-1.0547508 -6.8010912 38.818901
6.7522058 -5.6617227 38.975288
13.146568 -2.627769 38.945564
-10.294193 -0.53601861 38.997906
-10.593422 1.5256965 38.987652
-2.492063 -6.465014 39.09864
-3.022892 -5.9822173 39.028191
-9.647974 -2.7438741 39.018822
14.06353 -2.231638 39.010971
-6.5195832 -1.5044798 39.038765
-10.355927 0.17941307 39.093639
14.566711 1.7012846 39.002583
1.3504388 -7.6785412 39.128819
-10.283707 -0.45147648 39.153759
-0.89453828 5.0148315 39.188038
4.4238772 -7.3773746 39.257114
0.92932349 -6.9032788 39.270809
-2.350023 -6.5033197 39.211056
5.834074 -6.4111004 39.25618
-3.57142 -5.582149 39.24028
-4.9466228 -3.8401179 39.252254
9.3732176 1.6029389 39.255939
-3.8748453 4.3361692 39.274071
8.0173988 -5.7797894 39.369278
8.9661903 0.28812173 39.381493
-5.5647259 1.0917411 39.339088
1.7456733 5.0195336 39.305313
3.0702322 5.0220404 39.367443
2.3206444 5.1192503 39.382641
3.9240942 -7.4699044 39.470821
2.6336637 -7.034555 39.480621
1.400316 -6.9189072 39.447044
-1.2891989 -6.7122865 39.412518
9.6938066 -1.9451144 39.401665
-6.6203599 -0.91248137 39.484123
8.855319 0.5732342 39.406265
-5.5191545 3.317312 39.442173
-4.7030792 3.503068 39.449722
7.6954174 3.5451155 39.494808
4.7984648 5.5076656 39.456238
-0.30450961 -7.5249691 39.563129
-5.5466943 -5.1382289 39.564793
-10.312629 0.94284374 39.533806
9.4278851 1.2379084 39.534424
-5.2173104 2.5337543 39.588566
2.0061774 -7.678987 39.68264
-2.3056207 4.6827168 39.651428
-0.25351095 5.0719676 39.697411
0.62363172 -7.5920439 39.739449
8.4668608 2.5353494 39.714424
8.9811964 -4.5793924 39.815598
9.2091293 -3.6713288 39.876122
12.453164 -2.4273353 39.853359
-6.1250424 1.0887167 39.872974
-5.0241961 3.013072 39.809799
7.924222 -5.7680779 39.911652
12.611037 -2.4222379 39.98455
12.638166 -0.55468857 39.989166
-5.2263379 1.8015174 39.917759
4.0491276 -7.4121294 40.025097
5.9559727 -7.0173092 40.002026
12.307489 -2.0253313 40.01659
13.517834 1.0042636 40.014446
2.1929469 5.4088445 40.021656
-4.5447774 -5.791698 40.149612
12.62515 -0.49413118 40.187889
-9.9223852 -0.32787246 40.118885
-10.258471 1.4700611 40.273117
-4.3499279 -5.9094105 40.326443
9.3524094 -2.9187133 40.318581
9.5357161 0.30398464 40.353146
1.6968139 -7.646769 40.414112
-10.235481 -2.1860888 40.456295
5.0809617 -7.1514716 40.534542
14.856842 -1.0137572 40.596497
-10.373688 -2.0807457 40.686314
15.024481 -0.63409227 40.66996
13.41308 1.2504799 40.609722
7.4226818 4.0156927 40.65522
9.2978458 -2.9568739 40.714813
12.682528 -1.5009383 40.776653
-0.40871429 5.3527761 40.750763
9.6834116 -0.64985305 40.889984
1.2039067 -7.5870728 40.936062
4.3102546 -7.3007793 40.983204
1.7221344 -7.6209121 41.002441
7.5698795 -5.8623872 41.039459
7.924037 3.6308074 41.085739
1.20446 5.2938862 41.007866
9.1615887 -3.2540913 41.245327
-6.3601952 -1.3203493 41.230331
12.892967 -0.12825428 41.282127
15.037746 0.51730615 41.272499
-3.8666213 4.0414667 41.387978
-2.0124536 5.2158318 41.346642
-1.8936031 5.285975 41.371735
9.0918322 -3.4261885 41.424385
-11.12398 -1.6008346 41.486565
12.464438 0.39534056 41.477608
-8.9876175 0.3619096 41.519333
12.794607 0.70991069 41.533905
6.3029518 4.54877 41.582211
-5.5765533 -4.1051474 41.650406
-9.3079224 -0.7043609 41.659706
-9.3034277 -0.10964939 41.635284
4.6000209 5.2600055 41.62862
-0.32720339 -7.4217758 41.79686
12.275497 -0.088170826 41.777748
12.233916 0.64816272 41.784668
15.132406 1.5578967 41.77219
1.0134766 -7.533648 41.801842
13.708238 -2.3393855 41.884186
-9.7645798 -2.0737901 41.822086
-5.3915396 3.0975642 41.816521
12.392072 -1.2335801 41.931675
9.6169586 -1.1643916 41.964516
13.777115 1.4509845 41.961502
3.4918947 5.1854868 41.962929
-9.7022181 -1.0369481 42.009247
9.3298607 0.22414625 42.045464
12.325927 0.84937572 42.021049
6.9305182 4.0699949 42.097092
9.557271 -0.80376154 42.142994
14.925342 -0.77647817 42.203117
6.3190403 4.4087663 42.284222
3.4168863 5.1566925 42.221001
-10.589378 -2.6279202 42.379951
-6.0899382 -0.18257284 42.317841
-11.613725 0.8071534 42.366714
-10.641985 2.6431718 42.356682
6.4886065 4.2883105 42.368076
12.359843 -2.0181377 42.422554
9.3671665 -0.1626249 42.455261
12.913919 1.6244903 42.436924
-11.437721 2.3904123 42.482132
-0.36446372 -7.3842468 42.557503
7.5216541 -5.7080159 42.521294
-5.6577406 1.5428234 42.544315
13.56659 2.7234945 42.549557
6.3091645 -6.6702466 42.616413
7.2551994 -5.9007616 42.69458
12.741432 1.5483828 42.639179
5.724267 4.7104921 42.676243
-6.1676264 -0.73813844 42.720184
-12.15807 -0.11534047 42.774456
-5.7276335 -3.008652 42.822334
-5.5298729 -3.6794231 42.92662
-11.105455 2.6552954 42.941204
-2.0824904 4.8722224 42.965694
-5.5679073 -3.4676363 43.083954
15.448771 -0.46429139 43.279625
11.73593 0.59449393 43.279793
12.630127 1.9858155 43.277618
1.9173874 -7.5152469 43.346615
13.945747 -2.6154714 43.333603
-11.557561 -1.4478018 43.363575
15.391573 0.35961181 43.318005
-11.92733 2.1547527 43.310753
13.545188 3.14556 43.393211
5.1504984 -6.9714184 43.446297
9.051053 -2.6411686 43.424595
-12.041893 0.99045461 43.445618
8.6646166 2.2914531 43.45639
9.1845722 -2.1002755 43.542809
14.453743 2.7978122 43.557701
9.1662893 -2.1369953 43.606644
-6.0118299 -0.59357369 43.663647
-8.3138199 0.75234413 43.618652
-8.9229984 -2.2374952 43.729923
-11.129074 2.8650894 43.770576
12.805775 -2.4339027 43.83194
11.987019 1.5348423 43.833481
12.023193 1.6432428 43.885605
5.946197 -6.7309284 44.007053
-8.7393951 -2.1943457 44.071617
6.1809406 4.256639 44.061684
1.1726899 -7.4532452 44.175182
14.845341 -1.328943 44.120914
-11.954281 -0.80697054 44.157566
15.294052 1.0310543 44.14909
-4.2367887 3.470696 44.176968
-9.8707886 -2.576704 44.295692
14.246492 2.9887991 44.283524
1.4940977 4.9542694 44.247604
-5.6285138 -2.8174696 44.39402
-5.6390285 -2.7816768 44.379494
5.1565652 4.8216105 44.348747
-1.1728956 4.9356003 44.323662
8.4046812 -4.8103919 44.467308
-11.818193 2.6728435 44.459068
-0.073182493 4.9280033 44.478737
2.5846961 4.9376049 44.412434
3.346067 4.9305544 44.450211
-3.4810255 -6.0851059 44.511742
6.7618504 -6.0976577 44.538887
-8.238596 -0.51731777 44.672134
-8.2008171 -0.24089694 44.679279
-5.6537914 0.57026339 44.671665
2.161623 -7.4636879 44.701996
-11.645124 -1.0877748 44.789703
-5.4791608 1.2879453 44.751362
1.6722238 -7.4741693 44.804214
-8.84303 -2.2084596 44.899437
11.451035 -0.15771246 44.898163
-5.6004257 0.74477714 44.833347
15.132217 1.843186 44.888
-8.3074026 -1.5470725 45.055077
9.091012 -0.076946616 45.011223
-8.9592361 2.6051722 45.068928
7.977149 -5.0863495 45.123337
-5.9380798 -1.5177181 45.159515
14.944458 2.8149509 45.145615
8.2373438 3.0048084 45.137447
7.8355827 3.2292137 45.166115
5.2863603 4.6822557 45.187607
8.4719048 -4.5116272 45.237587
9.0710745 -2.1042407 45.296722
-5.9143624 -1.5925027 45.221157
-5.6687574 0.33524674 45.291435
8.9112434 0.5468204 45.294422
8.5036106 2.3088775 45.214485
2.8078041 4.8676004 45.214256
-9.766139 -2.488615 45.445496
11.448015 -0.84982866 45.436081
-5.5108929 0.90892494 45.498852
-8.2122984 1.7123623 45.401398
14.99818 2.3242135 45.403942
6.5050993 3.9666309 45.407303
15.183916 -0.38090938 45.658485
15.127481 0.42096749 45.664455
2.6564999 4.8259377 45.678932
-0.27461913 -7.2537003 45.787022
12.047709 2.67151 45.783077
-5.0704203 2.7092457 45.730194
-9.8127556 3.4728398 45.701241
15.047195 0.85703754 45.895561
-9.2545757 3.4246955 45.808365
3.4865265 4.8101091 45.855476
-5.1498775 -4.5546126 45.974838
15.099111 0.13737063 45.976707
11.258918 1.6143367 45.911777
1.6558936 4.7983427 45.986713
-10.746233 -1.7113878 46.080029
8.9805183 0.20227677 46.069504
-8.5806675 2.6119833 46.131088
-9.5628424 3.5844378 46.111237
3.8863506 -7.3171759 46.292126
3.9349089 -7.2877951 46.294228
5.1877112 -6.7669086 46.264618
8.841856 -2.8307476 46.291023
-5.6229777 0.38711131 46.287239
15.009283 0.56969589 46.264553
0.29090777 -7.2943668 46.302139
11.027663 1.5015131 46.333008
-2.3544073 4.3813028 46.352188
-10.857807 -1.4048034 46.470177
13.692692 -1.9470574 46.589172
14.916366 0.98447394 46.579376
4.2454267 4.7507534 46.517036
14.667149 -0.6176644 46.68388
14.992828 -0.065689147 46.693741
10.844782 1.3077309 46.611794
8.1850281 2.9293013 46.692753
7.9865546 3.0412288 46.691067
-10.004069 3.4497967 46.619591
12.456207 -2.1376703 46.728249
-7.5238237 1.251052 46.774059
1.1986457 4.7262826 46.790428
-2.1292157 -6.6290145 46.887024
14.791713 1.8772587 46.824532
-11.408838 2.4176168 46.83503
5.874403 4.2229323 46.812836
-0.074163914 4.7236853 46.819397
3.7847114 -7.2926521 46.918087
5.8204551 -6.4446554 46.970932
-10.933199 -1.067384 47.042976
14.748702 1.9558879 47.029991
7.827107 3.104907 47.078484
5.7339282 -6.4474049 47.240479
-11.460137 1.4343777 47.241219
11.071416 2.0524497 47.28368
-3.0669446 3.9146981 47.271248
2.4719839 4.6795702 47.367607
-8.9259472 3.8143125 47.428585
6.1887827 4.0174084 47.471104
2.5910993 -7.3356915 47.533371
-9.3943233 3.7178288 47.536003
-0.14722317 4.6807327 47.637974
7.3746443 -5.3689332 47.716877
-1.4541893 4.6810155 47.703842
4.4508123 4.6813502 47.78167
3.1281717 -7.2842379 47.80294
-5.7876596 -1.6978694 47.846893
-7.7655492 -1.1936245 47.874687
-10.992809 -0.55848807 47.839878
-11.184872 -0.25986314 47.835072
12.050007 3.7571239 47.80336
-0.10143594 4.6816769 47.857685
-5.7945237 -1.6773794 47.908138
-8.0103302 -1.5968667 47.960613
8.3294983 2.4728813 47.974426
-1.9979939 4.5657964 47.981949
-0.57649302 4.6819363 47.918007
-3.5630393 -5.7193074 48.069695
-7.9699984 -1.5778514 48.003841
9.2364798 -0.85173136 48.037052
-3.0008724 4.002285 48.076221
-11.239705 0.016916752 48.17585
-10.818085 3.4063802 48.168015
1.5504248 4.6828938 48.140724
13.283691 -1.7602684 48.269875
-8.9416552 -1.8185993 48.309578
13.502636 3.5726063 48.335304
11.541229 3.3777549 48.494171
-1.5584679 4.6842451 48.455093
-5.8657207 -1.3353826 48.549583
-2.2876632 -6.3063974 48.682709
0.39234197 -7.0681829 48.715157
9.1133194 -0.30220461 48.790764
14.332211 2.380007 48.767345
11.131876 2.931345 48.788834
7.5951428 3.3374395 48.80574
1.9717164 -7.1569443 48.936825
5.4953175 4.5333424 48.981163
-5.8317862 -1.4643135 49.017979
13.978266 -0.39271453 49.016552
-7.3516808 -0.12098113 49.045315
10.370024 1.1959945 49.016838
-10.764404 3.2022266 49.060318
6.1643524 4.1564512 49.032028
-1.3565955 4.686924 49.078369
0.69302332 4.6868787 49.067688
3.3109226 -7.0223217 49.174644
-4.4182787 -4.9934325 49.123955
10.697844 -0.42790899 49.14349
14.483138 0.75409377 49.187447
-7.4561996 2.5465031 49.106152
-1.370308 4.687129 49.125999
-5.8226008 -0.27198374 49.276432
-1.2478282 4.6875472 49.223282
-1.0523078 4.6875124 49.215179
5.0115314 4.6874676 49.204647
0.5789786 -6.9686413 49.38089
-0.69027627 -6.8370037 49.316315
4.1797166 -6.7507296 49.326538
-9.3156109 -1.7171103 49.379715
8.6500273 1.5190473 49.461929
0.043508321 -6.8799305 49.536732
-10.335985 3.69134 49.506226
-8.1592827 3.8290758 49.554321
-8.0324955 -1.3714818 49.639099
-5.8781958 -1.0514165 49.617622
9.0799522 -0.07226494 49.619846
14.400625 0.61462575 49.632484
-5.4962111 0.97625726 49.633652
1.0631068 4.6894102 49.656631
4.1711559 -6.678194 49.75053
-4.0792317 -5.1936417 49.730499
0.89732617 4.6899567 49.783783
3.2228463 4.6898479 49.7584
-8.2003374 4.0549932 49.859859
12.30417 4.0428638 49.803314
-8.5224409 4.1573324 49.810543
11.90214 4.1522336 49.918144
7.4182968 -5.1326227 50.09169
-6.8137312 1.3110988 50.132618
7.1416197 3.7189693 50.131592
6.8762007 3.8667645 50.1651
-1.8735796 4.6915183 50.147041
-2.1336226 4.6703396 50.249401
1.8522339 -6.9267578 50.346352
7.6226482 -4.9627533 50.301201
-5.3347249 1.7672677 50.325603
-4.7388158 3.2573342 50.38974
-2.4704688 4.4841332 50.319134
8.2395897 -4.4865646 50.494694
8.7845812 -3.4027803 50.49535
-5.1868377 -4.297421 50.549793
11.636528 4.3852687 50.594421
2.4380131 4.6931057 50.5163
4.3735271 -6.4739189 50.611355
-3.8643045 -5.2699766 50.699966
13.919499 0.40478823 50.606079
6.7361083 3.9954662 50.681335
5.1931114 4.6938262 50.683922
-1.9529103 -6.1832409 50.752106
-3.8800306 -5.2560816 50.725128
5.5377536 4.6657314 50.78426
-5.8061996 -1.2742232 50.877392
8.0462408 3.309437 50.875641
-4.1842613 3.6188581 50.883415
-2.6291282 4.4712343 50.887409
9.0421047 -1.6756011 50.922943
-6.547411 2.2214527 50.957657
-4.5216899 3.4729991 51.087898
-1.148185 4.7307901 51.002708
3.9786134 -6.6229115 51.135136
-3.0090251 -5.8539858 51.113667
10.161887 -0.26522347 51.101372
-3.8189359 -5.2574301 51.236061
-4.6888227 3.4109941 51.242981
3.7163203 4.7608814 51.256042
-5.4442387 -3.5192726 51.313534
9.5988483 1.6731831 51.350151
-7.1249514 3.4425299 51.315094
11.561237 4.694397 51.374088
11.542604 -1.1995965 51.465191
2.112668 -6.7063646 51.518036
8.7928295 1.5267366 51.53701
-6.7971106 3.0015733 51.537296
-1.4520365 -6.2362494 51.66547
-5.3295579 2.2264755 51.617321
10.535162 3.8357811 51.652431
-3.1691668 4.3276911 51.686951
-2.2917638 -5.9960542 51.725357
-5.6491489 -2.3644423 51.718884
9.8466797 -0.56673455 51.883347
-4.6664066 3.5175323 51.827995
3.2790878 4.8355217 51.88443
-6.0527601 1.1431727 51.978519
-9.3402386 4.5571089 51.947247
2.3239751 -6.63311 52.038082
-5.9372344 -0.036501035 52.072067
-4.6848569 3.545161 52.074986
5.3235378 -6.2603469 52.157295
-6.9682665 -1.1263083 52.155807
3.9853425 -6.3409677 52.254143
5.0637288 -6.0829248 52.281189
6.781167 -5.8430181 52.253075
8.71766 2.1163242 52.286259
2.8826251 4.8792267 52.252369
-5.5154066 -3.4004171 52.361954
9.0725594 -1.8027413 52.39579
-4.7992444 3.5222206 52.365318
-3.2074213 -5.5764666 52.42791
-5.5060196 -3.4771206 52.419884
-10.081326 0.46401551 52.460518
1.1814615 4.9010687 52.436253
0.49970779 -6.488225 52.55117
-10.432225 1.1228027 52.540302
8.9015751 1.6682597 52.564781
9.8541994 3.2566257 52.502075
11.505539 4.8245416 52.554893
-1.4473641 4.9135809 52.543308
-5.6222906 -2.8236687 52.653023
-5.871418 -1.1815962 52.678299
13.474955 3.0961466 52.600189
12.455203 -1.2016346 52.764679
-6.1356297 2.7774882 52.761871
2.1987095 4.9403358 52.766838
3.1682916 4.936924 52.738117
4.9593363 4.9428082 52.790024
13.513055 2.5698755 52.880692
-0.034623027 -6.374886 52.98703
12.377666 -1.3155638 52.971622
-5.9638448 0.24908021 52.954544
-6.2919321 3.1165044 52.906086
-4.156054 3.9975195 52.945328
7.5335264 3.9569998 52.983692
8.267334 -4.2447534 53.000324
8.8484306 -3.3938937 53.008953
-5.0806684 3.3016071 53.021015
-3.8621979 4.1970024 53.097439
-4.4966416 -4.5343018 53.138382
13.570072 2.2019372 53.166054
-0.064193517 -6.3434677 53.257637
9.1594601 -0.25350708 53.321011
-5.8087778 1.035455 53.306915
12.889629 4.5165939 53.365677
-8.1376305 4.705616 53.346058
2.8495989 5.0138421 53.386002
4.54526 -6.0545034 53.586391
6.989388 4.3703361 53.54615
-9.5194931 4.4965973 53.530647
-3.7738857 -5.0086021 53.618889
-4.5297585 -4.4683647 53.600342
-5.8578606 -1.471018 53.60014
-0.23339739 5.0438399 53.639862
7.8318496 -4.9626107 53.754295
8.3210449 1.2257941 53.741241
4.2584553 -6.1146574 53.812965
7.8403568 -5.2942047 53.852909
7.7718272 -4.7079163 53.88995
11.119231 -1.5945106 53.863102
-5.9218984 -1.0355238 53.812645
12.815319 -0.37842619 53.89085
9.4280052 3.5810151 53.965229
-3.6174045 -5.0744662 54.03912
-5.3502483 2.6154361 54.01741
9.3394794 -0.21834278 54.129532
-2.093358 5.1039724 54.149414
9.1654377 -1.5455073 54.255665
12.617287 -0.6962887 54.22858
-6.0340161 0.49636725 54.247524
-4.7094154 1.6418008 54.392326
-1.6607788 5.1229706 54.30899
5.2096481 5.1342916 54.392059
-6.6158915 -1.3527536 54.413956
8.8789062 -0.43924245 54.421219
13.402083 2.4146214 54.484215
-5.1812696 3.2219937 54.463322
5.5563102 -6.4111786 54.581329
8.9228506 -3.4185429 54.577557
9.1566439 -1.6650832 54.519531
-4.5070615 1.4563532 54.587067
8.4077034 3.466814 54.547363
4.7882295 5.1615114 54.578854
12.535862 -0.7856006 54.661179
12.876234 4.3125877 54.685753
4.0785666 5.1649647 54.600723
6.1527109 -6.2133341 54.737976
-8.7998829 -1.4558377 54.719887
-4.6628518 1.8192137 54.751102
8.0290613 1.953002 54.787689
8.2223091 2.2272596 54.740425
12.837736 4.4213715 54.766884
-7.6835175 -1.7620928 54.855644
9.0057297 1.272453 54.860615
-10.148808 2.2350452 54.80175
1.2465724 5.1984844 54.82655
8.3884153 -3.9913299 54.903328
8.1447401 1.4263272 54.936684
13.561598 1.5454328 55.041924
-4.794117 1.9315014 55.038712
-6.1260161 4.351789 55.006111
6.9583864 4.7110848 55.014091
1.346361 -6.1984501 55.160572
-6.9810295 -1.7379571 55.186249
9.3633366 -1.1520594 55.16325
7.237401 4.5715566 55.114166
9.6425743 4.835989 55.190125
0.58799523 5.2522659 55.199783
2.3082416 5.2385178 55.103722
-7.2717962 5.0730801 55.243309
-5.8441358 -0.8312937 55.357544
13.195711 0.3746902 55.376404
13.545128 1.7330348 55.323181
8.0785694 4.4005456 55.329048
4.327527 -5.9372721 55.472534
-5.015131 -4.105938 55.459011
-6.652585 -1.5884702 55.480721
-5.5249171 -0.62531739 55.434174
-5.4463625 2.5499167 55.442093
9.6586895 -1.4203594 55.570564
13.480454 1.3710573 55.567585
8.7376919 3.2126632 55.530228
7.9091063 4.6454411 55.579239
4.8449588 5.3050685 55.565056
3.6199756 -6.1090865 55.666122
8.9525061 -1.043608 55.686115
7.4986315 -5.6042194 55.704834
8.7967854 3.9130888 55.79081
6.3969355 -6.0621033 55.849335
-10.057917 0.60073549 55.873367
-5.6675439 -2.5248382 55.915226
-5.9531975 -1.1470753 55.933109
-9.4689465 4.3125687 55.964462
0.54233265 5.3576298 55.925365
1.0011348 5.3681946 55.997776
4.882103 -5.7246881 56.005943
-7.0235124 -1.9196132 56.094639
7.5178494 5.1489944 56.095539
6.6201591 5.3519359 56.173912
-0.90600502 -5.9550481 56.257946
13.356957 0.9434489 56.24065
13.455279 2.0880828 56.237896
-5.4548612 4.3053207 56.279839
7.9146242 5.0860291 56.228279
0.49083304 -5.9865174 56.432823
-5.3566704 -3.5849354 56.48452
-4.4986205 -4.5624557 56.550224
10.337485 -2.0104096 56.581631
-9.9814177 0.59875488 56.589985
-2.5104489 5.4568095 56.514042
-7.7776546 -1.7820164 56.691315
12.190804 -1.1166364 56.831215
12.992268 0.071591616 56.85955
1.1847945 5.5151162 56.848076
3.5593169 5.5121813 56.831383
13.255112 0.81951916 56.974762
10.606953 -1.9321066 57.052853
12.659384 4.3819151 57.040962
-7.0881281 5.2479048 57.097446
-2.7032356 5.5218458 57.088974
-9.9053488 0.49659768 57.130806
13.323616 1.7070022 57.110462
12.97644 3.2870221 57.157604
-5.5238762 5.0851402 57.118809
3.0437548 5.5752811 57.193218
7.2842889 -5.5236425 57.20668
-5.5598865 -3.4140954 57.39204
-6.2684069 5.2325249 57.326576
9.6526747 5.2388167 57.310516
7.2196054 5.4202123 57.397598
-9.3638973 4.2510414 57.408073
-7.7773123 5.1769714 57.403202
-3.7525051 -4.8034821 57.559059
-7.9709234 -1.7203228 57.502811
-3.7401884 5.4876642 57.581188
3.7396142 -5.8409767 57.615189
0.91961288 -5.7758365 57.686653
-5.0079937 5.2476578 57.722816
7.688097 5.370492 57.708538
7.2136488 5.4832764 57.784557
2.4640405 5.6750669 57.765438
13.142379 2.7838202 57.816994
-9.7946949 0.4157933 57.970604
6.9135056 5.569243 57.924171
-1.690698 5.6736226 57.920246
7.7402935 -4.9823771 58.044968
12.449572 -0.71316296 58.182262
0.16926551 -5.5950079 58.407108
-5.5348253 5.2861834 58.408901
-5.6539888 -3.5963616 58.548206
-7.6447396 -1.934907 58.50843
8.7150612 -3.7802179 58.690063
12.455961 -0.57314312 58.618732
1.1949903 5.8658652 58.85965
4.6857162 5.8178983 58.987999
10.304831 5.34407 59.042458
-2.4343922 -4.958755 59.109932
6.8895483 -4.5549288 59.11919
-7.4392977 -1.8695028 59.284561
0.73358059 5.937469 59.270348
-4.0732555 -4.2503552 59.403755
-4.4793119 -4.0534453 59.470947
7.6818213 -4.0968561 59.463085
10.286563 -2.2000937 59.405876
-3.1824982 5.7862077 59.483192
9.4340782 5.4332108 59.523026
-4.197371 5.7071805 59.562881
9.1738386 -3.4409878 59.615242
12.697474 0.11729583 59.603344
-0.45416731 -5.2694426 59.719288
8.7130604 5.5097613 59.718159
5.9379377 5.8454618 59.744896
-9.1700096 -0.082202002 59.822441
12.679283 0.96931577 59.940147
5.0462203 5.9156346 59.950508
-6.4308648 -2.7841887 60.072762
-3.2958939 -4.4364386 60.13755
-9.4239168 2.7420702 60.177483
2.4626179 6.066071 60.107788
-2.5217917 -4.5851264 60.282211
12.614172 1.2829684 60.267838
5.8737388 -4.4598908 60.390476
7.7333941 -3.7322013 60.321766
12.06835 4.1141376 60.30022
-4.754355 5.6748853 60.488419
-2.1281786 5.9521813 60.414551
-9.11448 0.12116987 60.542503
-3.3031468 5.8674631 60.553131
6.5353498 5.8619003 60.594711
-2.4539921 -4.2926435 60.720829
10.816649 -1.4648278 60.781288
-2.4713597 -4.1683435 60.886238
6.3692827 -4.0431242 60.805187
-9.1595192 1.2958637 60.812477
-5.7230005 5.3703094 60.843319
2.8658991 -4.7555962 60.988346
7.8216124 -3.380897 60.949623
10.195063 -1.9503856 60.956741
10.640396 -1.566855 60.916016
12.539603 2.4492893 60.926025
6.3548493 5.7915349 60.947266
2.1344006 6.0473013 60.922813
-1.8425244 -4.1670508 61.173958
-8.9906235 0.57373857 61.1698
12.067246 3.4150512 61.196362
-7.881587 4.5636044 61.148396
7.4407024 5.6712532 61.183167
4.4382906 -4.2546139 61.255997
-1.9330914 -4.0555472 61.288239
-3.2454367 -3.6449857 61.298332
-4.5802341 -3.2092066 61.249786
12.037416 3.3755021 61.278374
1.9416491 -4.3720994 61.310566
7.9083428 -3.1608927 61.328945
9.8906431 5.0151634 61.31086
6.5297127 -3.5791001 61.400162
-9.0740547 2.3500299 61.405266
-9.0892582 2.5055881 61.413197
-0.58757818 -4.1789284 61.53186
-1.7417988 -3.702786 61.879486
7.2401333 5.5391645 61.805893
-8.217617 0.11542772 61.933418
-6.0867243 5.0356784 62.139736
-3.5305932 5.4836364 62.151981
11.447421 1.8611963 62.273476
2.7663248 -3.4442143 62.484711
6.6557813 -2.8636131 62.444885
11.318568 3.0094886 62.403458
-3.6584735 5.4092493 62.43951
6.9527097 5.407557 62.448212
8.7019711 -2.0897627 62.676361
11.187185 2.8058658 62.616856
0.1756109 5.5902624 62.655434
-0.3651545 -2.9110632 62.782684
0.072828889 -2.9301405 62.760983
5.6482434 -2.8785658 62.719727
-3.4536433 -2.6894355 62.732483
3.7251236 -3.5252986 62.81802
4.2620611 -2.8579531 62.813667
8.8065319 -1.5948702 62.889709
-5.7404938 -1.3769758 62.864311
-1.665592 5.4277582 62.878067
5.1656075 -2.5306916 62.976639
-6.8027287 -0.4907684 62.912819
3.7584786 -3.4800315 63.03022
2.7367418 -2.9270275 63.074173
8.9687328 -1.0700123 63.08334
-6.6992583 4.6884995 63.093426
-4.2968764 5.1834488 63.076408
0.87975079 5.5353379 63.075813
-0.30141845 -2.3974645 63.11322
0.15836602 -2.2761083 63.181808
-7.1466079 3.5180707 63.132233
10.202324 4.0545912 63.190197
-0.47473526 5.4477243 63.101715
3.023591 -3.0187182 63.276283
1.935061 -2.1277452 63.299118
7.2636127 5.2039747 63.245289
0.49994797 -2.0731158 63.305679
5.9391737 -1.8083036 63.398376
8.4889069 -1.2191688 63.304268
6.2302752 5.2290335 63.383987
8.0218849 -1.3091145 63.487633
-6.9364228 0.32300031 63.475929
-7.0490065 1.5888329 63.433178
7.8364086 4.8257799 63.444939
7.4041719 -1.3895626 63.58321
6.6459785 5.0792799 63.561058
6.0288868 5.1292038 63.556313
-5.8716826 4.1153646 63.601578
-4.1639996 4.606173 63.650803
5.1205974 5.1106887 63.687073
0.46045005 -1.5392615 63.776077
-0.7070412 -1.4397627 63.740795
7.5467167 -1.0125171 63.749981
4.6844707 5.1305342 63.706844
4.6612005 -1.068925 63.958775
-4.7444463 -0.51430792 63.901333
4.7172675 4.958786 63.960278
1.6618876 -1.7675803 64.032364
-3.239964 -0.84220463 64.017838
-5.8850098 1.9221772 64.029785
7.4647217 -0.36180681 64.111053
-1.6867485 4.8110852 64.150902
-5.2926474 0.5687291 64.231781
1.9616928 5.0147724 64.280571
-4.7339077 1.1337428 64.453255
4.8129787 4.5975075 64.490364
3.9780416 4.7140884 64.41053
7.636807 1.8274229 64.590393
3.3545508 4.5974321 64.65593
-3.3327405 1.1752813 64.781891
-1.1741642 4.468092 64.722618
-2.3074801 3.9414601 64.81974
6.1452656 1.6055906 64.932159
6.5406084 3.1106205 64.926048
5.241231 0.32345387 65.091873
5.9324961 2.8106949 65.084473
-2.6004388 3.3281722 65.021431
-1.8130196 0.24944524 65.109673
0.81449854 -1.4477571 65.224922
-1.9093816 3.522934 65.230743
1.4613893 -2.4612923 65.317863
-0.59794992 -0.035512626 65.329895
3.6427088 4.0258455 65.47908
-1.0034271 0.56679457 65.56987
0.41117024 -2.3735435 65.763443
-0.59774399 0.020219952 65.718094
-0.73316061 0.2005775 65.729324
3.6178005 -0.41622302 66.175087
4.255497 1.0614145 66.115311
4.0597849 -1.238937 66.24173
-1.6132278 2.6597762 66.254799
1.4965513 5.3464847 66.242912
4.7543917 2.6872668 66.330475
0.13215341 4.9335332 66.315239
-0.98439687 -1.1258914 66.5177
-0.96979737 1.5580341 66.535904
4.08248 1.8728504 66.59536
0.63858551 3.8688569 66.584175
4.3983102 -1.4937891 66.742569
3.3032002 2.9701018 66.701324
-0.86448717 -1.2178198 66.830215
4.1769071 1.7140098 66.871162
1.3287308 -4.43326 66.916168
-0.097996585 2.811058 66.942879
5.2235694 2.8657985 66.913391
0.62349302 3.386972 66.95752
-1.4581788 3.4416094 66.98616
1.5366757 -4.3435378 67.0467
1.9513365 -4.0277648 67.045059
0.035425041 3.677907 67.037094
5.4172592 2.1327491 67.182617
3.0955853 3.0184479 67.135757
1.6478639 5.0508556 67.178726
-1.9840661 0.99137616 67.225479
0.59776896 3.1420398 67.203468
1.021512 -4.1710496 67.461388
-1.0530767 -2.0089333 67.549644
2.6501694 -4.1528726 67.697861
-1.149703 -1.0322714 67.67955
5.2790174 1.2122169 67.772865
2.6386256 -4.1367531 67.903442
0.98739153 4.5753722 67.99131
-0.70968783 -2.9086578 68.094475
-1.8166226 0.61578381 68.206635
2.8179367 -3.9485109 68.358536
1.8030972 3.4150639 68.327797
4.159235 -2.5209367 68.495575
-1.5635405 -0.92328697 68.407265
-1.2448678 -0.42092994 68.409386
2.5553315 -4.0756884 68.564735
-1.2608933 -1.413314 68.503792
-1.2632357 -0.20572427 68.574158
-1.0846022 0.916255 68.509171
2.0740168 4.5403957 68.644325
2.5392599 -4.6247554 68.727257
-1.2792565 -1.3456446 68.792892
-0.20898022 4.1523709 68.714401
2.0388207 4.5471792 68.712379
4.3727541 3.1944859 68.992249
-0.73550105 -2.91137 69.017395
2.9415269 4.2345934 69.173759
-1.2037292 -1.9800249 69.392502
2.2415872 3.6903801 69.357803
-1.240494 -1.8698198 69.410843
3.3102269 3.3836918 69.497482
1.9796218 -4.5935435 69.567017
-1.3526467 -0.22451547 69.529266
4.9300961 0.91836292 69.545937
0.51072502 3.5748656 69.557663
4.0535583 3.5904539 69.508179
-0.98220873 -2.6254106 69.658997
4.282341 2.1931753 69.645584
5.0382314 1.3822511 69.786064
5.1371818 2.0219784 69.721352
3.4880142 3.4291162 69.818451
2.6061196 -3.8669598 70.011177
0.68206143 -3.7066798 70.062126
0.98755604 -3.311291 70.007118
-1.0602907 3.261225 70.073837
2.1841655 -3.3583474 70.331665
4.8617263 1.8431488 70.346855
0.75418651 4.3191595 70.331535
0.90086657 4.357676 70.365448
0.61517406 3.7676351 70.449661
1.6657697 6.2040257 70.417389
2.0082796 6.5530381 70.416367
-0.20296852 7.7845964 70.449974
1.5891219 4.5378475 70.538033
0.19278532 5.9572172 70.583267
3.3775451 6.6655636 70.547676
0.48575675 7.9578161 70.527077
2.7081783 4.2176757 70.628708
2.4629385 5.3275471 70.615097
-0.17111221 5.7667322 70.658554
2.7302926 7.0444536 70.673393
0.65008479 7.134748 70.645981
-1.051845 2.7503757 70.74086
-0.18057901 4.9345112 70.750473
1.2201837 6.1684923 70.737305
3.5176544 6.2909837 70.788376
3.7242222 6.8196406 70.747482
4.68361 -1.4917343 70.807274
5.0980806 1.1097358 70.88633
5.1787391 3.6412086 70.87542
5.1371489 4.1249495 70.881516
4.9597721 4.5434189 70.867531
2.5292645 5.6826916 70.863747
-0.70574981 6.1240773 70.821854
-1.1260976 6.3040953 70.884232
5.1998892 1.8401139 70.91317
-1.3191936 5.2400694 70.974266
-2.0435724 5.7288318 70.943527
3.8608785 -3.6778278 71.019836
4.9810228 0.025872663 71.051086
4.2143211 4.0803466 71.028793
-2.2811484 4.3219538 71.069191
-1.8648466 5.748466 71.074081
2.1047454 -4.5212965 71.110336
-0.16924134 -4.1092649 71.106133
-1.6586509 3.139199 71.150253
4.9948292 3.1195557 71.159218
-0.42562479 3.5446281 71.162125
4.1524105 3.9176679 71.121887
5.4708834 0.30944532 71.240952
5.4716578 0.69992656 71.211708
3.1566024 3.6969366 71.21946
5.5318079 1.3940463 71.366165
5.3969216 1.5843313 71.365784
5.5454574 3.3459365 71.39534
5.5924067 4.4155865 71.311111
1.7987189 -4.4506321 71.488556
-0.33426255 -3.7797663 71.471329
4.3679867 -2.6486022 71.448433
-2.251286 0.1793986 71.43483
5.0682392 1.2701716 71.415062
0.54086608 3.810358 71.445259
5.7538509 -0.17978221 71.501991
5.832756 -0.13927728 71.564186
5.7820358 0.9905808 71.563644
-1.1026378 -2.4210219 71.641258
5.408493 -1.5580502 71.602051
0.95646966 4.5535583 71.699768
1.5490401 -4.7457933 71.706955
4.7452445 -4.1597524 71.776848
-0.38683939 -3.5682473 71.7771
4.8826876 -3.0019884 71.744064
-2.6155188 -0.3860451 71.799454
-2.7682199 1.3287398 71.716324
-1.3811601 2.3311198 71.72805
-1.6973754 -3.0283005 71.839912
-2.2631648 -0.28874853 71.859406
5.0212049 -0.15325859 71.886169
3.3359816 -5.2893715 71.945427
-0.81289369 -4.3349252 71.956169
3.5970688 -3.6365089 71.96508
-0.40651733 -3.5055103 71.921959
0.59851146 3.8445363 71.930382
-2.805671 -0.32673147 72.045158
-2.0952301 1.2917466 72.011749
2.2414837 4.5023718 72.048676
1.7214544 -5.0532928 72.198296
4.2741275 -2.6792617 72.105263
5.2607274 1.7277554 72.201607
2.956872 3.7617486 72.296738
2.741394 4.3485889 72.209351
4.1367645 -2.8809247 72.302597
-1.8159878 -1.9130343 72.303024
-0.45342892 3.5516253 72.385429
0.30101305 4.2630119 72.331474
1.8462244 4.6074839 72.362473
1.127475 -4.8172016 72.402664
6.0371399 -0.090930276 72.490524
-1.8911669 -1.569931 72.667221
-2.5349391 0.15810257 72.603806
-2.1330547 0.83625066 72.661392
3.0987833 4.1704402 72.673264
1.3127722 -4.9356704 72.785851
5.3988662 0.36068371 72.743675
0.39603257 -3.9425411 72.865608
-2.9094133 -2.3273726 72.856987
6.0113173 -2.1417513 72.820663
5.346662 1.1119339 72.832001
4.1579208 2.9188666 72.888199
4.1083341 2.958971 72.92337
3.8633173 3.7797267 72.943962
1.2651761 -4.7295132 73.186844
-2.1233089 -0.32289582 73.199493
4.8316784 1.9519762 73.187187
5.0601263 2.102174 73.104134
-1.5511014 2.7852221 73.130882
-0.12139744 3.9984415 73.151062
1.7964904 4.4438214 73.10524
5.2525835 -0.98525858 73.291534
5.9179983 -0.87479317 73.235931
5.4449363 -0.40574738 73.202003
-2.1257401 -0.20885563 73.27713
-1.6309927 1.663851 73.220734
-1.6856966 2.3080189 73.274437
1.1960061 -4.5893226 73.396774
1.5286176 -4.0773344 73.391739
-1.0691534 -3.2401109 73.323105
6.0499768 -2.0533483 73.346542
-1.0779005 2.4925427 73.325562
5.4130883 -0.14884117 73.48455
-2.0578549 0.040242001 73.48526
1.9351079 -4.7978897 73.546112
-1.5874876 1.0038722 73.538277
4.8910899 1.603076 73.509468
1.5351281 3.7036781 73.550323
0.74659747 4.1117353 73.508018
1.3900306 4.3365512 73.549416
3.5583198 -3.8744662 73.605118
-1.587502 -2.0293508 73.639694
-0.61451924 3.4608107 73.671951
4.4123855 -3.096694 73.705078
6.0810237 -1.3622726 73.858681
4.6438875 1.8964516 73.828331
-2.243386 -3.8259904 73.968147
0.31359813 -3.6235619 73.90802
5.1522107 0.099933714 73.974594
4.7087317 1.3574463 73.958664
3.060684 3.7288725 73.903114
5.140214 0.20267019 74.010384
1.66031 4.0142322 74.018967
0.39502412 3.1357946 74.120819
3.6336863 3.3101099 74.126381
1.3534874 3.8891397 74.196014
2.2045255 -4.2800584 74.221123
2.0722132 -3.8826272 74.287781
4.5448151 -2.1890132 74.28923
4.6156254 -1.9889308 74.291275
4.4923725 -0.4018634 74.291237
-0.52707279 -3.2539036 74.332443
5.0352812 -0.47758868 74.39592
-1.5304927 1.1268476 74.388977
-0.98743683 1.7110171 74.399391
3.2276068 3.3531377 74.383614
-1.7011468 -5.3214993 74.458252
-1.0297027 -2.542387 74.446457
-1.1699852 0.769903 74.409737
4.4382114 1.2821879 74.409912
1.201069 3.5450866 74.467392
4.8482022 -5.3322501 74.620476
2.5297198 -3.94045 74.646103
3.1517985 -2.7594934 74.660461
-0.25633299 -2.0646293 74.651154
4.6605668 -1.2697589 74.692078
4.656558 -5.5507283 74.722771
0.025842845 -2.2685652 74.737846
4.0440378 -6.6921697 74.830391
4.9434862 -4.6211042 74.867813
4.5616641 -1.3097456 74.843033
1.9128249 2.2687728 74.890282
-1.2473719 -5.2997293 74.967262
4.6582575 0.43954694 74.98494
3.2202911 -7.1913638 75.091469
-1.1643497 -5.3660798 75.025574
4.9438143 -4.3523507 75.000465
