# .PCD v0.7 - Point Cloud Data file format
VERSION 0.7
FIELDS x y z
SIZE 4 4 4
TYPE F F F
COUNT 1 1 1
WIDTH 1555
HEIGHT 1
VIEWPOINT 0 0 0 1 0 0 0
POINTS 1555
DATA ascii
2.0394349 4.6277637 11.63709
-7.2895093 5.005867 11.648385
1.0255455 2.6686592 11.747009
0.10818978 2.8830712 11.735195
-10.052885 4.3466449 11.724758
2.2151449 3.9037619 11.812664
-9.935214 4.6398811 11.916246
-7.181818 4.8690319 11.92477
-0.48381245 5.2231293 11.979694
-0.23356847 5.3084011 11.945364
-0.51020515 3.1044993 12.090127
-0.72029805 3.5812178 12.02706
0.66181338 2.6026762 12.116158
2.0458119 4.5293078 12.167458
-8.8383636 5.5744486 12.176809
-9.8434525 3.2235336 12.294466
-7.2835488 3.229115 12.245882
-7.1522646 3.5083649 12.23002
2.0955024 4.375186 12.284954
-0.85288483 4.714963 12.229297
-9.3396034 5.2953625 12.25555
-0.90394485 4.4658055 12.31859
-0.11778936 2.818707 12.479284
-9.0594425 5.4580946 12.445255
-8.8570604 5.5706129 12.407713
-0.92714816 5.0341702 12.513586
-9.402173 5.2673321 12.501421
-8.9106998 2.6180496 12.639524
1.9222307 3.2292452 12.678804
2.0127339 4.5407372 12.686337
-9.2218647 5.3741937 12.697357
-9.1896706 5.3912668 12.662766
-8.0057049 5.5732932 12.616404
1.2784519 5.391367 12.753698
-0.99914062 3.7341261 12.830458
-6.8985848 3.8639193 12.880799
-1.0158451 3.8727603 12.862346
-0.98688644 4.7849426 12.849784
-7.6493049 5.4934092 12.834221
-9.0081434 2.6471722 12.907895
-0.18441887 2.7345688 12.99135
-0.58935165 2.8847756 12.984021
1.8960699 4.8223042 12.936295
-8.3416824 2.5040393 13.023215
-0.89180052 3.3982172 13.087088
-8.3760405 2.4510376 13.149361
1.8201303 4.9986906 13.144145
-6.9313135 5.0093722 13.199687
-7.2032051 5.1979175 13.193196
-9.6530056 2.9874001 13.218207
-0.84158915 3.2303128 13.265774
-1.0548576 3.7428186 13.272813
-1.0315204 4.3318977 13.210392
-1.0241023 4.6635218 13.242254
-9.1790371 5.3593464 13.296883
0.3433558 5.7270989 13.294995
-8.7182484 2.5192597 13.322309
-6.8530273 3.7654755 13.38529
-7.2977381 5.2137117 13.338058
-8.6331625 5.6324697 13.367496
-0.64611816 2.8009868 13.474295
-6.9329958 4.9932308 13.465284
1.7286407 4.941514 13.446156
-9.9092722 3.7653325 13.566471
-9.7644949 4.4879489 13.518276
-1.0236024 4.7815094 13.550982
-9.3534927 5.1448164 13.580715
1.0838174 5.3617063 13.531448
-6.8689661 3.6021376 13.616034
-0.76955664 5.0556889 13.680569
-9.1622581 5.2255826 13.641373
-8.9155254 2.5851378 13.721586
-0.73911536 2.8391361 13.769589
-0.77163565 2.9101107 13.762206
-1.0127687 4.8274117 13.735739
-7.1055303 5.0185909 13.744585
-0.30159539 5.2931757 13.712007
0.38892329 5.5959616 13.788511
-6.8330703 4.4377756 13.863956
-0.34814721 2.5987339 13.909494
1.499045 2.7977729 13.927694
-7.1229196 2.8874378 13.965608
-7.5264721 5.2018232 13.904064
-0.013619989 5.3967237 13.915276
0.11062811 5.4546976 13.911785
1.4761151 2.841517 14.079366
-8.5388708 2.3919432 14.123919
1.7907157 3.6615143 14.145225
-6.7785349 3.8475642 14.297742
-0.54726952 5.0461059 14.223959
0.25248238 5.4182091 14.231846
-7.9310675 2.3028383 14.382933
-7.1152816 2.7697217 14.351913
-7.0023608 3.0442023 14.328445
-6.788516 4.1666803 14.39222
-6.9502249 4.7942028 14.360054
-8.7526455 5.1632023 14.338077
-8.6279602 2.4233582 14.430821
-6.8132095 4.2917666 14.499358
1.5574362 4.2909985 14.439168
-0.59627813 2.563287 14.50241
-0.90642691 2.9361966 14.594933
-1.0407758 4.6257553 14.568575
1.4636451 3.2309699 14.652278
-6.7655344 4.0266743 14.650705
-1.1333292 4.1221666 14.749908
1.0852164 4.8625746 14.733973
0.080961488 5.2065258 14.703772
-8.1763535 2.1677101 14.873403
-7.1406775 2.5555017 14.85519
1.476872 3.3873303 14.849738
-6.7832766 3.4350598 14.802711
-8.8859615 2.5316169 14.96136
-8.8188982 2.4937305 15.02548
-0.90456653 2.7685812 15.075659
-9.1461296 4.6358247 15.028738
0.90132916 2.4847522 15.158368
-1.0302585 3.0378594 15.196257
-9.2253551 3.1441932 15.154728
1.3252358 3.2664027 15.261181
-1.2090179 3.4122922 15.378606
-1.2284862 3.5766976 15.373962
-8.8985405 4.6499796 15.379265
-0.98066366 2.5277615 15.465174
-8.9821339 2.6032465 15.414121
-1.1283269 3.0867846 15.494934
-0.1734491 1.8555949 15.558155
-8.5792322 2.2561641 15.53063
-9.1061306 3.0726681 15.541161
1.1993556 4.1542482 15.506675
1.0556695 2.6933303 15.610735
-9.0682316 3.0377216 15.647652
-9.0209398 4.3397937 15.604566
0.18290704 1.8391999 15.788474
-6.8830085 2.3114967 15.729771
-8.9418201 2.705801 15.841269
-9.1576166 3.4393876 15.823975
-8.5238533 4.6253295 15.806361
-0.89957398 1.9782213 15.943858
-6.5957866 3.4188657 16.043842
1.0029294 4.1310287 16.053246
-7.8362298 1.5316267 16.153517
-0.20703436 1.5564364 16.1047
-7.1742425 1.7794757 16.179424
-1.3422574 3.4448764 16.179831
-6.7414093 4.183085 16.117758
-7.3413911 1.6738651 16.250732
0.35438877 1.8080803 16.235909
-6.590271 2.8502967 16.243301
-7.1869249 4.5322981 16.204342
-6.6038237 2.5801439 16.351942
-6.5767479 2.7933159 16.312069
-0.84219736 4.495513 16.313763
0.36026269 4.5611529 16.335667
-6.8873248 1.9029696 16.422684
0.98416841 2.9158461 16.490007
-6.4989409 3.0230246 16.405216
-6.5299988 2.4856193 16.690807
0.53404629 4.4536743 16.600353
-8.5541229 1.9434583 16.726784
-0.96915668 1.7961642 16.82629
-8.8855143 2.79845 16.828384
-7.5809679 4.6668711 16.824123
-0.5392065 4.6010742 16.894421
-0.20468673 1.439145 16.985556
-1.4943295 2.5656705 16.965984
-1.5701365 3.5808961 16.992075
-6.9161425 1.7954385 17.030464
0.8298009 4.0144248 17.034555
0.75037402 4.2961259 17.02549
0.75989509 2.105854 17.172838
-8.9338179 2.9938364 17.146736
-1.6472728 2.9989023 17.122599
-6.250289 3.4001319 17.123232
-8.3951902 4.3885889 17.152691
-0.87172425 4.4974875 17.1091
0.38658941 4.4412432 17.118359
-1.6203401 3.6192117 17.280516
-8.5202732 4.3298564 17.228733
-6.1520495 3.2317672 17.341368
-1.7222211 3.42331 17.344168
-1.4816329 4.0618114 17.366583
-0.22610177 4.7058854 17.34199
-7.6337209 1.4050083 17.493315
-6.2273936 3.5431743 17.470829
-8.2428923 4.4393353 17.420166
0.69192994 1.9822688 17.51395
-1.6977708 2.6795831 17.511196
0.67467159 4.2896509 17.574751
-7.6718221 4.704587 17.538485
0.92642987 2.7856126 17.610209
-8.8195467 3.6964355 17.61223
-6.2206583 3.6274817 17.649918
0.66267115 4.2913461 17.638929
-0.83491182 1.457567 17.700153
-1.5432415 1.826984 17.746166
-1.846493 3.0444522 17.704584
-7.416296 4.6693778 17.716051
-7.0053797 1.4524466 17.844597
-1.8218527 3.5079939 17.87175
-0.59839708 4.6526389 17.81422
-8.5813379 1.9916321 17.959694
-1.6875901 3.8381524 17.936749
-7.7396984 4.6586347 17.95129
0.74939299 3.9990239 18.088451
-0.71946055 1.258599 18.183512
-6.4462109 1.6045854 18.157681
-2.0074329 3.1561961 18.120132
1.0394019 3.2694178 18.132256
0.88042265 3.6514394 18.123791
-1.6889989 3.9965844 18.198181
-8.2783442 4.3843999 18.121975
-0.15524565 4.6554751 18.104961
-7.1265836 1.2790283 18.210218
-1.1584594 1.4113218 18.222038
-5.8925261 3.1428897 18.217268
1.040766 3.1968439 18.298023
-6.106245 3.6994867 18.21734
-6.218082 3.9732816 18.254307
-1.7061071 3.9585662 18.214243
-1.6241641 4.2359734 18.290743
-7.4322948 4.7300687 18.234589
-0.0019971728 1.4901704 18.335655
0.062898517 1.5260913 18.363304
-8.7483101 2.6090143 18.325687
-8.5054255 4.2733369 18.345512
-7.5848846 4.7462845 18.391897
-7.3062797 1.1954296 18.467678
-8.2138605 1.6538697 18.469501
-1.6993978 1.6129818 18.484024
-8.6040974 2.1475699 18.449169
-8.678833 2.3991203 18.461222
0.89126956 2.7748923 18.447296
-5.9346485 3.4586427 18.433651
-1.9203784 3.6330585 18.467775
0.85059083 3.652946 18.473757
-6.827404 1.2850252 18.500698
-8.71667 2.5461805 18.592667
-7.6991463 4.6749902 18.598612
-0.460933 1.1940877 18.653393
0.96285486 3.3548808 18.641884
-7.7153406 1.3554612 18.72159
0.25440869 1.5845656 18.735939
-8.5012274 1.8479556 18.718168
0.97807509 3.0410666 18.777508
0.69197446 3.9837902 18.769815
-1.2445657 1.2134045 18.835463
-7.856431 4.5766821 18.896763
-0.66163313 1.0860252 18.968258
-8.3113575 4.3221035 18.973125
-6.421689 4.4079604 18.932808
-1.4128809 4.4526615 18.925224
-2.192385 3.3988371 19.071283
-7.2949142 4.7573833 19.007275
-8.4776049 1.8405215 19.155745
0.81527811 2.5930047 19.16518
-5.6436176 3.2387664 19.143673
-8.4014645 4.2705784 19.194056
-1.0864613 1.1070634 19.217823
-8.5655298 2.1455114 19.225296
-5.8424454 2.1154435 19.291414
-6.086978 1.3243058 19.333357
-8.6422415 2.3784866 19.372585
-2.1056952 3.753705 19.382797
-8.524869 4.0270729 19.385822
-0.48165622 1.1194305 19.415792
-5.5131974 3.035085 19.481091
0.6356492 3.9735842 19.477224
0.4290114 4.2920899 19.477995
-0.094885468 1.3122581 19.504787
-7.9847813 1.3856171 19.672096
-5.514513 2.9079742 19.603453
-5.4528794 3.0743296 19.644609
-0.6572203 0.98658496 19.776335
-8.4839382 1.9463853 19.760391
-8.7216969 2.6274459 19.718544
-7.2303171 4.8418598 19.75985
-5.587801 3.5812893 19.871513
-1.5561087 4.5367012 19.847
-7.049334 4.7839289 19.835781
-0.4853099 1.0623435 19.955635
-8.3673706 1.6027942 19.954332
0.52423292 1.7949967 19.917898
-8.6110897 2.3213766 19.919437
0.81867528 3.4410501 19.998299
-8.5518913 3.8607895 19.909758
-5.659318 3.8317447 19.995737
-8.3781233 4.2621412 19.964333
-0.48114702 1.0556037 20.021376
-2.4988275 2.7205155 20.056749
-8.8613558 3.1062987 20.015501
-2.4109585 3.5696974 20.039101
-0.34856394 4.7808366 20.015188
-2.5531309 2.8524957 20.106056
-8.8045692 3.2217908 20.113794
-5.5047855 3.6296706 20.16716
-8.4651661 4.0320535 20.129736
-7.9494758 4.5343409 20.102884
-1.273428 4.7034225 20.114414
-1.6392494 0.977458 20.299866
-2.4363585 2.353806 20.212826
-2.1194751 4.3469925 20.230732
-7.9645863 4.5309191 20.21236
-1.7727846 0.98979282 20.355375
-2.325532 1.8918217 20.302952
-5.6182756 3.9808359 20.30426
-1.9917706 4.4793901 20.353992
-6.4174151 0.94914788 20.420206
-7.8386397 1.2164009 20.424614
0.6713503 2.2573836 20.442268
-5.3448405 2.6630924 20.411163
0.78284037 3.4519992 20.442234
-8.5660067 3.7424293 20.418228
-6.428616 0.92758518 20.523726
-7.6883211 1.1293799 20.562422
0.44647914 1.6236138 20.596903
-5.3927722 3.6438711 20.503897
-8.1757259 4.4164867 20.508045
0.17835963 4.4838505 20.533689
-0.31894612 1.0636462 20.612152
-2.7059398 2.8090327 20.65563
-2.45261 3.9856029 20.694218
-6.3154054 4.6708164 20.61718
-6.6914873 4.8718839 20.687967
-6.9554939 0.78842825 20.787939
-1.0932784 0.78729939 20.794449
-5.2161512 2.7332125 20.768637
-2.7409902 2.8641229 20.71726
-8.7371397 3.2769675 20.750965
-5.3013821 3.4721522 20.740303
-5.4431291 3.970892 20.782715
-6.9474764 0.7758854 20.869591
-0.11164859 1.1489439 20.891937
-8.3004503 1.5274905 20.834972
-2.6500835 2.4497309 20.82629
0.42299852 4.3476481 20.804995
-6.6094875 4.8835335 20.850353
-7.1779079 5.1429048 20.824997
-5.5361476 1.5230172 20.955368
-2.5465341 1.9714736 20.956654
-8.7510471 2.7662244 20.921326
-5.1555228 3.0526006 20.95433
-7.2342782 5.1169305 20.985357
0.68092823 2.3979731 21.026855
-8.5767965 3.6196909 21.001595
-8.5420656 3.7667561 21.066532
0.60952568 3.924705 21.086403
-1.5353673 0.78932118 21.192362
-2.2619398 1.0661231 21.189461
0.60320163 2.1989498 21.184591
-8.7494326 2.7331293 21.178001
-5.0750422 2.8792479 21.137678
-8.7219486 3.2525916 21.117029
0.80150092 3.2909532 21.147999
-0.17921637 4.7680311 21.11581
-1.4708729 0.76458001 21.26313
-8.4065609 1.923589 21.265261
0.53348839 2.005393 21.247726
-5.1492186 2.4487338 21.272907
-2.8351138 3.028913 21.200933
-2.6807966 3.7418776 21.276958
-8.534524 3.85309 21.284601
-5.285183 3.8441834 21.2339
-8.2744236 1.5594463 21.397285
0.85240424 3.1394587 21.327902
-8.3382053 4.3641992 21.398232
-8.2735958 4.4013028 21.346409
-5.9045186 4.6728883 21.318197
-6.3806286 0.76310033 21.443638
-5.7514963 0.86774844 21.467196
-2.8544822 2.4896362 21.464314
-8.4380779 4.3075819 21.491982
-6.7502403 5.141489 21.401764
-0.76804227 5.2521834 21.487715
-0.84983784 5.3048444 21.400644
-5.2923384 1.8215461 21.525743
0.87098145 3.0573483 21.55621
0.67948389 3.6489494 21.540199
-1.9258577 4.8089471 21.535978
-1.2314572 0.66785038 21.623577
-5.6842985 0.83948106 21.678772
0.39906612 1.6923521 21.682655
-8.5339622 2.2675595 21.687384
-2.9099638 3.1162069 21.651237
-2.009671 4.8056645 21.655962
-7.3401222 5.1034188 21.626778
-1.1352649 0.630817 21.759037
-7.3892446 0.91667014 21.786055
-0.19493699 1.0586997 21.775774
-8.5587959 3.8128607 21.711525
-2.6007071 4.4814034 21.750454
-7.9320741 4.6734476 21.793465
0.46917176 1.9296103 21.840923
-8.5319595 2.2490025 21.813662
-8.3471746 4.3815489 21.822229
-2.3280315 4.7172875 21.886042
-2.2647357 4.7279129 21.819645
-0.94917071 0.68459916 21.922089
-2.2584147 0.76557344 21.985718
-0.76815695 0.77098125 21.951668
-5.3962297 1.3594508 21.923471
-8.6115541 3.5755577 21.927675
-8.5497885 3.9132724 21.95916
-2.5527253 4.6259761 21.966242
-7.5757437 4.9582801 21.944147
-5.9595709 4.9078627 21.934322
-1.3723938 0.61906654 22.036695
-5.1741328 4.1460137 22.068768
-6.5028706 5.2395706 22.08263
-7.3833537 0.89336908 22.147551
-5.1880894 1.7628249 22.126223
-0.08073622 4.7976465 22.104874
-0.6935389 0.7906028 22.245268
0.3854959 1.7353327 22.230238
-2.2228484 4.8771858 22.234062
-0.42262483 5.074017 22.275736
-0.68594021 5.2670326 22.275707
-5.0659862 3.9961262 22.323839
-0.20608604 4.9199991 22.396639
-7.265368 5.2242198 22.339621
-7.8487606 1.1011178 22.455833
-2.9573584 2.0537906 22.440208
-5.6461062 4.8857741 22.408779
-0.15555006 4.8852162 22.480827
-0.40345904 0.91127729 22.590744
0.72909963 2.3486497 22.515362
-7.2343454 5.2537441 22.583326
-6.1871772 5.2200994 22.578993
-2.4943764 0.7916612 22.647499
-4.7086434 2.5810151 22.679075
-8.6743469 3.3855643 22.62406
-6.8339019 5.5486498 22.664631
-5.019639 1.6491593 22.765808
-2.9243596 1.7255783 22.71154
-3.2052755 2.9837811 22.708874
-4.7378707 3.0930965 22.747793
-3.1330609 3.3868279 22.777508
-8.5467873 4.0560493 22.793169
-6.0007319 0.62632149 22.807001
-2.3532758 0.69404697 22.856762
-7.4789524 0.90144426 22.822445
-8.3876486 1.8571295 22.838549
0.4333609 4.4630413 22.872618
-2.0843441 5.1389608 22.884031
-6.3489017 5.3900013 22.867237
-5.2123046 0.99373513 22.990643
-8.2611866 1.6082149 22.929689
0.80680817 2.4433799 22.946547
-0.31009522 5.008863 22.922546
-0.026424348 4.8058167 23.079279
-7.3126335 0.83699977 23.125046
-7.5302835 0.93512207 23.11904
0.67072177 2.1683452 23.123182
-7.9724517 4.7305031 23.166697
-6.2713614 0.58347398 23.228664
-0.38371435 0.92685235 23.200577
-4.754055 1.7699126 23.28957
0.5709585 4.0766292 23.277822
-8.244029 4.524785 23.233656
-8.1738701 1.4981215 23.395689
0.70874935 3.6077991 23.345505
-5.9283247 5.3014812 23.316216
0.10617785 1.2768637 23.563601
-0.030176729 4.8125968 23.528988
-1.0859044 5.591404 23.595825
-2.1448841 0.6854865 23.645638
-3.133085 4.3592553 23.686092
-5.1329041 4.853888 23.661894
-3.4117265 2.1082156 23.715305
-3.4245985 2.2685051 23.783752
0.65836012 2.2948737 23.791651
0.73623407 2.422478 23.718037
-4.4993758 2.5937815 23.78352
0.38288262 4.2383595 23.721878
-6.7256951 0.65658575 23.843369
-3.0906169 1.1948043 23.830994
-8.0877934 1.4971015 23.847977
-3.3234949 1.5958061 23.844238
0.75906056 3.2169843 23.898165
-4.7617459 4.3722944 23.818218
-5.2115512 0.84411836 23.93713
-4.7520704 4.4782991 23.971466
-7.2568822 5.274024 23.917101
-5.483717 5.2170038 23.924538
-7.8801231 1.2323285 24.018532
-7.9860673 1.3951044 24.018503
-3.2566049 1.328786 24.005363
-3.3917012 1.5570806 24.05562
-3.4714491 2.049418 24.040287
-4.7886539 4.6390138 24.007267
-5.3666067 5.1477895 24.043713
-5.6614332 0.70942366 24.141638
-8.4644985 2.1982992 24.131905
0.51110786 2.1117971 24.191313
-3.5002646 2.6368337 24.191391
-3.6107204 3.1479907 24.155674
-3.5475144 3.5206544 24.138102
-4.4006696 3.6026223 24.1537
-2.8747473 0.95213091 24.209949
-4.119853 2.1141901 24.276623
-3.6066451 2.5108559 24.23872
-4.392787 3.9155917 24.296577
-6.0608635 0.66580832 24.325844
-7.891489 1.3703367 24.397055
-3.526257 1.6370617 24.341837
0.77365476 3.016989 24.356079
-0.076737016 4.8290534 24.394367
-2.8447514 4.9827375 24.339767
-1.784807 0.6391505 24.432671
-7.4516659 1.0600502 24.424503
-4.1064892 1.5449667 24.449863
-3.3249209 4.5520935 24.410299
-4.6803331 4.7139053 24.429443
-3.1758454 1.1894933 24.576492
-0.37876603 1.1016443 24.576591
-1.6819801 5.7552719 24.551804
-6.5209694 0.65165365 24.611248
-3.1567006 1.1591878 24.687855
-3.8883364 1.3208547 24.638117
-4.4090934 1.4201472 24.656286
-3.6213121 4.3530416 24.633652
-0.0034465194 4.5814509 24.61105
-5.2948308 5.5549011 24.679646
0.71077901 3.1173828 24.719219
-3.7864771 4.2575755 24.770315
-4.4335051 4.7872796 24.795237
-3.3484097 5.0503492 24.779713
-5.426734 5.6884527 24.782803
-5.3627019 5.633049 24.742992
-2.9150724 0.92204964 24.806705
-3.8130848 1.2180383 24.806082
0.61217147 2.4831996 24.896648
-8.367712 3.5623832 24.807405
-17.628958 4.5804806 24.863258
-5.0416303 5.5561051 24.846876
-4.9530554 0.959005 24.978157
-0.85680616 0.93196076 24.95808
-8.5161152 3.1866143 24.979721
-8.3373823 3.5671287 24.925726
0.41036093 3.5994167 24.9562
-17.555859 3.9825063 24.961502
9.5920391 3.9059734 24.911137
-4.1530943 4.4895382 24.930241
9.9035673 4.759006 24.982315
-2.3626692 5.8803196 24.984722
-6.1691151 5.9378648 24.906372
-5.762816 0.70565093 25.037388
-3.8921468 1.0993261 25.0023
-18.001585 4.1034279 25.0508
-7.9274569 4.329977 25.035992
9.6475773 4.4490995 25.088125
9.5716352 4.7044315 25.048922
-5.0923939 5.7808943 25.073128
-2.8441525 5.8026609 25.098667
-1.9972733 5.9959173 25.069258
0.39562827 2.2215693 25.117058
-18.027184 4.1278086 25.17314
-7.8664112 4.4131279 25.117294
9.9473352 4.8840346 25.178272
-2.6089847 5.9697948 25.197533
-1.1675264 0.82119751 25.24799
-0.17225611 1.4057176 25.292149
-17.987148 3.3673878 25.252077
9.7681856 3.7450948 25.233822
10.115292 4.2035518 25.283587
-3.9120905 4.7013826 25.281849
0.33408546 2.2099504 25.374571
-8.5081739 2.6309667 25.34481
0.63694608 2.6903741 25.352463
-17.66058 4.4566007 25.320148
-7.6522875 4.7218013 25.365889
-17.722414 5.0128965 25.334211
-6.3287716 6.0263958 25.389313
-7.4803562 1.1964843 25.427361
-0.05797264 1.6277251 25.436512
8.8944979 2.6844969 25.496201
-8.5204258 2.7029517 25.428822
-4.0083313 4.8989844 25.424728
-17.758026 5.0361776 25.497736
-4.1372013 5.1781869 25.438732
-7.089963 5.4245257 25.439995
-6.944623 5.5461206 25.480652
-3.4913456 5.7728639 25.428337
-7.5778589 1.2556325 25.548124
9.8355284 3.9205835 25.517103
-17.548828 4.8241601 25.557388
10.016293 4.8076644 25.518894
-3.9627163 0.67733943 25.696899
9.8303547 3.8400354 25.602705
-6.6907187 5.7677202 25.678883
-1.6235434 6.0792761 25.630205
-5.5458021 6.1043463 25.656239
8.5506058 2.8524203 25.798105
-2.7207539 6.1393571 25.780233
-4.3345714 0.69133097 25.89329
-3.7099946 0.67159486 25.853329
-8.0226631 3.7504601 25.838345
10.21936 3.8210626 25.854645
-17.698345 4.0686941 25.888018
-1.7257224 6.0932403 25.835072
-1.7210263 0.67732096 25.930397
-2.8030629 0.78876185 25.92695
-0.38918251 1.2904418 25.968977
8.71875 2.8994975 25.901558
-7.0748758 5.4762602 25.944195
-2.9990182 6.1471682 25.981873
-4.241014 0.66255021 26.026745
-1.0540878 0.97099596 26.039539
-17.496784 3.4914939 26.068157
-0.35837859 4.8570318 26.076561
-7.5044332 4.9108081 26.088549
-5.6254048 6.1373458 26.046776
-2.4570951 6.1295233 26.036583
-2.310493 6.1445146 26.056189
8.9396696 2.5326993 26.171295
-16.552883 2.9011657 26.106585
-17.414204 3.3043251 26.153778
-7.9271278 3.7805338 26.182438
-0.41965824 4.9101233 26.192749
-1.6739488 6.0096364 26.128937
-4.4977999 0.68851411 26.253464
-3.0726347 0.74438101 26.288141
-0.20439683 1.6833949 26.237886
-7.8270197 1.921082 26.247343
9.6158657 3.211226 26.222786
-17.284956 4.9729433 26.226383
-4.1324291 5.8083849 26.288639
-6.3191881 5.9339008 26.285381
-3.3241134 6.1391382 26.264805
-4.0192456 0.59599161 26.324488
-16.960098 2.5561962 26.32675
-17.255117 3.3473268 26.365728
9.3936386 3.699996 26.39035
10.093613 3.6348863 26.350571
-17.361969 3.7334967 26.317444
-17.958364 4.4789944 26.32193
9.3966722 4.6171756 26.31189
-7.087739 5.3539095 26.390617
-6.1915493 5.9861956 26.320301
-2.6045847 6.1952615 26.393126
-3.7347763 0.61469686 26.437929
-4.8269758 0.72299773 26.456148
10.003401 3.2319574 26.482758
-0.18025665 4.3949342 26.407696
-7.7072597 4.4173751 26.454199
-5.0962334 0.75814176 26.550459
-16.299864 2.6436312 26.546843
9.0018768 2.705193 26.581491
8.3443937 2.9532032 26.507463
8.5685091 3.0357265 26.553566
9.9037857 4.6884899 26.525311
-4.3076892 6.0033178 26.583906
-3.4657552 6.0707431 26.563318
-4.9572411 0.4488982 26.620626
-3.1512916 0.68557316 26.671843
-5.9311266 0.79847008 26.670547
-6.6865883 0.97807193 26.609966
-0.70004773 1.2252311 26.641901
-0.24454558 1.8586509 26.640648
-7.6823883 1.9224439 26.679993
8.9712458 4.5907536 26.637539
-0.96129441 5.4175887 26.622406
-7.0980449 1.2068336 26.770714
8.8207178 3.7783725 26.736227
-7.7170391 4.1481404 26.785397
9.8811617 4.4255357 26.724762
8.778059 4.7918925 26.762487
-7.7059274 2.059741 26.825075
-8.1294909 3.020128 26.891249
8.6153097 3.409049 26.80265
8.5508461 3.8201525 26.877964
-6.6896915 5.609931 26.831505
-6.5307574 5.7559175 26.895653
-6.3958664 5.8219318 26.829807
-1.6469151 5.8768816 26.891315
-4.5518875 6.0699801 26.824261
-3.5157027 6.0335732 26.813107
-5.4472179 6.1436157 26.809628
-1.3214242 0.97758561 26.923908
-7.2857666 1.3394094 26.913895
-0.40510827 1.7840664 26.996866
8.3657141 3.6950209 26.960079
9.7778034 4.3720999 26.928896
-7.3921571 4.7266164 26.916502
-6.2488513 0.83221793 27.015816
-7.3050117 1.3822147 27.014
8.2486887 2.6304252 27.064325
8.5883923 2.6430693 27.071949
-8.0033941 2.7672901 27.083708
9.3193626 2.9223466 27.029404
-0.16064423 3.8443198 27.088051
8.2032375 4.1657619 27.094851
-16.250015 4.3175931 27.017643
8.4032736 4.666276 27.031086
9.5367422 5.0119567 27.01659
-6.203989 5.8819466 27.038813
-4.1555042 5.8680015 27.022358
-3.2861481 6.0435944 27.005728
-6.828043 1.1674185 27.174328
8.245676 2.6435003 27.123482
-0.16080904 3.8312399 27.106352
-16.148317 4.5173945 27.13319
-17.157278 5.1615324 27.149109
-6.6955571 1.1149001 27.238684
-0.087244339 2.5316448 27.230938
8.167057 2.7185063 27.239985
-16.010376 3.6419873 27.251488
-2.7867587 5.9937868 27.23077
-4.3474755 0.55188489 27.336622
0.052713368 2.8400578 27.313354
-15.912968 4.1074314 27.355108
9.2867336 4.9050393 27.320616
-6.4857664 5.5608521 27.319984
-3.5177755 0.27271408 27.433998
-1.6883023 0.73146236 27.48439
-15.909999 3.4271498 27.470478
9.4765825 3.6352839 27.467926
-0.24513164 3.7782774 27.412752
-7.3207111 4.5204697 27.402132
-0.74702239 4.7764459 27.404682
-7.1038733 4.8194008 27.468309
-6.4955916 5.460887 27.423534
-6.2201943 0.90434402 27.506416
-1.4383018 0.91583705 27.524626
-16.591505 2.8223133 27.540024
-16.152769 2.8110046 27.529448
9.2734604 3.0695601 27.550955
-15.854919 3.475112 27.543678
9.0555496 4.8806939 27.592169
-16.115953 4.9234924 27.561953
-5.0998487 0.608284 27.691385
-15.747054 3.8423374 27.61368
9.2082481 4.4386625 27.6189
-17.06321 4.5886312 27.627056
9.0112095 4.8660831 27.650219
-16.895378 5.0193682 27.616741
-6.7530904 5.0564504 27.616295
-4.6362085 5.7655396 27.659719
-2.6407757 5.7880855 27.657988
-3.1398919 5.8077469 27.647661
-6.1651034 0.88506949 27.75901
-2.1002562 0.85556203 27.734838
-6.3985252 1.1286175 27.734005
-0.642887 1.7697377 27.798761
-16.099506 2.9151351 27.743555
7.9432082 2.9498816 27.756609
-15.633201 4.160203 27.78145
8.4612379 4.9937277 27.752241
-3.8037267 5.6500235 27.755413
-1.528168 1.1373661 27.879349
-1.2942001 1.2783875 27.852749
-15.674258 3.2263682 27.894714
7.7923517 3.2183602 27.848017
-16.551273 4.9786725 27.859098
-2.696825 5.6906619 27.859602
-2.9425461 5.7157955 27.833809
-3.0373712 0.23740795 27.958784
-3.0210195 0.57439327 27.911762
-6.9971981 1.334193 27.968922
-7.6412554 2.6256962 27.921165
7.771131 3.2099166 27.983204
-15.534944 3.9241717 27.926878
-0.67195618 4.0926023 27.980629
8.9889727 4.0487251 27.983738
-7.2397909 4.1054668 27.972775
-6.7195029 4.8013215 27.961052
-6.3792815 5.0852547 27.976236
-2.9784374 5.5952096 27.997614
-2.9958804 0.22493567 28.043987
-2.0644567 0.82042825 28.099972
-0.43621853 2.4265394 28.051601
-7.6232533 2.7048578 28.036919
-7.740202 2.9660082 28.068928
-16.420767 3.0618167 28.037514
-16.297758 3.0698614 28.063215
-15.561001 4.5256243 28.037661
-4.3424697 5.4910073 28.074661
-2.7887595 5.5864692 28.003147
-2.708571 0.68095839 28.144625
-0.90472925 1.6705619 28.190525
-0.69396633 2.0093484 28.138931
-7.5691586 2.674041 28.113087
-15.586086 3.3742347 28.153095
-15.445165 3.7086482 28.123682
7.4995375 3.8336849 28.141241
-16.15699 4.9073553 28.102859
-3.3068435 5.4571581 28.191971
-3.3742251 0.12160805 28.225101
-5.619945 0.79916286 28.277954
-6.3590627 0.97151709 28.278965
-7.2885017 1.9031825 28.283195
7.390923 3.8784423 28.234879
-0.79470968 3.9613624 28.270531
-0.87831783 4.1194215 28.260931
-5.6581874 0.8193692 28.351051
-7.3354888 3.400676 28.395582
-16.536421 3.6162901 28.354151
-1.5319852 4.8268681 28.309553
-6.0220079 0.64363241 28.494776
-4.7867665 0.64161432 28.467333
-1.4491136 1.1033334 28.480549
-6.6271925 1.4823062 28.452703
-1.0594777 1.6005753 28.401396
7.1342435 4.2846088 28.446077
8.4914074 4.2962875 28.494246
-3.1364932 5.2550163 28.4688
-2.6143167 5.3448515 28.432642
-5.0338745 0.73174715 28.579655
-0.53227282 2.2798047 28.552603
7.5146055 3.4319506 28.559635
-16.341017 3.7439742 28.57723
-6.9470882 3.8701272 28.589661
-0.84575003 4.4537086 28.565575
-6.9519138 4.538836 28.52985
-3.8323016 5.1464558 28.552326
-2.5461342 5.1794949 28.555878
-3.0201979 5.2181468 28.516663
-4.5525608 0.5741452 28.624117
-3.6193695 0.53171432 28.608229
-4.7147484 0.6033082 28.664066
-5.2490273 0.71960515 28.664944
-5.4430876 0.80607677 28.618305
-6.067348 1.0033883 28.64394
-6.9205112 1.9502025 28.632198
-0.57101649 2.7567425 28.646635
-7.110569 3.526566 28.636497
-0.4008767 3.5410023 28.61709
-14.968324 3.6233029 28.65992
-6.8106246 4.0643888 28.625694
-7.1208091 4.3982291 28.600193
-5.6750345 5.1012764 28.695797
-5.2819762 5.1078396 28.658092
-5.1163549 5.1471386 28.608284
-4.7042532 5.1506667 28.604118
-2.1964128 0.47517106 28.765797
-5.0736427 0.68906373 28.780218
-2.4771478 0.68756795 28.733055
-5.3942766 0.79765469 28.750996
-1.0601457 1.9001126 28.701691
-0.69849539 2.1458025 28.708595
-0.37271094 3.2759314 28.752687
6.5963211 4.2573404 28.765068
-14.732223 4.6198878 28.776516
-15.047091 4.7041998 28.78384
-5.4050446 5.1456375 28.742756
-3.7200222 0.53907007 28.860748
-2.3526957 0.9150939 28.872587
-2.0921214 0.9395256 28.865017
-1.3385448 1.5128276 28.816994
7.6841393 3.476193 28.890652
-0.60107982 3.7360272 28.837254
-1.6927831 4.7212729 28.836996
-5.5825429 5.0736332 28.813309
-4.2754159 5.2628937 28.824173
-3.8584685 5.2875462 28.835529
-5.9410634 0.62678504 28.921532
-3.26035 0.62175471 28.959536
-7.5323315 2.8880799 28.99609
7.5391045 3.4586196 28.906078
7.9725399 3.5407841 28.927233
-15.941904 3.6363935 28.913837
-14.463306 3.6618359 28.909723
-6.7909546 3.7457309 28.912378
-6.9153595 4.2421994 28.937725
-6.4874063 4.2035322 28.971668
-14.61612 4.7060862 28.96368
-3.0092549 4.8716159 28.976448
-4.1006718 5.231144 28.918234
-2.2669144 0.92330593 29.094938
-7.1173353 2.1899233 29.004345
-0.48000193 2.8228922 29.096043
7.5722299 4.6160131 29.042307
-5.5229726 4.7342949 29.064253
-4.7515531 5.0805802 29.036415
-3.6604962 0.58315331 29.199184
-6.1164417 1.0186454 29.123257
-1.7449152 1.176393 29.195183
-1.6055188 1.3431609 29.155777
-15.742162 3.5931494 29.113426
-14.162816 3.6529465 29.11834
-2.4611516 4.668334 29.183468
-5.7916336 4.7753167 29.13694
-3.4519873 4.7696304 29.126423
-0.93562794 2.6794703 29.24942
-1.1741993 3.4171972 29.255674
-15.579357 3.5479927 29.239233
-14.186326 3.580543 29.239815
-13.835128 3.8587031 29.217411
-0.93813014 3.8269625 29.200012
-1.455452 3.9093208 29.253559
-15.769195 4.0178657 29.280104
-6.0862951 4.5700631 29.250105
-1.7408528 4.5155282 29.233963
-4.2597451 4.720933 29.200142
-1.1613199 2.3755472 29.351782
-7.3099051 2.7379041 29.363731
-0.53138977 2.9170225 29.367363
-1.2455184 3.3959172 29.378258
-6.4397612 3.816463 29.35634
7.7416463 3.9585071 29.372253
-5.3606901 4.5532351 29.350698
-5.1337767 4.9539471 29.357197
-6.9298811 2.8060894 29.463833
-15.054184 3.4408307 29.417027
-1.588286 4.3891611 29.432781
7.3487835 4.6043425 29.436962
-5.139164 4.9375849 29.448833
-1.3342471 2.0292027 29.56147
-0.69807512 2.631525 29.535975
-0.62678051 3.0264287 29.508209
-6.9841032 3.6386886 29.52191
-1.8299546 4.0017567 29.597126
-5.9639692 4.1419301 29.505791
-6.529438 4.2457385 29.529469
-5.182858 4.2009845 29.584974
-13.302382 4.3154321 29.511168
-2.6592994 4.436862 29.523796
-7.170311 2.5883746 29.649849
-1.3317288 2.5172606 29.642368
-1.1958597 2.5749137 29.60994
-15.121239 3.4962835 29.658804
-15.261007 3.5808096 29.641935
-1.6060352 3.5777843 29.692101
5.2573051 3.7113833 29.668598
-15.450476 4.0488076 29.639511
-5.18784 4.3297029 29.671333
-3.6481512 4.4607511 29.61768
-2.8335984 4.4331336 29.631487
-3.7264845 4.5559177 29.60231
-2.8922296 4.6260853 29.675575
-14.463461 4.8335295 29.664806
-3.6670852 5.0235686 29.681219
-4.1284828 0.61761445 29.730675
-1.3880744 2.1750038 29.755398
-7.2048535 3.0612149 29.739285
-6.3411293 3.6676741 29.715736
-13.069706 3.779664 29.723402
-6.454741 3.8506932 29.781773
-12.945068 3.9001522 29.784927
-2.0212307 4.1516595 29.705776
-5.892662 4.2508307 29.733028
-2.8357091 4.3197351 29.729006
-2.1876969 4.6774106 29.772846
-2.5162373 4.7135558 29.740812
-4.0106144 0.61478847 29.884632
-1.6476541 1.6488461 29.888702
-6.7609682 3.5284901 29.84584
-5.7616382 3.9289055 29.878784
-5.4980583 4.0376596 29.869892
-2.8080533 4.1936274 29.871939
-1.7100577 4.2287436 29.810474
-4.1578503 4.303256 29.855921
-3.3274627 4.3063254 29.800877
-1.647272 1.6672549 29.902159
-6.3162918 3.3544874 29.939117
-3.3652403 4.2619338 29.907328
5.1227951 3.5250418 30.094755
-12.555119 3.6826968 30.089535
-12.571241 3.8076248 30.040525
-5.0145736 4.1560445 30.095844
-12.616989 4.4497342 30.052471
-3.0309377 4.184968 30.108013
6.5864081 4.6890321 30.177696
-5.0102816 0.77036929 30.208977
-1.4711947 2.8078914 30.288658
-14.454425 3.4187684 30.254818
-12.8033 3.5387647 30.221478
-12.331717 3.8080721 30.279417
4.3757119 4.1198225 30.259375
4.3496151 4.2822175 30.2857
-3.1555328 0.69468141 30.346394
-6.3191299 3.0896168 30.316074
4.2891569 4.0990953 30.366802
-12.665044 4.6904378 30.365711
-13.488258 4.9313941 30.388165
5.7086253 4.9533982 30.394356
6.0643864 4.9057894 30.301802
-6.1157913 1.890949 30.418232
6.7205191 3.8658445 30.440161
4.3176384 3.6023293 30.587612
5.3087969 4.9328833 30.507433
-5.9831195 3.4541907 30.663031
-5.8737764 3.5938201 30.612286
-4.5393147 4.069849 30.630753
-3.7229669 0.55173302 30.779535
-3.566011 4.0554442 30.734455
6.4806437 4.248486 30.725836
-4.0408516 0.53235918 30.857389
-3.766335 0.54079038 30.848886
-5.2357578 0.80134887 30.82136
-6.0691366 1.7032058 30.896915
6.215764 4.4535828 30.847237
5.8084722 4.8013678 30.866535
-4.3919678 0.55107665 30.90432
-11.943554 4.3679824 30.971386
-13.939137 4.6407294 30.919308
-13.874506 4.6680861 30.972219
6.0292454 4.648005 30.908571
-3.344768 0.54943413 31.070015
-1.7079237 3.1250145 31.030312
-3.0954061 0.57944906 31.122522
-1.740055 1.9739107 31.146925
4.8401918 3.2030687 31.124428
-11.686479 3.8650668 31.100101
-4.7841868 4.0529041 31.136318
-4.5186486 4.0609145 31.11338
6.0942488 4.0182247 31.194103
4.0644898 4.6068821 31.112131
-12.074394 4.8179131 31.178448
4.4409456 3.3031163 31.285105
5.8974833 3.6149335 31.272024
3.6746233 4.0948014 31.260155
-12.864349 4.9959521 31.280159
-4.7362084 0.52805847 31.36203
3.528616 3.7629509 31.378799
-11.44449 4.173449 31.394608
-4.4807105 4.1228666 31.383736
-3.4941511 4.1149945 31.33313
-2.0501578 1.3376416 31.417377
5.587101 3.3871837 31.405067
-5.675703 3.7927644 31.495543
-2.2509551 3.7865496 31.435017
-5.6249442 3.8040597 31.440598
-5.5657372 3.833065 31.465782
-13.53589 4.5323744 31.424038
-11.645317 4.6419725 31.43775
4.3230085 4.9312449 31.471466
4.8589134 4.9479103 31.413675
-5.5967779 0.93318832 31.566174
-2.3415046 0.92220378 31.536369
-1.8070984 1.7342023 31.516005
-6.1871519 1.9285399 31.523163
-11.246233 3.9718206 31.577023
-3.8078666 4.1808677 31.550953
-5.9734001 1.4908313 31.649109
-12.231755 3.2551274 31.612066
-11.995464 3.3434443 31.60059
-4.3271108 4.185492 31.623369
-3.9720888 4.1341515 31.628563
-13.134834 4.6887107 31.623575
5.1429014 4.6929355 31.678495
5.2545919 3.9170108 31.790062
5.407711 3.9374237 31.702192
-12.99534 4.6104388 31.785019
-12.446266 4.8670321 31.780319
4.1931076 4.9657569 31.78022
-4.9592247 0.49006316 31.813471
-2.1574113 1.0460408 31.843161
-1.5172942 2.725455 31.886894
-6.4254928 2.9979579 31.896847
-5.1616774 4.0630827 31.818518
-4.9444361 4.1830921 31.88051
-12.999315 4.5227952 31.842777
-5.8338203 1.100829 31.977074
-1.8169779 1.6565825 31.965824
-12.221254 3.3635426 31.93219
-12.139961 3.3381901 31.907104
-11.478504 3.411531 31.911274
-12.878136 3.5618539 31.953922
2.8912079 3.5509684 31.984081
-10.891269 4.433826 31.957417
4.9381142 4.5101948 31.952606
3.6745429 4.912415 31.996532
3.8140812 4.9372396 31.960548
-5.9261627 1.2494562 32.024109
-11.904265 3.3518109 32.094917
4.813724 4.3801184 32.064873
-12.615594 4.5680237 32.081982
3.0480087 4.697741 32.067333
-6.311595 2.3065698 32.104912
3.4206064 3.3921595 32.134869
-5.2882118 4.1978989 32.191299
-5.0988855 4.2761106 32.173344
-3.7538247 4.3417492 32.198074
2.7097049 4.4773822 32.180569
4.1148081 4.9113503 32.114944
-10.41996 3.8357611 32.270832
-5.9542007 3.9262393 32.270344
-2.5704362 4.2295132 32.294651
2.8412414 4.7614198 32.258808
-3.5466199 0.45601851 32.382607
-5.8306336 4.0086408 32.304512
4.4457264 4.0029669 32.379364
-10.461437 4.5443301 32.36655
-4.0417266 0.43967235 32.421669
-2.4725387 0.7402395 32.436954
-1.4216746 3.2082884 32.426033
-10.793945 3.4076834 32.409767
-1.8325444 3.921608 32.428768
3.0600009 4.8809786 32.423653
-11.688554 4.9343128 32.408867
-3.9163585 0.44575253 32.565193
-6.4621243 2.1582048 32.539665
-1.3760599 3.3672521 32.594688
4.2039599 4.4092078 32.53735
-11.706207 4.8385248 32.539162
-2.508348 0.70080233 32.60231
-2.3221083 0.79809558 32.631626
-1.9645 1.0316876 32.618649
-6.1044722 4.0185771 32.662777
-4.1037641 4.4298015 32.640945
-5.142385 4.5477104 32.691139
3.9557345 4.7165513 32.640724
-10.603405 4.857892 32.659637
2.5543504 4.8199081 32.625622
3.3057008 4.9723616 32.641376
2.0018497 3.8128777 32.730015
-2.2098365 4.2820835 32.703495
-5.8303065 0.79858124 32.807884
-6.6543789 3.3859575 32.819187
-11.623354 3.4925709 32.840515
-2.629463 0.51511371 32.954018
2.2675178 3.4093814 32.903648
-5.4543848 4.5481052 32.950066
-9.9792337 4.8236895 32.94894
-2.0334888 0.39441866 33.077591
-3.2504678 0.50806928 33.083702
-6.1537948 0.64208847 33.002323
-9.6052723 3.4992101 33.097252
-1.2053264 3.4915757 33.003708
-9.4399786 4.0109992 33.085838
1.6395088 4.497757 33.095844
-9.6743116 4.5244908 33.009769
-2.596128 4.6469011 33.013794
-3.0121806 4.7059956 33.021149
2.4548435 4.9377017 33.041046
-6.0275784 0.30676356 33.195698
-1.2771955 1.7412494 33.162258
-10.71664 3.1729426 33.146736
-11.38385 3.4683437 33.178028
-2.3741348 4.5826163 33.128521
-2.5746393 4.7339511 33.188931
3.0795374 4.9197836 33.142948
-2.9389808 0.35517859 33.230011
-1.4818898 0.68179774 33.209839
-1.1160393 3.7830615 33.28817
-9.28372 3.8593259 33.261581
-9.6313362 4.8596048 33.282776
-5.0418687 4.8313556 33.293949
-11.379731 4.3053098 33.348042
-9.329442 4.6838346 33.358288
3.3727579 4.6199675 33.334789
-3.2399719 4.8201494 33.382046
-6.77987 3.1486406 33.449883
-9.1797972 3.6285853 33.431892
1.160085 3.9663672 33.444046
-6.1338787 4.3596039 33.426601
-11.113783 4.6945243 33.492241
2.9598179 4.8901801 33.44326
-1.3955867 0.32773688 33.588272
-3.8389575 0.4980565 33.520592
-6.8955145 1.7278523 33.597462
-9.1438637 3.5508611 33.500534
-1.0508407 3.6618731 33.567703
-2.0887949 4.6261735 33.52187
-9.1551256 4.8059254 33.587677
-3.2898703 0.31011462 33.667122
-6.9168181 1.5448992 33.628731
-10.591212 3.2206628 33.611412
2.7847919 4.8714676 33.680466
2.8520241 4.8643274 33.618683
-3.0783043 4.9312716 33.679749
-2.4716544 4.9370456 33.649128
-2.5792646 -0.1025869 33.788891
-1.8843018 -0.073732004 33.717323
-2.859139 0.0037333334 33.75914
-6.6907229 0.52540898 33.7701
-10.559279 3.2271342 33.706501
2.8056509 3.3103874 33.764191
-0.95238262 4.0060329 33.728115
-5.6789427 -0.14114806 33.832687
-6.8407679 2.3877745 33.895912
1.0042831 3.425724 33.8755
2.848079 3.4721627 33.863197
0.74919778 4.1363778 33.808273
-4.0459285 4.7273693 33.822823
0.98998952 4.7837353 33.826145
-4.2452097 4.8669953 33.84758
1.7837267 5.1772556 33.872143
-4.1981606 0.46564978 33.956951
-3.552774 0.42207488 33.927208
-6.8464317 2.4622192 33.969467
-9.4069767 5.0727005 33.904922
-0.88039207 1.5548426 34.042728
-6.8642135 2.7053547 34.032055
2.6351478 3.2881098 34.008656
-0.99514532 3.5364232 34.047062
-4.9220634 5.0484142 34.026772
-1.3920867 0.1919326 34.180023
-6.6004825 0.2804445 34.123516
-3.6643088 0.46893233 34.150913
-6.9377031 3.5305696 34.17218
-8.328002 4.1037607 34.152359
-4.1025505 4.862381 34.170204
0.97198689 4.9454927 34.14262
-5.0236835 5.1107874 34.189648
-1.0145087 0.88601327 34.26511
-0.99832046 2.415951 34.220387
-9.1177435 3.0915422 34.258366
1.2990606 3.0490005 34.235176
1.8621516 3.0168819 34.260651
-10.201453 3.1715736 34.207207
-4.5717926 0.30625296 34.365753
1.5023979 2.9116974 34.333786
1.6858624 2.9727955 34.324924
0.84648442 3.2672596 34.328568
-6.9416304 3.3931303 34.315907
0.1840274 4.0732141 34.399757
-8.218648 4.4730315 34.376308
-3.2308326 5.119556 34.349319
-6.9896116 1.3095466 34.408024
2.3625169 3.4688029 34.427689
-6.3307438 5.0162044 34.434822
-4.7414083 5.1420574 34.400349
-2.5859852 5.1858177 34.436256
-4.078692 0.55624592 34.515213
-0.64213127 4.2743807 34.541138
-5.4965076 -0.028324947 34.661587
-4.5028944 0.38906258 34.667694
2.3094089 3.7905946 34.685249
-0.60280371 3.8719673 34.62756
-0.55152321 4.0951262 34.644531
-6.7171841 4.9207535 34.633316
-5.1206498 5.2711639 34.672081
-3.0125678 5.2341585 34.636383
-6.3097472 0.30897778 34.756821
-3.9829986 0.60366988 34.736858
-6.9651556 1.4659419 34.70002
-10.290565 3.9537191 34.751026
-0.48981881 4.0948048 34.797607
-8.2160959 4.9232168 34.792206
-6.8039646 4.9316368 34.718987
-8.6591377 5.1334891 34.766113
-0.42949182 4.2282801 34.887634
-0.087220475 4.6074686 34.818707
0.91392213 5.1095953 34.805023
-2.3775613 5.284667 34.867065
-8.8023376 2.993185 34.955925
-9.6330566 3.47575 34.998573
-7.37222 4.5649185 34.945335
1.666014 4.7938232 34.972816
-9.357317 4.9160852 34.907585
-5.1371479 5.3609071 34.956665
-6.142261 0.32729936 35.011681
-1.7092112 0.42200655 35.046516
-6.8518319 1.4212214 35.072227
-1.0527794 1.4536637 35.055008
0.94117939 3.0369377 35.006905
1.9335656 4.4161386 35.068455
-9.7329922 4.5943689 35.065674
-7.4538298 4.5378895 35.089882
-2.0220885 5.2939439 35.066608
0.4399251 3.0141404 35.18642
1.2549845 4.8433628 35.187626
-0.72264987 4.9906926 35.116707
-4.1028767 5.1351614 35.188354
-1.6850104 5.2832837 35.174049
-1.2397256 5.2074451 35.101929
-3.1911304 5.3633513 35.192604
-1.6761508 0.66234761 35.24754
-6.5418816 0.9819783 35.218521
-7.2424569 2.8177698 35.283329
0.41371995 2.9965315 35.225384
-9.5073452 3.6973338 35.282536
-0.8609708 5.1892624 35.254776
0.47641116 5.1045284 35.289959
-1.4443916 1.0765125 35.388214
1.2308172 3.3904366 35.365707
0.55011392 5.0631928 35.363373
-0.094999745 5.1426392 35.376488
-3.1111231 5.4350796 35.393021
-5.5777922 0.64167744 35.4062
-2.5098813 0.66678965 35.448883
-6.6122751 1.3770217 35.486198
-7.2881818 2.6652784 35.498299
-7.7599783 2.9686031 35.48098
-0.25048053 5.1291237 35.486134
-1.6927997 5.366847 35.458275
-5.5988541 0.85804731 35.57423
-3.7768013 0.99866366 35.583931
-0.59144878 2.678257 35.534977
-8.8064756 3.2112455 35.506767
1.5301759 4.0847058 35.564312
1.154882 4.7447138 35.516994
-8.0518208 5.1769786 35.53233
-0.65907472 5.2634869 35.540981
-1.8792458 5.391057 35.509022
-2.9758511 5.4946923 35.509323
-8.2072678 2.9132628 35.623848
0.54501688 3.0106034 35.635265
1.4627434 4.0321789 35.645836
-6.3749151 1.3783699 35.707848
-7.7251344 5.2532001 35.724236
-0.59993392 2.4827313 35.898476
-2.7040281 5.5490694 35.898006
-6.9242382 2.1618829 35.906509
1.0484776 3.6532464 35.950539
0.95789313 4.6571388 35.944012
-5.7340508 5.447474 35.92461
-2.2970705 1.5350702 36.183887
-7.1174035 2.32616 36.199409
0.42880023 3.0252051 36.122639
-3.2319119 5.4814634 36.159737
-6.2384005 1.8398688 36.295055
-8.0657721 2.9782963 36.288094
-8.2006025 3.0274954 36.291004
0.53454882 3.1615629 36.298912
-8.9143209 3.7922559 36.287182
1.147375 4.0685496 36.240303
0.68267584 4.7876291 36.227566
-7.33952 5.2552257 36.291275
-6.3044186 5.4730659 36.221645
-3.276319 1.5030347 36.301952
-0.35536841 2.7346416 36.30888
0.69848388 4.6147423 36.357468
-8.3831482 4.8098383 36.385513
-4.7916341 5.4914784 36.332497
-2.2618592 1.7563549 36.436005
-1.969877 1.8277261 36.418041
-6.4413633 2.0417366 36.454796
-8.3319416 3.130651 36.458195
-8.8277636 4.2108088 36.444233
-0.4917745 5.1829219 36.413383
-0.78798419 5.291872 36.496723
-6.1404119 5.5009232 36.433868
-8.192481 4.8126874 36.509521
-7.9442124 4.9090271 36.55135
-3.4081361 5.3620119 36.51828
-2.3434684 5.5257111 36.573456
-2.0154419 5.5150213 36.523163
-1.9909265 2.00191 36.680775
0.30440217 3.1247435 36.617607
-6.8937292 5.3443804 36.684113
-4.7278786 5.4185534 36.646835
-3.1798646 5.41745 36.670948
-3.2119465 1.8339415 36.793915
-1.6060433 5.4487309 36.797657
-5.0384841 5.5162954 36.716019
-7.2741418 2.7089791 36.898499
0.67074585 3.9968772 36.843468
-3.3177323 5.3341551 36.888321
-5.9696445 2.2407925 36.963226
-7.1499128 2.7432668 36.991753
0.39675948 3.8405108 36.94104
-7.8992281 4.8164592 36.962887
-7.4520726 5.035326 36.90049
-4.020227 5.1048927 36.980846
-1.7318056 5.3898544 36.971306
-1.9191263 5.423686 36.92754
-4.2871571 1.9598696 37.003735
-3.9111276 1.9121776 37.002777
-1.4205317 2.5258913 37.055649
-8.3589334 4.032896 37.017918
-5.555397 2.2876313 37.149128
-0.30697033 3.3372812 37.159668
-7.668859 3.4748557 37.197906
-2.158783 5.3612161 37.134701
-0.95471448 2.9414239 37.23671
-8.0213032 4.0018759 37.226082
0.072734594 4.2412081 37.276749
0.1101096 4.2304258 37.253819
-7.7208548 4.4684505 37.291256
-3.8440239 5.0763102 37.297859
-2.5525639 5.3304672 37.296196
-4.2298536 2.2616324 37.340134
-5.3925881 2.4541357 37.339222
-5.6570911 2.6252503 37.383129
-6.4200559 2.7753031 37.315105
-1.4592533 2.7748504 37.307377
-0.34831107 4.4868345 37.322842
-4.4191618 2.3888655 37.434288
-1.7652739 2.947571 37.458145
-0.74739373 3.5692573 37.418987
-0.72357237 4.5340967 37.401573
-4.7391434 5.2934866 37.448666
-6.7240906 3.6736972 37.591415
-1.0445771 3.6483657 37.558502
-6.1963367 5.0215988 37.524208
-5.987175 5.0413713 37.599815
-6.3122225 4.6514525 37.696198
-4.8058329 5.2034693 37.641933
-3.08319 2.9442706 37.72979
-1.4216686 3.9408011 37.707752
-5.6879759 4.9869609 37.764309
-4.5600615 2.754061 37.856068
-2.4876518 3.4766116 37.89756
-1.9923875 3.6284015 37.858505
-3.7998626 5.0036349 37.884487
-3.5211146 2.6235659 37.933933
-2.6873102 5.0164838 37.983345
-5.5581846 3.8226042 38.050041
-5.389245 3.945076 38.21521
-5.1205111 4.7624521 38.265808
-3.7086458 2.6019905 38.407047
-2.9792135 3.4686749 38.403946
-4.945694 3.4500468 38.54398
-4.9832315 4.4775686 38.593918
-4.909687 4.5933714 38.558781
-3.9929869 4.7845402 38.821789
-1.0932498 7.0999002 38.916054
-2.3196096 2.471508 39.066349
-3.0785587 4.0242133 39.044449
-4.3017344 4.6021757 39.188236
-2.4877405 5.4369774 39.111645
-0.74773085 6.3579249 39.174973
-1.335094 6.6774054 39.130676
-4.5115166 2.392168 39.283314
-4.4061737 2.5072713 39.250961
-5.5018711 3.8323889 39.218025
-4.8853045 3.863492 39.203568
-5.2077866 2.0712941 39.354111
-6.9637251 6.315618 39.318676
-1.3153644 6.5666146 39.36636
-1.1883932 6.9520588 39.336487
-4.6883469 1.7602615 39.479626
-4.3612008 4.4697781 39.431999
-2.4078655 4.4949598 39.479259
-2.4597664 5.3034897 39.432041
-2.6371067 5.4996047 39.452316
-5.2579746 5.531599 39.416035
-5.2007122 1.8994544 39.581062
-3.1557195 3.9349818 39.57692
-3.4039984 4.3536539 39.55867
-5.2074623 5.5361114 39.59087
-3.9653306 5.9371223 39.590088
-0.75870055 6.3894234 39.560722
-2.8921032 2.8075809 39.673935
-2.5118403 3.618679 39.681049
-4.2966104 4.3939719 39.655357
-5.3111243 5.4141598 39.635231
-2.6710103 5.478807 39.654907
-4.0973554 1.1336365 39.737263
-5.0829153 1.5320834 39.773991
-5.1296763 1.6066518 39.799881
-4.8995962 1.8362081 39.76841
-2.3116477 1.8366354 39.769058
-5.4715104 2.3334 39.763596
-5.4838762 2.4269118 39.707695
-5.1320462 2.6750629 39.749985
-5.0924025 2.7512827 39.718494
-2.4262347 4.6191473 39.793049
-3.3306808 5.7892075 39.713306
-6.5802569 6.7851911 39.771309
-4.4936705 1.3329521 39.870224
-5.4616141 2.2586203 39.853069
-3.885463 4.4742861 39.812386
-5.4995689 4.7780657 39.851402
-2.8838325 5.6237288 39.819725
-4.3685675 5.7779164 39.880375
-2.2144084 1.9340637 39.998623
-5.1795287 2.2784803 39.939564
-2.3279872 2.426646 39.997704
-5.3256259 5.255352 39.930317
-5.0115166 1.7893592 40.022518
-5.4891891 2.3281465 40.011528
-5.3293409 2.6169908 40.057968
-5.4966459 3.3507757 40.069717
-2.473047 1.4803164 40.130692
-5.2447014 1.6432078 40.102951
-5.0089974 1.6937178 40.119633
-2.6948874 2.0886865 40.186211
-2.12956 2.269959 40.161503
-2.5834556 2.4577465 40.142052
-5.3872671 2.7226245 40.140121
-5.3796892 2.90904 40.140915
-1.2295179 6.325304 40.130352
-1.4127017 6.5983343 40.119743
-5.5524769 2.5109472 40.297562
-2.0364602 3.1009293 40.208015
-5.4586592 3.3143976 40.248241
-4.9194708 4.0019035 40.29837
-6.4710536 6.2931466 40.26952
-2.9405389 1.159133 40.361691
-2.4079161 2.7546194 40.360722
-5.5234003 3.1642919 40.317322
-3.3840921 4.3369517 40.390266
-3.8259647 4.4216795 40.319595
-5.3785033 4.8914022 40.365704
-4.84688 5.5609207 40.397785
-2.5324516 1.3362237 40.403828
-2.2657714 2.9048169 40.476463
-2.2030342 3.130053 40.486725
-5.3952622 3.5637898 40.438675
-2.5900195 3.9032445 40.486481
-5.4541211 4.7588611 40.463516
-6.7207389 6.5606375 40.462296
-5.3967953 2.2096059 40.540421
-1.9864739 3.307909 40.599552
-1.3365979 6.6382618 40.594078
-2.3749523 1.510021 40.681282
-5.4090824 1.6905057 40.627632
-2.4131422 2.4801488 40.643112
-2.0612266 3.3898385 40.665813
-3.0671825 5.4989066 40.663971
-1.881119 6.0980186 40.678226
-5.2724819 1.857379 40.76754
-5.9884419 3.3542442 40.747658
-5.5715599 3.3071828 40.773003
-1.9844228 3.4369938 40.705963
-2.9062579 5.4148407 40.741623
-5.7348976 6.2492247 40.795807
-4.8359556 1.4055331 40.823833
-2.3198504 1.5513767 40.871899
-2.0557125 2.1396947 40.833839
-2.6511524 4.4619899 40.819248
-5.1504197 4.6238394 40.881935
-3.8117933 5.1420593 40.815819
-5.7505116 5.8232265 40.86451
-2.0857379 6.3076925 40.836098
-4.7051601 1.3677031 40.965794
-2.3054242 2.4879985 40.950397
-2.0196369 2.6444683 40.964668
-2.3176546 2.7018473 40.953651
-5.5911164 2.8285062 40.982338
-2.1046619 3.3535233 40.950661
-2.4023886 3.8323152 40.911037
-2.5478859 4.59585 40.972054
-3.960218 5.3495092 40.921955
-2.3543396 1.4775088 41.009468
-5.1847925 5.0793619 41.089569
-3.1872559 5.4450278 41.06649
-3.5786474 5.5343132 41.072216
-4.3759198 5.6770725 41.000137
-2.4078729 6.1385899 41.025009
-5.5843649 2.3817737 41.108139
-5.7012272 3.2333729 41.127106
-5.512032 4.1972404 41.183498
-5.4919605 4.586442 41.15255
-5.5823655 4.9838181 41.19384
-2.9533696 5.6724386 41.103172
-3.4916306 5.7055049 41.132679
-3.0195987 5.702033 41.113758
-5.7719793 6.2745938 41.102318
-6.2446957 6.5112424 41.107399
-5.740859 5.5390644 41.269146
-5.6796942 6.2361593 41.247444
-6.2119489 6.4193673 41.207096
-4.0819225 1.0824323 41.392841
-2.1163921 2.9473681 41.363873
-5.9982605 5.809576 41.305153
-2.5386429 1.2749518 41.4916
-2.3880343 4.4877386 41.42308
-5.8058448 5.5113077 41.466423
-2.0871351 6.3227983 41.476021
-5.7397661 2.955014 41.560509
-2.153167 3.4969058 41.596123
-4.5465431 5.7401352 41.501564
-3.1209753 5.7621441 41.568001
-4.8867998 5.8154488 41.598671
-3.7661908 5.8222938 41.58617
-1.9759597 6.3121028 41.567589
-5.373075 1.8721464 41.675934
-5.7487631 2.9536216 41.602631
-5.9232783 3.0625584 41.659058
-2.0125699 3.0677054 41.676563
