# .PCD v0.7 - Point Cloud Data file format
VERSION 0.7
FIELDS x y z
SIZE 4 4 4
TYPE F F F
COUNT 1 1 1
WIDTH 1586
HEIGHT 1
VIEWPOINT 0 0 0 1 0 0 0
POINTS 1586
DATA ascii
1.460181 3.8395576 3.6501842
2.1354539 4.820899 3.6816375
2.5747488 4.8261476 3.6519258
-0.64674175 2.8365095 3.7792096
2.6209314 2.8767133 3.7157211
-1.1614774 2.9891248 3.7412009
1.7407986 3.1172254 3.7007544
1.5236994 3.4332168 3.7310157
3.2879493 4.1037407 3.7294397
-1.6385995 3.8548546 3.8698673
-0.32894295 2.8710799 3.9661632
2.770082 2.8984556 4.087564
1.4312035 3.3544908 4.091785
-1.6256109 3.5450244 4.0566669
3.3391383 3.5670362 4.063509
1.504506 4.4246311 4.0283937
3.1704435 4.4517708 4.0426435
2.4385066 4.8798084 4.0675659
2.7761612 2.8948336 4.1356301
2.9450355 2.986726 4.1843801
1.4380854 3.2958598 4.1596642
1.3204024 3.7051463 4.1014462
-0.99007249 2.8462059 4.254221
-0.60749114 2.9381559 4.25981
-0.47502488 2.9964242 4.25981
2.5373015 3.0772994 4.25981
1.7046742 3.1239448 4.2598104
-0.54518765 3.2080412 4.25981
0.27794603 3.2842996 4.2170439
2.3273487 3.2265444 4.25981
3.2104867 3.2491479 4.2861309
1.5429456 3.3968191 4.25981
-1.5291238 3.4119003 4.25981
-0.62243509 3.543083 4.25981
2.1673369 3.5606589 4.25981
-0.94996035 3.6034694 4.25981
-0.10295731 3.6380639 4.25981
0.0080153476 3.6401036 4.25981
-1.1615419 3.7990127 4.25981
0.33486599 3.7489381 4.25981
2.629005 3.86971 4.2598095
-1.2957547 3.9952707 4.25981
-1.3556088 4.1840463 4.25981
3.0237243 4.198967 4.25981
-0.28192124 4.2082105 4.25981
-1.3534166 4.3546147 4.25981
1.6965119 4.4797206 4.25981
2.333199 4.4450607 4.25981
-0.7424134 4.7264371 4.25981
2.7116299 4.7908688 4.25981
-0.53692567 4.8935061 4.2905316
-0.025488721 2.981782 4.3275023
1.4293776 4.3962379 4.3189678
2.1827462 2.827002 4.47188
2.8676949 2.9611733 4.4310265
0.05010277 3.065352 4.4158535
-1.615495 3.726265 4.4742918
3.221683 4.3344612 4.4420161
3.0895114 4.5325503 4.4235907
2.5607295 4.8554001 4.4128695
-0.60012925 2.8183599 4.5255895
0.15727934 3.2441916 4.5661559
1.5803845 4.4654179 4.5909801
2.5000679 4.8398428 4.5620556
3.0066366 4.5520258 4.6268487
2.3876896 4.8424282 4.6493964
2.5427308 2.8780007 4.7403941
0.060950682 3.2145977 4.7761874
-1.4595832 3.4865952 4.7638636
-0.17488988 2.9959559 4.8004799
-1.1577259 3.1370184 4.8004799
-0.89076191 3.3216238 4.8004799
0.20620809 3.5326288 4.8004799
1.7038541 3.5841153 4.8004799
-1.2917017 3.7252469 4.8004799
2.2811241 3.7862954 4.8004799
-1.1481847 3.8418622 4.8004799
2.2783952 3.8026152 4.8004799
-0.15417045 3.9455996 4.8004799
-1.1361549 4.0556979 4.8004799
-0.75575352 4.0502625 4.8004799
-0.60292208 4.2066817 4.8004799
-0.58000976 4.2448449 4.8004799
1.9581376 4.2621899 4.8004799
2.0877264 4.2400289 4.8004799
-0.62632245 4.3229985 4.8004799
1.5739058 4.3591685 4.8220797
2.6297112 4.4482059 4.8004799
-1.2227207 4.5203714 4.8004799
-0.6503191 4.5100451 4.8004799
-0.76645076 4.6423874 4.8004799
-0.23205964 4.6206837 4.8004799
-0.66006196 4.7855453 4.8004799
2.1982031 4.7496705 4.8004799
-0.78752899 2.8814783 4.9110579
-0.57364678 2.8622992 4.9316864
1.9584668 2.9480872 4.9509172
-0.82825279 2.8888862 5.0565033
-0.32334572 2.914031 5.0143213
-1.4254405 3.4851458 5.0925493
3.1886516 3.7600369 5.0654745
-1.4842653 3.9186592 5.0511565
0.079792544 4.4467139 5.0449018
2.8596077 4.5973134 5.0046358
2.3503134 2.8633695 5.1171794
-0.091491133 3.0388958 5.1214437
1.4222566 3.7594538 5.111661
-1.474283 3.9448881 5.1296482
-1.2755445 3.2212427 5.2353535
-1.0832545 4.6207261 5.287581
2.317255 2.902477 5.3934698
0.011163976 3.1073081 5.3541241
2.8364546 3.2330093 5.3934698
3.0237525 3.3018742 5.3934698
-1.4459072 3.6544394 5.396378
1.4457051 3.6388321 5.3934698
1.570387 3.6458416 5.3934698
2.1394162 3.686558 5.3934698
-1.4547014 3.7220821 5.3872633
-0.60494363 3.9248002 5.3934698
-0.70273572 4.0360756 5.3934698
-0.49287263 4.0865269 5.3934698
-0.36252809 4.1314011 5.3934698
-0.049416564 4.1120563 5.3934698
1.489814 4.2449293 5.3427463
0.090715319 4.3704643 5.3934698
0.13772243 4.381156 5.3263779
1.7461722 4.3886342 5.3934698
-0.96460253 4.4857888 5.3934698
1.7699363 4.4388499 5.3934698
2.8058228 4.5989237 5.3352327
2.0131335 4.6061754 5.3934698
2.7869205 4.607821 5.386796
-0.27309376 4.7241497 5.3117323
1.5010306 3.3530581 5.4200454
1.3944165 3.9587302 5.4884644
1.4094942 4.0749483 5.4849501
1.5206014 4.3289509 5.4372172
3.0218303 4.3431425 5.4670272
-0.010203838 3.076252 5.5067902
-1.2889514 3.2660108 5.5471706
3.0959442 4.1737123 5.5703716
0.17253011 4.3730726 5.5866737
-0.16658416 4.6822309 5.515017
1.9252628 2.9279022 5.7883854
2.0558465 4.7672772 5.7011724
-0.68260723 2.8763857 5.8234906
2.2003868 2.8630219 5.8025532
-1.0639565 4.6139407 5.889431
1.7628447 4.6442962 5.810698
2.107655 2.874501 5.9244218
2.4359007 2.8842549 5.932127
1.8055015 2.9732509 5.9680176
1.59006 3.1430569 5.9131069
3.1272678 3.6126351 5.9336967
-1.3733187 4.1976814 5.9115105
-0.54898703 4.800137 5.9822998
-0.42804277 2.8702569 6.0040646
-1.2999154 3.3131406 6.0854182
0.29523787 3.3971767 6.0468283
3.1390018 3.736697 6.0495319
1.9560311 2.8995945 6.1633735
2.0745718 3.1086135 6.1783199
3.7017329 3.1426773 6.1739626
-0.26411793 3.2944663 6.1783199
1.7900681 3.219044 6.1783199
-1.2883676 3.3061655 6.1909456
0.24336404 3.3888388 6.1783199
1.8145843 3.6614804 6.1783199
2.1330283 3.6686749 6.1783199
1.4342412 3.7705679 6.1783199
2.7586195 3.7651443 6.1783199
-0.35601559 3.8116863 6.1783199
-0.64339888 3.9078488 6.1783199
-0.99488938 4.2242794 6.1783199
2.6679065 4.3850174 6.1783199
-0.8664788 4.4524384 6.1783199
2.5959959 4.4986024 6.1783199
1.8184052 4.5381308 6.1783199
2.4305685 4.7785611 6.1792746
-0.5401361 2.851176 6.2355475
-0.84633738 2.9247272 6.2473226
-2.1149335 3.1416335 6.2663441
-0.57479978 4.8031569 6.2294054
2.3342166 4.8001442 6.2942266
-0.76366645 2.8809357 6.3539524
3.0450642 4.1517725 6.3646951
0.15661377 4.5629387 6.3406386
2.4893358 2.8840108 6.4407415
-1.1440328 3.1634591 6.4458442
-2.0918117 3.2811308 6.4132452
-2.028569 3.5063243 6.4669433
-0.15981355 4.7771297 6.4038854
2.496454 4.752459 6.4679132
-0.52120656 4.8243661 6.4197807
3.9092741 3.1359653 6.5815778
-1.2757883 3.4592338 6.5889668
3.7288857 3.4094567 6.5997782
3.0460305 3.6538625 6.5068069
1.3727076 4.4273291 6.5466857
2.9630289 4.2127733 6.6089406
-2.2051013 3.3864036 6.7753205
-1.2971988 3.7348914 6.7362118
-1.2963221 3.9502349 6.7117872
-1.2342738 4.1836567 6.7528334
3.7520022 2.8643732 6.8789334
0.17988984 2.9067371 6.8423376
2.160753 2.9306335 6.8934002
1.486774 3.0218649 6.8934002
2.0245566 3.0620046 6.8934002
-0.45744678 3.1213064 6.8934002
2.0051038 3.1748903 6.8934002
-0.27169967 3.2502666 6.8934002
2.8257673 3.2154698 6.8197527
1.1662033 3.3554726 6.8990755
-0.55483717 3.5037823 6.8934002
2.0372262 3.5541606 6.8934002
-0.52932894 3.6905861 6.8934002
1.5577335 3.6327991 6.8934002
2.5092885 3.6651597 6.8934002
0.36509824 3.709712 6.8934002
0.49905971 3.9705448 6.8934002
2.5778193 3.960917 6.8934002
2.9166656 3.9359155 6.8934002
0.58463055 4.0008011 6.8193231
1.3085691 4.3037391 6.8934002
1.2662306 4.4020076 6.8124995
-0.068060823 4.6505628 6.8934002
2.2396669 4.6466551 6.8934002
1.5967089 4.7451777 6.8003287
2.4304643 4.7062445 6.8934002
-0.82642156 2.8998411 6.9463964
0.21027523 2.8978639 6.9914479
3.7205384 2.9245222 6.9473972
-1.0349112 3.108264 6.9145126
-2.0804029 3.2619009 6.9464474
-2.1055226 3.4936893 6.9173465
-1.9469144 3.5216992 6.9146924
3.837286 3.5931554 6.9054861
-1.235038 3.629154 6.9906301
2.3536172 4.821878 6.9314919
-0.28005281 4.9182954 6.9863338
3.5711985 2.923075 7.097836
-0.96797311 3.038789 7.0322871
-1.8523562 3.2832601 7.0654802
-1.8980716 3.5839028 7.0436182
2.0844891 4.9329343 7.0585957
-0.0061903484 2.7647231 7.1546955
2.055428 2.7286167 7.1525011
3.6422544 2.8463516 7.1873484
2.9421878 3.8960023 7.1046658
0.62555647 4.2309084 7.1546106
-0.60344255 4.9111137 7.1902237
-0.096265368 4.9629273 7.1791635
2.7319145 3.1969736 7.28862
-1.0546746 4.5116262 7.2931724
1.8193164 2.7379532 7.3013487
-0.59526896 2.8074665 7.3746662
3.5253861 3.2159128 7.3596325
1.0408843 3.4524732 7.3677492
0.98237348 3.8089056 7.3178353
2.9097576 3.8383055 7.3934565
1.8565104 5.0327444 7.3415127
-0.93568325 4.7082148 7.4293494
2.3007302 4.987525 7.4665136
1.7516057 5.0490613 7.4299808
0.42539459 3.0099008 7.5198488
3.7775393 3.0243454 7.5146008
3.9913335 3.6056724 7.5602832
-1.03029 4.5710249 7.5880079
1.2442081 4.8019352 7.5556741
-0.66631711 4.97647 7.558032
0.015174432 2.8563354 7.6259193
2.2610703 2.81422 7.6259203
-0.62740648 3.1904657 7.6259203
0.26054591 3.1779349 7.6259198
-2.0740304 3.3915868 7.6668987
0.33922437 3.5916705 7.6259198
0.75203145 3.5996878 7.6259193
1.5838764 3.5644817 7.6259193
0.76882261 3.6324806 7.6247921
3.7490706 3.6940279 7.6154294
0.85180092 3.7924907 7.6510057
2.8266883 3.8253448 7.6259193
1.3497448 3.9000592 7.6259193
0.80003393 4.096962 7.6321721
1.8740691 4.1088176 7.6259198
0.32679975 4.2348228 7.6259193
1.2563425 4.3594604 7.6259198
-0.84978735 4.416131 7.6259193
-1.0166121 4.5442424 7.6259198
0.35481071 4.5678282 7.6259198
-0.56478894 4.6948938 7.6259203
1.353712 4.622014 7.6259198
0.020720247 4.9083486 7.6259198
0.14100012 4.9320126 7.6259203
0.19499466 2.7256074 7.7582603
1.2758281 2.8235474 7.7292695
3.6593809 3.1406331 7.7932177
3.7178133 3.1158955 7.7563305
-2.3417137 3.3750565 7.7700248
4.0314116 3.6243789 7.7923479
0.68909955 3.7811689 7.7134252
0.64947641 4.2808423 7.7371826
-0.088151895 5.1865892 7.793891
0.2100295 5.1474876 7.7380228
0.78847516 2.9430656 7.855619
-2.1524529 3.1335547 7.8003974
1.3530176 3.472712 7.8783159
1.4603138 3.9688706 7.8729782
2.4338579 4.8848228 7.8106031
0.51329845 5.1453786 7.8426352
1.7528954 3.6612389 7.9993725
-0.050562084 3.730773 7.9971457
2.7733593 3.7314794 7.9273243
0.16074206 4.0660315 7.9077559
2.2640281 4.9834905 7.9550204
0.84891558 5.151042 7.9763045
-0.093963608 5.2042146 7.9435358
0.24436866 5.2456837 7.9205904
0.65788317 2.8197856 8.0082846
0.28274053 2.930099 8.0938549
1.7971265 3.3256187 8.0748625
3.4563172 3.394376 8.0827599
-0.095599085 3.693079 8.0158405
2.7366679 3.8614378 8.099349
-0.15676066 3.9512401 8.02384
1.8277802 4.2500229 8.0249596
-0.079009607 4.7335148 8.0987806
2.0834653 5.0819349 8.0152073
1.4019105 5.276082 8.0535183
0.93304718 2.6819997 8.1849127
1.5683476 2.7143493 8.1705627
0.71677077 2.8925838 8.1665897
1.1866248 2.8705041 8.1665897
0.82737464 2.9759727 8.1665897
1.843101 2.972394 8.1665897
0.094138175 3.0062025 8.1665897
0.53204101 3.0251372 8.1665897
0.68007755 3.0108788 8.1665897
-0.084821038 3.1695013 8.1292171
0.68072665 3.1333094 8.1665897
2.350863 3.1297917 8.1386452
1.1179966 3.2484269 8.1665897
1.9430728 3.2500906 8.1665897
1.720014 3.3003914 8.1665897
2.0508013 3.398622 8.1665897
-0.24920246 3.4112887 8.1501884
1.5145264 3.4607377 8.1665897
-0.85974091 3.5687253 8.1665897
1.0750818 3.5349836 8.1665897
1.9615264 3.5643766 8.1665897
0.85736156 3.6569362 8.1665897
1.0650034 3.7171102 8.1665897
-0.34241426 3.8481066 8.1000462
-0.074686527 3.8290031 8.1665897
1.3714432 3.8355331 8.1665897
-0.43012202 3.9078803 8.1665897
-0.35555434 3.984519 8.1665897
2.03474 3.9599485 8.1665897
2.1955888 3.9191787 8.1665897
-0.75443608 4.0712399 8.1665897
-0.67710114 4.024425 8.1665897
0.25667226 4.0023851 8.1665897
-0.74716854 4.1650724 8.1665897
0.34697708 4.1525011 8.1665897
0.33620113 4.2231464 8.1665897
2.0695605 4.2020521 8.1665897
0.20059703 4.3699398 8.1665897
1.5760078 4.3319182 8.1665897
2.4900162 4.3232384 8.1665897
0.75716531 4.4020557 8.1665897
1.9718695 4.5726633 8.1665897
2.4993792 4.563735 8.1665897
-0.34502801 4.6114755 8.1665897
-0.034451753 4.6719208 8.1665897
-0.2275383 4.7224803 8.1665897
0.056108288 4.7107134 8.1665897
0.49412733 4.7472343 8.1665897
0.068439305 4.8973761 8.1665897
1.3055177 5.0986204 8.1665897
-0.19675839 5.1569214 8.1394176
1.1973913 5.1263976 8.1665897
0.60952252 2.6347804 8.2229748
2.2528973 3.9095888 8.298234
-0.98639202 4.1114063 8.2568941
2.0818815 4.5656853 8.2388325
1.9385258 4.7678194 8.2606726
0.56553465 2.6791127 8.3118343
0.94941998 2.6231794 8.3512135
2.2119005 3.6485305 8.3009739
0.52439982 5.336555 8.3448038
0.8611533 2.5873706 8.4222631
3.7844825 3.1975956 8.4901752
-0.36309329 3.2688022 8.4326115
-0.91188449 3.6182106 8.407938
2.2754831 3.8876576 8.4791098
-1.9759681 3.9945226 8.4218168
0.67957258 5.3564596 8.41432
2.1397555 2.923039 8.5595427
3.9873002 3.8793406 8.5329008
2.2910464 3.963105 8.5445986
1.1888692 5.2951727 8.5490122
0.46690202 5.3496184 8.5524559
0.77329808 5.3673005 8.5667133
0.83100897 2.2883158 8.6501379
0.36596888 2.6707106 8.6375704
0.65098268 2.6596026 8.6026201
0.96987325 2.6024716 8.6026201
-0.54103929 2.7759156 8.6731052
1.7341642 2.810673 8.6375704
2.2241311 2.8453095 8.6375704
1.9542053 2.9124207 8.6026201
0.015843898 3.0003085 8.6026201
0.30252817 3.095964 8.6026201
0.75345016 3.0234516 8.6026201
0.99125683 3.0843267 8.6026201
1.1677533 3.0491233 8.6375704
1.8038589 3.0728176 8.6026201
-0.15826666 3.28232 8.6026201
0.52460635 3.262166 8.6026201
1.3641062 3.2616546 8.6026201
1.9760172 3.2177539 8.6026201
2.3105588 3.231061 8.6026201
-0.64320791 3.3382401 8.6026192
-0.52301252 3.3164425 8.6026201
0.41755235 3.3442543 8.6375704
-0.54858023 3.4404287 8.6026201
-0.1259381 3.4032257 8.6026201
1.2271901 3.494329 8.6026201
1.6353449 3.4804835 8.6375704
-0.0027058236 3.5920513 8.6375704
0.37435383 3.5787444 8.6375704
1.8003049 3.5908418 8.6026201
-0.57441288 3.6386523 8.6026201
1.9627481 3.6573253 8.6026201
-0.90768099 3.787704 8.6375704
-0.29352438 3.7290325 8.6026201
0.85440272 3.7917559 8.6375704
1.5626373 3.7925482 8.6026201
-0.54192489 3.8671532 8.6026201
2.1657414 3.8521466 8.6375704
-0.4474501 3.9190497 8.6375713
-0.16347726 3.9767146 8.6375704
0.53704345 3.9646649 8.6026201
1.5340779 3.9095607 8.6375704
1.7257956 3.9250283 8.6375704
1.9327574 3.9792738 8.6026201
-0.56812489 4.0581822 8.6026201
-0.19107279 4.0308676 8.6026201
0.47363758 4.059608 8.6026192
0.83100897 4.0239315 8.6457987
1.1506238 4.0178022 8.6026192
-0.29872695 4.1846805 8.6375704
-0.11218192 4.149219 8.6375704
0.86666042 4.127039 8.6375704
2.1615868 4.1343999 8.6026201
0.8036651 4.2621531 8.6375704
2.2350245 4.2540827 8.6026201
-0.046769567 4.3844709 8.6026201
0.69084239 4.3567643 8.6200953
1.1646335 4.3777695 8.6026201
1.3956954 4.3980813 8.6026201
2.0464914 4.4122906 8.6026201
0.29282644 4.6016188 8.6026211
2.098407 4.6315346 8.6026201
1.749603 4.7653198 8.6375704
1.9081173 4.8634663 8.6026201
0.64214665 4.9381852 8.6375704
1.6382473 4.94734 8.6375704
0.28479886 5.0936418 8.6375704
0.48276687 5.0252972 8.6200953
1.1104907 5.0118985 8.6026201
1.2688401 5.0900779 8.6375704
1.5375644 5.0911107 8.6375704
0.79960799 5.2900076 8.6375704
1.004894 5.2512627 8.6026201
0.75126934 5.3547478 8.6026201
0.34036547 2.2783818 8.7888079
0.83100903 3.6570237 8.7972279
0.83100897 4.5526915 8.7334547
2.3749309 4.659699 8.7244854
0.83100903 2.3296964 8.8873653
0.83100897 2.4097507 8.8166866
-0.99524456 3.801841 8.8579626
-0.96892452 4.0043006 8.8253651
3.4837546 4.0205765 8.8798943
-0.69499815 2.9512939 8.9788227
0.83100903 2.9716563 8.9969826
-0.5367353 4.8603797 8.966856
0.83100897 4.9660721 8.9904308
0.83100897 5.2323818 8.9858837
1.5440469 2.3588996 9.0231667
0.83100897 2.5125785 9.0931358
0.83100897 2.7826214 9.0812969
-1.8035648 3.3228238 9.0952692
-0.92174786 3.3740468 9.0116625
3.4924679 3.3302879 9.031496
3.5278044 3.3066337 9.0895309
3.9177508 3.3256853 9.0277739
-1.6727462 3.9219139 9.0258455
0.83100903 3.9775851 9.0801392
0.83100903 2.3155596 9.1033812
-0.94154084 3.4452872 9.1050348
-1.9025021 4.1677575 9.1513729
3.6156554 4.1658854 9.134593
0.83100903 4.78725 9.1481752
0.99556553 5.394846 9.1661482
1.155499 2.2549543 9.2002506
0.22494863 2.3201685 9.2738209
0.83100891 2.3973989 9.2715588
2.4235396 3.0359457 9.2564163
2.6522815 3.7687728 9.2684336
-1.754329 4.1107359 9.2372494
0.83100897 4.9359541 9.2569551
0.082933389 2.3715851 9.3020258
-1.5887804 3.77865 9.3568621
-1.5908169 3.8067632 9.3474798
2.528841 4.3737054 9.3377008
0.83100897 4.7425966 9.3856354
0.28645846 5.3318124 9.3469515
3.5085325 3.3412807 9.4389839
-2.3624504 3.9327791 9.4244823
-1.586208 3.9091132 9.4888029
3.3710914 4.100739 9.4924774
0.83100897 4.4671707 9.4713421
2.6096215 3.4220777 9.5240574
-1.5658855 3.7369914 9.5741615
-2.2924981 4.1003971 9.5469332
0.31169307 5.3272252 9.5074081
0.6043036 5.3702202 9.5180321
-0.07035552 2.441463 9.6708298
-2.0685091 3.3355803 9.6810417
-0.90907538 3.3129153 9.6800699
0.83100897 3.5092278 9.6136522
0.83100897 3.684299 9.698348
2.5634327 4.3147488 9.6029854
0.83100897 4.5037117 9.6756783
0.83100897 4.8967562 9.6658297
2.0387146 4.9862537 9.6636705
0.73397332 2.2526727 9.7253447
0.96453476 2.2590985 9.7852612
1.25529 2.2914531 9.7923775
0.94393969 2.4229317 9.76756
0.83100897 2.5283542 9.7666435
1.3436233 2.5640199 9.76756
1.7102817 2.6477394 9.76756
0.05592446 2.7247753 9.76756
0.83462471 2.9523079 9.76756
1.9343352 3.182044 9.7675591
0.73500109 3.2187896 9.76756
1.2020707 3.3764455 9.76756
2.0426884 3.3543766 9.7675591
2.4037015 3.3838687 9.76756
-0.17774302 3.4394598 9.76756
1.1761328 3.4448607 9.76756
0.66333085 3.5532255 9.76756
-0.99970555 3.6741924 9.7946787
0.8532784 3.914012 9.76756
1.0265722 3.947037 9.76756
1.6917467 4.0608525 9.76756
1.37231 4.4509487 9.76756
0.80613822 4.591526 9.76756
1.3420324 4.5758896 9.7675591
1.6669376 4.6579623 9.76756
1.9455905 4.6432028 9.76756
2.361619 4.6694312 9.7292557
1.090749 4.7986684 9.76756
2.2623677 4.7112055 9.76756
-0.1680088 4.8286133 9.76756
0.24186237 4.8567019 9.76756
0.83100903 4.9605899 9.7258615
0.076379701 5.2133131 9.76756
1.0032083 5.300982 9.76756
0.83100903 4.1859884 9.814476
4.0054655 4.1671815 9.893611
2.3205261 4.7173886 9.8489418
1.2016217 5.3309021 9.8938484
2.1826835 2.7425053 9.9573689
-0.73297858 2.9752498 9.9571066
0.83100897 3.8087568 9.9653187
-0.71930015 4.6528482 9.9029894
2.3944962 4.6388421 9.9106607
1.207009 5.3303919 9.9592791
1.4872329 2.35829 10.056973
-1.021184 3.739718 10.031075
2.6840053 3.7514396 10.009609
1.9377737 5.0507736 10.080833
0.83100897 2.972362 10.120554
3.2901664 3.5849848 10.134699
-1.5718781 3.6073589 10.169012
-1.4970162 3.8707061 10.148972
-2.0676205 4.4007087 10.1086
1.2792634 5.3226514 10.190913
0.4969787 2.3808911 10.2107
0.45185471 2.8403935 10.210699
1.0880415 3.2905312 10.2107
1.3513352 3.233098 10.2107
2.4085765 3.3178253 10.2107
1.9677894 3.4378867 10.2107
2.5007567 3.7740171 10.210699
0.83100891 3.8954735 10.271618
0.83100891 3.9623852 10.269156
-0.89997065 4.0730953 10.2107
1.5635358 4.0455036 10.2107
-0.52434772 4.1351967 10.2107
0.11035279 4.1461992 10.2107
0.30972025 4.1863923 10.2107
0.49799952 4.1651573 10.2107
-0.10622027 4.3044643 10.2107
1.1334639 4.3161449 10.2107
1.9366938 4.3482847 10.2107
2.1103013 4.6276307 10.2107
0.79316825 4.8270545 10.210701
2.0420256 4.8225169 10.210699
-0.24285987 5.0740514 10.299862
1.5450542 5.0878854 10.2107
0.14585927 5.114871 10.2107
1.0589795 5.3466439 10.210701
0.83100897 2.7796512 10.305719
2.6555874 3.4550033 10.379148
-0.98063076 4.2103167 10.349986
-0.43570936 4.950563 10.378133
0.83100903 4.9795771 10.371189
1.3713257 5.2994623 10.339895
-2.1882851 3.4862161 10.426197
-2.0982718 3.4423738 10.493135
-2.4026878 3.9514651 10.417892
4.0869226 4.1097941 10.439175
2.638854 4.2216959 10.4424
-0.72605115 4.6622095 10.442619
0.83100897 2.3331172 10.539627
1.6747367 2.4411454 10.5163
1.7535729 2.5417068 10.5163
-0.43265569 2.6276214 10.518904
1.4182492 2.6426899 10.5163
1.0858197 2.776144 10.5163
2.1669786 2.9729199 10.5163
2.3329422 2.9989378 10.5163
1.5957842 3.2077208 10.5163
2.574621 3.2222326 10.570973
-0.35363322 3.3878222 10.5163
-0.96672219 3.5917602 10.5163
0.83100897 3.5670791 10.551018
1.3683839 3.5166202 10.5163
1.4119391 3.7797513 10.5163
0.99879181 3.8584979 10.5163
1.0990937 3.8362954 10.5163
0.47565752 3.9038496 10.5163
1.8486898 4.0288577 10.5163
-1.4687794 4.1490121 10.594287
1.4395742 4.2397652 10.5163
1.6355321 4.2018814 10.5163
1.0914549 4.3472629 10.5163
-0.77289766 4.4948325 10.516299
1.7645046 4.7395778 10.5163
0.50712204 4.8903494 10.5163
1.5862297 4.811739 10.5163
0.83100897 4.9746413 10.573527
0.9017145 4.9215269 10.5163
-0.1210464 5.1536708 10.509406
-0.22543645 2.4927423 10.648724
0.83100897 3.2598882 10.624939
3.7862267 3.4587367 10.695293
-1.4565403 4.114665 10.613587
3.1668613 4.1434274 10.616849
0.83100897 4.8162575 10.601769
0.83100891 5.2900367 10.669171
0.83100897 2.5879476 10.706736
-1.7479118 3.3114932 10.78267
0.83100897 3.3578124 10.755791
3.1870909 3.3817453 10.747751
3.2191601 3.3047247 10.751992
3.6313593 3.4401028 10.780136
-1.2390592 4.3474655 10.736193
3.7364435 4.5614843 10.736495
3.8292043 4.5223594 10.716988
3.1914067 4.6856375 10.780054
1.9545196 5.0470505 10.789347
-0.15859641 2.4477091 10.830234
1.4385617 2.4135909 10.8982
1.6903489 2.5497746 10.8982
0.3565622 2.7630129 10.8982
0.69493765 2.7930799 10.8982
1.9386932 2.79494 10.8982
0.56655931 3.1542077 10.8982
-0.53315288 3.3729277 10.8982
0.18170813 3.4973464 10.8982
1.7406847 3.4101768 10.8982
4.0374384 3.4713011 10.860106
-0.095196277 3.5986199 10.8982
0.83100891 3.540967 10.855773
-0.54339421 3.6849883 10.8982
1.7597053 3.7453771 10.8982
1.1026096 3.8255601 10.8982
-0.488491 4.0082178 10.8982
4.2868071 4.0284195 10.893037
1.1383735 4.1681833 10.8982
-1.2332367 4.3699012 10.82626
1.2937105 4.4145312 10.898201
-0.84227556 4.5153179 10.818483
1.9919803 4.5872068 10.898199
3.3613071 4.631362 10.836287
0.82903612 4.7835903 10.8982
1.192126 4.7439823 10.898201
0.94934714 4.9218798 10.898201
-0.30772549 5.0384865 10.897488
1.5860671 5.0852556 10.898201
1.3406562 5.196672 10.8982
0.75902605 5.3612957 10.898199
-2.3824065 3.4217811 10.960915
-1.1963273 3.6832643 10.922875
3.1953709 3.7150915 10.950246
-2.2331226 3.9574571 10.964111
4.1096339 3.9912381 10.939702
-1.1395825 4.0083513 10.934145
0.83100903 4.166749 10.93303
-2.5158765 4.3694935 10.950233
0.83100903 4.4650726 10.961597
-1.8778346 4.598156 10.93439
3.4658973 4.6705542 10.964431
0.83100897 5.3252239 10.988606
-0.92174637 3.2021165 11.075432
2.6453524 3.3285255 11.051215
2.8930273 3.6477139 11.047602
-2.5625629 3.8574336 11.093631
-1.2559614 4.4705486 11.021355
0.83100897 4.9423132 11.049288
0.83100903 2.4032967 11.139893
2.2879124 2.7845726 11.184261
-1.8241518 3.3282275 11.155702
-1.9821413 3.404139 11.176599
3.1274424 3.7924857 11.102849
-2.0741875 3.838289 11.188736
2.7180779 3.927604 11.120834
2.8076651 3.9328117 11.111345
3.7154741 4.0864115 11.180567
-2.3685081 4.2842989 11.199757
-1.5073509 4.3655896 11.113848
-2.3831482 4.5419931 11.109854
-0.3548716 5.0137143 11.131528
0.56621957 2.2887948 11.265
1.2851126 2.3564179 11.265
-0.22737655 2.8786414 11.265
-0.56356251 3.0227222 11.265
0.54430866 3.1482511 11.265
2.3469114 3.290132 11.265
-2.3533731 3.4389269 11.21431
-0.29337054 3.4078226 11.265
0.71999443 3.4020715 11.265
2.5180204 3.4185219 11.265
4.0830145 3.4773662 11.243823
0.35477093 3.5853355 11.265
4.1273336 3.5656536 11.280534
-2.1659784 3.6281209 11.200847
-1.4223907 3.6681948 11.27783
2.492734 3.6759079 11.265
-1.2355866 3.7518539 11.253145
-1.0712868 3.7012932 11.287958
-0.85597587 3.8968253 11.265
0.18432206 3.8141782 11.265
1.5562689 3.8905404 11.265
-1.1755285 4.082221 11.245202
-0.81174588 4.0289221 11.265
1.7240328 4.1367149 11.265
2.0923059 4.1453867 11.265
-0.016740888 4.2539449 11.265
1.2693688 4.2347794 11.264999
2.06833 4.2443252 11.265
0.086674117 4.3711948 11.265
3.0769472 4.3365955 11.271406
-0.70093703 4.4101534 11.265
1.6852864 4.549109 11.264999
3.1353531 4.5041285 11.279119
-0.70298767 4.6670966 11.265001
-1.5520576 4.7707715 11.246924
0.43995392 4.7230625 11.264999
2.3214672 4.7033463 11.264999
0.95048285 4.9442329 11.265
1.8938613 5.0612907 11.265
0.199352 5.1355457 11.265
1.872949 5.1067781 11.247128
0.089390449 5.2340107 11.240276
0.45518944 5.33114 11.208242
1.2865819 5.3224754 11.258826
0.83100897 2.5260489 11.34989
0.83100897 3.469151 11.362042
-1.7831794 3.5007472 11.325534
2.7029448 3.5109596 11.302425
-2.3253603 3.6878414 11.39711
3.9729509 3.6247239 11.389755
4.2207265 3.9048381 11.354422
0.83100903 4.1806588 11.39547
3.3419218 4.1885934 11.306448
-1.7825196 4.8059492 11.325441
-0.24732378 5.0840273 11.355907
0.83100891 2.6274686 11.407501
-2.3823357 3.7097433 11.496241
-1.1831863 3.8748088 11.433951
-1.0684447 3.8971853 11.474594
2.983108 3.8255584 11.446741
-1.1326553 3.9599409 11.489775
-1.5425382 4.2283506 11.481454
-1.5690675 4.5838141 11.484949
-1.3985294 4.5896688 11.461954
-2.0605798 4.7093482 11.439425
-0.69241369 4.7277603 11.424775
1.2374451 5.3278141 11.498747
0.53098476 2.2412956 11.505196
2.130445 2.6366558 11.589931
-0.65433073 2.8119507 11.547108
2.4852834 2.9936402 11.568328
-2.1747758 3.5881062 11.56499
2.9013593 3.6903148 11.59869
3.4228995 4.0792599 11.504877
-1.8599638 4.2273178 11.523405
3.4845924 4.2829304 11.513025
0.70449018 2.6207793 11.6622
0.61542445 2.9819384 11.6622
1.6210766 3.0300159 11.6622
0.83100897 3.186049 11.682823
1.3217772 3.1294851 11.662199
2.5644321 3.2063596 11.662201
1.9663905 3.5908463 11.6622
-1.3346738 3.6372676 11.616669
2.5627234 3.6693571 11.6622
-0.53645444 3.7476325 11.662201
3.0220652 3.7440131 11.614585
-1.6432812 3.8800218 11.657498
-1.0624275 3.8435307 11.673195
-1.4832025 3.9173863 11.636333
3.4985869 3.9941268 11.677588
1.5355741 4.0929618 11.6622
1.8874133 4.0503511 11.6622
-0.28912783 4.1747966 11.6622
3.3771863 4.1463876 11.661545
0.024441622 4.2721562 11.662201
0.83100897 4.3168411 11.631742
2.4993415 4.4105535 11.662201
3.5260313 4.4987197 11.681206
0.43329859 4.5663805 11.6622
2.4780521 4.5946574 11.670981
-2.0337055 4.6268373 11.607244
0.47352543 4.7561941 11.6622
0.83100891 4.8393149 11.659083
1.2290558 4.9296942 11.6622
1.5273247 5.1650448 11.6622
0.10883113 2.3283577 11.763146
-1.8580102 3.3504143 11.709539
-1.4292479 3.3948691 11.785287
3.7882137 3.4677868 11.719753
-1.071111 3.6952143 11.747797
-2.3009732 3.8469629 11.744397
-1.1175823 3.82741 11.711828
2.9714861 4.0051422 11.783178
-2.2533722 4.341722 11.758667
3.7605786 4.4020367 11.712184
2.1544101 4.927804 11.722882
1.7685775 5.1661816 11.785318
-0.00087692216 5.2024422 11.768089
0.91966826 5.3622289 11.73633
-1.5724909 3.4767611 11.82335
2.7456789 3.7908826 11.852316
3.3085961 3.9518464 11.827686
3.4240513 4.3331118 11.842936
3.7169933 4.4794617 11.881628
-1.807631 4.5882273 11.854405
-0.25135401 5.0790339 11.86208
0.3246392 2.2309928 11.9708
0.46032107 2.6750932 11.967801
-0.14229679 2.7359293 11.9678
0.22059678 2.853462 11.9678
1.0872257 2.8054261 11.9678
1.3157432 2.8414192 11.9678
0.64205784 3.0401292 11.9678
2.3367987 3.0440717 11.9678
0.27329403 3.1454732 11.9678
1.2879374 3.2637451 11.9678
2.564795 3.2859282 11.9678
0.68998891 3.3603551 11.9678
3.47012 3.341049 11.99387
0.21771045 3.4239025 11.9678
0.45534164 3.4354296 11.9678
1.2993762 3.416868 11.9678
2.2369072 3.4334307 11.9678
2.456682 3.4396231 11.9678
2.3639605 3.5792904 11.9678
0.83100897 3.6483474 11.952095
2.5020595 3.6383073 11.9678
3.8931718 3.6564286 11.979214
1.6720325 3.7829552 11.9678
2.9457679 3.9553962 11.992559
-1.06888 4.162847 11.969585
-0.22514489 4.1644783 11.9678
2.3696203 4.26653 11.9678
-0.53110862 4.3992176 11.9678
1.2077543 4.335042 11.9678
2.2349045 4.4111829 11.9678
0.57734722 4.5855436 11.9678
-0.14053904 4.8208828 11.9678
1.7356238 4.8398747 11.9678
-0.039544754 5.0387425 11.9678
0.27281737 5.2960219 11.947289
0.62400544 2.1863353 12.087786
0.83100897 2.7076001 12.065823
-2.2424145 4.265985 12.009572
-1.7466648 4.708272 12.002443
-0.2748172 5.0647545 12.019011
0.83100891 5.0879259 12.017754
-0.8975547 3.1041808 12.164377
3.7347722 3.4918633 12.146572
-1.0608077 3.6124701 12.196909
2.8011985 3.682456 12.129517
-1.3594354 3.9770067 12.183197
3.9502583 3.9618387 12.170506
-1.1481944 4.109437 12.155289
0.14014842 2.2726979 12.263271
2.7437687 3.7919822 12.275635
-2.1317213 3.8404822 12.285242
-1.9660895 3.847115 12.263344
-1.7843027 3.833334 12.239334
-1.6923478 3.9342179 12.227165
-1.5060751 3.9556603 12.202568
3.420959 4.1274238 12.230515
3.8124373 4.2302494 12.282256
-1.1124363 4.4279346 12.258621
1.5994225 2.3516319 12.3193
1.7828752 2.3609824 12.308592
-0.57091808 2.6718421 12.319412
-0.37050495 2.6817756 12.3193
0.21191438 2.7577987 12.3193
1.8500537 2.7115483 12.319299
-0.53172231 2.8059881 12.3193
2.116354 2.953388 12.3193
1.3787682 3.0403252 12.3193
0.83100897 3.2645817 12.372864
2.0514908 3.2188196 12.3193
2.3442881 3.2172966 12.3193
-0.99095184 3.4675496 12.3193
-1.0434405 3.51963 12.335996
0.36101231 3.5955539 12.3193
2.6921535 3.5063798 12.389141
-1.0012169 3.6091013 12.3193
-0.78325039 3.6952639 12.3193
-0.67479861 3.6109457 12.3193
0.94048822 3.6741731 12.3193
3.0629189 3.6497722 12.358441
-0.012978725 3.7447658 12.3193
2.3159091 3.7015786 12.3193
0.13059121 3.8926675 12.3193
2.3161278 3.825264 12.3193
2.8745813 3.853976 12.333563
2.6727641 4.1553521 12.387224
2.321763 4.2543678 12.3193
3.0323093 4.2740893 12.354421
-0.57714516 4.33781 12.3193
-0.070559368 4.4004631 12.3193
2.3458486 4.509007 12.3193
-1.8475239 4.659709 12.312941
3.0598199 4.6630096 12.383202
-0.46361461 4.8418288 12.3193
0.61230332 4.855916 12.3193
1.558561 5.1368728 12.3193
1.4655728 5.2581692 12.3193
1.2708882 5.3407021 12.367025
-1.7243097 3.4508233 12.406661
3.6510134 3.563473 12.436198
-1.0266382 3.7240002 12.420707
3.8424053 3.9278088 12.461418
3.5281718 4.0870304 12.419951
-2.0937445 4.4207826 12.430832
-1.8142905 4.5368261 12.418564
-1.3327221 4.6526041 12.417882
3.044476 4.66225 12.470415
-0.19754134 5.1118827 12.493594
0.90764439 5.3824506 12.46733
0.60250932 2.155663 12.51969
-0.5634672 2.6928709 12.54285
0.83100891 3.3079104 12.595318
-2.1309853 3.7171741 12.517174
2.6934524 3.7857738 12.552052
-1.4495115 3.9026575 12.572264
3.1208329 4.0072732 12.567934
3.0994954 4.1381383 12.56504
2.7954743 4.4149189 12.523909
1.282111 5.3406014 12.535358
1.8822409 2.4238546 12.6334
0.83100897 2.7426763 12.609063
2.5719099 3.2580235 12.672201
-2.1059775 4.0871468 12.661067
-0.86410069 4.1114445 12.693798
3.6711962 4.2450337 12.642416
3.5678263 4.3944092 12.628377
-1.7330805 4.4148369 12.6106
3.7113991 4.4901094 12.647842
0.83100897 4.5881667 12.659063
3.0640502 4.6945786 12.690563
0.88612616 2.2082281 12.762399
0.088661455 2.3988323 12.7624
0.83100897 2.3593607 12.797098
1.0943822 2.3925514 12.7624
1.8769846 2.4246418 12.733232
-0.42685345 2.6590543 12.7624
1.1503494 2.8175642 12.7624
1.9043159 2.8275261 12.7624
1.9551401 2.903079 12.7624
2.0376267 2.9189532 12.7624
2.1468987 2.9807224 12.7624
2.3460987 3.0864015 12.7624
1.854148 3.1744852 12.762399
2.4907212 3.3950267 12.7624
0.5645389 3.4712067 12.7624
2.3745537 3.5544636 12.7624
-0.72341603 3.6677637 12.7624
0.088883072 3.6920352 12.7624
0.45614922 3.7365437 12.7624
0.83100891 3.7640216 12.735537
1.0953611 3.7317216 12.7624
3.314326 3.7946041 12.79804
-1.3256062 3.8321953 12.758178
-0.23595253 3.8338003 12.7624
1.6992116 3.8583975 12.7624
3.1368415 3.8530183 12.773237
0.80582243 4.1627417 12.7624
1.973585 4.2815304 12.7624
-1.4989952 4.3845038 12.78237
2.5967932 4.3372703 12.705213
0.83100897 4.4538593 12.749424
1.4854064 4.5597029 12.7624
-0.6580022 4.679368 12.756548
0.64676547 4.7193646 12.7624
0.35041234 4.8428593 12.7624
0.16637519 4.955102 12.7624
0.54712445 4.9631248 12.7624
0.32890755 5.3285561 12.768984
0.90950871 2.1393595 12.821956
1.2370051 2.1930981 12.870719
-0.52865851 2.7308412 12.874796
2.286067 2.8275237 12.841969
3.4282873 3.3855162 12.802464
-0.92651182 3.4419446 12.831705
-0.91155344 3.5910492 12.832269
-1.9795258 3.6217809 12.880705
2.5413723 3.6650767 12.899187
-1.8225425 3.7149599 12.827523
-1.8897834 3.883451 12.836912
3.6395931 4.1732349 12.843401
-2.0642667 4.2796416 12.86438
-1.7865158 4.266746 12.82248
-0.94955438 4.2430663 12.844387
0.83100903 5.2456937 12.818204
-1.4379441 3.5321803 12.914017
3.0828209 3.5098743 12.905672
2.5576425 3.6174221 12.933833
-1.469228 4.372242 12.918438
-0.79056168 4.4259815 12.925561
0.83100891 4.8864098 12.965986
0.96161097 2.2741117 13.098501
0.47184512 2.3279581 13.098501
1.3608963 2.5723805 13.098501
-0.021315921 2.7879043 13.098501
1.2462337 3.0221698 13.098501
0.31676087 3.1180639 13.098499
1.3056992 3.3958082 13.098499
2.7096019 3.5636387 13.041894
-0.78152025 3.6901259 13.04013
2.8820167 3.6622167 13.067086
-0.61159122 3.7322845 13.0985
0.3367185 3.7644062 13.098501
2.6466947 3.7569208 13.032684
1.1381794 3.8909383 13.098501
2.0754986 3.8257847 13.098501
2.2663231 3.8416398 13.098501
2.2000644 3.9512551 13.0985
-2.046833 4.0065784 13.028082
1.7761751 4.1067805 13.098501
2.6831825 4.2577939 13.03804
2.9279182 4.2208266 13.073784
-1.1144255 4.3109617 13.05767
-0.064689815 4.45262 13.0985
0.96667111 4.468308 13.0985
-1.2551033 4.5233488 13.078228
0.075899377 4.7880092 13.0985
3.1473708 4.7098536 13.004011
-0.077021122 4.8175545 13.0985
-0.38991517 4.9551826 13.02549
-0.063368767 4.9551544 13.098501
1.3530388 5.2443242 13.098499
0.71989298 5.3359451 13.0985
1.148708 2.3148172 13.171885
1.9546671 2.6335592 13.131004
0.83100897 2.7466738 13.196029
0.83100897 2.8282735 13.108181
2.1786575 2.8925025 13.18487
0.83100891 3.0879192 13.125381
-0.69945037 3.8248069 13.142039
3.4672918 3.9852777 13.152519
2.4340711 4.3017416 13.126696
-1.8609792 4.4454355 13.148436
-1.4950172 4.5397038 13.113209
2.3435316 4.5514941 13.170982
3.4173939 4.5723066 13.145241
0.32644352 5.2949266 13.187685
0.83100891 2.9190524 13.29285
-0.98354375 3.4045625 13.292445
-1.3230776 3.7753768 13.284449
3.1261895 3.9592097 13.29837
2.903487 4.109642 13.267384
3.0382037 4.1030278 13.286118
2.532491 4.3870687 13.215784
3.0014305 4.4319282 13.281022
0.83100891 4.6308961 13.287626
0.83100903 4.7020206 13.293539
0.83100891 5.0474572 13.267585
-1.5077143 3.4822152 13.310161
3.5473444 3.7093651 13.326927
0.83100903 4.0515089 13.364931
-1.8125782 4.4135199 13.304535
2.4796569 4.464797 13.313159
3.3344283 4.5646472 13.355867
1.4559064 5.1851859 13.320367
-0.32649314 2.8795791 13.403681
1.9422053 2.8996935 13.465031
0.38009363 2.9296732 13.4958
0.57847297 3.2942882 13.4958
0.4350135 3.3561954 13.4958
-1.38643 3.4101124 13.451493
0.73861814 3.4114752 13.4958
0.55201781 3.5166118 13.4958
1.4038945 3.8044219 13.4958
-0.76827347 4.1598005 13.401492
1.003665 4.2257519 13.4958
-1.0089474 4.3996768 13.425604
0.83100903 4.3448572 13.478857
3.0448036 4.3691845 13.490672
0.83100897 4.4236469 13.464237
0.11911765 4.5280356 13.4958
1.7695451 4.7279296 13.4958
1.7189558 4.9890513 13.48117
0.83100897 5.0281534 13.424309
1.0094995 5.218461 13.441469
0.53218591 2.6455076 13.54601
3.2740407 3.6641803 13.54472
0.83100897 3.8420925 13.542891
-1.6692188 3.9284508 13.554747
-1.5488809 4.0263662 13.531248
3.318604 4.0924172 13.544246
2.4139888 4.2721434 13.554651
-1.5798646 4.4010024 13.536122
0.83100891 4.5665436 13.513434
0.24647911 2.8453255 13.657612
0.99520421 2.8012667 13.69346
1.5556184 2.836827 13.612268
-1.0257512 3.5866194 13.644719
-0.94684744 3.5207355 13.631836
2.6502175 3.631588 13.672144
-0.7524116 3.7036304 13.672175
-1.1247597 3.8337996 13.673056
-1.4478661 4.0918808 13.645259
-1.3431809 4.0217981 13.687329
2.3383572 4.0819874 13.679383
-1.2131689 4.2689209 13.698374
3.140023 4.354743 13.606288
2.0594954 4.5984111 13.695272
2.1623707 4.5029168 13.687365
0.61973095 5.0969906 13.64488
0.71756655 2.8110514 13.706633
2.2353461 3.5429296 13.72838
-0.61247617 3.6334178 13.740908
0.89011621 3.7326357 13.792429
0.77800512 3.8724344 13.782438
2.926703 3.8839166 13.712473
2.6470032 4.0704498 13.728096
2.5776401 4.1831141 13.728175
0.83100891 4.4175339 13.712326
1.1311581 5.0448055 13.715361
0.39645371 2.975898 13.830789
1.1202939 3.6101773 13.844795
1.2582483 3.8072081 13.881368
1.2015275 4.0822058 13.866331
0.83100903 4.3636827 13.816435
1.6717051 4.7296915 13.89536
0.34478146 2.9940469 13.987494
0.91948044 3.0078645 13.942799
0.25403982 3.1636999 13.942799
0.83100897 3.1445982 13.958125
1.840425 3.2868466 13.934767
1.4608841 3.3488083 13.935087
1.9331856 3.363348 13.91611
-0.12597707 3.4747291 13.9428
1.5460801 3.4504089 13.972725
-0.20732588 3.5208275 13.9428
0.83100897 3.5739532 13.936136
0.65832478 3.7021933 13.9428
0.7577883 3.8183956 13.942801
1.1815637 3.8597817 13.9428
2.0385048 3.8197458 13.987118
1.6791333 3.9734309 13.942801
1.4382159 4.0569134 13.9428
0.56137288 4.1647944 13.9428
0.99858886 4.1542478 13.9428
1.8587782 4.4896288 13.9428
0.53886521 4.5711451 13.936723
1.7614561 4.5656424 13.9428
0.82259154 4.6644192 13.9428
1.4250938 2.9765582 14.095705
0.17171547 3.2161651 14.039703
1.8377475 3.477036 14.044837
1.8284392 3.5521441 14.074271
1.8320875 4.3900146 14.026884
0.16327086 4.4910965 14.060349
0.089286655 4.5298629 14.099906
1.268875 4.6019115 14.028985
0.49390423 4.8475366 14.017
0.7893672 2.9100826 14.130336
-0.19804637 3.193177 14.193057
0.83100897 3.3380582 14.119977
-0.22770734 4.0241194 14.142591
1.7287683 4.5228276 14.162169
0.94053936 5.0073924 14.176622
0.96759814 2.9218762 14.294634
-0.23844562 3.2202008 14.217205
1.2098017 5.0563684 14.218796
0.48543864 2.9686904 14.303313
1.2358141 2.9918423 14.338194
2.1748259 3.6063223 14.357597
-0.60483581 3.8706057 14.384591
2.1129024 4.1048346 14.313464
2.0502019 4.5643392 14.389887
0.53746617 2.3393431 14.40174
-0.12984948 3.5431991 14.447141
-0.68414485 3.7964292 14.439029
-0.18983862 3.9666629 14.489822
0.83100897 4.2116637 14.490071
0.83100903 4.3632989 14.483333
-0.42614028 4.5726142 14.425135
0.52770501 5.3861089 14.491336
1.094207 5.3760686 14.499358
1.4888449 2.3674417 14.539371
0.71349502 3.1720974 14.5596
0.67088628 3.3688505 14.5596
-0.096147984 3.4664268 14.543674
0.83100897 3.7488761 14.504007
2.3488281 3.8120103 14.532974
1.7237649 4.3168421 14.5596
0.81567985 4.4291406 14.5596
0.72595453 4.7955017 14.559601
1.0101416 4.8320494 14.518763
0.34831131 2.1700144 14.626657
1.2042146 2.1506424 14.661423
2.0273643 2.5662866 14.745059
0.52828538 5.5943818 14.760237
1.294174 5.5132389 14.724706
0.90266109 1.9429471 14.849204
2.565331 4.2448153 14.857574
-0.48163447 5.1423087 14.889023
1.4717839 1.9978757 14.961233
0.66560107 2.1423922 15.007812
-1.3965459 4.0118074 15.075663
0.53827006 1.7948972 15.127081
1.8237743 2.0450423 15.129991
-1.0304811 3.7170894 15.134445
-1.0712159 4.3384151 15.185732
0.58075148 1.6615957 15.218789
0.76819313 1.7415599 15.21711
0.87430471 2.1361201 15.280777
2.4876883 2.6568289 15.207425
3.0597122 3.5329208 15.275011
2.8771894 3.6398735 15.213601
-1.5011202 3.9146161 15.254492
0.9781844 5.9148517 15.238484
0.54793179 1.7786725 15.35019
0.81145883 2.1510451 15.302225
-1.2332858 3.5629759 15.306127
2.9850061 4.164113 15.333197
1.6316777 1.8144138 15.483
-0.99174792 2.7997839 15.474286
-1.1717833 3.3432209 15.440935
2.8160734 3.33571 15.463537
-1.1128643 4.5254426 15.432937
-0.95345467 5.2775545 15.497049
2.3674932 5.4959555 15.488728
-0.042566828 5.8173923 15.492605
-1.3446796 3.4553471 15.506001
-1.4598125 3.7255006 15.572199
2.7433615 3.874438 15.5722
-1.2130693 4.1587968 15.5722
3.0385215 4.2455468 15.554223
2.6921144 4.8356714 15.588818
2.6318474 4.9335036 15.533154
-0.81864715 5.1814275 15.554871
0.28217965 6.0789256 15.509449
0.92478645 6.1025782 15.580285
1.2578753 6.1162777 15.552029
1.5335298 1.6043568 15.602039
-1.2099508 3.1940427 15.653507
-1.2880169 3.6769686 15.660308
-1.1193038 3.6191335 15.630745
2.6758797 3.7016811 15.627725
-1.5618324 3.8694746 15.652374
2.8216336 4.2491546 15.603188
2.837172 4.5109196 15.689579
2.3023152 5.412693 15.61985
-0.40833437 5.8007746 15.603267
0.084332459 6.0110297 15.653156
0.36141723 6.0129271 15.680273
0.48563015 6.0265079 15.618793
0.36760607 1.6023951 15.790274
0.77824378 1.9164008 15.76576
-1.0060325 3.7987165 15.732061
2.8759971 4.4396324 15.777954
-1.3166604 4.8668594 15.711667
-0.80916399 5.2923446 15.753235
-0.44967276 5.6194367 15.716816
2.0505481 5.6663566 15.758752
2.0474606 5.7664032 15.76877
1.1197656 6.0470943 15.753901
1.6731985 6.0567398 15.715907
1.6023549 1.6057239 15.825768
0.011370689 1.7132179 15.839647
1.806163 1.7847645 15.887144
-1.4168091 3.4826767 15.863768
-1.433455 3.7026584 15.8656
-1.1689621 3.7040339 15.8656
2.8697019 4.0287995 15.865599
-1.148139 5.0939813 15.822805
-0.76050544 5.3806701 15.863302
-0.27557167 5.8801255 15.830976
1.2190578 1.2898809 15.908886
1.5973217 1.6814709 15.999901
-0.78539348 2.2614338 15.951937
-1.1538277 2.6618416 15.946835
-1.4039682 4.2868071 15.996237
-1.1366793 5.1222525 15.915859
-0.74250871 5.5944014 15.90192
0.14030047 5.9922171 15.916782
0.82045239 6.1560631 15.938205
0.98350334 6.1258154 15.957912
0.98897815 1.0533799 16.057251
-0.40318713 1.8831629 16.064091
1.9968516 1.8805215 16.015152
-0.43453401 1.9144061 16.052334
-0.4913795 2.0302653 16.035206
-0.95654905 2.4353681 16.037683
-0.97946668 3.9590349 16.060184
-1.0165696 4.02142 16.061199
-1.3947606 4.1389055 16.061199
-1.4573957 4.5374799 16.072248
2.8741484 4.7012153 16.083996
2.0168087 5.7534704 16.054298
0.83769178 6.1383867 16.061466
1.0293009 6.1150808 16.051142
1.4127474 6.1723499 16.054163
0.9929285 1.118673 16.198
1.6063792 1.5021746 16.128922
-1.0716622 3.6240711 16.147446
-1.3329228 4.3554363 16.101093
2.9989545 4.5234461 16.116594
-0.079912625 5.9859524 16.126232
-0.33876181 1.5070989 16.283772
1.0584646 1.5175066 16.271336
-1.3554802 3.4543982 16.262751
-1.4730333 3.9587524 16.209747
-0.9837414 5.3639483 16.286367
2.4936776 5.3211813 16.252344
1.8453434 5.9550734 16.226236
0.14867969 6.0233469 16.292927
0.17905024 1.2997855 16.380932
0.49898022 1.2652 16.372877
1.1115351 1.2909911 16.396307
-0.8009451 2.2448592 16.398167
2.4957204 2.3117819 16.384409
2.9513974 3.6163175 16.306761
3.0246191 3.9541006 16.318207
0.34843519 1.3252058 16.48756
3.0009522 3.4478698 16.496576
-1.3765497 3.8913209 16.459616
-0.59032851 5.7477169 16.431938
-0.21503782 5.8600101 16.491419
1.8372253 5.8875618 16.414289
-0.015151016 5.9758015 16.434736
1.0036255 6.1435299 16.450867
1.2828879 6.1876497 16.415066
0.54645181 6.2089968 16.495752
-0.74327505 1.5856755 16.531136
-0.016158126 1.6704526 16.585634
1.7309896 1.712734 16.596867
-0.87314987 1.8079121 16.551842
-0.35889971 1.8714638 16.517305
-1.1474334 2.7653651 16.562803
3.0094845 2.8324654 16.518429
-1.5622846 4.4762335 16.552492
0.76865065 6.1369343 16.592701
1.0348501 6.1963205 16.537292
1.5123867 1.2469418 16.664152
0.069353707 1.3340445 16.61334
1.5055177 1.6408465 16.68712
1.6939963 1.7036344 16.655472
-1.677779 3.808825 16.664497
3.0489218 3.9597294 16.641195
-1.3561263 4.0717697 16.62495
0.027151719 1.6584828 16.779049
2.7771387 2.4744849 16.755556
-1.3746748 3.9394352 16.742785
-0.22891615 6.0501895 16.74691
0.60661048 6.1080794 16.74523
0.51310742 1.2947209 16.896601
0.17725898 1.600415 16.828995
-0.87943709 1.802371 16.817616
2.1861649 1.8124634 16.810663
-0.84128535 2.359019 16.80645
2.9805517 3.5292411 16.804113
2.9700797 3.8796329 16.853943
2.6460433 5.0727372 16.861439
-0.33218613 5.9351587 16.830217
1.6061733 5.9362073 16.870714
1.2877206 6.0578575 16.818165
0.94255984 6.1255193 16.832115
1.8798285 1.8603547 16.998907
2.8486872 3.1403203 16.984627
3.2273376 3.5219865 16.995441
-1.327594 3.7021518 16.944832
3.152338 3.8899903 16.99724
2.9557519 4.1842589 16.922127
-1.626889 4.4126358 16.906767
2.6896172 5.2628312 16.939144
1.4419355 6.3084202 16.98897
-0.16760054 1.3990939 17.085228
1.4239464 1.4393307 17.066635
-0.11642952 1.8394413 17.065174
2.5247078 2.5100067 17.080534
-1.4469835 2.7341661 17.060419
3.167326 2.9744484 17.014482
2.9273491 3.552757 17.057283
-1.1404579 4.6950498 17.016445
2.7546039 4.6784883 17.053843
2.7154212 5.2236452 17.064331
2.5638087 5.5389848 17.029438
1.1700749 1.3539451 17.113594
-0.73872924 2.3421354 17.156588
-1.7054271 3.6604335 17.157827
0.3753691 5.9822545 17.115547
1.3109229 5.9820471 17.10861
-0.88023961 2.5829041 17.248878
-1.1420827 3.1468387 17.209341
3.1243565 4.3844256 17.251686
3.0304534 4.5796003 17.228966
-0.88484854 5.6336246 17.299557
-0.62378114 5.7797828 17.285477
1.75568 5.7396917 17.282333
-0.45907751 5.9120445 17.213125
-0.13875043 6.3997555 17.265354
0.30246109 6.4661412 17.290798
0.41002703 6.4082899 17.22217
0.30516225 1.3497801 17.380737
-0.26099125 1.4951937 17.381866
0.82717055 1.6998508 17.381493
0.51808041 1.7077568 17.333553
2.986953 2.7382169 17.318953
2.6147745 2.8733532 17.39805
2.6385472 2.9207926 17.384895
2.7066174 3.0682299 17.363728
-1.1689491 3.5918555 17.392094
-1.0067008 5.4925141 17.374981
2.3725629 5.7514791 17.31246
0.8425014 5.9360647 17.397354
1.4222466 1.4169911 17.44467
1.3844519 1.7767805 17.45883
0.10623271 1.8603134 17.40522
2.1068487 2.2301002 17.486841
-0.78639221 2.5247638 17.445681
2.5101292 2.7377214 17.450171
-1.1397343 3.6006668 17.470116
3.2434888 3.831862 17.439716
-0.46432838 5.9849262 17.404184
-0.3360118 6.1926866 17.454514
-0.25625595 2.0841486 17.529568
2.5520921 2.8344476 17.503139
-1.6088221 3.272717 17.523598
3.2987106 3.2634442 17.506821
2.596823 5.481761 17.525772
0.08392667 5.7337565 17.504707
0.99807334 5.8792462 17.513992
-0.45818153 5.9164801 17.565281
0.16992542 1.9308672 17.6273
2.2772698 2.5640116 17.690458
3.2361405 3.4716811 17.608812
3.182966 3.7371914 17.654478
-1.6411078 3.973268 17.655806
2.8946326 4.7883468 17.601112
1.3198422 1.9598831 17.76482
2.3466544 2.1028442 17.749043
2.4980392 2.2781157 17.780241
-0.40390399 2.3587031 17.717953
2.8562012 2.6535351 17.701782
-1.1111748 2.7982769 17.790154
-0.75385928 2.7765613 17.710175
-0.66770953 2.727248 17.796736
-1.1293553 2.8237402 17.790396
3.0511484 2.9552174 17.771049
2.529727 3.0547912 17.764626
-1.3540592 3.25581 17.766773
-0.99339771 3.445998 17.774899
-1.3651452 4.7627172 17.785419
1.1362518 6.1485915 17.725023
0.62565184 6.2953601 17.757799
0.24958408 6.5014901 17.7635
1.1506025 1.9862882 17.841345
-0.68807888 2.8556449 17.852098
2.1392317 5.0816765 17.840605
-1.1519593 5.1249676 17.866751
1.4114106 5.5793285 17.869629
0.45221579 6.4090118 17.83017
0.53209478 1.3690679 17.939259
1.7348626 1.6616377 17.98266
0.80154276 2.0724885 17.994904
2.3785841 2.2015293 17.901535
1.9369361 2.4812608 17.959211
-0.84036827 2.665159 17.921408
-0.53125995 2.727288 17.963129
-0.85060203 3.5156415 17.958281
-1.419099 4.2843232 17.907389
2.1786895 4.9358597 17.907549
-0.90973514 5.3637443 17.941269
1.6850114 5.3478041 17.974236
2.4400043 5.6003952 17.903532
-0.032217041 6.1773639 17.95694
1.5893712 2.3056269 18.053127
2.6919458 2.5948148 18.015999
2.3525968 3.3368759 18.062849
-0.72957247 4.4127989 18.004999
-0.97701943 5.2492924 18.047901
0.83783317 6.2146711 18.009182
-0.44589505 4.7866807 18.18601
2.6413693 4.9735055 18.110565
1.4411062 5.9265876 18.148464
1.155952 6.065341 18.193501
0.41718328 2.2921486 18.202469
0.63648796 2.3103569 18.250797
-0.47497195 3.1563172 18.266068
-0.97531462 3.6731493 18.235458
2.1260724 5.6789885 18.224785
1.7876906 5.7791872 18.23662
0.034160234 6.0241923 18.298962
0.39121592 6.213716 18.298056
1.0812274 2.4234476 18.357203
2.6567988 2.6869447 18.310768
1.9469972 2.9781053 18.36788
1.9807523 3.0396967 18.359943
-0.83749515 3.1681919 18.351505
-0.47269407 4.0587449 18.396103
-1.0864296 5.0734019 18.389057
1.0166607 6.1265283 18.360645
0.49813646 6.2301402 18.383091
-0.26974756 3.3678877 18.477835
0.57238579 2.6678205 18.537155
1.0177572 2.6958213 18.548592
-0.80168545 2.7323699 18.586689
2.5877736 2.7029843 18.519571
2.7627194 3.1967368 18.505705
1.7353693 3.2789612 18.573132
1.9174711 3.6365976 18.526876
-0.3184942 3.9189754 18.524994
0.41107213 4.7866459 18.595432
2.6130114 4.7632766 18.54262
0.9238317 6.160409 18.537617
-0.085145399 1.5000741 18.626379
1.1356956 2.9442613 18.699251
2.6887944 3.1169662 18.631779
1.577529 3.3064573 18.642632
1.7239732 4.2002292 18.621925
1.3512193 5.5955896 18.61446
0.40672171 3.2477362 18.76325
1.5272642 3.9903157 18.756012
1.2655246 4.1072187 18.796772
0.85604751 4.4197149 18.79426
1.0069937 4.5587716 18.77346
2.5116308 4.5014367 18.719292
-0.65549886 5.372777 18.739971
1.5039234 5.5675373 18.729052
0.58934903 1.7668567 18.84948
-0.34546041 1.821543 18.801977
1.0658962 2.0317008 18.897593
-0.83052653 2.5756099 18.821836
0.4221274 3.5487163 18.828211
1.0869968 3.5828102 18.841974
