# .PCD v0.7 - Point Cloud Data file format
VERSION 0.7
FIELDS x y z
SIZE 4 4 4
TYPE F F F
COUNT 1 1 1
WIDTH 243
HEIGHT 1
VIEWPOINT 0 0 0 1 0 0 0
POINTS 243
DATA ascii
-0.21871501 -0.0049133017 -0.013080725
-0.15088046 -0.01983496 -0.014510061
-0.038317118 -0.02459541 -0.0062063267
-0.24665646 0.067271627 -0.012879136
-0.15128535 0.063843071 -0.014976083
-0.069480777 0.023714537 -0.013744399
-0.27667081 0.1873579 -0.012731032
-0.32770747 0.23200312 -0.006991419
-0.26494715 0.24591047 -0.022627959
-0.215321 -0.011289165 0.049670547
-0.16022129 -0.011763944 0.054614291
-0.071598969 -0.026040927 0.023477117
-0.25491869 0.05673096 0.053176481
-0.15149844 0.048091833 0.060992118
-0.063007593 0.037612796 0.023490608
-0.45864516 0.15961561 0.070358224
-0.35589325 0.15809965 0.045164391
-0.24708275 0.12920493 0.059835374
-0.19507213 0.11598103 0.096678682
-0.41717261 0.22628257 0.075169608
-0.35815793 0.22886127 0.051664449
-0.27067283 0.24030165 0.019251142
-0.23087867 -0.018200137 0.16756769
-0.16389526 -0.0098043764 0.14094318
-0.26132303 0.067299478 0.15064417
-0.12256016 0.037557099 0.14285591
-0.44125235 0.15335789 0.14378577
-0.35605457 0.15833543 0.13958271
-0.24817953 0.13967286 0.1493198
-0.15393463 0.10983962 0.15279245
-0.42202616 0.21579304 0.11399052
-0.34565133 0.22846639 0.13704164
-0.26758474 0.21200469 0.18214622
-0.22804175 -0.015670449 0.24827002
-0.15835182 -0.020032248 0.22802049
-0.2543925 0.071190901 0.25186327
-0.10657624 0.05874157 0.25101683
-0.41524029 0.1527646 0.22120924
-0.35283059 0.13995141 0.27198443
-0.24347277 0.1507614 0.24323831
-0.16519213 0.11429432 0.23408996
-0.41038176 0.21489049 0.24759664
-0.35338214 0.25777909 0.26066503
-0.25019604 0.24157193 0.25862023
-0.20974982 -0.023190973 0.37108794
-0.16323811 -0.022972584 0.33286926
-0.2355766 0.073196888 0.37766799
-0.10623693 0.027018717 0.33697808
-0.095134698 0.044396922 0.34305334
-0.3292639 0.14529836 0.3382321
-0.23071653 0.14408392 0.34571967
-0.16759881 0.12607762 0.36615434
-0.35246828 0.24957331 0.32462546
-0.25533387 0.27675009 0.34236634
-0.18265733 0.23965132 0.37534928
-0.21582422 -0.0032967064 0.45935994
-0.13817397 -0.020395648 0.45289898
-0.22337829 0.063342951 0.45929998
-0.082008742 0.038462743 0.44817924
-0.2589049 0.15752704 0.44181159
-0.14835052 0.12412498 0.44520226
-0.092530549 0.10652298 0.43273905
-0.30777302 0.26418409 0.43216386
-0.25642297 0.27953354 0.45385501
-0.15499508 0.25614038 0.42884281
-0.19918405 0.30038851 0.46706414
-0.21159732 -0.0099030295 0.53597647
-0.15645154 -0.034373768 0.54655713
-0.092513159 -0.0064460407 0.52773511
-0.23371568 0.058898397 0.54473448
-0.063690826 0.057135206 0.54139495
-0.24259698 0.15926282 0.54686922
-0.14788477 0.13475364 0.54627734
-0.089812316 0.10436234 0.55931234
-0.2764574 0.23898907 0.55167663
-0.11198245 0.24839006 0.52862412
-0.21911575 0.30772623 0.54607415
-0.22242844 -0.0086297719 0.63519406
-0.15413697 -0.047335982 0.66246849
-0.091302939 -0.022989945 0.67603409
-0.22896603 0.051729582 0.63826573
-0.064892977 0.037310082 0.65208459
-0.25090104 0.15505396 0.64966017
-0.15314311 0.13639508 0.64784867
-0.27395967 0.26531759 0.6497761
-0.12971452 0.27050683 0.64876044
-0.23487361 0.30565971 0.67058909
-0.17731713 0.30374205 0.67245197
-0.0080564702 -0.13118206 0.78896743
-0.22257911 -0.036096904 0.75367093
-0.15066768 -0.052555941 0.72762144
-0.08338353 -0.020129176 0.75106454
-0.32512125 0.072813697 0.79532474
-0.248575 0.028153498 0.75151807
-0.061458312 0.071527168 0.74684197
-0.25943717 0.14559652 0.76660454
-0.1484233 0.13855116 0.74635774
-0.094097912 0.11151139 0.73867255
-0.32796809 0.25247943 0.79358739
-0.28799763 0.24776855 0.75362295
-0.12631397 0.25773695 0.75657237
-0.22179201 0.3112309 0.7656216
-0.17558843 0.30925465 0.76102167
-0.020057263 -0.13455178 0.85731417
0.0089730043 -0.11816796 0.89174962
-0.25179121 -0.032033648 0.8599903
-0.1470589 -0.060940757 0.84855354
-0.065683544 -0.044122923 0.86529762
0.0025106387 -0.073079579 0.83775043
-0.31492934 0.069953606 0.85950696
-0.28285876 0.047656409 0.84736115
-0.057548262 0.041634083 0.8606205
-0.32626963 0.14901914 0.85341668
-0.2854408 0.11176367 0.81848723
-0.10070371 0.19531207 0.80966032
-0.072341003 0.14833897 0.8568961
-0.32187906 0.23449726 0.8423261
-0.26705694 0.29213208 0.85984385
-0.14106488 0.26622668 0.84759969
-0.098047093 0.20109469 0.87902373
-0.23375684 0.3265723 0.84407026
-0.17842832 0.3430317 0.85657179
-0.12571177 -0.116018 0.979523
-0.048283458 -0.12899195 0.94314456
0.0073128473 -0.11456368 0.92991203
-0.24739945 -0.03486982 0.94535279
-0.14549871 -0.058972254 0.95617217
-0.062897399 -0.055930637 0.9436692
0.010016054 -0.078447841 0.91657937
-0.30428666 0.075014576 0.93052542
-0.28644642 0.040658806 0.95253855
-0.056193922 0.067903481 0.94724965
-0.32182083 0.16938999 0.93564045
-0.29003304 0.16870555 0.99765795
-0.063874081 0.1486703 0.9488281
-0.31785667 0.24745637 0.94128788
-0.26522797 0.27770731 0.94661283
-0.13582928 0.26757404 0.9453339
-0.093884967 0.22518837 0.92752117
-0.31257561 0.33577016 0.96662539
-0.24542455 0.33250225 0.94077605
-0.17739762 0.3250103 0.93134123
-0.13820247 -0.13657992 1.0697033
-0.056256227 -0.12407829 1.0371644
-0.23501483 -0.030042261 1.0375119
-0.1448447 -0.06370239 1.0508943
-0.070575848 -0.05476414 1.0613834
-0.27332267 0.03501188 1.0500114
-0.047070339 0.033271179 1.0480129
-0.312139 0.16360578 1.0434865
-0.29473701 0.12246998 1.0714773
-0.067592002 0.16678685 1.0548869
-0.30966601 0.24241254 1.0281732
-0.27108973 0.28040749 1.0325131
-0.11858874 0.26714668 1.0487547
-0.095585018 0.23034497 1.0782623
-0.33772931 0.33122244 1.0438756
-0.2519244 0.33470833 1.0409377
-0.17672862 0.31348574 1.0466213
-0.2086409 -0.11769076 1.1501912
-0.13952994 -0.13911051 1.1582596
-0.088331193 -0.11718398 1.1238263
-0.22096656 -0.056565981 1.1338691
-0.14923713 -0.049696378 1.1607891
-0.082524896 -0.046289805 1.1426541
-0.26295123 0.051299393 1.1484046
-0.048353281 0.044771459 1.1418896
-0.3031944 0.17733181 1.1405913
-0.28573725 0.13532431 1.171289
-0.067338958 0.14627293 1.1533931
-0.33419961 0.23687011 1.1593213
-0.28076172 0.27286118 1.1408416
-0.14988443 0.27828065 1.1577752
-0.090203673 0.20925865 1.1609802
-0.35657206 0.33480361 1.1429384
-0.25863922 0.31406558 1.1483124
-0.18084824 0.30382177 1.1300937
-0.21448281 -0.12820461 1.274863
-0.13415378 -0.13001125 1.2450558
-0.22625539 -0.037420314 1.2479635
-0.15434045 -0.048045125 1.2473956
-0.072344527 -0.018282704 1.2402236
-0.2595523 0.036480457 1.248747
-0.049663916 0.048357405 1.2617102
-0.30881619 0.17739272 1.2499815
-0.28518176 0.131034 1.2415433
-0.078928523 0.15335494 1.2385066
-0.33125108 0.24535601 1.2499489
-0.27871647 0.2766369 1.2338761
-0.12774995 0.2577855 1.2502099
-0.33951357 0.33849159 1.2626952
-0.26295245 0.32164651 1.2526107
-0.19633229 0.31096631 1.271497
-0.22428936 -0.11164472 1.3312045
-0.15659392 -0.12098628 1.3424135
-0.23393723 -0.072434418 1.3374352
-0.12609521 -0.048874497 1.3478835
-0.063463449 -0.0097953854 1.3166376
-0.27365762 0.056784026 1.3573869
-0.070371069 0.054678682 1.3556026
-0.31452617 0.18225662 1.333944
-0.29420981 0.12912372 1.3359591
-0.10970336 0.17429319 1.365432
-0.088589229 0.14579736 1.3261501
-0.33714297 0.2448252 1.3317702
-0.24023902 0.29777631 1.3153594
-0.15032084 0.25864005 1.356717
-0.34124768 0.32416582 1.3260213
-0.25331068 0.32423764 1.3502162
-0.19141257 0.30172208 1.3563458
-0.18336789 -0.10625574 1.4138303
-0.22092462 -0.046028428 1.4398509
-0.14830433 -0.045089331 1.4441489
-0.2363364 0.084326528 1.4772381
-0.1366159 0.051065538 1.4631559
-0.089221507 0.036427092 1.403285
-0.30294362 0.14998391 1.4032965
-0.26459539 0.14121911 1.4640418
-0.11819226 0.1414718 1.4467149
-0.31948096 0.23067281 1.4235355
-0.24813098 0.22777779 1.4766637
-0.17881098 0.24943613 1.4343361
-0.2540915 0.31217963 1.421236
-0.21536744 0.082350887 1.5746553
-0.14394754 0.069700591 1.5472292
-0.097189456 0.070243731 1.5772574
-0.23012784 0.14533868 1.5444424
-0.13363069 0.15677992 1.5247798
-0.064520359 0.16451032 1.5514077
-0.11710589 0.20952311 1.5783739
-0.23052099 0.073427476 1.6531558
-0.17716396 0.051768154 1.636974
-0.080413423 0.075948365 1.6314472
-0.2441297 0.14929028 1.6729561
-0.051605288 0.14396723 1.629905
-0.1455836 0.21611054 1.6411226
-0.09585508 0.21056518 1.6069242
-0.22057058 0.088715248 1.722133
-0.14128841 0.06802047 1.7292372
-0.22248632 0.11671726 1.7246825
-0.13472559 0.15953317 1.7497427
-0.074496411 0.14955449 1.7338939
-0.14541437 0.21502495 1.7113934
