# .PCD v0.7 - Point Cloud Data file format
VERSION 0.7
FIELDS x y z
SIZE 4 4 4
TYPE F F F
COUNT 1 1 1
WIDTH 230
HEIGHT 1
VIEWPOINT 0 0 0 1 0 0 0
POINTS 230
DATA ascii
0.040858261 -0.34588537 0.022160601
0.049116679 -0.23866132 0.054779898
0.69311684 -0.23396206 0.014626493
0.71949065 -0.21580234 0.020411044
0.059077356 -0.17169589 0.057804368
0.65818036 -0.13502072 0.050454617
0.70998752 -0.1555886 0.045106512
0.65674144 -0.061283238 0.070799023
0.7053349 -0.082053505 0.044937268
0.063735045 -0.24220294 0.14399758
0.12308872 -0.23108874 0.16300941
0.05927404 -0.1743806 0.1546507
0.11294059 -0.15950903 0.15211263
0.65773034 -0.14022873 0.151935
0.7104187 -0.12283054 0.10739458
0.65693426 -0.071958646 0.14782402
0.70703328 -0.087350607 0.15264754
0.056000069 -0.24846275 0.25722516
0.13509639 -0.25861546 0.23830654
0.64058238 -0.20726149 0.27460247
0.076466113 -0.17900327 0.26344407
0.13218807 -0.17743132 0.2244225
0.59276253 -0.15149744 0.2772845
0.65282112 -0.17574158 0.2505053
0.70069993 -0.13099121 0.24266809
0.62706804 -0.078421302 0.25413162
0.091564834 -0.30885196 0.39282215
0.13037305 -0.31099051 0.34819421
0.071823806 -0.2678028 0.34021315
0.17833409 -0.25434205 0.35172158
0.56320304 -0.21635956 0.39191118
0.64477205 -0.21871404 0.34596372
0.095165975 -0.18732798 0.33246887
0.13316023 -0.18025546 0.34090659
0.57130331 -0.16434079 0.33721173
0.66997921 -0.15931819 0.35835984
0.59745789 -0.096214943 0.32395676
0.62363952 -0.091743715 0.3401809
0.16618799 -0.32972601 0.44902131
0.21622315 -0.30690324 0.4836536
0.083528712 -0.27289802 0.4526915
0.1531934 -0.21776824 0.44605047
0.21565516 -0.25626463 0.45571652
0.55563784 -0.24641955 0.47906557
0.63645428 -0.25327078 0.45273024
0.17081292 -0.19332013 0.45048255
0.55915761 -0.1446351 0.44541416
0.65274268 -0.14982839 0.43464425
0.15510504 -0.33202294 0.56298578
0.23358507 -0.31026933 0.55105263
0.093008094 -0.2689169 0.51137221
0.11714033 -0.23021573 0.54249817
0.25869051 -0.25930637 0.56393546
0.5267536 -0.23996145 0.56039041
0.63591778 -0.25228903 0.54864776
0.16165915 -0.1886144 0.54763329
0.23098488 -0.18356951 0.57012022
0.49418229 -0.1886719 0.58739501
0.54147607 -0.13998321 0.55592203
0.6340903 -0.16072701 0.58597744
0.17025824 -0.31809062 0.65358323
0.24335778 -0.31893721 0.64659268
0.13893948 -0.26564869 0.65906507
0.29307738 -0.23622471 0.61337018
0.32347637 -0.25405553 0.67184114
0.48040465 -0.24561548 0.6668216
0.54438412 -0.27488402 0.63902473
0.6247499 -0.24781179 0.65718877
0.17121255 -0.17066923 0.64325488
0.2313679 -0.15874101 0.63866228
0.34411392 -0.19820265 0.6894384
0.4840557 -0.15490741 0.64959115
0.57663566 -0.12037287 0.66100305
0.62733936 -0.16330226 0.63978606
0.28465986 -0.31238851 0.77671528
0.35134956 -0.30141878 0.78194708
0.16487841 -0.24365132 0.75069374
0.35617414 -0.26702571 0.74710703
0.46713611 -0.26268378 0.75448501
0.55766559 -0.27918938 0.76983774
0.62107956 -0.23464923 0.72930443
0.16631526 -0.18333155 0.73226893
0.24851812 -0.12353408 0.74962974
0.35215008 -0.16659877 0.73898685
0.43624035 -0.16680142 0.7624377
0.54532397 -0.10592323 0.73996192
0.61623925 -0.16288017 0.7457124
0.49387464 -0.091042928 0.79875493
0.50310099 -0.091933995 0.79043412
0.27278596 -0.30620849 0.86381382
0.36149207 -0.3060829 0.86021537
-0.004170638 -0.28020778 0.8624773
0.020299414 -0.26084894 0.87934959
0.18590905 -0.22161457 0.82502162
0.22936578 -0.27016553 0.87226492
0.38670653 -0.28420728 0.80573708
0.45668405 -0.28612757 0.83472103
0.55060685 -0.26522854 0.85984093
0.19121227 -0.18334971 0.82820582
0.23351935 -0.12983555 0.86635756
0.41489172 -0.16392757 0.81097579
0.5758062 -0.12447848 0.85280466
0.60410011 -0.1669635 0.80983293
0.26586986 -0.093741365 0.86150169
0.34904385 -0.086323395 0.86625201
0.45663056 -0.082775675 0.86233824
0.51788169 -0.086487092 0.83588582
0.34549999 -0.30707991 0.96451956
0.4346289 -0.30622086 0.96346784
0.053101517 -0.24629042 0.92183948
0.10625745 -0.20999768 0.93886429
0.25200725 -0.26291656 0.94413078
0.38611293 -0.29987976 0.9190191
0.52872598 -0.26587212 0.95657349
0.12206725 -0.17386544 0.96966392
0.24219695 -0.14491425 0.9444384
0.55378181 -0.13925183 0.95825928
0.28646174 -0.089738742 0.94463146
0.34743455 -0.078596011 0.93896091
0.44223821 -0.067365743 0.98684871
0.51899296 -0.072832078 0.96579045
0.36335731 -0.30975881 1.0308837
0.43093503 -0.30768541 1.0537062
0.27152431 -0.260564 1.0563518
0.30555552 -0.29055071 1.099983
0.47577989 -0.29951423 1.0314766
0.52046782 -0.25611398 1.0354298
0.099239111 -0.19347176 1.0151802
0.14136736 -0.15919651 1.0548913
0.26686153 -0.15599315 1.0516551
0.35413265 -0.13124321 1.0559244
0.47168836 -0.13696244 1.0660158
0.53090829 -0.13808233 1.0440189
0.62844324 -0.10425061 1.0881987
0.18084617 -0.083155766 1.0833988
0.37387565 -0.046513516 1.0353036
0.4600192 -0.039638042 1.0286076
0.52877402 -0.063407943 1.0369443
0.28142405 -0.30384797 1.1617086
0.34731594 -0.3151688 1.1499624
0.42391157 -0.31697923 1.1592108
0.26364002 -0.25377852 1.1442535
0.48910481 -0.25910544 1.1487684
0.50390446 -0.20493889 1.179384
0.16641635 -0.13498351 1.1541042
0.25972781 -0.15985845 1.1412313
0.35240099 -0.14712594 1.1618713
0.44745001 -0.16233185 1.1530977
0.59746933 -0.12846653 1.1124233
0.66965079 -0.1404423 1.1475071
0.71585399 -0.15340649 1.1718313
0.18182124 -0.089291856 1.1698797
0.38212287 -0.046856582 1.1070178
0.57582128 -0.087369949 1.1172079
0.65034264 -0.091734007 1.1411867
0.2666707 -0.32120407 1.2572927
0.3440018 -0.33465007 1.2449167
0.43883726 -0.33211359 1.2415388
0.50945055 -0.31176272 1.2922208
0.24673149 -0.24650365 1.2570704
0.49288586 -0.2894564 1.2095926
0.51221192 -0.25785336 1.2507656
0.17768517 -0.13640277 1.2414587
0.24843188 -0.16029383 1.2569356
0.34446293 -0.12616225 1.2340726
0.45034295 -0.12690154 1.2487493
0.53420496 -0.16405575 1.2654253
0.65429866 -0.15255812 1.264837
0.72587311 -0.1463674 1.225858
0.18960519 -0.095487513 1.2462275
0.2285451 -0.099532478 1.2182533
0.27671662 -0.31705496 1.3363689
0.35540962 -0.32476068 1.3278658
0.4507513 -0.31996438 1.3365049
0.50230932 -0.30864131 1.3247263
0.24701099 -0.24339944 1.3568339
0.340022 -0.28046992 1.3842957
0.44884709 -0.28407905 1.3744179
0.5326333 -0.23299994 1.3452823
0.61722702 -0.20126453 1.3315337
0.18141265 -0.14741084 1.3472233
0.23224495 -0.13983829 1.3337219
0.35472447 -0.10289234 1.3192968
0.46017817 -0.10394096 1.3215888
0.5528937 -0.14220037 1.3198861
0.62796396 -0.157527 1.3541203
0.27261224 -0.098830923 1.3505124
0.34852812 -0.096220657 1.3643218
0.43856391 -0.095852628 1.3718131
0.54285121 -0.096708477 1.3704469
0.61179489 -0.098377436 1.3334814
0.19847623 -0.20464064 1.4404448
0.26202095 -0.22418079 1.4365599
0.35515228 -0.24025571 1.4461221
0.44665396 -0.22364561 1.4484093
0.54591459 -0.21013215 1.4345078
0.18643013 -0.17035396 1.4345593
0.25167203 -0.14650957 1.4554174
0.33956546 -0.13158019 1.4763026
0.44904181 -0.13968992 1.4659891
0.54683846 -0.14194302 1.4403239
0.28904334 -0.099761769 1.4250857
0.36626774 -0.097103953 1.4245698
0.43099013 -0.099634707 1.4185057
0.55657035 -0.099371061 1.4092402
0.40818268 -0.30715278 1.5775248
0.28263465 -0.22445352 1.5404816
0.3449479 -0.26386908 1.5558666
0.46621013 -0.24025002 1.5532559
0.28606385 -0.15647334 1.5448909
0.31691882 -0.13409673 1.5102412
0.47434804 -0.14935189 1.5484149
0.36036283 -0.084754482 1.5515058
0.41971403 -0.087662853 1.5617067
0.37783852 -0.3069365 1.647375
0.45005882 -0.30662012 1.6460223
0.28311932 -0.22388013 1.6418302
0.33236471 -0.28021842 1.6505835
0.46590778 -0.26620555 1.6430625
0.28447551 -0.16265476 1.6316494
0.31674623 -0.11467935 1.6623164
0.46662903 -0.1345645 1.650381
0.36613473 -0.088031955 1.6375284
0.42462859 -0.088580348 1.615567
0.39362413 -0.30410814 1.7154548
0.44443887 -0.30526403 1.7231693
0.35110575 -0.258026 1.736397
0.43616411 -0.24687079 1.7443936
0.36011147 -0.15049849 1.7462134
0.43670219 -0.16955952 1.7495162
