# .PCD v0.7 - Point Cloud Data file format
VERSION 0.7
FIELDS x y z
SIZE 4 4 4
TYPE F F F
COUNT 1 1 1
WIDTH 260
HEIGHT 1
VIEWPOINT 0 0 0 1 0 0 0
POINTS 260
DATA ascii
-0.35584435 -0.022843568 0.037874814
-0.29426867 -0.031707369 0.066798568
0.078467466 -0.02440181 0.019920463
0.13966273 -0.0306824 0.026728591
-0.40772006 0.034756053 0.01877594
-0.35270229 0.071136095 0.049819142
-0.26576006 0.056916811 0.026757861
0.063676924 0.065059207 0.013760502
0.16120014 0.051496901 0.027286941
0.20869693 0.046573594 0.0047458443
-0.35048315 0.15555546 0.025199404
-0.2598708 0.14710771 0.014758681
0.057203703 0.15740295 0.034829568
0.16538505 0.1336551 0.038130078
-0.32978761 0.24597672 0.033596773
-0.26996043 0.24522507 0.030211035
0.059652418 0.24580361 0.030697828
0.13661137 0.24235447 0.042366646
-0.31370208 0.05353941 0.10775752
0.072889194 0.0856947 0.10568082
0.13356967 0.074974649 0.10431772
-0.33385217 0.15077785 0.14394808
-0.25897193 0.14723775 0.16022845
0.061984897 0.14723864 0.15940295
0.12857366 0.14904259 0.16177461
-0.31603837 0.24383628 0.16517089
-0.25866085 0.23680077 0.14039701
0.063291267 0.24316409 0.14960372
0.13053888 0.22617614 0.11452574
-0.32921249 0.17002107 0.25276384
-0.26290843 0.13541873 0.25654596
0.047925584 0.15443581 0.25927526
0.11547118 0.14318664 0.26572248
-0.31829458 0.23305857 0.24417533
-0.2444618 0.23584113 0.25609964
0.064810567 0.25164551 0.24671765
0.12288122 0.23091438 0.23958799
-0.26653728 0.096064888 0.35962832
-0.33264276 0.16461264 0.33915329
-0.25227538 0.13472515 0.33901647
-0.19536574 0.16484144 0.38286766
0.054399684 0.14021944 0.33314738
0.11709557 0.13998596 0.34141943
-0.32195178 0.23918876 0.3189494
-0.24917881 0.23829827 0.34382433
0.0531964 0.23464788 0.33288917
0.12166866 0.23125321 0.33732539
-0.24916001 0.082091816 0.45972219
0.068672694 0.081761725 0.46816108
-0.32277697 0.14341672 0.44757399
-0.22331329 0.13139901 0.43064365
-0.18445207 0.15264963 0.46254519
-0.010912659 0.14755049 0.45617184
0.037929263 0.11316415 0.43026814
0.11496515 0.13979301 0.44521496
-0.30965719 0.22730093 0.43651971
-0.24265224 0.23050754 0.44259173
-0.001588495 0.2054718 0.45832163
0.058689132 0.23088114 0.44692132
0.11750144 0.2163192 0.447723
-0.25451967 0.070083916 0.51473254
-0.18374003 0.089609168 0.57114691
-0.0071600322 0.087329783 0.55780178
0.040160727 0.063961282 0.56280643
-0.31579483 0.14399277 0.53050709
-0.16637252 0.14331663 0.54447722
-0.026954392 0.15023005 0.53134012
0.099069431 0.19802102 0.57217383
0.11458905 0.13580096 0.57627314
-0.2493563 0.21679269 0.56159061
-0.19151649 0.21644995 0.56120896
0.055686638 0.2177868 0.55615228
0.10488302 0.20953266 0.52309477
-0.25638664 0.063601948 0.63142097
-0.16973972 0.091236226 0.62726426
-0.019146577 0.080511399 0.64475703
0.050245915 0.059307829 0.64089394
0.10382032 0.096540898 0.60256523
-0.30854437 0.13856938 0.61423355
-0.29198459 0.18046205 0.64719516
-0.15007448 0.14861961 0.68140477
-0.039721787 0.14696939 0.62020749
0.091758229 0.17594542 0.66560334
0.11182141 0.1248425 0.64047068
-0.23474196 0.21540456 0.63827187
-0.17773096 0.22541688 0.68749446
-0.018830009 0.21901983 0.66450644
0.058110077 0.21397547 0.65961301
-0.246307 0.058374338 0.76115364
-0.16633442 0.075880684 0.74405497
-0.042587049 0.084397726 0.75580007
0.044317726 0.051481109 0.75450498
-0.30377975 0.11783902 0.71176368
-0.28706428 0.16684057 0.75497222
-0.13777465 0.14416486 0.74814218
-0.060519237 0.15776125 0.75789464
0.08888948 0.16245694 0.74677742
-0.25695008 0.23066905 0.7615608
-0.15924938 0.23048289 0.77752537
-0.028767169 0.22708172 0.76510429
0.043048043 0.23498462 0.75573063
-0.22336653 0.044568498 0.83585739
-0.1491899 0.048238073 0.84804899
-0.053710982 0.044318501 0.84803551
0.045533352 0.059187632 0.84677255
-0.27889726 0.16237073 0.86788511
-0.11063743 0.16970955 0.83148807
-0.081470534 0.1811181 0.82641637
0.084400535 0.14608289 0.86197168
-0.23501709 0.24815045 0.84463614
-0.13907583 0.24094315 0.85342586
-0.04719073 0.25129703 0.86030185
0.036801681 0.25108117 0.85783255
-0.2235246 0.051026382 0.95213497
-0.17137504 0.020787252 0.95120513
-0.050761107 0.014206782 0.9520542
0.0167262 0.04492534 0.98048419
-0.71985012 0.15808937 0.98884308
-0.69001693 0.14970355 0.98101532
-0.26672122 0.15671632 0.94971257
0.078345716 0.11694992 0.94810855
0.48646638 0.16372539 0.97843093
0.53222287 0.14247784 0.98309869
-0.7090621 0.21004954 0.99833781
-0.67516851 0.20634171 0.98538828
-0.23530239 0.24131297 0.94913822
-0.11958727 0.26245981 0.92871439
-0.048729345 0.2613121 0.96129239
0.044959534 0.22267966 0.96826565
-0.14125964 -0.00990442 1.0805328
-0.031294547 -0.0044494839 1.0836642
-0.24155939 0.064006709 1.0682911
-0.15059005 0.01816475 1.0451248
-0.055348352 0.01786631 1.0334886
0.040916745 0.064163424 1.0561541
-0.72502983 0.17054954 1.0257452
-0.65844518 0.16290656 1.0582688
-0.57195157 0.16287816 1.070377
-0.2570489 0.14179941 1.0520657
0.061544828 0.1261977 1.0154387
0.37089342 0.16869724 1.0682099
0.46100596 0.15150811 1.0579156
0.52021784 0.16128631 1.0356945
-0.71324354 0.20833521 1.037665
-0.64926308 0.22192559 1.0650766
-0.5613147 0.24596405 1.0905558
-0.22548959 0.22061008 1.0457355
-0.15759541 0.23975055 1.0485622
-0.054855987 0.23839726 1.0562675
0.024805358 0.22885722 1.0394784
0.38044205 0.23803465 1.0741911
0.45938683 0.22097813 1.0602851
0.50995529 0.21245082 1.0384414
-0.1257731 -0.0066600889 1.1259845
-0.23677734 0.04901072 1.1371138
-0.15630536 0.0059696618 1.1766201
-0.030985687 0.0050044181 1.1633608
0.032711487 0.049422193 1.1545857
-0.65402806 0.1713872 1.1319401
-0.55796796 0.14794528 1.1520771
-0.26387468 0.16530102 1.141467
0.06557215 0.14251032 1.1389419
0.26553252 0.18875778 1.1618772
0.35675558 0.14996283 1.1346377
0.42333469 0.14616947 1.1499187
-0.63711369 0.2400604 1.1511161
-0.53720069 0.26014653 1.151786
-0.4700799 0.23273495 1.16522
-0.23124908 0.21925533 1.1496311
-0.15641737 0.2410773 1.1505111
-0.046883781 0.24114354 1.1582333
0.032239407 0.22490042 1.1277779
0.26418841 0.22777809 1.1717876
0.34929144 0.26149091 1.1520371
0.4402782 0.24376941 1.1445878
-0.22296759 0.06080642 1.264446
-0.15234441 0.018976144 1.2465959
-0.046377156 0.015011783 1.2261825
0.014076419 0.048584022 1.2424177
-0.54733253 0.1800618 1.2283312
-0.45339432 0.1739039 1.2354602
-0.37723631 0.1764044 1.2781237
-0.25459668 0.157618 1.2557112
0.057376742 0.1472019 1.2611872
0.1702015 0.18926865 1.2658225
0.24539332 0.1712703 1.2678062
0.3519007 0.18943962 1.2434682
0.4118984 0.19053888 1.2095231
-0.61352038 0.20790936 1.2018589
-0.55128735 0.22715108 1.2363495
-0.44168252 0.26110896 1.248683
-0.37976381 0.23993187 1.2588576
-0.22290854 0.24654332 1.2793679
-0.14116938 0.24062656 1.230791
-0.055075012 0.23955707 1.2296889
0.029040847 0.22609107 1.2389933
0.1827352 0.25296965 1.2739953
0.24753694 0.26152009 1.2588841
0.3419427 0.24577069 1.2370448
0.42348796 0.20095779 1.2004795
-0.24035002 0.076402888 1.3685167
-0.16548376 0.029814355 1.3207581
-0.060307689 0.031182114 1.3608545
0.030872181 0.064422771 1.3542626
-0.45496157 0.18844494 1.3124273
-0.34794879 0.1669008 1.3500376
-0.27582037 0.13083181 1.3438178
0.081072375 0.12585048 1.3529702
0.14195056 0.15841883 1.3580983
0.21735044 0.17617778 1.3373718
-0.44824728 0.23443285 1.3072197
-0.34560254 0.24876967 1.3494836
-0.26995999 0.24831791 1.3384987
-0.15974809 0.28545853 1.3626193
-0.066991024 0.28648403 1.3622894
0.062272977 0.26249772 1.3535496
0.13865344 0.24648112 1.3521324
0.22516246 0.24823801 1.3324549
-0.23758575 0.08309646 1.425835
-0.13619319 0.05330243 1.4330394
-0.057165138 0.066416219 1.4589814
0.012234275 0.06459032 1.4166632
-0.32792288 0.13954559 1.4240619
-0.25233901 0.11514002 1.4731715
0.062706567 0.10765883 1.4452826
0.13109244 0.16476212 1.4513363
-0.32517391 0.24854589 1.4423896
-0.25739583 0.2664175 1.4579391
-0.15660408 0.2850939 1.4588517
-0.056142498 0.28697029 1.449885
0.041771885 0.27015769 1.4666588
0.13275418 0.24449278 1.4258999
-0.12255631 0.07321126 1.5585108
-0.054065417 0.089829341 1.5422666
-0.24198958 0.15279812 1.5158747
-0.17479414 0.12874031 1.5560393
-0.025937639 0.14458285 1.5551029
0.0410695 0.16324413 1.5179625
-0.25496367 0.22730015 1.5114748
-0.14201397 0.23064299 1.544471
-0.071456447 0.22813211 1.5610917
0.034189343 0.22477059 1.5234817
-0.14091888 0.050784811 1.6547503
-0.071821146 0.041845255 1.6636831
-0.16294956 0.12884641 1.6355103
-0.035766829 0.16097236 1.6567312
-0.1454089 0.22036466 1.6615956
-0.092498899 0.20745224 1.6001043
-0.13885458 0.058689591 1.7549546
-0.057937741 0.057455562 1.7256839
-0.18637972 0.14762127 1.7544988
-0.024573328 0.14137492 1.7509043
-0.13102864 0.22620459 1.7502962
-0.055516653 0.2214319 1.7510166
-0.1183331 0.081176959 1.8233957
-0.077298164 0.077614903 1.8135357
-0.13348188 0.15617107 1.8285813
-0.066097498 0.15080211 1.8222896
-0.12408758 0.21461669 1.8020046
-0.095870912 0.20408875 1.8214576
