# .PCD v0.7 - Point Cloud Data file format
VERSION 0.7
FIELDS x y z
SIZE 4 4 4
TYPE F F F
COUNT 1 1 1
WIDTH 1612
HEIGHT 1
VIEWPOINT 0 0 0 1 0 0 0
POINTS 1612
DATA ascii
247.56757 251.41953 7.8848381
213.00835 251.06287 7.9943137
248.07101 251.67981 7.9455452
239.42819 252.91585 7.914649
240.24675 253.49796 7.9069328
215.84706 248.41711 8.0111732
247.68611 250.84207 8.0882072
208.48595 233.64453 8.1751127
254.13422 244.51366 8.1873674
241.49899 247.55272 8.1215382
207.3358 249.07639 8.1560926
212.3576 251.20961 8.113081
247.4617 241.99998 8.2908716
254.16875 244.90375 8.3104773
209.06299 247.1843 8.3307943
242.56403 249.86249 8.3771591
218.308 246.0762 8.4646864
248.98857 241.27794 8.5863523
252.42709 242.49986 8.655405
211.91107 245.7282 8.6479158
208.65302 247.22424 8.6899395
240.37192 253.50304 8.6615944
246.4213 242.55707 8.7450247
209.30981 246.70258 8.7325897
253.30264 246.96571 8.7818241
207.77927 241.53174 8.8815956
208.2993 245.86905 8.8890209
207.32748 240.23703 8.9670353
241.2543 243.27928 8.9934435
215.27853 248.8486 8.9208717
241.05272 243.38959 9.0244169
210.39459 250.39462 9.0237999
208.79993 234.75188 9.1847849
246.07906 242.78485 9.3431377
239.76035 243.08141 9.3215542
238.0795 246.37305 9.3180056
249.34895 251.50688 9.4365282
213.28452 235.22794 9.5307274
218.51276 245.192 9.5272617
208.42923 236.7912 9.7674637
213.13962 245.0536 9.716176
249.99771 248.06519 9.7100706
205.7262 241.21214 9.9541187
209.32295 246.48686 9.9635229
211.41992 235.77689 10.0877
212.45695 235.80861 10.147047
217.58228 238.64551 10.132389
247.7265 241.86133 10.115558
252.70764 246.34709 10.179338
253.05598 247.93372 10.141229
239.95351 253.04404 10.120179
214.95894 237.27258 10.26064
253.34961 247.64815 10.28083
251.07735 249.66959 10.263785
249.78967 247.87009 10.422028
218.16437 234.97527 10.627039
207.62212 236.48669 10.621974
218.48929 237.03848 10.686135
242.64368 249.12515 10.652798
248.08737 248.71127 10.728596
217.66 233.26071 10.885924
207.90308 237.40346 10.925097
218.51628 238.11792 10.984563
245.09564 250.87634 10.91
242.63622 253.68434 10.920552
243.98289 242.35776 11.029442
252.942 242.71829 11.013725
248.61931 249.36404 11.080417
242.19263 253.99757 11.028302
247.37004 238.84697 11.182068
208.12794 239.19922 11.159186
248.99304 242.48816 11.163235
252.77719 246.45985 11.174785
237.68433 251.41379 11.147824
208.34254 242.32454 11.355353
217.74492 233.18459 11.443569
212.68845 250.6953 11.456334
251.24835 238.69185 11.580674
251.7594 240.01242 11.511438
213.91576 232.61914 11.699846
206.32497 242.77522 11.67318
250.12784 243.67999 11.604922
211.56958 232.95056 11.768543
218.59459 241.99628 11.702066
246.5112 249.84656 11.774131
215.35646 248.46152 11.838406
251.01602 238.30762 11.900082
214.918 239.981 11.921205
206.05679 241.23763 12.002855
245.46585 241.83795 12.054617
211.71562 232.86624 12.178606
207.1669 235.4799 12.138056
247.37408 240.87512 12.110996
250.36584 246.30884 12.145588
211.51166 250.18372 12.125856
246.64307 241.2757 12.225651
208.54955 237.71286 12.32859
238.19897 243.54887 12.369404
218.58389 237.39346 12.413091
249.24329 237.71512 12.404613
238.761 243.22 12.644745
241.42451 241.80525 12.720084
206.11024 240.5489 12.84032
206.5647 242.96043 13.000001
207.88925 248.38646 13.06332
207.84903 248.14948 13.180733
253.46637 246.40263 13.373692
249.19398 250.21788 13.414307
251.21902 240.24396 13.753521
248.62949 237.7254 13.888549
206.774 237.98999 13.884044
214.77338 232.37637 13.989262
251.98863 241.06561 14.025143
237.90962 243.86798 14.127078
207.34163 235.64694 14.409316
210.6037 249.45264 14.447227
237.38383 249.71449 14.586
249.30676 249.41254 14.720065
206.82587 238.14551 14.809654
218.66994 233.02292 14.9161
237.67496 251.0688 15.043872
207.5766 245.7988 15.205481
248.28308 237.23451 15.376358
248.50858 250.0574 15.394562
218.78607 242.00702 15.540887
218.7872 240.51111 15.665085
239.45947 252.07852 15.658477
237.74078 245.81885 15.764304
216.80066 246.68788 15.813837
252.52158 243.17084 15.996261
207.90192 246.68074 15.965097
211.10071 249.3147 16.063906
209.29988 233.29248 16.150997
252.30112 242.6142 16.166075
243.78584 251.77606 16.184465
245.60007 239.17642 16.349762
248.6917 236.12566 16.477699
247.69553 249.99712 16.561068
215.70911 232.09113 16.616711
216.55411 232.18176 16.777098
207.86288 234.60854 16.80422
241.05652 241.51578 16.853245
252.64838 245.22427 16.937195
239.39517 242.37549 17.000303
218.83893 237.74435 17.189478
252.98441 244.40048 17.190908
239.68788 252.07716 17.131624
218.08038 232.3119 17.289732
218.82849 236.35684 17.266808
218.79942 232.94893 17.391066
209.11276 233.24823 17.316547
240.40329 241.80002 17.370686
247.96747 236.35246 17.467533
237.51555 246.9054 17.577724
210.25597 248.79385 17.690189
217.65436 245.6785 17.80162
211.48882 249.10477 17.875082
217.82129 245.51053 17.917347
242.27879 252.55629 17.985512
237.58015 243.58679 18.013264
237.5739 243.88234 18.036179
218.33018 232.20517 18.187525
243.31967 240.15607 18.26424
239.27881 251.66663 18.213432
242.78992 252.10786 18.303745
244.46304 239.53249 18.435734
207.38033 242.80573 18.428875
244.81294 250.54846 18.474615
218.17546 232.12035 18.591125
209.40613 233.0437 18.53035
215.46043 247.8109 18.539721
249.94473 238.90726 18.609385
207.69775 235.93774 18.869501
207.42331 242.68597 18.844297
244.50424 239.33743 18.985451
247.53485 249.34926 18.970266
214.49226 231.54793 19.007586
208.26439 234.15131 19.346413
237.13399 249.32082 19.398888
214.9059 231.53836 19.428631
215.14679 248.14679 19.460417
218.93253 234.7533 19.561676
218.96527 239.38141 19.519897
207.43872 242.22253 19.502838
208.24069 234.41998 19.855471
247.76736 235.65022 19.984125
237.81789 242.85794 19.991726
238.35597 251.00203 19.980171
216.2352 231.6142 20.10498
244.83887 250.19955 20.139492
219.01343 242.85883 20.309
218.0094 231.7845 20.580685
208.00722 244.29036 20.573843
247.88474 248.77298 20.531515
237.01711 250.23749 20.540918
208.58223 233.54048 20.680935
215.3436 231.36481 20.912603
215.49442 247.68033 21.204031
240.17101 251.95833 21.292835
244.79504 249.98914 21.370144
237.74211 250.55612 21.329985
237.24603 245.58926 21.567352
237.17358 247.80745 21.524355
237.20589 247.05334 21.787373
214.29643 249.06281 21.799646
207.55679 240.89413 21.854887
237.18941 246.75674 22.02947
246.4285 235.19077 22.35257
244.80807 236.94623 22.455572
209.4384 247.81448 22.446901
242.07529 239.94498 22.564569
251.66815 243.13489 22.572144
243.49088 250.74884 22.501574
243.59564 238.05769 22.874453
212.81102 248.61481 22.836308
219.09366 233.19054 22.933887
207.7551 240.74677 23.280775
212.61717 248.49866 23.209629
214.95166 248.24248 23.356998
244.14375 236.99854 23.62714
237.38986 242.64438 23.747175
219.18367 242.4537 23.94935
217.8492 244.83522 23.941151
246.832 235.89307 24.032763
247.37302 247.88208 24.187868
208.03143 241.2739 24.380447
251.2372 242.49667 24.484583
208.65135 244.45712 24.423779
219.21449 242.57384 24.595282
207.74164 239.46574 24.748077
238.27394 250.53381 24.843159
244.83234 235.43216 24.971678
219.21548 237.25696 24.972385
238.78372 250.79318 24.993408
219.23264 239.56393 25.181877
219.23642 241.42952 25.137611
250.68994 242.5773 25.117685
212.81161 231.15073 25.215267
243.16321 250.44604 25.281189
243.6456 250.01559 25.618263
247.2984 235.86923 25.935307
249.78757 243.49391 25.986227
218.1889 244.36484 25.908554
244.74886 234.81934 26.16711
240.84351 251.89236 26.189066
250.67888 240.4563 26.343412
207.95421 238.02737 26.63315
248.29422 236.36501 26.875378
241.46066 251.40915 26.902998
219.31984 237.26961 27.186411
208.50317 236.21863 27.236145
210.63748 231.81824 27.351851
216.19739 246.64723 27.364492
247.30185 246.91844 27.57329
219.35417 241.32112 27.643396
209.41203 245.67258 27.736427
241.32233 251.31235 27.919569
247.92915 246.44058 28.150108
209.47244 245.54041 28.276594
208.99332 242.97137 28.374939
209.42058 233.48676 28.445923
209.77753 246.68512 28.729757
248.26691 236.00764 28.812475
248.3268 245.22754 29.023161
213.12924 230.5909 29.14818
250.38655 240.09789 29.191294
246.55896 234.76457 29.319246
243.19484 234.82359 29.484631
219.48303 230.43567 29.561739
218.38776 243.92485 29.630001
236.73926 244.13531 29.62812
246.79648 246.83667 29.676275
218.71506 230.2699 29.785574
248.21904 245.14192 29.736925
243.79387 234.04672 29.821573
246.05742 234.28247 29.837608
249.75127 241.84621 29.939585
219.56252 230.32031 30.107872
210.42851 231.45584 30.247503
219.56596 237.97229 30.215597
210.03825 246.61407 30.266911
216.52344 229.78221 30.473442
248.40134 244.56317 30.456152
219.63864 233.34601 30.772408
246.46233 234.31267 30.734474
248.09854 245.13235 30.765564
247.97467 245.40128 30.721458
214.50798 247.46466 30.766802
208.65038 236.56599 31.067476
236.89725 242.72861 31.140404
238.13939 249.37325 31.117115
208.92052 240.23949 31.201115
218.90442 242.89345 31.221703
237.56586 240.62694 31.357637
208.79636 239.40483 31.426949
209.51755 243.16599 31.410381
217.81616 244.12283 31.503607
245.62138 247.28647 31.542696
216.4249 229.42252 31.645712
237.70396 240.3725 31.688896
219.77734 235.42841 31.892616
215.98427 229.27164 31.962488
214.51981 229.3159 32.001476
219.8037 234.51756 32.098473
217.73557 244.03226 32.224503
242.05548 235.26962 32.316902
219.87119 232.60745 32.62833
243.27713 233.78502 32.668255
209.23648 234.54218 32.851715
247.37839 234.31767 32.995361
247.73361 234.57138 32.949802
208.82799 235.97935 33.16597
237.09164 244.48595 34.11393
243.27701 248.32935 34.582253
216.43219 244.83548 34.783695
220.14935 234.18167 34.860992
220.15964 232.01199 34.901012
237.19846 242.85556 34.994274
240.74651 235.8793 35.243309
249.17216 241.90575 35.389931
250.03667 237.8347 35.450573
220.25786 233.88571 35.727047
249.83479 237.31906 35.826523
237.21661 241.35266 36.096798
246.80667 245.31821 36.080566
244.55353 247.00192 36.129295
220.32864 235.07166 36.299347
209.62355 239.68057 36.218266
210.50615 230.16148 36.887188
243.504 232.29144 36.832924
244.55077 246.83943 36.822964
213.62425 228.47078 36.937687
209.74648 239.51437 37.177044
220.49081 231.67216 37.495335
220.50438 230.77509 37.557388
239.7943 236.25421 37.603043
237.32596 241.09207 37.697445
220.51807 232.61514 37.757652
249.44005 240.75781 38.155201
217.61127 227.63025 38.226036
237.70212 246.45139 38.253975
237.45816 243.88277 38.471085
245.86337 245.43367 38.585575
247.5145 244.13068 38.84153
237.4157 240.90837 38.993996
249.63651 240.15973 39.011635
215.41379 244.09694 39.225304
250.34608 237.29422 39.353394
220.29373 239.11873 39.360386
213.40311 243.44902 39.492783
249.09671 241.16278 39.654915
213.64783 243.42238 39.707886
216.015 243.64319 39.830837
218.25696 241.26579 39.950287
217.59683 227.07776 40.090427
210.45844 230.39836 40.044342
237.5975 244.55267 40.414379
209.8197 237.52502 40.616219
249.22643 240.65485 40.74926
245.47449 230.83064 40.954918
219.81084 227.09082 41.00732
248.42114 242.29204 41.012253
210.85388 241.86823 41.227322
215.21735 243.16077 41.300713
243.45561 230.97673 41.442703
213.39035 227.43745 41.605431
238.7619 236.21152 41.673782
241.44408 233.15851 41.749359
237.69757 245.12318 41.798588
248.29099 242.38148 41.880074
218.92157 226.66251 42.071274
216.04596 242.866 42.140892
239.41617 235.30927 42.22266
211.56375 227.96802 42.404213
209.96095 232.14371 42.647881
221.13399 234.2917 42.698303
221.1188 236.03868 42.623367
240.67126 246.34924 42.696751
210.00174 236.9395 42.73576
216.76074 241.87259 42.909058
248.19415 242.36378 42.924774
219.82187 238.63702 43.039593
221.21597 232.79236 43.269447
240.18144 245.90688 43.205036
217.86453 226.1385 43.386837
210.26514 231.10385 43.607948
246.95538 231.0661 43.8148
215.27071 226.15508 43.950321
221.29442 234.49072 43.973213
237.92485 243.4744 44.281765
244.16031 245.13152 44.297325
210.58612 238.28809 44.320686
237.75682 238.65143 44.815598
219.71294 225.85974 45.132824
221.44284 234.83633 45.160866
241.53133 245.81424 45.199192
248.74257 240.67628 45.433002
213.11209 240.53369 46.155609
248.36655 241.30687 46.200008
210.82857 238.00357 46.342758
221.60408 234.72496 46.45348
209.96744 232.15561 46.604065
218.28188 239.11891 46.63279
214.84586 225.61652 47.061119
237.84383 238.66681 47.175571
239.31061 233.94186 47.238293
221.71033 235.31369 47.317322
210.37149 230.84372 47.686096
211.37888 227.42688 47.798119
238.32108 234.91713 47.707306
247.26331 242.1362 47.758949
244.77484 228.67758 47.971737
217.72058 239.77747 47.964943
216.97086 240.53346 48.027332
215.94933 240.95918 48.121506
245.40092 229.08548 48.255234
248.25603 230.93105 48.25304
249.22501 232.62851 48.224823
247.23541 230.27534 48.575466
237.38387 235.74319 48.578701
244.77344 228.73775 48.857746
211.36639 227.77759 49.05003
249.39761 233.11667 49.077034
249.64523 237.9064 49.023087
250.42741 236.19113 49.15432
210.39392 235.39275 49.581196
210.89865 237.32675 49.516418
221.26163 236.85304 50.025032
217.08417 224.99504 50.14822
221.37296 225.6357 50.19046
250.41264 235.83093 50.216915
249.26193 233.16776 50.312935
219.61711 225.3786 50.463497
221.31818 236.94757 50.570251
244.29903 243.79457 50.585491
211.41429 228.02908 50.778172
241.65347 245.42947 50.764194
239.66394 232.54179 50.931915
211.52467 239.63916 51.319843
236.37872 236.35866 51.473083
217.88773 240.57355 51.466194
214.40491 240.9987 51.676983
222.70575 228.96753 51.7006
249.10054 238.05038 51.771267
217.09734 225.06705 51.901226
248.89682 238.29626 52.277634
222.86473 231.15259 52.456154
212.13255 240.47813 52.450001
222.88257 232.4357 52.574959
222.93987 233.47751 52.855499
239.50937 244.88898 52.823212
210.26169 232.45279 53.02668
217.82756 241.0741 53.067791
223.05692 228.50603 53.196041
248.52745 232.53625 53.259892
211.0448 229.89664 53.37952
222.45239 225.70723 53.455853
216.42149 241.87669 53.492249
246.13637 242.29015 53.430561
239.69923 231.81314 53.545521
242.47922 244.69002 53.668884
210.84689 230.68472 53.884811
219.85754 225.47952 54.108013
223.30791 228.29265 54.268784
248.18475 239.04651 54.340599
241.51462 245.26636 54.318256
223.31068 233.24738 54.443085
244.57724 243.20596 54.4888
222.47005 236.98943 54.586761
243.15933 228.24707 54.682968
238.17659 233.25751 54.605869
249.40436 234.45418 54.670021
221.07376 238.31332 54.65358
235.56528 238.42191 54.653992
235.79915 242.19254 54.885929
222.90697 236.10941 54.932228
212.89723 241.09966 55.096539
235.48875 239.54916 55.184555
246.40465 242.01523 55.24192
236.03697 243.7845 55.218918
248.58754 233.21231 55.556511
236.74808 234.50748 55.999649
223.68237 232.25623 56.009392
223.27434 235.4122 56.393242
242.53006 228.01193 56.472672
238.75871 232.12497 56.402939
235.12198 236.20715 56.53566
223.87309 226.41435 56.638313
239.32504 245.51607 56.926414
223.17172 236.64224 57.050144
221.41464 238.70108 57.168457
234.8656 239.31487 57.171349
224.05179 225.89676 57.390022
223.15268 237.07062 57.377907
237.57809 244.89201 57.533237
249.40549 235.16748 57.765411
222.65111 237.72916 57.820995
245.01038 229.52753 58.021877
210.88852 237.26205 58.073826
212.3911 227.19603 58.107887
237.33366 233.19669 58.458153
238.22672 245.32077 58.456562
218.98505 225.42838 58.535233
247.03557 231.07851 58.534416
210.62796 232.54884 58.596176
210.25563 234.83569 58.581726
234.26631 236.62592 58.622589
244.53169 242.89322 58.678749
223.37894 237.23683 58.890495
224.15089 232.83559 58.939636
236.45615 244.66193 58.963951
235.38138 235.24426 59.075241
210.4969 235.75861 59.060257
211.03381 231.31924 59.177082
224.25296 232.4995 59.199242
224.38522 231.81284 59.276924
221.12875 225.74271 59.371712
213.43436 226.87799 59.476761
236.17215 244.63483 59.518127
216.15894 242.69495 59.67971
238.88785 230.49365 59.710876
210.46788 235.64514 59.848618
216.52435 242.88705 60.236145
244.47662 242.81432 60.397552
233.69241 236.83244 60.405518
220.02673 240.935 60.425667
238.42627 230.71242 60.696953
246.08829 241.71089 60.651878
220.90244 240.18265 60.737389
212.03711 240.79112 60.7001
242.65067 243.86705 60.708893
221.08185 240.04343 60.838558
238.65576 245.94624 61.05999
244.94623 242.47916 61.312397
224.47708 233.50302 61.560402
217.08565 243.25339 61.581627
237.96912 230.94087 61.651054
247.27304 232.31778 61.834454
220.24548 241.12271 61.888939
213.81404 242.51797 61.923912
235.88339 244.93018 61.950455
242.25478 244.01213 62.060757
244.27415 242.80441 62.388252
243.67253 228.94272 62.413338
234.5612 244.45175 62.492302
221.26373 240.35689 62.558731
219.97818 225.6505 62.676903
233.08992 236.89453 62.657288
233.34955 240.69518 62.678253
212.78867 242.6358 63.538895
237.66721 245.95602 63.51889
225.49124 227.09134 63.620975
235.75409 245.15933 63.600525
211.07076 237.87169 64.156494
218.17441 243.79312 64.176781
248.25241 235.21216 64.248093
210.40451 235.38879 64.311111
245.4348 241.88242 64.478134
241.60999 244.23918 64.405914
237.36545 230.39119 64.539375
211.08179 232.47331 64.541016
211.99298 240.52625 64.580757
233.27328 243.14572 64.801498
210.403 235.38107 64.934769
232.32402 237.1543 64.975632
234.63931 244.90228 64.904129
224.64819 235.97966 65.122787
221.7562 240.66501 65.292404
236.65646 231.08548 65.368729
220.48416 241.8707 65.353462
246.68597 232.03281 65.577805
247.23497 232.9144 65.664299
214.94286 243.45651 65.945084
225.48085 225.80237 66.01992
221.09329 241.4996 66.058113
221.44366 225.79031 66.260201
245.82956 230.74007 66.211861
235.72601 232.11354 66.233627
232.65695 242.10019 66.258484
234.54123 233.88231 66.45562
246.49384 238.4245 66.493271
225.35692 233.34079 66.610168
236.18387 231.12376 66.733597
212.84435 228.33035 67.098167
221.8414 241.07999 67.052414
240.14252 227.44202 67.281013
234.34062 233.79985 67.223831
232.00613 240.27621 67.254593
210.90015 233.74818 67.454819
231.64627 238.21303 67.462151
222.62616 240.44907 67.416466
233.92725 234.2966 67.531593
214.66347 227.0264 67.670464
216.18973 226.5365 67.716339
232.16928 241.69189 67.726791
220.18188 242.84093 67.800903
245.17313 241.19666 67.959618
244.37613 242.37474 68.09977
247.42615 233.6844 68.394051
235.52063 231.28699 68.43956
225.65268 233.509 68.536819
225.65015 234.00375 69.030853
218.72574 244.58694 69.02916
226.582 228.82285 69.226021
226.82515 226.5159 69.339935
234.94147 231.66344 69.481766
211.3447 233.16641 69.889114
212.37375 230.37706 69.978607
247.08667 235.59335 69.934952
216.7886 244.52667 69.998787
212.03632 231.31911 70.052856
211.24223 233.49948 70.089622
226.01651 225.83313 70.305992
219.43562 244.24483 70.315216
222.58771 225.82249 70.452148
245.2114 240.12779 70.471153
227.11542 227.24451 70.764931
225.98001 233.73059 70.705727
245.91249 238.21451 70.834068
233.63031 245.5179 70.993393
235.01366 246.13248 71.086365
235.69507 229.57877 71.176025
232.24474 244.94881 71.169197
211.98141 231.79184 71.275139
213.19919 243.77798 71.372482
227.26366 225.84575 71.551308
225.69023 236.23654 71.565483
216.59062 226.70126 71.673996
224.24506 240.13152 71.669167
231.99149 244.94022 71.753624
210.85098 235.02699 71.824501
244.29353 241.9061 71.873337
232.30432 234.52979 72.02388
227.39349 227.13387 72.299942
227.03464 229.6347 72.744995
211.96136 232.22803 72.720139
233.2321 232.68393 72.731316
232.75464 245.44315 72.753273
231.57968 235.26465 72.823402
238.57306 245.47955 72.809479
246.94212 234.79138 72.951439
212.43259 241.49942 73.053848
227.58638 226.82021 73.121025
233.82892 231.49985 73.180092
230.28107 240.2149 73.490135
236.04341 227.76913 73.577339
233.3132 232.11304 73.576721
234.61237 229.9957 73.681572
220.49457 244.37727 73.954819
226.94585 231.40923 74.020493
240.14458 227.42574 74.276367
212.17485 232.05382 74.270798
235.97542 227.53354 74.336113
240.22256 244.39493 74.592415
236.74889 226.17964 74.609634
212.55684 241.99927 74.895401
215.58112 245.2999 74.934143
219.80252 245.67764 74.948883
245.99811 236.29312 75.357185
240.41672 244.24609 75.308449
230.38441 242.51102 75.420776
225.89279 239.33833 75.789246
244.61351 239.67506 75.794418
234.64474 247.00961 75.714088
211.00623 235.56891 75.800835
234.43129 247.00638 75.959076
226.21272 237.81058 76.093216
218.50786 226.72403 76.353348
241.44769 228.16873 76.430046
213.00322 230.28259 76.430756
230.9119 234.62596 76.558083
245.66362 232.60254 76.645813
238.22423 245.47945 76.610535
220.82018 226.04637 76.758484
220.73325 226.06305 76.803001
211.53949 234.38303 76.885719
217.76065 246.30028 76.831032
232.8219 231.27716 77.23967
213.79817 245.57683 77.200096
243.33034 229.22815 77.413246
215.62595 245.96738 77.421448
221.86693 226.03888 77.693306
237.564 245.84055 77.645729
237.69276 226.77255 77.80648
230.42636 235.45811 77.845451
235.24419 247.45718 77.90815
228.25253 228.34346 78.004776
244.2251 230.80655 78.007828
215.89914 227.94475 78.148483
240.27313 244.20328 78.192444
240.21875 244.22699 78.380821
226.64754 237.73996 78.421021
212.99464 230.77763 78.535133
235.6033 247.23517 78.583679
218.95306 247.69687 78.690079
245.11238 232.64638 79.070526
246.04832 234.46544 79.074768
228.01787 230.83215 79.124283
229.61972 236.99519 79.22776
213.28314 230.18111 79.389931
243.63593 230.31311 79.322418
228.37726 239.78217 79.30442
223.76584 244.94241 79.368683
242.53712 228.9433 79.778397
213.52045 246.15195 79.752228
233.74121 247.66151 79.788406
213.33281 230.15454 79.8769
220.73912 247.41924 79.838509
233.04199 229.70204 80.009323
245.67072 234.22601 80.019379
226.07224 225.92444 80.228668
215.50507 228.52589 80.226723
235.65634 226.17957 80.38031
219.6031 226.87186 80.361267
219.96518 248.13432 80.393562
229.72618 244.0737 80.581177
229.64935 244.07367 80.728195
211.58441 234.72493 80.88961
228.83566 228.43974 81.001419
237.92514 227.18843 81.125404
228.8136 228.74152 81.168983
242.84714 242.54703 81.38121
232.73489 247.83838 81.363831
226.38776 242.48181 81.516953
213.18829 230.94662 81.649765
210.67172 236.90886 81.638817
210.83266 237.6497 81.840324
220.25359 248.86694 82.337097
215.29399 229.0564 82.468636
244.97067 236.26654 82.446327
234.75743 226.01367 82.511147
227.30774 241.70116 82.562569
212.23032 242.69971 82.551689
228.48892 232.08417 82.625313
243.13396 241.43675 82.994499
230.51434 234.19922 83.034386
229.19038 237.17537 83.084961
227.74937 242.97083 83.134171
229.72418 235.93204 83.276802
220.76523 249.05048 83.382622
242.03555 242.93123 83.501266
228.86951 231.25499 83.760262
216.25529 228.85628 83.89344
211.23782 239.27969 83.811493
237.81876 227.4158 83.940346
231.2814 232.28673 83.925751
231.24983 248.1369 83.98568
242.59045 242.46016 84.271568
211.95578 234.23108 84.654938
240.68523 243.83383 84.683327
228.71516 233.13481 84.7202
230.67509 248.21681 84.718628
227.3929 240.87869 84.803902
211.00818 238.60811 84.980499
242.89067 241.28041 85.046066
228.40912 235.22336 85.115555
228.81549 233.21947 85.298386
241.29539 243.38869 85.372528
234.01241 248.37238 85.310516
236.2695 246.86327 85.482864
223.71973 226.72108 85.582207
227.88951 239.60683 85.545975
227.86479 245.40508 85.671745
228.49847 235.32744 85.746735
225.02289 226.52814 85.899582
230.63094 248.40179 86.088234
226.97801 244.08615 86.298248
228.08339 237.77101 86.316055
217.4929 228.48831 86.491173
231.61685 229.55283 86.569183
221.78288 249.95299 86.532166
233.10162 226.15111 86.932747
228.9173 246.77789 87.169807
219.12817 227.73732 87.271736
217.6218 228.44275 87.203995
213.01349 246.22247 87.22982
219.74428 227.43289 87.361504
231.36954 229.38113 87.338104
234.94585 248.14441 87.477013
212.53784 232.6405 87.514847
230.60355 248.68333 87.572586
229.37152 225.7007 87.795441
223.7549 249.38495 87.725647
227.98636 239.392 87.982285
226.75224 247.52429 87.980629
226.61237 226.06644 88.099472
228.58521 235.70691 88.168839
228.30205 237.59879 88.186966
227.71503 241.36594 88.114197
228.00174 245.27673 88.168106
240.5643 243.57196 88.244751
211.84747 234.1371 88.686325
211.13046 239.02536 88.639839
227.0024 246.81544 88.649391
229.99728 248.18228 88.739456
235.33022 226.22099 88.90905
241.70183 229.3223 88.947342
203.29208 230.97522 88.920341
240.6261 243.44807 88.962921
210.95506 236.16814 89.072395
213.49608 230.63669 89.105911
229.43597 247.28632 89.16864
227.61169 243.83453 89.385986
211.13789 235.71222 89.459076
227.5099 244.63416 89.477493
227.18352 245.1469 89.581848
238.09523 245.50366 89.718826
224.92328 226.05626 89.827553
203.19241 229.8822 89.847893
227.33142 245.02081 89.927055
219.03583 227.62796 90.082031
221.82709 250.79257 90.150162
201.44934 231.86984 90.241058
227.72174 243.63069 90.238075
244.26463 234.55026 90.315781
228.21634 247.22217 90.351852
214.58229 249.13443 90.340942
217.78253 250.10025 90.336548
227.98264 242.896 90.556313
228.39151 247.3777 90.517509
235.17456 248.46147 90.51503
233.42986 225.33255 90.650108
215.23871 229.44269 90.650688
238.83159 244.95676 90.641449
237.11722 226.69145 90.709846
225.87076 225.78487 90.829483
241.63237 229.36884 91.098694
202.38908 229.88907 91.021416
237.64264 246.1694 91.014084
203.38152 232.49782 91.39592
240.69556 243.34225 91.67717
227.44336 248.08325 91.619255
213.55954 230.58273 91.715782
203.85577 230.30157 91.867081
213.48264 248.85181 91.883865
201.40067 234.18665 91.981445
212.34532 244.09685 91.907806
235.00662 225.97934 92.147415
243.3418 238.63884 92.190033
243.2588 238.95023 92.156723
242.5256 241.47665 92.555748
227.51169 249.3165 92.528946
229.39911 225.1467 92.908134
220.89279 251.30783 92.948898
211.96548 242.11005 93.028687
201.3186 234.10463 93.144653
220.882 251.32669 93.387405
217.3082 228.61307 93.476822
213.17685 231.59247 93.448181
242.55649 231.99474 93.683502
220.82973 251.30164 94.020409
220.89954 226.89735 94.107536
218.36337 250.76906 94.392212
203.6741 234.1125 94.491638
232.71611 224.90067 94.541565
238.7576 245.21472 94.658012
233.05498 225.06546 94.843567
219.13287 227.8436 94.922707
212.76622 232.63321 94.968765
229.24144 249.62022 95.101189
243.29324 237.79102 95.348312
210.97359 236.60651 95.907501
203.97556 235.2205 96.076881
212.166 241.62643 96.045006
203.98837 235.4277 96.124222
227.36911 249.7868 96.174843
232.75572 224.8145 96.588303
204.36183 232.82785 96.514938
228.41959 225.03979 96.964218
214.37915 230.2897 96.925095
212.0723 234.36365 97.067589
204.31885 236.01009 97.059113
238.54144 245.15909 97.127945
235.05983 225.99588 97.479111
212.57001 233.34702 97.406326
218.31113 250.24104 97.489723
238.56198 245.09055 97.567734
202.56754 238.4261 97.604691
203.84995 231.05841 97.834244
237.48738 227.15059 97.94371
215.07823 249.28537 98.000366
204.07678 231.10803 98.360092
213.2067 245.24042 98.493469
204.54976 231.15938 98.516624
236.93005 248.70567 98.518951
228.2229 225.14742 98.607445
222.86838 250.26282 98.652878
205.37471 231.2446 98.711182
201.53975 234.47127 98.713928
242.78972 238.30563 98.785995
237.68182 247.33342 98.734589
225.16953 250.10776 98.746887
239.73376 243.78482 98.862885
203.3349 238.69191 98.936516
226.7979 249.75214 98.905769
213.55354 231.52174 99.039078
212.05429 240.99716 99.003555
205.29623 230.06863 99.137924
241.66359 241.83109 99.199722
206.35992 230.48683 99.266823
224.15726 250.18483 99.2967
242.94652 236.88229 99.373222
203.49069 238.73773 99.541138
217.65413 249.63966 99.634476
201.82684 232.74808 99.723053
227.3893 225.46947 99.843674
242.87547 236.82193 99.932648
234.48331 225.54724 100.17542
241.17987 231.03262 100.16462
213.33472 232.11523 100.15671
236.58191 248.55138 100.18945
216.44972 249.40897 100.18704
205.17586 228.95876 100.37411
211.49721 236.22209 100.30189
231.94167 224.30975 100.55586
238.88629 245.94299 100.57941
238.90126 227.80075 100.85778
206.32355 229.9176 100.97299
213.46976 245.35329 100.95573
203.36914 230.57071 101.08865
213.5289 245.53552 101.05016
228.49367 249.29697 101.02301
225.73602 249.80344 101.19473
242.35637 238.77948 101.21271
242.59486 233.66713 101.42798
240.05814 229.39441 101.6459
213.40973 245.18248 101.87557
232.93231 224.62915 101.92068
241.13675 231.28401 101.95481
220.52052 249.26004 101.91927
230.07312 225.0417 102.01527
235.11166 248.45987 102.2099
202.37929 237.14348 102.4017
228.87277 225.50146 102.57522
218.78961 228.58218 102.51974
203.14708 231.74864 102.53212
216.38509 229.74867 102.67113
242.41058 233.56792 102.60805
240.25426 244.2782 102.62727
241.24515 241.83813 102.93266
240.85654 242.72998 103.07807
232.40715 224.34904 103.10475
242.7142 234.35506 103.14758
206.08681 236.67537 103.16821
202.14413 237.03583 103.23193
205.97086 237.02614 103.20863
213.56723 245.68484 103.37089
230.20526 224.83661 103.45364
226.87393 226.25992 103.61813
240.07635 231.78674 103.67602
225.71504 226.72516 103.82796
230.82228 225.9603 103.98322
211.1523 238.16931 103.93398
204.23932 239.62743 104.01971
241.49898 240.70839 104.02435
202.5416 234.16177 104.10841
241.50346 241.37294 104.15486
228.29121 249.13322 104.17052
226.81384 225.29953 104.27755
232.80811 227.43983 104.34186
217.53401 250.80231 104.3624
235.49268 226.59134 104.45561
234.56194 227.35423 104.47311
212.4541 231.72665 104.49464
240.35928 245.26926 104.48724
241.31314 230.27751 104.57413
212.09514 230.97327 104.56488
241.81747 235.93347 104.50182
242.15263 239.80966 104.53455
241.90787 241.547 104.5347
241.92871 245.44162 104.56476
214.40904 227.52449 104.699
238.81795 231.23495 104.61746
202.55182 234.12642 104.68404
219.70003 248.45377 104.62109
228.72978 250.71915 104.63863
230.97099 250.79156 104.73743
218.70688 228.12468 104.84136
238.38266 230.28345 104.8166
238.18382 230.69971 104.82472
240.76062 244.18457 104.81342
220.69778 251.14229 104.85991
226.69368 224.41702 104.93134
238.91696 225.96611 104.97175
243.51958 234.5791 105.11001
232.85669 248.1691 105.14233
240.73111 246.69025 105.28925
238.80612 247.61354 105.22408
215.33795 230.05228 105.3993
211.62445 231.21149 105.31221
242.5997 241.29703 105.36725
220.93837 224.88174 105.45061
240.05409 232.80159 105.46555
242.60674 241.20767 105.4939
202.27852 235.28322 105.63048
219.33055 248.47891 105.63531
224.76453 251.10818 105.64453
214.52791 231.42578 105.78798
210.36116 236.69548 105.99725
201.37976 236.87933 105.95077
241.06293 249.3653 105.95651
234.92542 225.5275 106.08897
201.26895 237.68019 106.03896
213.16763 247.83145 106.02811
237.57091 250.29398 106.04012
215.24561 250.74814 106.06824
241.09869 235.86522 106.11829
206.14185 237.05147 106.17252
230.71252 247.89496 106.1919
222.98016 224.8409 106.27203
242.49774 237.66 106.24422
229.25754 247.93626 106.29382
211.68356 231.7506 106.30048
213.15508 243.7341 106.42778
241.95164 244.88045 106.54146
214.85309 247.2363 106.62981
211.11009 234.41913 106.84109
241.54555 246.73076 106.85519
242.23459 238.83263 106.90532
242.50177 239.13588 107.49333
211.32397 234.16638 107.59161
227.8459 250.86984 107.5688
206.25226 238.3526 107.64311
242.09267 243.92435 107.69801
211.69151 242.41895 107.77016
213.7986 248.79672 107.75446
211.45145 234.04892 108.08151
211.91861 232.23819 108.1067
238.64987 227.23497 108.48032
201.40193 240.06323 108.41139
241.66049 235.5448 108.57254
201.08624 238.08168 108.60788
201.19974 239.55276 108.79385
219.54761 225.70416 108.8409
204.42032 236.24432 108.816
201.32597 237.72902 108.86369
201.43671 237.55301 108.93529
205.60927 242.55008 108.9398
216.82945 250.47397 108.92036
242.79683 240.27005 109.05453
226.31107 225.10927 109.18532
241.56839 234.23723 109.15279
213.38187 228.2244 109.23767
241.55765 233.28442 109.46175
242.1228 243.41412 109.55568
213.63834 247.32825 109.558
241.66629 228.75937 109.61612
205.86661 242.18919 109.79028
212.40953 243.42056 109.78229
220.34265 250.6394 109.77049
220.28374 225.58475 109.97832
211.92267 233.67441 109.96873
213.00818 230.12741 110.13606
201.59113 237.63446 110.19051
241.52197 230.81219 110.27926
241.37891 233.18414 110.36463
203.59366 236.76497 110.35124
241.6644 245.73022 110.53074
236.90317 226.87808 111.04815
233.48203 225.7137 111.46804
206.51758 240.73373 111.45925
242.64578 240.45178 111.58552
224.02426 250.28983 111.70494
240.88297 229.5593 111.94727
238.43883 249.14056 111.9716
212.05067 239.75052 112.09129
235.81937 226.42628 112.15756
243.13257 236.96286 112.18172
213.57846 245.6125 112.14177
241.19716 248.02052 112.21455
203.08916 244.34288 112.69869
205.22784 244.92194 112.77215
241.87598 232.46768 112.92152
203.02666 244.46274 112.9324
224.34029 225.76614 113.07539
241.58981 245.86632 113.05176
223.01157 250.22034 113.13345
218.59738 226.81424 113.24117
214.14487 229.14838 113.2178
212.91055 233.02338 113.27094
242.12923 243.00835 113.20691
240.56987 248.3644 113.26456
237.34044 226.96388 113.32543
232.83282 249.93317 113.49432
239.72926 248.55676 113.67776
233.59998 225.64291 113.72021
241.19937 230.08304 113.76297
203.41269 245.09224 113.70395
238.58466 227.381 113.96025
212.22205 235.69235 113.91407
241.2906 247.34666 113.99741
236.94649 226.71512 114.32567
205.47896 245.86082 114.3311
218.33186 249.60764 114.34117
241.41876 246.74547 114.52851
237.32452 249.10634 114.8249
220.08533 249.89944 114.85516
206.62558 238.84523 114.90197
221.51416 250.17477 114.93497
241.26253 247.35748 115.01555
241.67661 231.28836 115.1636
213.44748 242.41765 115.17535
214.09023 244.92775 115.15647
226.00032 249.99232 115.24124
223.91374 250.12595 115.3474
223.04619 250.18925 115.49039
231.51913 225.50038 115.51411
217.81535 227.30145 115.54194
206.82892 240.73175 115.84174
215.54135 228.27556 115.93872
243.07236 235.24608 116.04663
242.26746 242.64911 116.07808
242.85283 239.63266 116.16157
225.15173 250.13734 116.44463
227.01584 225.1785 116.57697
206.33246 245.83972 116.68573
237.11398 248.93066 116.6368
206.81473 243.84106 116.86041
221.34763 249.8661 116.8605
213.08868 234.07147 116.91573
201.3784 246.42648 117.16283
201.46375 246.42607 117.10892
239.39139 227.67758 117.28902
215.51552 228.33411 117.30405
203.05615 239.38464 117.31859
219.4063 226.48282 117.46259
215.95938 228.15105 117.42841
232.48669 249.56554 117.40926
241.32878 230.35957 117.54038
205.38489 239.71393 117.5241
212.34529 236.39682 117.64124
241.42065 230.60562 117.79295
222.91614 225.36371 117.80585
240.84103 229.05473 117.8251
213.99901 231.44188 117.88362
237.95856 248.47707 117.86059
231.61626 249.69449 117.85722
217.49152 227.42252 117.99414
221.86009 225.44286 118.11776
243.12408 235.1638 118.18636
236.2825 226.23926 118.23596
214.35451 230.41849 118.29149
214.77823 229.07068 118.37775
230.4581 249.88062 118.66856
223.94139 249.80473 118.76356
241.70294 231.3334 118.82126
213.47836 233.14053 118.98786
239.40251 227.6445 119.03581
217.66501 249.01056 119.07028
218.98172 226.57321 119.17512
229.74878 224.89169 119.32922
225.55145 224.87808 119.45891
213.53323 242.31569 119.42219
213.58142 232.84084 119.50787
203.51599 240.29317 119.50575
201.18356 241.03194 119.65727
232.07468 224.98834 119.84802
241.23645 246.18863 119.8786
230.32397 249.92461 119.90269
213.93723 243.86525 120.021
217.76945 227.00357 120.16136
239.87213 227.81662 120.10607
223.23917 224.98003 120.2588
219.97238 225.82565 120.39664
233.293 224.82098 120.69155
213.79175 243.35574 120.65741
220.37585 225.52625 120.86839
219.37779 226.05069 120.80882
234.54936 248.98274 120.97173
238.81346 247.5932 121.16362
214.83437 229.0844 121.39645
206.47971 248.91965 121.32443
221.76924 249.16766 121.71728
243.13521 235.04651 121.83569
242.26312 241.30505 121.83014
203.12201 241.28378 121.94849
213.32544 233.47984 122.05912
213.33258 242.01651 122.31016
232.0674 224.55965 122.43126
232.93314 249.22122 122.48595
212.28188 235.88568 122.56496
222.76186 249.23274 122.59302
234.13678 224.63046 122.79106
213.96489 231.63692 122.7211
200.01202 247.94768 122.7435
215.26334 228.33745 122.88241
220.08826 225.26086 122.98431
238.91087 227.25763 122.92592
213.14978 241.61284 122.99827
213.22931 241.88916 122.9505
214.43112 230.29688 123.17735
207.33723 243.29054 123.30838
214.19702 245.63303 123.32161
219.20557 248.93704 123.33939
214.9231 228.82503 123.4217
214.89923 248.28596 123.43179
232.96733 224.25668 123.76527
223.29474 224.45514 123.86346
242.55737 239.82018 123.85551
238.79849 247.32109 123.81466
231.50272 249.42798 123.85049
229.20087 250.14195 123.89265
235.92001 225.48245 123.91425
233.91792 224.32591 124.08147
240.49699 228.8494 124.05962
213.7981 244.43526 124.03198
224.62839 224.41379 124.16295
236.17398 225.56514 124.35004
216.09314 227.74394 124.65112
221.46539 224.43329 124.88033
203.17082 242.7077 125.03096
213.36707 243.22906 125.01893
243.01733 235.75359 125.12117
241.0377 230.62326 125.23428
240.91774 230.356 125.36331
202.75571 242.85939 125.37928
229.17996 224.23181 125.4906
239.11848 247.26028 125.40268
241.64465 232.37138 125.69043
241.77266 243.10547 125.71447
214.4706 247.63821 125.79166
206.64272 251.68541 125.71744
236.86887 247.89682 125.88591
214.15372 229.36208 125.98088
205.0528 243.37424 125.99141
217.33423 226.90833 126.06823
235.49316 225.26428 126.13902
221.54779 224.58337 126.34292
235.54103 225.3192 126.37792
200.27518 244.71408 126.48619
222.08038 224.58588 126.5231
213.46126 244.22552 126.56432
236.62637 247.9743 126.57948
214.33902 247.47604 126.60762
212.05203 236.38583 126.79821
206.30077 253.26125 126.79884
241.31253 231.82581 126.80377
199.58743 249.59474 126.80233
225.37888 224.52496 126.92764
223.11243 249.42609 126.93396
241.35727 245.15259 127.0661
199.69789 250.4368 127.20895
242.57977 239.36908 127.31255
201.34798 243.61188 127.31561
201.78734 252.66223 127.36038
242.0564 241.85104 127.86784
239.9973 247.12735 127.90147
213.83118 246.23297 128.05389
239.16104 226.9104 128.28464
215.30437 248.92439 128.26241
232.65054 249.1067 128.79677
230.15118 249.73227 129.11009
202.61143 253.87755 129.10681
213.69144 228.25967 129.22089
212.49854 233.21135 129.27922
233.3696 248.91679 129.2993
199.21735 249.66968 129.38423
212.40433 233.27022 129.65286
207.76314 246.37094 129.68912
222.89694 249.55206 129.90002
216.41353 226.6973 130.25412
224.53644 224.87587 130.57649
212.06071 233.94516 130.50677
203.16403 244.60919 130.62642
208.09605 245.08839 130.67317
223.61459 249.70152 130.83321
205.09972 254.32657 130.85999
204.74692 244.63196 130.90402
228.86183 224.69643 131.15141
222.28714 225.04457 131.34695
222.19753 249.61403 131.39125
228.64258 224.74992 131.63425
229.371 224.72366 131.83546
240.14929 227.73409 132.16043
219.88542 249.46799 132.24535
228.78548 250.03749 132.26888
229.27591 224.77661 132.33734
240.56639 228.76782 132.32257
243.37241 239.57614 132.47813
224.92717 225.04176 132.59851
240.35039 246.49548 132.55348
201.41235 253.44049 132.58469
204.81294 254.13828 132.54948
233.45184 248.88644 132.66997
243.59344 238.88367 132.71109
241.29407 246.0486 133.0004
208.25681 243.59485 133.35826
202.45354 253.34131 133.35066
230.81831 224.82629 133.78937
228.95697 249.99434 133.77084
203.40735 253.58868 133.88672
211.34166 243.50725 133.9144
212.71155 246.44875 134.0155
208.56976 247.55309 134.11334
225.66818 250.30431 134.2704
242.22427 232.20032 134.41814
242.68213 233.92429 134.41522
231.89436 249.2821 134.42149
201.43372 243.90285 134.50491
237.86215 246.74387 134.54446
201.30466 244.18875 134.63394
226.69308 225.1692 134.79536
230.27029 249.66873 134.9317
226.06171 225.23318 135.09508
210.08185 236.92284 135.0963
210.09448 242.66632 135.05925
243.04427 243.72339 135.1192
206.87256 242.16611 135.24283
232.58762 224.86429 135.34174
208.69722 248.89355 135.39491
229.99211 225.04076 135.4973
207.25682 242.22528 135.44376
206.34726 253.55011 135.49057
206.37521 242.6431 135.64308
241.65561 229.71942 135.78976
209.70178 237.9985 135.71346
204.9821 242.05569 135.91699
202.0864 242.66682 135.90402
201.00075 245.54694 135.98306
210.21855 250.71144 135.98615
209.07213 247.04443 136.05888
204.92889 242.43913 136.18314
209.48567 244.22882 136.1051
201.0052 247.88742 136.13432
244.26689 238.76735 136.29544
236.50439 225.08026 136.33263
209.96275 241.18918 136.51419
207.9082 254.6216 136.57414
231.88406 225.03271 136.6597
242.97824 234.1787 136.67508
238.14243 225.29219 136.77075
208.88416 253.80829 136.72557
210.02788 233.69424 136.98788
244.01312 242.06082 136.97322
205.31473 242.04535 137.05722
202.52881 241.35825 137.17577
211.04175 248.2753 137.20389
205.0332 241.85129 137.33963
222.89813 250.30629 137.35303
208.16754 252.57765 137.3999
210.48904 230.89215 137.47833
210.59543 242.85123 137.5491
210.13275 251.1955 137.67432
209.75934 239.60268 137.74632
205.24237 255.13547 137.77283
221.56107 225.70786 137.88652
215.66245 226.30928 137.84041
202.84018 241.5827 137.84128
224.76334 250.28433 137.88055
226.24496 250.27068 137.82478
209.97227 251.76898 137.82025
201.79564 247.58376 137.97539
232.03424 249.38901 137.92242
221.44101 250.31534 137.96227
215.90543 226.28473 138.02487
201.40277 244.55652 138.04474
203.6131 254.53748 138.00174
212.9014 247.90288 138.11014
208.02756 252.80663 138.14368
235.19458 248.73572 138.20929
209.72635 239.14052 138.34006
244.48433 241.70477 138.34628
201.93602 245.20166 138.32611
214.21875 249.30939 138.37671
210.33362 250.56319 138.34012
209.99811 251.73767 138.40218
200.90176 251.97874 138.46909
210.73628 241.50305 138.54922
210.37672 242.63408 138.51755
202.26556 250.76237 138.55235
204.33328 252.95525 138.54225
211.78311 245.65347 138.61966
218.96002 225.90401 138.74536
202.53539 243.14438 138.78824
235.68909 248.65288 138.75185
240.09602 225.53944 138.89322
204.34125 240.23178 138.84775
243.8054 242.8869 138.85773
204.0278 253.35431 138.95154
206.59969 254.31912 138.93341
232.04126 225.24944 139.05609
242.56213 230.15448 139.04842
244.32944 233.18863 139.125
244.01645 242.76463 139.11208
208.91528 253.64951 139.19217
243.38687 231.27466 139.24745
234.59718 248.87988 139.21539
236.08894 248.57945 139.38968
224.39175 250.13414 139.34715
203.94469 252.16203 139.6315
212.16656 227.4382 139.94727
207.24783 238.19322 139.99707
228.42105 225.86293 140.09183
210.34723 237.79305 140.03786
202.49709 250.48122 140.02821
239.80794 225.71703 140.2231
200.84647 246.88657 140.2598
232.93237 249.16245 140.28392
213.18594 248.70345 140.33664
206.02821 238.13853 140.52299
246.7836 236.87109 140.67198
246.63303 237.4617 140.74963
210.40601 239.08923 140.76001
208.97382 252.82462 140.73181
229.8101 226.1716 140.82063
209.43147 234.28073 140.83621
227.11716 249.62402 140.95108
205.07774 238.30122 141.04666
202.36642 241.11769 141.02145
223.06519 249.82172 141.06593
207.15916 237.27347 141.18359
209.91234 241.11295 141.19434
210.35771 237.78378 141.29532
203.72617 252.62946 141.23259
209.87311 251.38577 141.39941
239.45717 226.51114 141.58954
210.69559 238.38657 141.86453
222.37024 249.67889 141.87712
226.8602 227.02951 141.91899
209.30571 230.90021 141.98927
227.57123 249.48508 141.99303
209.69484 233.66344 142.00673
210.71815 244.26787 142.05275
245.85004 240.65259 142.1564
214.20569 249.52954 142.25189
203.34 251.52281 142.29893
240.08035 226.78481 142.34961
230.72702 227.06349 142.49014
252.78223 240.61253 142.44662
263.10132 241.37241 142.40843
260.62515 240.02473 142.78462
201.34871 246.4957 142.71548
248.63489 240.86618 142.80841
205.41783 252.67461 142.86285
223.84561 227.87268 142.98642
261.31827 242.65961 142.91785
258.30807 242.77695 142.97369
240.0759 244.60095 142.95918
227.2341 227.63161 143.02538
209.38562 235.3212 143.07538
247.56857 232.85446 143.18637
224.87927 227.9102 143.20316
246.19817 230.21854 143.27765
247.63152 237.61607 143.26414
257.83179 243.13333 143.20343
252.39748 238.21326 143.31279
257.72064 238.58374 143.36389
201.45892 246.97929 143.38948
208.38452 251.58371 143.31082
248.52785 234.68076 143.4445
207.41853 235.9726 143.44389
259.94794 238.87407 143.53592
248.40198 236.80414 143.65604
256.90997 237.86783 143.7077
215.67191 249.73651 143.78113
260.19299 238.41879 143.81079
258.93707 244.62505 143.85696
240.40695 227.56326 143.92619
209.98782 230.93716 143.95416
206.14995 236.29865 143.93353
262.37338 239.09744 144.1235
263.98703 240.93916 144.18715
259.81042 245.30627 144.18846
233.72983 248.29237 144.19962
224.32721 249.02463 144.1086
227.84146 249.13654 144.11777
255.70544 236.69083 144.28563
210.3147 242.01903 144.26715
251.38565 243.77568 144.22334
231.58398 249.26056 144.28293
231.72717 249.23547 144.20959
218.60907 228.31044 144.30884
228.14502 249.12671 144.34419
247.99118 231.81497 144.47606
261.20618 242.09053 144.84869
217.81088 249.89468 145.03407
205.34918 235.99155 145.25603
261.86652 237.5128 145.20091
269.73917 241.05246 145.26653
235.73297 228.57477 145.32327
212.01181 247.89864 145.47589
231.2973 228.797 145.56427
259.38211 236.19679 145.53506
261.21033 238.4847 145.51172
211.01489 239.93814 145.5403
221.83913 249.23328 145.5686
210.98584 242.7059 145.65749
238.07866 228.37009 145.77863
245.17506 227.95488 145.81735
247.7654 229.30635 145.8773
224.38022 248.71365 145.86877
248.54166 230.82758 145.91142
268.08426 242.90311 145.93425
207.64702 250.37329 145.95328
232.73907 229.11263 146.1543
251.4996 231.7016 146.16519
202.2524 241.73752 146.13271
202.12961 246.70998 146.21997
220.05405 249.52066 146.24353
250.99951 231.19905 146.32574
263.49347 243.62665 146.37979
203.59518 248.81729 146.38158
250.94464 230.92957 146.44188
205.39626 235.42438 146.42639
270.55334 239.79987 146.46367
255.2245 233.78311 146.51526
209.06032 248.88818 146.51479
221.37701 249.29678 146.5737
270.41003 239.56061 146.61847
225.75652 229.91855 146.70741
266.8598 244.2002 146.70155
231.26155 229.56326 146.88257
243.47063 244.59241 146.80843
263.28592 237.66437 146.929
202.27463 247.51544 146.96802
261.91122 234.78015 147.03035
269.6557 244.01071 147.03554
261.81253 245.02866 147.06186
254.21965 245.68573 147.04111
261.25134 235.468 147.10527
206.32237 250.12018 147.1657
275.28027 240.1705 147.23566
240.78931 244.8656 147.34196
270.89307 243.3997 147.44513
227.39774 247.86829 147.58749
256.0488 233.16058 147.64021
268.95468 244.82904 147.70276
260.53192 245.12178 147.78792
254.01767 231.78426 147.84164
244.20871 244.70706 147.80649
210.93607 246.23863 147.89214
202.85818 247.27518 147.98218
202.62859 245.8055 148.04721
246.38954 228.70128 148.14911
259.84619 244.80331 148.16736
230.40929 230.42566 148.26883
210.9581 246.38933 148.29501
210.55003 244.18565 148.32835
252.40932 230.11011 148.42664
278.83578 239.65372 148.414
261.79123 235.70468 148.56853
264.51401 236.0484 148.59467
259.84985 245.15138 148.57954
223.34642 247.06432 148.6156
229.03473 247.3156 148.78957
205.80569 234.87665 148.88774
202.86285 239.72989 148.82755
248.13455 245.31876 148.87933
268.6275 245.48154 148.84853
256.50565 232.14952 148.94418
242.25223 244.79633 148.96498
202.67839 243.92165 149.04768
260.15204 245.57915 149.08122
246.14583 229.46706 149.16032
219.50787 230.95209 149.15675
273.96042 243.40253 149.18452
238.39247 244.48892 149.19075
233.66626 244.89886 149.13788
244.64529 244.909 149.24887
226.20676 246.95493 149.22485
232.7594 230.52173 149.37823
268.12744 236.02328 149.38222
228.87988 246.82669 149.48135
202.7319 240.88785 149.87372
212.13124 231.10797 150.04689
283.24493 240.071 150.15805
266.62479 245.9079 150.13043
266.64343 234.93893 150.29286
239.54463 244.6084 150.21935
265.14963 245.6774 150.2038
214.37424 247.92694 150.3157
228.5116 246.16974 150.43452
232.44456 231.08069 150.54285
217.68021 232.54449 150.58336
257.42969 232.81909 150.51917
260.14709 245.69412 150.50453
205.82599 247.67902 150.56212
245.45847 230.87131 150.69107
254.97437 232.38506 150.60065
221.48239 234.48949 150.60693
253.70396 232.35617 150.77866
284.08594 238.29263 150.74397
234.08203 244.00125 150.82222
209.85641 245.48044 150.94563
281.34222 237.07172 151.07912
241.66238 244.90028 151.0121
220.83463 246.25212 151.04433
246.03171 231.64761 151.14709
220.27217 236.52084 151.22589
260.81625 244.24347 151.27863
242.45958 244.55803 151.35968
205.33885 246.71883 151.37166
207.61673 235.35995 151.47243
236.12082 231.32361 151.55595
243.9314 231.31374 151.52895
245.19049 231.81161 151.57542
222.47327 233.32861 151.53633
226.08745 231.64435 151.66196
251.19189 232.98726 151.61893
207.70618 235.79254 151.62302
272.6037 244.80389 151.67052
237.27928 231.57349 151.75328
250.57672 233.12366 151.74759
232.81836 233.392 151.73206
264.71408 235.14113 151.79753
272.40643 244.77679 151.75377
213.13826 230.75285 151.84441
244.20551 231.77135 151.88129
265.5881 244.74359 151.88554
235.56485 231.47964 152.01732
259.41129 236.46146 152.09923
232.2659 236.92387 152.0791
