# .PCD v0.7 - Point Cloud Data file format
VERSION 0.7
FIELDS x y z
SIZE 4 4 4
TYPE F F F
COUNT 1 1 1
WIDTH 1550
HEIGHT 1
VIEWPOINT 0 0 0 1 0 0 0
POINTS 1550
DATA ascii
-5.5525503 5.3775167 23.236515
-3.0861254 5.9768457 23.245081
-5.3710194 -5.2233558 23.370808
5.8831515 -5.1776476 23.399647
0.51431078 -5.0193839 23.312666
-1.9723843 -4.7131624 23.370127
-4.5345182 -4.2767553 23.320511
-5.7586312 -4.0823927 23.327238
5.1902804 -2.5346053 23.312088
2.031908 -1.3137867 23.305567
7.6454134 -1.2850406 23.393948
2.0396152 1.6815524 23.370264
-4.7285032 5.5841913 23.327778
0.35773319 -6.1841769 23.478998
8.303299 0.21606624 23.433193
-8.0179033 1.8150378 23.472294
4.7402153 2.9472156 23.482374
1.1982532 -4.9073863 23.569511
4.3839931 -4.3449535 23.53635
-4.0598454 5.7629447 23.55365
-2.276422 6.1642995 23.529337
-1.9314389 6.2389536 23.505249
-4.4771976 -5.3627105 23.65732
0.60754234 -5.0157452 23.660278
-1.8034166 2.0610857 23.628187
7.8412514 2.6022985 23.633558
-5.4542303 6.7969275 23.605114
0.86469573 -4.9744749 23.7794
6.938827 -2.7011776 23.76339
-7.8380699 -2.4227114 23.711134
2.7962794 -1.6658385 23.799078
8.5663815 1.3270421 23.711952
6.4411597 1.7194021 23.78957
-5.5203848 2.8714216 23.782372
3.8761909 5.8803954 23.705215
0.31636897 6.6589875 23.751156
0.87994915 7.8325238 23.751823
6.6774778 -3.2184548 23.805988
-6.830071 -2.3487363 23.846428
1.8437532 0.4680711 23.866226
-1.7638246 2.0159016 23.825016
-2.4371579 2.4971802 23.85709
5.7409558 6.7713776 23.82091
3.6940198 7.217279 23.800467
-1.5396068 -5.873199 23.994322
-7.1323242 -3.7263172 23.993355
-3.2209692 -1.9475603 23.9795
-7.8083296 4.299159 23.937527
-1.9090227 -5.797009 24.090099
2.0591638 -4.7728462 24.06583
2.2134428 -4.7433863 24.010971
7.0157757 -2.4925082 24.070961
-9.2901802 0.64467448 24.053915
6.6447468 4.6737823 24.089832
-5.8363838 5.3704872 24.086443
-2.6184144 -5.6624637 24.13851
0.042854674 -5.1017642 24.199617
3.4433913 -4.5315528 24.192572
-3.5061147 -4.4677458 24.100266
6.3428154 -3.8386617 24.10006
-6.4798951 -0.66417897 24.104546
-7.9206972 -0.026019886 24.164999
-5.509769 -4.1232815 24.270567
-6.4778337 -2.9923577 24.207912
5.1312914 -2.5633154 24.278986
8.5137377 1.3929425 24.238232
-1.0789239 6.4458933 24.24687
0.92797041 6.5406904 24.295135
-0.95574278 7.696981 24.295673
-0.4768365 -5.0125213 24.333319
1.6733987 -0.53086352 24.385719
8.7710342 2.9023812 24.37541
-6.3231421 4.7369428 24.377209
-5.5845847 5.4543896 24.39938
-3.4312963 5.9349828 24.34465
0.033275768 6.6930065 24.398802
-1.6693789 7.5316081 24.394091
6.5549006 -4.963635 24.443069
-2.2355762 -4.704071 24.418497
7.0073047 -2.451107 24.402676
-7.7701221 2.2004223 24.446959
7.7310753 2.7529638 24.460091
-6.7052565 4.0656929 24.422829
6.5351343 4.8446159 24.494736
-3.9552937 5.823842 24.461554
-2.170274 -4.7179089 24.551512
2.1426837 -4.7722573 24.589893
3.3047671 -4.5664315 24.53097
-4.8049154 -4.2533894 24.542984
-5.9485469 2.1559362 24.532169
3.9204504 2.9289641 24.546257
8.6107178 3.1567159 24.521364
-5.3890705 6.7104168 24.531567
1.4357073 -4.8983102 24.673336
-2.0231507 -4.7461977 24.68631
4.6901212 -4.324554 24.66021
-8.4277191 -0.84295642 24.651632
-9.3815231 1.1491697 24.604952
5.3992152 5.5746717 24.662544
5.232657 5.610837 24.655281
-0.67709738 -5.9654746 24.749401
3.9264028 -4.4604669 24.735733
6.4631424 -3.4796133 24.75326
-6.9558463 -0.043265775 24.737289
8.1300631 2.0398586 24.74283
6.3491116 5.1546469 24.794882
5.577703 5.5384898 24.762148
-2.7369998 6.0967145 24.705294
2.1198211 6.2946849 24.777
-4.6509624 -5.2311716 24.804695
5.1459465 -2.507798 24.814877
4.5406036 5.7672496 24.832438
-3.4964726 7.0903792 24.810198
-6.1201386 -4.9473176 24.964928
-7.0913582 -1.633448 24.928993
-1.3867584 0.078486443 24.97226
6.8230171 4.3136072 24.984791
-6.1865044 4.9369292 24.966915
-0.38850346 6.6152396 24.906158
0.43879724 6.6651425 24.90502
1.5061663 -5.8354573 25.086037
0.64190608 -5.0456104 25.096251
-2.7867208 -4.6177387 25.034767
7.6242404 -1.087763 25.092539
9.5708065 1.0469534 25.000893
-7.8823156 1.971874 25.0658
-8.7204227 2.2977819 25.013268
-0.75096011 -4.9779 25.114647
8.9758863 -0.068348095 25.199457
-3.4289618 5.9595957 25.199957
-0.9361217 -5.8783417 25.212282
1.055286 -5.8926516 25.281374
8.0726004 -1.8511117 25.286678
8.3353071 0.35640615 25.203047
-8.3616476 0.97852838 25.22813
0.98042977 6.5597868 25.286928
0.7630223 -5.0279946 25.309141
8.6204405 0.96548641 25.388355
9.4538155 1.2816825 25.30842
-2.2528305 2.7121272 25.35537
2.66044 2.761775 25.378656
-4.3978901 3.2435288 25.359631
-6.7432604 3.9118698 25.315353
4.5021715 5.7914538 25.335051
7.0098853 5.8780622 25.354059
5.9331012 6.5776744 25.321928
1.0594916 -5.8729935 25.450838
-6.2591519 -0.76414984 25.471947
-7.2301259 4.9192166 25.485909
-2.693491 6.128221 25.483572
-0.20058967 6.6603098 25.425972
-6.4094214 -4.5441599 25.574665
-4.4101396 -2.7276387 25.579437
6.869833 -2.4780083 25.585161
8.912508 -0.04598318 25.559116
9.0631466 0.25083286 25.543402
-6.1104589 1.876456 25.559376
6.4396911 4.8767409 25.510159
-3.7341213 5.9029236 25.552416
0.49980468 6.658524 25.58136
5.7237725 -4.1601653 25.674747
-1.2210716 -1.225803 25.612839
-6.7228756 0.82030809 25.637802
6.0979214 6.5165782 25.694323
-4.0585251 -5.2601123 25.725155
4.3295217 -5.2564039 25.780554
-1.5349288 -4.8505373 25.730982
4.7922535 -4.326406 25.793413
-5.3171873 3.1826258 25.791803
4.1630697 5.8782787 25.738899
6.5084348 6.4403548 25.70726
-3.4062078 7.0038681 25.786755
-1.7799535 7.3575497 25.775846
-2.3912969 -5.5565672 25.838934
-3.2136321 -4.5575743 25.895073
4.1975031 -4.4329023 25.889513
-7.1908689 -2.8145747 25.896725
-6.5188284 -2.5621727 25.860741
-8.6714287 0.15248568 25.861576
8.5102243 1.2343556 25.895275
8.80688 2.4010386 25.871016
-1.4555279 2.6039796 25.864054
-7.1271009 4.9939508 25.884716
6.6714954 -0.49521744 25.913874
8.3195438 1.5488255 25.972301
-6.3108988 4.54423 25.923014
-4.560781 5.7334609 25.94348
0.012602091 6.7034521 25.963436
0.07564351 -5.1046915 26.043797
-3.0341849 -4.5918174 26.044586
-8.3692913 -0.3829039 26.036821
-8.5075321 -0.10677932 26.031349
5.5814357 3.1113505 26.013882
1.2601311 6.5221295 26.033854
-0.17502977 -5.8689733 26.166174
-3.701019 -2.3809345 26.142891
8.2891502 0.48608682 26.175369
-9.0715504 1.0651641 26.117809
5.8136225 5.5301385 26.141783
-0.62273812 6.5865741 26.124313
1.9015275 7.349535 26.159763
0.89252967 7.565608 26.18399
5.8102856 -4.946857 26.2122
1.4320207 0.673522 26.239056
-5.5563173 2.7824981 26.254429
4.1526451 5.8969288 26.259596
-3.9288344 6.8440685 26.215015
-5.7145166 -4.1103201 26.339527
-6.0329485 -3.4450388 26.300201
-1.1378959 -0.37374824 26.358543
-7.7624617 0.025526047 26.33655
6.780549 1.0804161 26.321033
-7.785481 1.9151443 26.385405
-8.0416126 3.1587877 26.373581
-6.0308313 5.0189013 26.347754
-5.8131189 5.4714527 26.349043
6.6674995 6.2273445 26.332455
5.3527474 6.5949044 26.39378
4.8365884 6.6900477 26.385897
3.8870656 6.8931646 26.399094
1.9125957 -4.8450117 26.428368
-7.071537 -1.3221726 26.463709
-7.3335581 -0.81357706 26.404631
-4.691503 5.7183647 26.419165
4.4895334 5.8289595 26.440056
3.6216588 6.0195022 26.466347
-6.4163818 6.1550684 26.416264
-2.9828262 7.0231886 26.453735
-1.7188519 -5.6199846 26.531603
-2.1353381 -4.7590094 26.546253
6.8721991 -2.2586479 26.519424
7.1397605 0.11180948 26.502279
-6.8534651 5.3073654 26.548828
-5.5747843 5.5279298 26.505775
-3.9533575 6.7987008 26.58374
-6.2326326 -0.6569947 26.688951
8.1087427 0.23364431 26.641468
7.0243397 3.6492209 26.686886
5.3308625 5.6520991 26.664349
2.7783055 7.1090612 26.62402
7.894784 2.1434996 26.71183
7.9670744 3.704155 26.735983
4.255733 5.8890481 26.725662
4.5738688 5.8202028 26.747889
4.0522308 -5.2121406 26.877251
-5.6427646 -4.8728099 26.833437
4.924159 -2.7160885 26.840681
-6.9305038 -1.5166907 26.840387
-7.6875319 -1.4187092 26.845314
-8.235446 -0.31237817 26.852219
7.6304393 2.5711508 26.863192
-7.9930067 3.1071978 26.860342
6.5166893 4.4885101 26.88085
3.2613628 6.1100383 26.84087
-1.1731753 7.3766947 26.810408
-3.9021654 -5.1857166 26.912991
5.4739661 -4.2257795 26.907251
6.332859 -3.2690866 26.903427
6.6080947 -2.6857758 26.951183
5.6096239 -1.6778886 26.906733
7.7456365 2.3486292 26.991251
7.9381566 3.7049277 26.917389
6.2471142 5.1088333 26.941925
3.8552346 -5.2362695 27.016247
3.1660855 -4.6343107 27.010715
-4.961298 -4.2701612 27.069757
-5.5421815 -4.1678886 27.075287
-6.2577848 -2.8064041 27.071589
-6.3417959 -2.6524789 27.003271
-1.8035381 -1.5673419 27.004641
-7.3336096 -0.67042094 27.027283
8.1762695 0.47355193 27.099949
-7.7965679 1.7717972 27.051991
7.9686956 1.944097 27.097862
-6.9338131 3.2602806 27.048426
-6.0940795 4.8067656 27.019663
-0.21499225 -5.0621328 27.110739
0.9509387 -4.999238 27.12487
6.3595004 -4.5571623 27.182066
-8.2298574 -0.1892646 27.174389
8.4497299 1.0997965 27.177078
7.6751475 2.4480419 27.110081
-8.1828613 2.6556115 27.110062
-1.5993853 2.8712368 27.197401
-2.3413458 -4.7343946 27.213585
-0.99549919 -0.23539373 27.274759
17.525 2.076062 27.267208
-3.1800854 6.8992481 27.20113
5.8787446 -4.8365192 27.33824
-4.2657833 -4.3979192 27.365913
-5.2531033 -4.2232623 27.328156
-5.9150162 -3.479826 27.315998
18.245625 1.1368175 27.348349
-7.735023 1.8282135 27.318768
-6.7597809 3.5058131 27.34132
-17.337023 4.1915216 27.32856
-6.6062388 5.5367994 27.333591
-3.2500622 -5.2613883 27.421463
5.1770868 -4.9533143 27.477913
-5.1501818 -4.2431121 27.425867
-0.94849461 -0.53299135 27.483494
7.1088057 3.3663652 27.423054
-2.9767737 6.1206975 27.405327
1.793159 6.4354086 27.436272
27.996252 -17.37199 27.524364
2.0684536 -5.5069909 27.564625
-1.1224658 -4.9365978 27.593971
-6.7493782 -1.7160923 27.543571
1.1359923 -0.94799548 27.587128
8.4241686 -0.20178941 27.54361
18.430845 1.1405261 27.525621
8.7607393 1.79352 27.550636
7.3307371 2.9616346 27.541172
-19.223034 3.1926913 27.532063
-16.876419 3.8116276 27.585188
-1.6920011 -4.8566003 27.657251
-1.7657812 -1.5976413 27.669544
-8.109127 1.1304901 27.600918
-8.5496616 1.6146051 27.625174
-21.289268 1.863425 27.687374
-17.227148 2.0346444 27.627254
-20.685535 2.2325268 27.654583
20.336519 2.3428702 27.601902
-20.205482 2.4098473 27.620541
-5.4312344 2.971859 27.675571
-6.875701 3.2538147 27.620853
5.4561276 -4.2440948 27.773315
5.9748025 -3.8473926 27.750885
6.2932568 -3.1729722 27.754589
-3.0198884 -2.2220123 27.728889
-5.7700524 -1.0742124 27.719357
-0.88407123 -1.0183829 27.748425
6.9462476 0.67512542 27.783224
-21.678656 1.5121913 27.700768
-21.626165 2.3199391 27.751101
-7.0225973 2.9747479 27.758995
-20.913239 3.5436511 27.74506
21.210968 3.7459714 27.752148
21.289495 4.0533428 27.76862
-2.4494593 -5.3719187 27.842701
-2.8056293 -4.6630139 27.809578
6.6433792 -2.4075046 27.872116
3.0700724 -2.12814 27.808674
-7.5499172 -0.05892092 27.812614
8.506464 2.2101047 27.867668
-20.02088 4.1179314 27.899834
-2.4779873 6.9858637 27.804745
4.3821669 -5.0599771 27.931671
6.8689914 -1.9301418 27.9771
-22.521101 3.3685327 27.909126
7.0100112 3.4350791 27.968531
21.611843 4.160347 27.917665
6.5014706 4.4232798 27.923679
0.41198525 -5.6581879 28.078516
-2.7852223 -4.6707702 28.047045
-4.10008 -4.4383435 28.006552
-21.323765 4.1140375 28.070908
-5.9849558 4.9538808 28.059139
5.8569698 6.3618603 28.088568
-2.1350098 -1.7842284 28.146828
-6.9603267 -1.1638939 28.117275
-7.4596901 -0.1686244 28.117764
2.7863832 3.2795994 28.178776
-4.6245446 6.5339231 28.122757
4.0908651 -5.0861278 28.246956
-3.6191301 -2.6818519 28.254087
-7.267766 -0.51681411 28.266998
-6.1406779 -0.58141547 28.294136
-8.6147861 1.0272806 28.232563
17.681875 1.5816529 28.295229
1.1696053 1.9011874 28.280647
20.292007 4.0156279 28.240618
-5.3984504 5.6156235 28.245386
6.5046673 5.9820399 28.212343
25.079769 -12.871417 28.313541
-1.5493366 -5.4457788 28.377874
-1.5198995 -4.8801556 28.373091
5.4282084 -4.2587519 28.329159
1.3681841 -1.3852719 28.328636
-7.7684474 0.50248361 28.360634
20.181141 1.1567388 28.391085
22.511593 4.0612411 28.357651
2.4375901 6.3242397 28.360653
1.1820887 7.2637463 28.385174
26.634691 -11.611616 28.467983
-1.7377056 -4.8500357 28.485203
-6.5427189 0.96307248 28.490444
7.0493908 3.2728107 28.47485
6.6613064 4.0055699 28.40169
3.9549713 6.6809678 28.438667
27.667805 -14.553253 28.539772
6.1195512 -4.5081162 28.503664
-4.9555788 -2.2292931 28.500648
-7.6169152 -0.86159962 28.522072
-8.5488501 1.0172676 28.526943
-6.624135 3.5121365 28.562576
24.749773 -12.63714 28.634937
-6.1975145 -2.6000092 28.651434
-8.0497541 0.06582579 28.655682
-20.547899 1.1624775 28.699764
18.265486 1.1669776 28.646919
-6.3152108 1.3767843 28.611843
7.8294406 1.8996477 28.624958
-7.9348192 2.4839859 28.696545
5.2257767 3.6660757 28.694729
-6.9437232 4.5338387 28.63394
-4.1889796 6.5689988 28.66054
-0.016790822 6.7157931 28.646812
29.005159 -15.99995 28.788208
-3.445662 -2.6570959 28.752331
-8.1636171 0.32910544 28.737133
-17.158916 3.184545 28.781275
6.5860929 4.1438231 28.795639
-4.1231337 5.9097066 28.796719
-0.94502223 6.5440025 28.726334
2.9171565 6.844945 28.77844
26.377888 -14.527228 28.896763
27.839851 -14.539597 28.859356
-0.89488941 -4.9645734 28.831688
4.4493532 -4.9661407 28.870323
-1.450696 -4.8883953 28.852776
4.1264257 -4.4972506 28.847797
-3.871676 -2.9396834 28.859718
7.9166446 -0.67939883 28.849152
-7.5200305 1.9180121 28.826336
28.37743 -17.963156 28.959465
28.80402 -17.823097 28.990015
26.40608 -14.227381 28.951883
25.516773 -13.684104 28.972561
-6.262753 -3.467967 28.914516
6.4029903 -2.6840658 28.969585
1.2766808 -1.3932649 28.994215
6.2707486 4.8661485 28.932964
2.4259784 6.9379215 28.902618
26.418087 -13.960847 29.058191
26.58881 -13.824382 29.076237
1.0789783 -5.4665613 29.029984
-3.9049945 -2.9869442 29.019104
6.8390169 -2.7954872 29.041735
5.6430492 -1.4959644 29.016014
-6.9332442 -1.0008863 29.061697
8.0676022 -0.30761653 29.011631
-7.7696443 0.66520953 29.058527
8.0414705 2.6885309 29.073627
-5.4977541 2.8460722 29.012497
-2.6599107 3.4520607 29.034424
6.797245 3.6232324 29.095665
4.3381057 5.9430227 29.015013
-1.8415043 6.3798323 29.066189
1.6310194 6.4755802 29.043411
-4.261446 6.5212054 29.076311
-4.2854824 -3.2024395 29.106205
-6.2541704 -2.3823602 29.114208
-2.1680143 -1.9266376 29.132664
7.3464861 2.6374187 29.135143
-20.815369 3.7733698 29.146397
-6.4987898 5.2104683 29.139534
5.0065765 5.801362 29.157051
0.70996028 7.2806168 29.171974
25.516327 -13.78807 29.260693
27.302696 -12.910252 29.275845
-6.8507843 -2.0968776 29.284883
6.9468837 -1.4826465 29.249214
-0.78120238 1.9646497 29.226543
-7.3354197 2.1648846 29.20993
8.2484074 2.1336412 29.292616
7.2187538 2.8396263 29.23208
17.63028 3.6055968 29.248236
25.582428 -13.777509 29.321854
27.655666 -11.6094 29.349804
4.5356126 -4.4336634 29.334356
5.4731722 -4.2691026 29.372379
-4.4509478 -2.9358149 29.379004
-6.531486 -1.7391615 29.381916
5.6984415 -1.3945007 29.303123
8.2186537 1.0795705 29.370052
-7.8579082 1.2373264 29.352278
18.369621 3.6276252 29.302561
-3.6070309 -4.5503826 29.442215
-19.312431 1.1818218 29.412523
-7.2020311 2.3425474 29.490913
-6.468843 3.7084188 29.4076
1.2117387 -5.3882732 29.575058
2.439934 -4.7889919 29.57159
2.5651457 -4.7718544 29.567036
5.063251 -2.3379104 29.540985
-6.3212042 -2.1442466 29.569927
20.150967 1.1832584 29.528326
-17.649282 1.2178527 29.58836
-21.854782 3.6858196 29.564754
-6.304184 4.0771399 29.50211
5.0695953 6.3841834 29.555439
25.181286 -13.680206 29.676682
24.898609 -11.476936 29.64356
26.579601 -10.647276 29.648563
-5.7167196 -3.4077582 29.641768
-2.7986434 -2.4126153 29.697687
-21.883949 1.1763005 29.602596
8.1945724 2.1005576 29.627737
20.343834 3.5966849 29.645367
-4.5410666 4.0258803 29.661413
-6.2674022 4.1518426 29.600204
28.367867 -15.427896 29.702469
23.561481 -11.373273 29.71674
-3.5148413 -2.8620634 29.72443
6.8848848 -1.4905777 29.793442
7.7201762 0.16643602 29.719387
-0.61751163 0.38583165 29.776154
0.87349725 1.2054577 29.794312
-22.28429 3.1531885 29.726803
-17.289335 3.157074 29.712145
19.477318 3.5226798 29.787271
27.051033 -16.049992 29.811062
27.543159 -13.741919 29.844488
-3.2704034 -4.617497 29.886925
-5.5289755 -3.7582929 29.862309
-6.3027339 -2.1330197 29.807915
20.032785 1.1906418 29.834381
-7.1659107 2.339483 29.841591
2.2707691 3.4463315 29.869173
4.8024807 4.074862 29.888262
-3.530654 6.5944176 29.805653
-0.52600181 7.1830759 29.884308
28.611637 -17.748388 29.900381
27.389515 -16.216236 29.92355
25.021257 -13.068393 29.993935
1.5169266 -4.9143829 29.968349
-5.1180239 -4.6965733 29.973953
-3.366817 -2.8150003 29.993933
-5.9853487 -2.7682025 29.979187
6.0223322 -0.86833596 29.905378
7.7601976 0.29503632 29.931984
-18.091799 1.1970834 29.95118
5.782588 2.6864974 29.965227
4.4549494 5.9478831 29.981936
2.7560687 6.7734342 29.968056
-1.5753858 -4.8682523 30.040806
3.7597971 -2.9335287 30.070187
6.5729694 -2.9249272 30.062206
5.4527845 -1.7199956 30.026541
7.4642348 -0.27606383 30.01342
17.917206 1.5539739 30.006554
-7.5516014 1.6365175 30.044655
5.1696157 3.7426808 30.034575
-1.471233 6.4552069 30.06683
-3.7125211 6.5407114 30.051468
-3.7969368 -3.1043787 30.126762
-2.0048709 -1.9985057 30.17227
0.73037589 -0.86282957 30.112635
7.2474298 3.9395018 30.173958
3.430654 6.1554508 30.165329
3.6413469 6.1167965 30.119627
5.7809057 6.2075586 30.114326
27.000135 -12.339212 30.296408
-3.1210086 -5.0355706 30.253689
-23.145338 0.82898742 30.210451
-5.0081711 3.6394556 30.219179
5.8249602 5.6574316 30.269138
-3.2597926 6.1243219 30.23959
27.09329 -14.911457 30.359177
1.5880461 -5.2507696 30.372265
3.3657746 -2.7431858 30.397089
-6.4399166 -1.7373545 30.306997
25.918776 -14.0094 30.425375
23.768364 -11.165071 30.477743
4.6645846 -4.7905989 30.436783
3.1936045 -4.6835585 30.428114
7.3963318 -0.31004447 30.454517
6.4018798 -0.29014677 30.474329
-23.065624 0.86093032 30.470112
7.9706941 2.2223668 30.448204
3.7838256 6.09302 30.444855
-3.1457729 6.1471367 30.48811
-1.2620234 6.4963541 30.415058
4.3232956 -4.4916101 30.506332
6.6655769 -2.5161221 30.587334
-20.918478 3.3509898 30.568842
3.4050336 -4.9913397 30.637699
-4.0623441 -4.8306217 30.664131
3.6255369 -2.9403965 30.612015
-6.1973977 -2.8832023 30.657383
-2.181546 -2.1927102 30.678961
-2.0412197 -2.0959971 30.621801
7.0365539 -0.9812364 30.685398
6.0389276 -0.79413128 30.694077
-22.528406 0.86686695 30.610241
18.012842 1.5008868 30.641548
-2.3393674 6.2979555 30.656488
25.509136 -12.921238 30.778976
6.5787411 -2.6090443 30.79777
5.0262194 -2.3176012 30.762856
-21.000254 1.2089453 30.745554
6.4922047 1.3147748 30.799368
6.9794521 3.0462856 30.710232
-6.5794535 3.3168383 30.789492
6.1040678 5.079236 30.796329
-2.6024694 6.6838312 30.775034
27.878532 -12.376503 30.860003
-2.7592793 -2.5735841 30.810469
-6.9786525 -0.50237948 30.83762
0.63398194 -0.36091429 30.844303
-6.3884645 3.7467546 30.876675
-3.3273907 6.5420208 30.884682
27.221779 -13.567335 30.985817
24.748188 -13.375473 30.992691
3.1013098 -2.6693122 30.939863
-0.38315237 -1.2520337 30.985723
7.0120349 -0.97576702 30.956692
-22.348238 0.88350016 30.937807
7.8753796 2.1941307 30.974506
-19.124002 3.1817734 30.915981
-21.709349 3.2575488 30.976711
-1.8571364 6.3891554 30.909462
-0.54184169 6.633347 30.912085
26.172276 -11.349584 31.037876
-2.9930224 -4.6714129 31.07951
8.2083282 0.84155005 31.087448
22.65439 0.89376324 31.091198
8.0234814 1.0817748 31.072578
8.2208128 1.4104605 31.024965
-1.1307435 3.4267881 31.057827
6.9665484 4.1794219 31.010868
6.378716 5.4025154 31.006628
-4.2754531 5.938868 31.004469
25.67382 -12.122159 31.114939
27.885229 -11.971952 31.143435
-5.3286691 -3.9097083 31.150747
-4.5895691 -2.6141567 31.184132
18.17885 -1.9629855 31.140818
-7.2274003 0.059069097 31.123714
7.6386275 0.33800486 31.17351
-0.51561165 3.0033753 31.194485
18.998203 3.0833988 31.195494
24.710054 -8.5813732 31.29533
2.0058122 -5.094296 31.291153
-2.6569123 -4.7170577 31.230236
3.8642321 -4.5856156 31.254425
4.4223781 -3.1962972 31.280167
-22.265488 -2.7476499 31.279644
-5.5601673 -1.1469955 31.231146
-6.4170156 0.077013195 31.293427
-19.002987 0.88519478 31.248703
5.4420319 3.2335222 31.224527
27.244749 -13.569989 31.387354
27.530014 -13.531347 31.30768
26.978781 -13.327742 31.342964
-1.0041736 -4.9431162 31.346643
-1.9420327 -4.8145781 31.381105
-3.6792207 -3.2321148 31.332262
-4.9615688 -2.0395274 31.399662
-7.0754185 -0.19857246 31.320612
23.165024 0.80283976 31.386982
-17.983759 1.230314 31.369444
5.9007931 5.5037327 31.321348
-1.9026891 6.3833175 31.304211
0.15966132 6.7585135 31.322235
6.4940438 -1.9669957 31.451134
21.101109 -1.8336208 31.401934
-17.789642 -1.5229174 31.497967
-5.4699984 -1.2690247 31.455685
5.7410555 -1.1993942 31.401497
-7.2406764 0.16937149 31.488657
18.153612 1.3391111 31.455366
-5.6477804 2.4238012 31.453518
-19.097609 3.0144792 31.471218
6.5766716 3.9138625 31.469746
6.1592283 5.6888318 31.419254
24.271469 -10.289741 31.518316
25.336624 -10.195626 31.541107
23.938902 -9.8693666 31.568001
-5.5693946 -3.3196185 31.533403
-18.399755 -0.0046753883 31.565973
0.87495786 3.3893716 31.52116
-5.8859253 4.837163 31.515984
6.0730543 5.0767083 31.590696
6.1234813 5.724205 31.525166
-4.6175351 6.24826 31.578114
-1.940069 6.3777103 31.505058
0.41951692 6.7129483 31.58374
6.5117302 -1.879168 31.689684
-7.6597281 0.52801168 31.647184
6.8167768 0.65459192 31.669561
22.517179 0.95177513 31.685314
-18.449202 2.9488485 31.611631
6.5284944 4.8721251 31.612215
-3.1111979 -4.6536131 31.705231
-3.7653921 -4.5634723 31.78257
-6.1654725 1.4439739 31.750431
5.6055512 5.7507157 31.710587
-0.35080317 6.6740928 31.708424
3.2809155 -4.8731098 31.824081
6.6122742 0.11184746 31.880539
18.209307 1.3201765 31.842487
3.8718345 4.1888189 31.869516
0.12788589 6.7638474 31.842606
25.651688 -13.693362 31.958858
-1.4033784 -4.8868427 31.966309
5.838695 -3.6852522 31.903124
-18.22588 -2.549386 31.91473
-6.8286963 -1.0542501 31.918947
-23.202387 -0.043104827 31.969822
-6.420908 0.95702302 31.948997
-4.5307603 5.8994055 31.902313
-5.6351142 6.0031605 31.911419
-0.25498953 6.6932507 31.915144
27.340723 -12.730551 32.03331
23.73443 -8.9842129 32.04565
-2.40973 -4.7488699 32.021568
-23.312916 -0.29522467 32.07048
-7.2977867 -0.018268645 32.085091
0.45787829 -0.051519096 32.015148
-23.095613 0.12352246 32.049614
18.199223 1.5474293 32.095848
-6.9689941 2.2985373 32.032501
27.237911 -12.665154 32.105839
22.946775 -5.4280233 32.11554
4.1628656 -4.720984 32.185059
5.4067836 -4.4709883 32.166744
-6.5022182 -1.2193563 32.134399
20.947807 -0.88971627 32.117737
6.8634381 0.53812897 32.1161
-19.650829 1.2444409 32.13723
-3.0519485 4.0918055 32.158482
5.9556732 5.295908 32.169075
-1.9256952 6.3848438 32.178303
4.0246181 6.3615217 32.131878
24.174288 -12.035543 32.25465
24.437078 -9.0618076 32.23793
4.1379142 -3.5264993 32.218822
-22.061359 -2.3698502 32.236214
-5.9320211 -2.3932927 32.286892
-18.028111 -1.8710704 32.287521
-1.1918218 -1.8391727 32.247688
20.883432 -0.87516057 32.220615
21.61871 -0.33022621 32.205673
-22.658733 0.85933894 32.251743
21.982439 0.99091494 32.292427
-21.247717 1.3858722 32.282215
0.53979635 2.7875104 32.284786
0.5644604 3.2066545 32.252419
5.2929959 3.4383459 32.291142
-6.0622702 4.3560061 32.281319
-4.0840545 5.9843378 32.204651
26.287098 -11.240623 32.393242
26.006714 -10.503121 32.394535
-2.5114279 -2.67682 32.354164
6.5162659 -2.1073909 32.325054
22.053154 -1.8956451 32.353546
-20.630985 -0.65726644 32.32637
-23.158226 -0.14000401 32.384411
-23.075605 0.019212604 32.376461
-7.7740297 1.1819565 32.356251
-19.354519 2.7538939 32.372246
-0.40961909 3.4764843 32.366451
2.5031736 3.9423177 32.392677
23.636734 -6.2014003 32.425201
20.849697 -3.1066966 32.422249
-22.737877 -2.5900362 32.444916
-6.1682787 -1.8496604 32.49445
7.2935719 -0.45701838 32.422489
6.6468334 0.91597205 32.470882
5.2545347 3.5009432 32.421165
26.49156 -10.407416 32.539673
23.779617 -8.251688 32.52145
6.0547485 -0.65258944 32.5816
-18.080242 -0.26142937 32.599289
21.69385 2.5750279 32.526642
3.5460703 4.2208247 32.515648
24.637211 -11.578158 32.690018
2.266083 -2.4391849 32.673122
-6.270472 0.014095724 32.667343
5.9701405 2.1578894 32.662136
-5.6259198 2.3838873 32.653233
-4.4731817 -5.1306348 32.782349
-1.1303353 -1.8897716 32.780605
-6.3777065 -1.639734 32.762863
-6.1432905 1.4169936 32.766151
-0.56017202 3.5739951 32.713852
-5.889452 -2.6032503 32.878696
-6.9924955 -0.3211816 32.871952
21.636341 1.0381427 32.885448
-0.22200792 2.623908 32.826973
19.768976 2.622088 32.828899
-6.3118019 3.7311008 32.802361
1.6591656 6.7174892 32.854031
21.110996 -3.0204859 32.927349
-6.6022768 0.55576849 32.917694
22.914268 0.57647246 32.995811
-21.368982 0.69138992 32.996052
-17.962519 1.9460851 32.971855
-0.17733741 1.9811915 32.927097
-19.828506 2.5873766 32.985596
5.2203832 5.8454647 32.968323
1.0957588 6.5935397 32.94722
5.2847724 -4.3398523 33.095783
-5.2760468 -3.8153222 33.020378
-5.3095703 -3.5584548 33.003918
-18.157188 -1.9244974 33.07106
21.258854 2.5974641 33.091858
1.0604191 3.6947079 33.014549
-4.8296919 5.8522925 33.092197
-2.7090566 6.2454934 33.009773
-0.16802651 6.7041402 33.023003
-1.5417253 -4.8647909 33.169094
-5.4228544 -3.2961183 33.111328
21.539301 -2.6671016 33.117905
-18.144978 -1.86199 33.148464
-6.7548351 -0.71382272 33.113117
7.2710352 0.025654376 33.102703
-7.1666565 0.39751065 33.13443
22.072054 1.0945487 33.19762
6.6372323 3.9354906 33.152702
-3.6797533 -4.6265364 33.252495
22.083735 -3.252965 33.241802
23.021793 0.26075917 33.255844
7.4831982 1.6417834 33.21254
-4.7686005 5.8648653 33.238018
5.0691938 5.8720956 33.293945
22.732706 -6.0912061 33.311966
-0.017890528 -5.0789146 33.341846
-1.0575057 -4.9305887 33.370796
-3.2715356 -4.6275096 33.311058
4.7790303 -2.5278561 33.371822
21.543089 -2.3449402 33.330399
-22.130222 -2.0429156 33.305019
6.5906172 -1.5212328 33.37093
6.6465845 -1.2506754 33.313713
7.2297778 2.5345011 33.364563
4.7968864 4.2899303 33.30991
6.0397797 -3.7741203 33.495876
21.938894 -2.8909686 33.461742
23.019878 -2.7061813 33.457397
-21.499046 1.1018971 33.402855
-20.359173 1.2648785 33.412842
7.3899002 1.8350334 33.408913
19.677927 2.4239645 33.479202
6.8707452 3.0396791 33.470745
6.5269504 4.0656662 33.401798
-5.1486778 -3.7899766 33.518829
20.045139 -3.1893373 33.5938
20.988747 1.0794454 33.564972
-21.886419 1.140846 33.578056
19.570473 1.2769413 33.500107
6.3603435 1.376058 33.531685
-7.1553454 2.0139294 33.528984
-21.053377 2.1406333 33.558754
6.2006788 4.5097618 33.514797
-5.7843552 4.797637 33.513409
-2.8693922 6.2206702 33.59977
0.97148865 7.0506811 33.569115
21.142231 -1.5112107 33.661282
-23.050106 -0.75429153 33.658489
-21.402874 -0.035697099 33.600243
22.82616 0.439724 33.674973
7.453732 0.52199769 33.622608
4.3406997 6.0037022 33.60643
3.5238822 6.1521292 33.626259
1.9798285 6.5411196 33.60574
-0.64380133 6.7101169 33.691837
-19.307243 1.1154926 33.729641
-7.7082267 1.8852642 33.792606
7.2403665 2.1505773 33.760368
7.0332108 2.7996154 33.735435
-6.6367025 2.8944938 33.711338
-5.5533504 -3.8603756 33.841915
-4.5782084 5.9052567 33.836243
-4.6378422 -4.6570654 33.908478
6.0856271 -2.3336112 33.936428
-6.3774409 3.4111705 33.912476
-1.8038492 6.3959155 33.960098
-0.34559178 6.6493554 33.921085
2.1388168 -4.753809 34.031509
-21.471937 -2.2816532 34.033348
-23.113194 -1.1916126 34.044689
22.469322 -0.57518399 34.039314
-20.133162 1.2786371 34.013474
7.5807981 1.3315848 34.028229
3.6049032 6.1286063 34.09177
0.25843048 6.7569408 34.098522
0.6891681 -4.9221778 34.189682
19.626251 -3.1801004 34.162109
-22.987978 -0.99047124 34.180477
-21.288605 -0.90835243 34.104858
-7.017272 0.26055717 34.155647
-18.674278 2.1081238 34.17321
3.9438441 -4.5040488 34.220615
-7.3942528 1.1081051 34.242447
5.7066002 5.3533077 34.217094
-5.1157889 5.808507 34.205353
-2.7491794 6.2258668 34.200253
-1.3098412 6.5002623 34.258392
0.49213877 6.6628537 34.260086
-0.77251351 -5.3551421 34.349289
-4.207233 -4.4157925 34.370693
-22.092821 -2.8218942 34.359608
20.893398 0.58982247 34.366905
-7.2194238 0.74572873 34.316422
-21.108891 0.81843519 34.364773
7.8355198 1.648771 34.374355
7.2181678 2.0821986 34.333344
-19.434853 2.1760955 34.310722
-5.9054813 4.2961812 34.33947
5.2331562 5.8454127 34.39933
-2.2549834 6.3061609 34.395958
-1.26315 6.4958506 34.333282
19.413204 -2.5182676 34.44717
19.794867 1.1185199 34.478977
7.2809706 1.9266391 34.402634
-0.64988726 -4.8455124 34.561348
-1.563226 -4.7198658 34.521851
6.2677002 -1.6684834 34.563984
21.154926 -1.560336 34.579113
20.105082 -3.3535731 34.627575
-5.5128078 -2.6294796 34.610714
21.173275 -2.1736634 34.600239
-6.6586614 -0.26705718 34.620777
-20.343407 1.179667 34.652618
20.439751 -2.2689896 34.734642
18.797264 -2.1174543 34.713501
-6.905736 0.30131119 34.746574
-2.2857273 -4.5876827 34.820797
5.800705 -2.5007348 34.833588
-22.37816 -2.132905 34.8647
20.600319 -0.49584869 34.82037
-7.3730745 2.1967587 34.858841
-1.3147364 6.3710427 34.802288
20.507475 -0.70059174 34.980442
0.14850153 6.6983709 34.976238
-22.305748 -2.2490361 35.082878
6.5095644 -0.94745886 35.032303
19.656694 1.6595473 35.02142
4.3599253 -4.3246965 35.108257
7.2525787 0.66361177 35.100555
20.49691 0.75921857 35.10091
20.408073 1.2259057 35.174198
20.833359 1.83175 35.17942
22.531837 -2.3828285 35.218555
22.153032 0.64243948 35.202179
18.859476 1.6704237 35.224655
-19.025568 -2.600508 35.385487
-21.888023 -0.2312111 35.361412
-21.786331 0.56459963 35.349308
0.097478442 -5.1361804 35.406544
4.6334496 -4.2473507 35.410675
-21.934044 -2.8035898 35.430901
22.797516 -1.1166939 35.472309
19.835493 1.6171576 35.418301
4.4549656 -4.5993619 35.519707
-22.140198 -0.50590748 35.565247
-18.260197 -0.18139285 35.544174
19.646467 0.16477072 35.572582
18.444836 0.9568969 35.531059
-18.512606 1.6170634 35.577763
-19.809822 -2.8445213 35.694672
-6.8609505 0.76192057 35.654404
-21.236385 1.2131352 35.600548
18.822205 1.8880534 35.601658
5.1260033 5.5269961 35.649963
-20.40164 -2.7396371 35.721294
-18.617834 -1.4427541 35.757488
21.730186 0.44742376 35.796356
2.2791355 -4.4942408 35.87207
20.469904 -2.7001905 35.852993
-18.608063 -0.76446307 35.802517
5.2735333 5.1875763 35.862553
-4.1861858 5.9647026 35.897141
-2.3991368 5.9047966 35.819881
-3.5217154 -4.2662201 35.992981
-5.3126836 -2.3829014 35.990913
18.817051 -1.3507872 35.925797
18.865765 -1.2374192 35.948608
-20.080437 1.3125143 35.901474
5.9934654 4.0003333 35.940903
-4.9493618 5.3958764 35.952713
19.018301 -2.0242956 36.032387
18.905012 -1.5294278 36.054073
-21.325048 0.2070428 36.081211
-19.755672 1.318877 36.000378
19.682234 1.3252332 36.078079
19.071602 1.4571247 36.072117
19.35055 1.61901 36.087154
21.202381 -0.0899975 36.187965
3.2473812 -4.3026896 36.242653
17.880939 -1.2421535 36.29285
-19.027412 -0.43241435 36.203026
-6.2724371 -0.1566453 36.246799
-20.463696 0.62043738 36.262489
-3.4065292 -4.2334223 36.318703
21.071365 -2.2351208 36.317543
-20.142601 1.5970924 36.32935
-3.1575174 5.6163621 36.393993
-20.492928 1.0641737 36.533142
20.550192 1.2163064 36.503784
-20.083563 1.3391687 36.575169
-17.277006 1.382262 36.555714
4.3391161 -4.3608274 36.697475
17.194778 -0.8591488 36.641235
21.306519 -0.38992679 36.620354
19.838467 -0.24916643 36.693821
-6.7150087 1.5383234 36.662167
19.288944 1.735919 36.608475
-3.8677588 -4.1177258 36.726574
20.660961 -0.25149617 36.745831
19.97818 0.30041492 36.708233
-20.006594 0.42534861 36.763462
7.2832956 1.0459806 36.705856
-6.772397 1.2570045 36.745186
-4.7407537 5.0467768 36.704292
4.4887638 -4.0512691 36.893303
5.0566697 -3.0342569 36.883186
19.762749 -1.2508898 36.845936
18.297983 1.9576151 36.818218
5.1811738 -2.7461836 36.906128
19.709129 -2.1534986 36.997524
-6.3698297 0.48329347 36.920479
-17.196499 -1.3152764 37.088982
-4.2628908 5.2406464 37.067451
-6.0979915 2.5376382 37.282722
5.3521147 4.751771 37.260838
0.33415991 -4.6951218 37.363724
5.9993391 -0.67913461 37.332123
3.4959352 5.3471508 37.386314
-16.00423 -0.5181036 37.436192
-5.8758507 -0.24003714 37.493134
16.84045 2.0309837 37.441067
-2.2409542 -4.3300691 37.508461
-4.8393016 -2.4922049 37.564064
-4.5124049 -3.2174428 37.614792
20.108561 1.7505019 37.635147
5.8878908 3.0879509 37.617676
-17.098858 2.3105381 37.761951
2.0742748 -4.4032335 37.824516
2.591279 -4.3167248 37.887756
6.0029411 -0.36992478 37.808662
-19.838297 1.0784011 37.893768
-6.1877995 2.0413904 37.832603
1.4863604 -4.5010905 37.931007
17.089762 -1.4306999 37.930069
20.349968 0.047024906 37.985054
-0.54309344 -4.611927 38.073711
-4.1745877 -3.805433 38.047844
-4.7843547 4.1275401 38.040485
0.70919359 5.8026285 38.020451
-1.9431372 -4.3780699 38.103836
20.487528 -0.80092221 38.13446
18.105816 2.2545056 38.110287
17.248507 2.4158792 38.162636
-16.211012 2.5340712 38.140244
4.7540536 4.5942907 38.103249
-18.173491 -1.9116074 38.222553
-15.449463 0.74576515 38.274979
4.5435376 -3.4443243 38.414471
16.485746 -1.2105038 38.466053
6.6471357 1.3852202 38.496468
18.358112 2.2860782 38.490692
6.122324 0.19269633 38.509323
-15.344363 1.3998501 38.58749
-4.7385855 4.0295134 38.522854
4.6629333 -3.0737519 38.654362
5.7604733 -0.56910098 38.665127
-0.32907271 -4.6456218 38.777458
-5.9590569 2.0082536 38.746365
-18.83708 2.1554904 38.804523
4.9488831 4.0372262 38.800686
-18.326511 -1.235507 38.946148
-5.7468591 0.1656599 38.990036
19.516521 0.25201628 39.023575
18.345768 2.3930724 39.007038
-1.2219222 -4.4953613 39.183964
14.954715 -0.32225198 39.177437
-17.836388 2.4548297 39.104374
-1.1513267 -4.5068302 39.293751
3.8301485 4.7799215 39.25222
1.8262637 5.2217836 39.213779
-1.1023808 -4.5149479 39.312698
6.1879644 0.67064899 39.307159
1.5564408 -4.4849772 39.452309
4.2846279 -3.5566368 39.555
-14.027262 0.024738193 39.53923
18.495108 2.4237716 39.525761
4.989706 -1.9392154 39.600002
17.072643 -1.3376354 39.772446
-5.2802362 -0.55637324 39.823956
-1.8987762 -4.3436923 39.904301
16.509718 -1.4403156 39.99744
16.192146 -1.3303094 39.974159
16.108929 -1.2891068 39.991989
15.886292 -1.167383 39.906639
14.335169 1.9211104 39.968365
-14.738686 3.1636276 39.991398
16.775028 -1.2410237 40.074089
-14.280296 2.9338984 40.027916
14.90612 -0.68232799 40.119473
-5.6382098 2.0079749 40.188541
-5.3818407 -0.13749997 40.278568
3.1451406 4.6336761 40.280533
-1.0205126 4.8565426 40.247475
2.0240061 4.8570957 40.246307
18.061316 -0.54828912 40.336964
-5.8694921 1.6002723 40.300541
15.975872 -1.2603323 40.450031
-15.635138 -1.2290382 40.62405
6.2363796 1.3406764 40.629581
13.52184 1.6529139 40.646355
-5.5179348 2.053133 40.601376
13.894018 2.8864667 40.69883
-14.012753 3.4271259 40.682365
18.332754 -0.14938158 40.771538
-16.881832 2.9650128 40.768429
-1.3543363 -4.367384 40.888317
4.2990341 -3.0009997 40.811424
15.219915 -0.90878475 40.875252
-14.749279 -0.81006974 40.883827
1.580337 -4.3695922 40.980553
3.3321295 -3.8049994 40.944504
4.5164218 -2.4315257 40.99538
14.317245 -0.45015359 40.933159
-13.690825 -0.27192965 40.947582
17.668509 1.5673159 40.983051
-5.5192509 1.9227885 40.963448
15.644967 3.2560928 40.90942
-16.485382 -0.56335634 41.017872
-16.963869 2.7860379 41.060989
-12.688339 1.6756468 41.177597
17.738605 0.5979678 41.274952
2.4135115 -4.0464678 41.313343
-17.344992 0.76247448 41.366737
-12.462952 1.5923722 41.362556
13.374315 3.5168335 41.392399
1.5224471 4.3456087 41.321922
-4.2535954 -2.2159557 41.436085
5.3787866 2.1592841 41.490231
12.967398 2.6375453 41.48975
-1.7683166 4.2833648 41.452812
-3.962862 -2.8191023 41.570759
17.173756 1.8825123 41.518559
12.653779 2.0071847 41.579121
12.84667 2.4002957 41.525925
-15.28534 3.426553 41.652145
-14.646709 3.5249801 41.629433
-0.54478198 -4.4946308 41.761715
-5.0839233 -0.21654493 41.716545
12.04267 0.88093078 41.786579
16.826109 2.53159 41.720905
-3.9467075 3.3446584 41.718124
-0.24970432 4.1327024 41.783104
2.0579326 -4.1028352 41.895851
4.4983854 -2.165266 41.819286
12.462669 2.2516901 41.838848
-4.1167006 3.1704361 41.851589
-12.592894 3.552851 41.880413
-0.51132864 4.1571388 41.865826
15.79941 3.460485 41.999241
5.4546604 -0.089858174 42.058418
5.8806973 0.88393176 42.038342
-3.1887145 -3.6719472 42.158199
16.356022 3.1412354 42.103546
15.889133 3.4657009 42.104893
-0.52704525 4.24722 42.17078
-0.68375182 -4.4981403 42.261925
14.975443 -0.41769713 42.29747
-11.660616 0.65999889 42.23069
-3.3218222 4.2457461 42.246281
-12.635761 0.14540625 42.389694
11.837815 0.70297706 42.326569
13.727671 -0.27595937 42.422207
11.98111 2.6042686 42.463413
2.0593781 -4.1671991 42.517723
-4.1647158 -2.5912416 42.585476
-12.848385 0.023692369 42.534454
-2.6414702 4.3735485 42.598442
0.62849581 4.3718271 42.592613
-4.6365581 3.1353333 42.730297
3.5272243 -3.7361264 42.965836
15.925865 0.16743284 42.982323
-16.066055 1.0062008 42.988281
5.2750053 2.8485088 42.924335
11.085033 1.7658553 43.048496
11.624136 3.0339131 43.033413
12.189011 0.27053165 43.145447
5.6083937 2.6407692 43.193577
0.21443129 -4.7109971 43.202187
4.8979321 -1.8421028 43.320271
-10.516155 1.7267514 43.362984
-3.3974285 4.5916948 43.344772
-0.71327925 4.6032066 43.375908
13.312185 -0.38903391 43.409439
15.547242 2.5751853 43.4188
11.450657 3.9054112 43.521702
-14.010597 4.0663891 43.505711
5.1681366 -1.3411702 43.608032
2.3286829 -4.2182064 43.847782
3.9477601 -3.6898055 43.834511
-5.919075 2.2305906 43.880005
5.9038315 2.6924515 43.806759
0.75001377 -4.6159639 43.93029
-5.748354 -0.01145485 43.932724
-14.937616 0.45037633 43.955238
-15.116627 1.8711085 43.911282
-14.118577 4.1744413 43.959602
-2.6675024 4.7613635 43.911324
2.4815559 4.776135 43.96133
5.3315744 -1.1520607 44.075424
-5.0038786 3.5763507 44.091255
3.3714969 4.8044014 44.057022
10.559943 3.2084887 44.168209
-12.814074 4.4725709 44.100407
-11.634478 4.4974446 44.179955
3.4292927 4.8193731 44.107704
13.602409 -0.0054700673 44.395138
15.362334 0.9000566 44.347202
15.114357 1.6386327 44.380493
-9.9897671 2.9223475 44.393707
4.5870709 4.4659443 44.334003
4.6792746 -2.7624655 44.413818
14.20356 0.33221507 44.449833
-9.8756657 2.8257406 44.48687
-4.3430099 -2.9436631 44.534401
-9.5336313 1.9250436 44.542397
-9.7357016 2.4996803 44.525162
10.144241 2.9556983 44.543941
6.3860092 -0.1301201 44.689316
9.7448521 1.0021727 44.653915
10.89617 4.5368576 44.634529
13.543636 0.10588157 44.73951
9.9821882 2.9949207 44.740852
6.4266682 0.37682799 44.869083
-1.7628931 -4.3815918 44.915169
-2.4153392 5.0773621 44.981079
2.412461 -4.3130956 45.087902
11.513031 -0.14440612 45.090149
-11.195995 -0.093903512 45.016346
13.216003 4.4576778 45.050323
-2.1666932 -4.3076153 45.138885
10.910814 0.16654931 45.148773
9.9770632 0.67929953 45.159966
-14.43145 0.99375635 45.19331
9.0654812 1.1864318 45.153809
2.6162195 5.1363192 45.180672
3.5968971 5.1175823 45.117241
11.524951 5.23175 45.196884
6.4793787 0.29711458 45.256699
8.9567747 1.2661089 45.263008
-6.0761614 2.531296 45.223267
9.5245695 2.954535 45.241577
0.96789765 5.1575546 45.252556
14.259537 2.197526 45.376358
-6.0615368 2.7239735 45.302406
2.4739678 -4.3038721 45.40789
-6.2334566 0.18252304 45.499355
-10.314068 4.5703273 45.47205
-5.0402451 4.4846802 45.599751
6.5043025 -0.50547719 45.600407
2.3837345 -4.3234768 45.787663
10.634914 0.098263234 45.724552
-8.382081 1.7737796 45.784237
-6.0839796 3.0323174 45.73988
-12.243257 4.4725223 45.742325
12.540652 -1.5060468 45.83778
-12.118383 4.4770718 45.952187
-6.1745396 2.7317052 46.075691
10.71448 5.1943111 46.036705
5.7007303 -1.6894487 46.196037
9.3710995 4.4520769 46.12719
13.942203 0.92123187 46.240601
6.1363926 3.9557695 46.231911
6.2373886 -1.284512 46.354843
6.6366925 0.33394352 46.355904
-12.7754 4.0954971 46.383289
-11.875537 4.4859352 46.325703
1.528479 -4.4880037 46.410439
-13.157253 2.482209 46.404762
8.803997 3.5875757 46.400009
-7.9158735 2.3709776 46.553398
8.3624029 2.7634583 46.537971
-6.1141682 3.6853871 46.548859
9.3313761 0.422672 46.62965
4.9155359 -3.1397734 46.765362
12.865942 3.8619857 46.709251
-9.7882528 4.632618 46.733192
5.138792 5.0256195 46.745361
-11.46136 -0.041162223 46.864658
13.153158 0.73982441 46.970329
-8.1321115 3.7082119 46.946476
1.2104729 5.6448388 46.902176
-2.7111645 -4.2193017 47.039032
6.7011495 -0.74800992 47.036385
9.7576132 -0.07124421 47.043362
8.9618492 0.40439093 47.082878
12.576854 0.4517408 47.009022
5.1386909 5.1541281 47.111782
4.556282 -3.8518629 47.288811
-10.404826 -0.59538567 47.267799
10.003048 -0.35938004 47.288372
-7.2981987 2.2243443 47.242741
6.6838307 2.2901833 47.242069
-1.1514801 -4.5134201 47.347145
0.13965708 -4.4519711 47.399075
0.35461581 -4.2347312 47.301472
6.7229624 2.1268852 47.35627
-2.3450406 -4.6026387 47.466774
0.12246007 -4.5450993 47.440918
-6.4743137 -1.005073 47.443253
6.0611281 4.7923799 47.442291
11.140302 5.0032878 47.430672
-3.6437476 5.7999263 47.427193
1.841662 -4.437748 47.579376
2.3595579 -4.3403563 47.514874
6.671433 2.6924272 47.530212
-1.1415401 5.8234339 47.506775
-1.8480875 -4.385087 47.633121
11.870478 4.495821 47.679459
9.3110285 4.7446456 47.645618
9.7138519 -0.44681916 47.776062
-9.2978115 -0.36088797 47.777832
8.6377172 4.8621778 47.767426
9.6705933 -0.44606614 47.82386
11.868355 4.4958224 47.854347
10.714238 -0.29171401 47.916237
6.8527665 0.1656698 47.911591
-1.9619707 -5.9036622 48.051304
4.6584759 -3.8978374 48.048851
5.3920832 -3.0827668 48.015228
10.628522 -1.4443527 48.010647
7.5509019 0.71875286 48.044518
-1.4495413 5.9772987 48.027657
-3.690521 -4.0441532 48.178658
-4.6728253 -3.6110554 48.17944
1.0054712 -6.3354106 48.245285
-0.5355525 -6.6663103 48.393959
12.190231 -0.10200502 48.326309
8.0399456 0.27768436 48.361092
6.5927629 -2.2286484 48.45591
12.272898 0.073054329 48.409367
-7.3756042 0.40984571 48.438744
-11.455782 3.899961 48.415005
-6.4699993 4.4403572 48.416309
-5.2807798 5.3948236 48.417343
-2.4942553 6.100544 48.444885
0.1965667 -4.7523932 48.522289
-3.7850595 -4.0289345 48.524723
11.470057 -0.70764208 48.536373
7.1158094 -0.91935921 48.688667
11.600601 4.2083116 48.634167
0.020699263 6.1649923 48.663063
2.0805278 -6.6740561 48.705284
-0.056164697 -4.7287307 48.788197
7.3557816 4.7235689 48.746326
-2.123282 -4.6519189 48.811657
-7.0256557 -1.0322618 48.888733
-3.9249599 6.211309 48.819855
3.0875769 6.2302251 48.883892
9.8437424 -0.47550738 48.954132
11.60083 2.2845261 48.988449
8.7627831 4.8104954 48.924946
-3.8975089 -3.8293099 49.074696
11.494877 2.2828083 49.06068
-11.027513 3.7734628 49.08886
8.8186951 4.7973623 49.048187
11.291149 3.5362153 49.148136
8.8763618 5.6683893 49.144211
3.3261673 6.3094831 49.152206
-2.744874 -4.0287557 49.211761
10.936499 -0.42602476 49.264954
10.375132 0.020121127 49.208099
-7.5752659 4.965621 49.240372
-7.4419522 -1.3636291 49.371815
11.508038 3.3276725 49.318684
7.4735427 -1.9218142 49.469837
-7.3123708 -1.7646064 49.457165
-2.0313883 -4.3174944 49.522079
2.3479507 -3.8583293 49.553192
-9.5555 -0.19442233 49.623653
11.374296 0.97649896 49.652081
-10.517138 4.5349679 49.645954
3.9704988 6.3804297 49.698814
-1.5881693 -6.1073103 49.707542
11.760517 4.4751978 49.73188
11.858306 5.2692642 49.755398
11.248777 6.1572371 49.71595
-1.970404 -4.3512168 49.850613
0.7308678 -4.2623506 49.819016
9.6409616 -0.22332722 49.878742
11.271735 0.82455802 49.839108
-0.69373947 6.3676805 49.838047
12.319112 -0.084027499 49.928783
4.1741414 6.3617992 49.902271
8.7789726 5.5407305 50.059132
-1.7741289 -5.4418983 50.126724
-1.9388564 -4.1014838 50.16993
-1.982867 -3.7748694 50.101814
-10.511656 1.9080908 50.181309
11.541681 5.3506927 50.186615
9.3040562 -0.29393741 50.281643
0.66019499 6.3311944 50.236492
8.9088926 -0.57296628 50.340965
10.731083 0.69632757 50.308395
6.881731 -2.1020503 50.419781
10.697794 1.2629502 50.461243
10.579341 2.0135322 50.483253
11.649675 -0.57891172 50.566383
-10.283026 1.8323441 50.542393
2.0492578 6.305666 50.515263
3.2884426 6.3017669 50.557854
11.972329 1.2177759 50.660919
2.3721709 -3.5625749 50.762405
5.2324734 -2.8283072 50.701931
5.1430254 6.1971469 50.710224
10.593256 6.1760397 50.786839
1.8696558 -5.3154402 50.86187
1.9887149 -4.6821728 50.879349
10.679279 5.8855338 50.98885
-2.7560279 6.2617645 50.99469
-1.6205331 -4.8542414 51.085285
-0.033584818 -3.739301 51.069916
2.9565635 -3.3037925 51.102894
5.8246589 -2.3829961 51.177322
11.070675 1.0632296 51.147076
8.8312683 5.3698683 51.101517
7.4361897 5.4219894 51.152798
6.7131071 5.649262 51.237572
-0.79746866 -5.1985936 51.314552
10.246329 4.3250246 51.33382
4.7510333 6.1777201 51.300972
-3.5129423 6.2275982 51.367809
4.3846545 -2.8501806 51.4613
10.552032 5.0343547 51.490246
10.371289 5.9595976 51.414425
-1.6651363 6.2177691 51.475143
4.5303831 6.1673145 51.628136
6.8628502 -1.6991462 51.781685
-1.6242831 -3.7017136 51.876446
1.9242408 -3.1384568 51.812199
8.6808853 5.3015275 51.870289
-0.5093224 6.1862259 51.819614
4.6355295 -2.5414224 51.963089
-4.8901854 -2.2996631 52.01609
-5.8438778 -1.8978496 52.035789
8.0763798 -0.70258462 52.057945
-5.3411541 6.0134358 52.090908
-0.56638998 -3.1597495 52.116589
9.3910179 0.53181887 52.151421
10.109722 0.80119127 52.115997
-9.2223349 3.7230282 52.156891
10.477934 -0.47224933 52.205402
-0.52935183 6.1495476 52.220154
7.1386933 5.7891912 52.385895
2.1771688 -2.6976495 52.448914
8.2070026 5.1009693 52.40379
-6.5549607 -1.0836756 52.540741
10.430843 -0.36844903 52.573547
2.8231101 6.1190443 52.553257
-4.3497458 -1.9693928 52.61404
6.4034948 -1.1830921 52.665482
-8.9970331 3.8138199 52.691666
-8.9794216 4.099102 52.664665
1.6939167 -3.4766254 52.772564
8.1248646 -0.31108841 52.703632
7.0576777 5.6535158 52.719963
-0.29455644 -2.4946892 52.88213
9.2668686 1.2130659 52.834957
9.3896332 2.1709588 52.810989
10.118338 5.7903814 52.880836
1.6936421 -2.9018881 52.986172
1.7446724 -2.5274611 52.904472
3.845176 -2.069803 52.922211
2.639622 -2.1239417 53.059708
7.7734323 -0.46649483 53.002724
-7.5563669 -0.38780221 53.048595
-8.9930773 2.2206521 53.012173
5.8574219 5.8444943 53.034847
-2.1621072 -1.8655232 53.150124
9.8592129 1.8419365 53.173084
-7.9050245 4.7727118 53.167282
5.9088449 5.7520623 53.145912
-4.2467666 -1.2171404 53.267136
0.29564133 -4.045743 53.353302
-8.4143162 0.54330587 53.342606
7.4901848 5.1015129 53.320847
4.7004342 5.9797578 53.35453
9.4581318 6.3836832 53.376457
1.0898654 -1.9767476 53.496613
6.3756533 -0.53172857 53.46843
8.9688711 1.7554095 53.412201
-4.417697 5.936821 53.476902
1.3451149 -3.9201894 53.575336
1.4342273 -3.0020485 53.546162
-8.5385342 1.300699 53.576393
9.9494801 1.453676 53.546585
-0.36414069 -3.8486524 53.65657
3.9514794 5.9029393 53.785358
0.44888353 6.006484 53.708336
1.1697463 -3.6999731 53.808075
-1.4586079 5.8250279 53.843781
1.0315728 5.8728981 53.808044
3.4769852 5.8171258 53.849678
-1.3763032 -2.0457604 53.919876
-3.7754381 5.6421542 53.985149
-7.8255758 4.4115682 54.036148
2.6854391 5.5502915 54.048843
-2.3004265 -0.80242175 54.144558
4.0853596 -0.64721906 54.190392
9.4776669 -0.11961854 54.145866
-5.468132 0.081055462 54.136955
6.3834543 0.059229646 54.184528
-6.3807616 0.3070673 54.180073
-8.2813587 2.6457872 54.233322
9.0682945 3.5957341 54.293644
9.6658487 4.5906882 54.280296
-1.1825442 -2.4919693 54.369869
8.0233145 1.0345962 54.371742
0.37732613 -1.4094875 54.468048
-3.5387588 -0.055006772 54.484009
3.4931865 5.0498281 54.419209
4.2863359 -0.19418873 54.661758
-7.1807799 2.3113043 54.650017
-7.3477588 3.900444 54.706108
0.65181303 -2.6795821 54.847866
-5.5706782 0.80003476 54.812187
-6.5980043 0.98048073 54.852428
-7.0003085 1.0856708 54.825153
-6.452908 3.8811626 54.876038
-3.7142682 4.56847 54.831829
2.9840603 -0.37962991 54.927551
0.14746715 -2.3675075 55.165874
4.1835213 0.25086099 55.131821
-5.0721807 1.8202951 55.173355
5.9206095 1.832494 55.101017
-3.204529 0.62685019 55.285851
-5.4284372 1.3685268 55.242199
-2.6293826 4.1931129 55.313801
-4.3060174 2.6812346 55.473377
-1.8693733 0.17858082 55.520443
-3.1080101 2.0172215 55.676525
-0.91273832 -1.5947973 55.740936
0.79787308 3.4365196 55.822578
1.5723969 3.3105946 55.948853
0.22307602 -1.2154655 56.162437
1.4000205 -0.62020111 56.143074
1.3917828 3.3698349 56.357254
-2.4270246 1.7205259 56.566547
0.11561058 -3.3588152 56.704132
0.77472383 -2.5963824 56.714897
2.2420537 3.1942735 56.715336
0.54586852 -1.8512162 56.815479
-1.4741725 3.578438 56.813278
0.52148676 3.5573883 56.929459
-0.59562248 -3.3503122 57.034771
-0.8700583 3.7995617 57.021587
1.99192 -0.1035915 57.218037
