# .PCD v0.7 - Point Cloud Data file format
VERSION 0.7
FIELDS x y z
SIZE 4 4 4
TYPE F F F
COUNT 1 1 1
WIDTH 1559
HEIGHT 1
VIEWPOINT 0 0 0 1 0 0 0
POINTS 1559
DATA ascii
1.1740698 5.1129932 27.343557
-0.30386239 -0.5291478 27.416327
2.8784089 -1.1285892 27.547474
5.5139766 1.642578 27.590324
2.9811883 -1.0977154 27.735395
10.186046 -0.72460109 27.772707
10.051028 4.0852718 27.748959
5.8309264 0.48965311 27.883823
9.3846092 4.475791 27.818424
9.0185232 4.651741 27.895681
10.837499 0.92104489 27.904018
0.48430327 -1.2027112 28.089161
5.9275465 -0.051234782 28.270866
10.756989 2.6541543 28.292526
6.286099 3.7964554 28.217758
1.5371236 -1.949018 28.360245
8.7775679 4.7994146 28.434351
4.6443529 -0.13715962 28.572355
6.4428453 -1.9910507 28.769478
6.6142106 -1.9847412 28.788107
3.6929038 -1.046155 28.748215
4.4106646 -0.65857255 28.817446
6.2086158 3.687942 28.996128
0.18929847 5.1144047 28.985619
4.6656852 -0.58421069 29.014778
4.6046224 -0.67540234 29.167641
2.2652459 4.6140499 29.149252
6.3998146 -2.0919998 29.210611
-1.4621285 0.96274984 29.236652
4.494338 0.95270044 29.307339
3.3489516 4.2614236 29.373962
3.3250265 -1.5041143 29.419823
-0.28927755 -1.0643947 29.567482
8.0283251 5.1037197 29.5634
8.0805368 -2.1718915 29.626751
-1.1707644 -0.41504747 29.80954
4.5943418 0.45772135 29.831566
-0.85822523 3.5294802 29.879959
8.3628836 5.0635424 29.889633
14.173933 -0.60575122 29.962189
9.7261477 -1.5997303 30.095165
13.140202 -1.3075558 30.002728
-1.1093498 3.2440939 30.000038
14.17968 -0.60552007 30.193783
7.0685272 4.5662427 30.199524
0.39522913 5.0958867 30.151707
-1.0570089 -0.91953719 30.243061
-0.49583644 -1.2608435 30.348585
14.660673 -0.59086442 30.359304
13.451613 -0.062343471 30.326958
-0.50238991 4.0554748 30.318966
4.683249 0.048162878 30.431236
10.948586 0.77327961 30.552504
4.4385014 1.5947564 30.616341
-1.2675108 -0.86881566 30.729229
14.783603 0.14280434 30.771416
-1.3467591 2.7854764 30.751099
3.3871162 -1.9812188 30.818214
13.721564 -0.3888154 30.859177
13.030249 0.062968396 30.82522
5.5350056 3.0131686 30.832218
-0.72184944 3.7228873 30.832256
9.5674391 -1.9048142 30.978786
13.591964 -0.85866737 30.976311
14.044664 -0.56207281 30.923462
11.025114 -0.017440155 30.994682
13.487661 0.19905573 30.985992
4.4191694 1.8470914 30.996296
6.1765814 -2.4080925 31.092209
13.424031 1.3673238 31.096584
11.03871 0.87640321 31.121811
13.462107 0.89646828 31.283041
10.80114 3.3473508 31.26609
1.451115 -2.6935105 31.346474
11.0005 -0.18128484 31.305595
13.017877 0.95950592 31.399763
-0.42699495 -1.7203 31.423082
15.300999 0.18016203 31.476234
13.823189 0.38211575 31.462177
13.823904 1.4354838 31.41708
-0.42219847 -4.317924 31.50325
-0.78354317 -4.1772704 31.577866
4.8839593 -0.88099754 31.534859
-1.3620766 -0.80363435 31.68782
14.447744 -0.41804972 31.690964
-0.93366331 3.4154518 31.688702
7.8224726 5.322968 31.657473
-0.39646891 -4.317935 31.739672
3.8927503 -2.55934 31.76992
15.299155 -0.48011374 31.736021
14.902894 0.92533433 31.751348
-1.8669063 4.3473043 31.798828
11.263962 4.8062887 31.702644
-0.96831667 5.8602633 31.761951
1.7703536 7.4856067 31.763889
8.1908894 7.4785957 31.709206
5.0812769 -1.4887294 31.848341
10.790312 -0.68708175 31.874916
11.681574 4.0954714 31.82616
8.094202 -4.5856628 31.966635
3.8455157 -2.919637 31.979923
-1.8524957 -1.6408687 31.93656
-1.3933189 0.3825781 31.919256
4.4830995 1.8331308 31.921856
0.29629141 -4.5669231 32.096046
9.4766693 -4.1489496 32.057632
-1.1165638 -3.8290405 32.049595
-1.1361827 -3.7707562 32.063568
6.1522226 -2.8662529 32.084454
-2.0044551 -1.1894218 32.04422
14.278275 -0.58167565 32.029369
15.187504 0.631042 32.04068
-1.5624288 1.7572274 32.032745
-5.9285393 -8.6592865 32.119019
-0.29265025 6.5892353 32.115505
8.7907591 -2.6672661 32.254803
9.7844906 -1.9305828 32.276802
14.713722 -0.96845084 32.218021
15.357491 0.1829364 32.270924
13.998762 1.6083865 32.276253
1.949912 7.409781 32.276451
-6.6028242 -7.5595684 32.343552
9.1884766 -4.2338929 32.330101
-1.0978498 -3.8184435 32.385025
11.304796 -1.4616064 32.348511
14.019315 0.062291205 32.353977
11.425663 0.44634488 32.382874
2.9422956 3.7756352 32.381966
3.5764139 7.4193931 32.301586
-6.0070581 -8.3534126 32.433189
-7.4272771 -6.7751513 32.465168
-0.0084432065 -2.0944304 32.409401
-1.0124894 -1.6143718 32.439938
-1.4043407 -1.4222341 32.406628
15.214183 -0.42063075 32.412426
15.275502 0.64238411 32.444252
-6.7484226 -8.5032539 32.558159
-2.1681263 3.6634414 32.579224
5.3567905 7.3891201 32.544872
-5.9850569 -8.4271765 32.658279
-6.7985182 -6.6929655 32.624615
10.213552 -3.905494 32.616718
-1.5197331 -2.6322167 32.655788
15.357334 0.37897664 32.671867
5.2887678 0.49288058 32.64595
13.65047 0.61223549 32.638603
14.280265 1.6281543 32.685108
-6.5806894 -8.6239376 32.741791
-5.7663093 -6.7284589 32.749924
11.560607 1.5793321 32.745956
11.453194 4.3914232 32.737167
10.203848 6.3676448 32.721199
9.4782963 6.72229 32.76424
1.5045441 7.3217039 32.726837
4.9096498 7.3542347 32.786251
-6.824276 -7.6684732 32.833179
-1.2404543 -3.4629519 32.818226
11.7533 -0.18702085 32.847263
11.318694 4.6086278 32.821049
-0.11314665 6.5392375 32.888119
3.4645331 7.3407812 32.816696
-1.2242208 -3.5115669 32.940937
7.4259391 -2.9972193 32.908527
-1.6527312 -2.2376914 32.954292
11.139936 -1.8983632 32.9048
10.215622 -1.4662752 32.966663
11.699597 -0.33223265 32.960011
11.575358 4.1640348 32.978451
1.4341412 4.4395432 32.965736
13.836481 -1.122292 33.035583
10.053521 6.3994083 33.051739
6.7366562 7.3051324 33.027275
2.47844 -5.3530483 33.174397
9.7076902 -4.0524149 33.199184
-0.74320644 -1.8058003 33.162983
-1.9873329 1.0092092 33.112724
11.572482 1.6122 33.128693
4.4026752 3.2964082 33.115997
4.0141139 3.4030914 33.141815
1.8749833 7.2773027 33.15073
-6.9657564 -6.8231544 33.208542
2.5421484 -5.3733931 33.268864
2.9398801 -3.2738175 33.273659
7.3524957 -3.0264955 33.258331
-1.4510833 -2.8381097 33.279549
14.082224 -1.1154082 33.280811
-2.0173073 1.8896087 33.215759
9.0707788 6.8324723 33.296001
2.1827321 7.2576647 33.297745
7.4033728 7.2632356 33.269108
-5.556663 -8.4912491 33.3456
11.261911 -1.5385767 33.346806
-0.11417873 -2.138262 33.499729
-1.4604663 -1.4492478 33.494057
11.128557 -0.49972254 33.462433
15.053731 -0.40696689 33.457066
13.811239 0.087529138 33.411911
6.6712985 4.4519672 33.437592
-5.5719409 -8.8974657 33.540226
7.4926882 -3.0041397 33.506241
14.769705 -0.61946726 33.583073
11.515632 0.410588 33.599186
5.499712 3.8385003 33.564888
9.6232052 6.5436039 33.509792
3.6564639 7.2307405 33.556789
8.1751785 7.2086654 33.566597
7.6851797 -4.6963582 33.654835
7.8995686 -4.612083 33.630322
0.47482726 -4.5722833 33.608856
10.673223 -3.1695819 33.669582
11.060331 -2.088182 33.664341
15.157083 -0.043119133 33.662762
13.800989 0.35549068 33.648472
-1.3428047 2.5322022 33.634739
9.3980417 6.6303425 33.630348
8.8374205 6.8952417 33.602684
-5.785048 -8.2760658 33.790939
-0.30251661 -2.0725112 33.797272
11.490984 -0.88253295 33.719162
2.6320708 7.1884227 33.781395
-6.8079505 -8.5050335 33.871483
-7.9316745 -7.4349456 33.876404
1.4227419 -2.9107139 33.879253
0.91358358 -2.6621952 33.833599
14.332701 -0.58289772 33.806335
-2.0014751 0.55545944 33.815182
7.9721279 7.1658401 33.885345
-6.6237354 -6.0615554 33.980587
-0.88062787 -3.7786427 33.955673
14.070774 2.1746223 33.931267
11.077749 3.2936096 33.942924
9.2032681 6.6764102 33.928688
-7.0634875 -5.4940062 34.01643
0.37537795 -4.5179844 34.006042
-1.7816451 -1.8576983 34.078751
9.8413324 -1.8174244 34.036591
15.191402 0.20702803 34.035976
15.297433 1.3343949 34.093914
13.12762 1.6192997 34.069561
-1.1694744 5.1124687 34.091446
-6.0598516 -7.6252279 34.157318
1.3540696 -4.8851261 34.137749
8.388442 -4.4466271 34.189598
-0.57713151 -4.0224757 34.195885
-2.2339272 -0.23329222 34.145287
-1.4598633 1.7158766 34.128437
14.502453 1.8860662 34.182838
-0.62892473 6.0024714 34.136368
5.5000811 7.1413355 34.17918
-7.5566187 -8.2983761 34.269215
-7.854928 -7.2434301 34.243561
-7.8800173 -6.7428002 34.273979
-6.4539871 -6.1380272 34.253635
2.7980404 -5.4001431 34.280994
0.57373804 -4.5819335 34.285545
9.2901325 -4.1624689 34.216385
-1.4232082 -2.9237747 34.245686
13.709645 0.64912438 34.265144
14.811747 0.69374073 34.23912
-1.1354401 5.1386647 34.266556
8.0227051 7.1055655 34.283321
-2.199254 -0.20220885 34.383026
14.326017 0.059033334 34.352676
14.97426 0.29258272 34.323074
13.149088 1.7373886 34.347935
13.242464 2.0441434 34.306862
0.85784209 4.840723 34.379032
-7.8126349 -6.3036699 34.439598
-1.1632764 -3.436728 34.481388
-1.5754261 0.17395118 34.43195
11.437614 0.54627347 34.421402
-0.2236906 6.1763105 34.454964
-6.2875199 -8.2788744 34.51725
-7.7702436 -7.238667 34.581364
-7.7873549 -6.2650838 34.581596
1.8703953 -5.0659442 34.518303
-1.0720032 -3.5048594 34.587555
11.528093 -0.095300928 34.595894
16.341366 2.4299176 34.556904
-1.0432261 3.0387807 34.508636
11.730599 3.7031879 34.555588
-0.70176989 5.8100672 34.582214
0.8385123 6.696435 34.544518
-7.2422633 -4.387939 34.678394
-1.9309318 -1.4154211 34.609447
-1.321857 2.4251113 34.699341
10.207007 4.2319813 34.60598
9.3460846 -4.133492 34.760475
7.7477498 -2.9919434 34.734989
-2.1052358 -0.89767289 34.761024
-0.85255027 5.5256472 34.761745
7.4195895 7.0477285 34.701096
9.5444975 -2.0717006 34.833805
-1.9076179 -1.4854801 34.868446
15.801527 0.87267214 34.864964
14.412818 2.1281259 34.820728
11.757034 2.5167513 34.894211
-1.2232957 4.889689 34.843529
2.0923047 7.0249338 34.835884
-5.6052213 -6.9578228 34.92371
-5.5867052 -5.2572622 34.94772
1.8392149 -3.2033355 34.934685
-1.5564144 -0.78703904 34.925209
-1.4065819 1.8629698 34.925968
11.335497 1.8076074 34.929405
0.32349434 6.3918934 34.916122
9.2993164 6.4783683 34.956181
3.1962965 7.0235219 34.905567
-6.820488 -5.0076208 35.007442
3.5743027 -3.4857409 35.089088
0.11246806 -2.3807359 35.067383
9.7477827 -1.8645287 35.01543
-1.5749739 -0.49230993 35.046036
15.385817 1.3536309 35.089615
8.4103394 6.8742189 35.07444
2.2120872 6.990202 35.072712
-6.4981852 -5.5209026 35.110435
-6.5965114 -5.0069695 35.173584
-2.1760485 -0.37690014 35.19022
11.547706 1.2967432 35.126652
-0.98072362 5.2446051 35.13715
2.9449477 6.9807129 35.175674
4.9001951 6.9839153 35.198685
-6.9678869 -5.7190809 35.232723
-1.4144284 -2.9527309 35.232296
10.811655 -2.7141249 35.269096
14.912212 -0.28003815 35.244423
-2.1096702 -0.19629374 35.243896
-6.8940916 -5.9791546 35.393188
-7.5941396 -5.468348 35.349236
9.2134495 -4.1638184 35.305065
9.6485176 -1.9454408 35.37278
14.606031 -1.0125415 35.338493
10.645489 -0.96908998 35.389477
11.330289 -0.25489321 35.384968
15.359016 0.579198 35.32888
10.212663 4.1145611 35.397144
7.8631282 5.3579717 35.377045
1.6750515 6.9378648 35.390385
-6.5112157 -7.5711732 35.493408
-6.9097719 -7.4092455 35.474968
-1.8921788 1.3006239 35.445438
11.557072 1.3224928 35.428246
12.630312 2.6028247 35.473087
-5.9010844 -6.8035011 35.566525
-5.9703431 -6.6668735 35.586575
-8.0865545 -4.9990635 35.544586
8.6749525 -4.327899 35.557823
4.0971289 -3.5395741 35.567966
10.909756 -0.69262666 35.591652
11.567235 -0.55338812 35.53138
12.27983 0.97704744 35.581924
13.799103 1.5696301 35.527893
12.488048 2.3889003 35.599266
-1.9928536 2.7623692 35.511345
11.738456 3.5036402 35.572868
9.2158689 4.5998917 35.536896
0.89667201 6.5552082 35.517204
8.1481552 -2.9441309 35.687134
11.34106 0.092714131 35.611187
13.151196 0.87098515 35.627243
8.2563934 6.8591251 35.655304
-6.1299257 -6.5017514 35.715622
-7.5141649 -5.339016 35.793854
-1.8054445 -1.7916487 35.704109
16.468834 1.6810236 35.762939
-0.81712389 5.4143138 35.730431
6.9465885 6.8999233 35.709892
-7.4474816 -4.7709174 35.873234
-1.5436845 -1.6502427 35.888268
-2.0457733 -1.0776932 35.882362
12.51819 -0.44248399 35.800774
4.4285383 4.8135557 35.834862
-8.4825087 -4.8473649 35.926567
-6.1818328 -4.8906016 35.93996
-5.0082302 -4.0015574 35.941086
10.149435 -3.6972108 35.974449
3.8075466 -3.5737011 35.926033
11.429878 -0.95561278 35.994095
11.733676 2.282063 35.947529
11.290069 4.3628845 35.918545
2.0995874 4.775444 35.933292
-4.9068589 -4.2531834 36.015205
10.974055 -2.2258887 36.072083
13.98338 -0.079672992 36.046051
2.8676617 6.8482218 36.049904
-0.32686469 -3.9513633 36.170303
-7.9417801 -3.7408786 36.109753
6.4013085 -3.4346464 36.1861
1.4646368 -3.1880846 36.195351
16.285698 0.31125686 36.124985
11.6299 1.6620862 36.137375
4.2049885 4.8817005 36.166626
0.92407852 4.9150934 36.134567
7.8333073 6.8300757 36.12545
-6.8772211 -4.1556273 36.240067
-0.19876865 -4.0561318 36.259583
9.7101727 -3.9874392 36.268547
11.39077 0.37911659 36.246727
15.716347 3.1719768 36.22937
4.0798202 4.9053302 36.272472
1.9948821 -5.0357213 36.3937
9.4227982 -4.0758314 36.363815
2.5136313 -3.6068683 36.364742
10.409509 -3.2845571 36.394794
10.969891 -2.225127 36.360847
10.417425 -1.1466095 36.39505
11.231287 1.1615206 36.326443
11.658574 1.8104947 36.328182
-1.0066115 4.9863777 36.356068
-6.9381657 -4.0507574 36.469803
16.45635 1.9262825 36.412231
-8.122345 -6.2101007 36.548683
3.5388494 -3.6882527 36.589821
-5.0557771 -3.2782815 36.515656
10.866173 -2.5083516 36.51403
12.802128 -0.60863715 36.590145
11.161945 1.8191543 36.582779
-1.9381707 3.0621903 36.561016
11.507081 3.9412081 36.534355
-0.9645884 5.0226374 36.550064
-6.4879971 -6.8970032 36.670536
-6.1956539 -6.8924627 36.688969
9.6853371 -3.9877825 36.625626
-4.9226804 -3.5069568 36.616623
10.412711 -3.2524424 36.615864
-7.0412321 -2.6008878 36.693073
-1.9565637 -1.3451339 36.653198
7.2581439 5.3161764 36.650352
9.8657427 5.8872671 36.651131
-4.5801167 -4.5347853 36.7132
-5.459301 -2.9695494 36.71809
1.1026096 4.8987532 36.768154
0.74015009 6.2644091 36.775524
4.4328423 6.7469511 36.743469
5.4918404 6.7481661 36.735504
3.8809116 -3.7676306 36.933617
10.232664 -3.4585927 36.959957
4.2562366 5.0173364 36.922771
1.1750162 6.433454 36.970764
-6.227869 -6.6731052 37.043259
7.4920068 -4.5723801 37.091469
11.573505 1.2821736 37.042973
1.4458984 6.5418506 37.074486
2.9804552 6.7054787 37.002502
-4.322494 -4.9530506 37.107121
-5.2244101 -4.7073507 37.161263
8.0111856 -4.5532045 37.190807
-7.3201318 -2.5661671 37.188965
11.371319 -1.0695988 37.150318
14.586841 -0.71724224 37.192947
11.828708 2.9812953 37.153652
11.651476 3.4668813 37.133396
-4.34092 -5.0211554 37.240917
-4.3731308 -4.5572157 37.290596
-0.32975867 -3.7775869 37.286957
-4.8193455 -3.091249 37.275047
11.825855 2.6934624 37.258598
9.1913214 4.44244 37.220398
-5.9828205 -5.7908149 37.33445
2.8383441 -4.9037585 37.349358
4.4837828 -3.8786132 37.386887
10.431064 -3.1405766 37.306343
-5.9628344 -2.4756002 37.317616
-7.5192208 -5.7899685 37.474625
-4.3248525 -4.8549151 37.48687
5.5463982 -3.8314862 37.427071
7.4175425 -3.3934705 37.405846
3.5299153 6.6398621 37.454411
0.44197458 -2.9178996 37.589779
13.022543 3.585546 37.521286
-5.747611 -6.695683 37.694801
-6.6161556 -5.7552414 37.648628
5.7173204 -3.8463674 37.677536
9.0481777 -2.4520693 37.634823
16.438549 2.4243577 37.611687
-0.56044638 5.3330355 37.648026
2.3237267 6.6068263 37.620712
-4.2994251 -4.634285 37.73201
11.252871 -1.3740495 37.767807
11.0804 4.5411506 37.740448
-4.4473829 -5.2361326 37.829308
8.7660837 -2.7226593 37.851028
-5.4364119 -2.3167408 37.841721
14.22838 -0.68465132 37.815178
11.006218 2.1100826 37.814613
9.8607254 3.9434319 37.811897
1.4148598 6.3873472 37.883507
2.0394254 6.5728445 37.83049
10.496264 -2.9703188 37.945229
-1.3268909 -1.1630192 37.923416
11.294262 -0.26557764 37.956333
11.587812 1.2830956 37.991287
11.029218 1.4475141 37.975468
-1.6113577 3.5304213 37.939571
-6.7619677 -6.0591736 38.018013
-7.928885 -5.2532687 38.073032
12.688271 3.1427543 38.089081
16.070578 3.12029 38.066299
1.4367774 6.3759384 38.008484
-6.0386229 -6.5629935 38.129498
-6.487648 -6.0048881 38.116386
-0.18559714 -3.7781212 38.153461
-1.8503418 2.4752913 38.107975
12.605616 3.0141258 38.136841
8.8248034 4.7394271 38.140469
8.3983803 5.0728068 38.151573
6.8240013 6.5266738 38.196594
10.033915 -3.5734336 38.23999
-8.1010666 -3.3343847 38.225914
-5.3803396 -2.0778284 38.275894
-1.842787 2.8057775 38.23534
2.6475089 6.515058 38.246857
-5.8290787 -5.8576241 38.301037
-4.3765631 -4.8928704 38.382198
11.727183 2.0192747 38.338829
16.373314 2.2442722 38.30846
10.340149 3.4115155 38.339733
13.229357 3.8029709 38.385593
4.8718572 6.497828 38.365295
6.481678 6.5076141 38.315147
-4.4107423 -4.9818101 38.451687
11.466186 0.60078979 38.492874
7.6762342 6.4880009 38.408512
0.67173052 -4.4429646 38.544827
1.2144542 -3.4816456 38.599686
8.7346077 -2.7307351 38.587513
9.2104836 -2.263391 38.573021
-1.8286341 2.4625525 38.565674
4.0853882 6.4666328 38.573048
3.4004338 -4.0774498 38.645306
-1.9732287 -0.81056428 38.621269
11.453512 0.52028799 38.664536
10.901516 2.2491939 38.6077
15.798579 3.4188528 38.610161
12.334864 2.0684986 38.765175
-1.8803315 -0.1242224 38.890869
-1.788741 1.2242551 38.830173
-1.5105383 3.5201969 38.86536
-7.761652 -5.100594 38.915421
4.4996276 -4.1621704 38.938847
11.082222 -1.7990081 38.975727
11.417562 0.30782932 38.949699
11.446624 0.46157879 38.947723
9.1123276 -4.1164131 39.092388
-4.2325187 -2.9599662 39.080997
-0.26036534 -2.2447269 39.016556
15.51388 -0.25492269 39.006821
12.245525 0.92847717 39.053062
8.81882 6.0884142 39.066086
-4.581274 -4.9200673 39.16864
3.4345939 -4.1818185 39.119987
9.5740585 -3.9706063 39.120312
-1.6472864 -2.2689195 39.181984
10.301032 2.9703388 39.11927
13.672939 4.1511478 39.129684
-5.6003928 -5.9430447 39.213928
-5.1963863 -5.5663786 39.233181
-7.9325194 -3.5078769 39.2486
1.1387873 -3.3896117 39.240837
-4.3493767 -2.3393366 39.283737
3.3687341 6.3670273 39.23238
5.1257439 6.3584623 39.27319
-5.4875846 -5.8447356 39.343849
-5.3864088 -5.7211461 39.383377
-4.1963654 -3.5652213 39.318924
14.579914 -0.36777717 39.369591
12.234983 1.2025224 39.352592
-0.85760266 4.7090383 39.347084
10.633883 4.9645343 39.353245
10.116154 5.2763257 39.322891
0.61884892 -4.3269119 39.426559
10.235718 -3.1487069 39.400936
-1.7370702 1.6929232 39.426605
9.0250416 -2.3856072 39.577778
11.689691 1.6981524 39.557743
12.43806 2.5157933 39.533604
11.717272 2.8674598 39.534019
10.892928 4.6836557 39.5476
4.7510061 6.3157644 39.551338
-1.0049443 -0.7409299 39.628876
12.516895 2.8471236 39.678928
-1.641994 2.9211483 39.639919
13.565805 4.1427517 39.660843
8.764246 6.0176644 39.664124
5.5634222 6.2941656 39.692043
7.2928243 6.3117232 39.601604
-7.8375463 -3.362184 39.781918
16.143444 1.2517514 39.7313
-7.8081427 -2.775667 39.851551
10.726627 -2.411896 39.858154
11.619126 1.2998384 39.879974
0.26197734 5.3735652 39.839817
1.4376502 -4.6749687 39.961113
7.1303272 -3.9110231 39.939392
-1.2452976 -2.5285587 39.913425
-1.630464 -2.1645966 39.964352
12.367672 2.2322714 39.92778
-0.89421225 -2.8249626 40.097725
13.856587 -0.40568379 40.064655
10.418582 2.1129818 40.003212
16.221724 3.2412038 40.033047
12.643703 3.3832703 40.048805
7.6676221 -4.6785402 40.108955
8.0698357 -3.3366771 40.118671
-1.742602 -1.9912747 40.128471
9.7024288 -1.6080985 40.116997
-1.9759674 -1.267259 40.10833
11.302529 -0.39134929 40.108036
2.2469258 6.2289352 40.122055
2.517319 -4.364809 40.239124
6.5768318 -4.1039591 40.292671
9.4577484 -3.9825869 40.296574
-0.27007568 -3.3761532 40.267025
-4.0561719 -2.1596007 40.283474
4.4022679 -4.3140588 40.368362
-4.0520921 -2.4236856 40.335533
-0.74694258 -1.4485365 40.345936
14.229955 -0.2777974 40.389759
12.242714 1.516053 40.319275
11.750027 1.9668508 40.303608
16.213936 1.9664688 40.309814
-1.1597322 4.0272727 40.330662
8.7373409 5.9105039 40.374924
-7.7009377 -2.4302652 40.421646
11.667675 1.5147524 40.409042
12.839684 3.7866392 40.451023
10.41938 4.8951635 40.487209
5.5009589 6.1743579 40.47253
1.8255882 -4.7588444 40.589363
5.1185975 -4.2196484 40.577503
8.8236341 -4.2175817 40.501629
11.324352 -0.30736962 40.50613
10.572536 4.798821 40.519905
2.5080807 -4.1544666 40.684502
5.8302717 -4.1375103 40.695362
-0.57906044 -3.0370941 40.61517
-1.8979313 -1.1746306 40.611145
-6.3206968 -0.57411194 40.627281
14.964731 -0.09769398 40.607674
-1.5072266 2.9722462 40.667858
14.428663 -0.18689346 40.707443
-1.0051618 -2.6119199 40.818558
-0.25293797 -1.9109254 40.832794
-1.8412348 -0.46701974 40.848076
11.327734 -0.3161495 40.844547
14.85384 4.3897734 40.834492
-1.8030359 -1.8140538 40.972607
12.241126 1.6321481 40.948822
-1.334989 -2.2686861 41.068169
12.742628 -0.088304199 41.079342
-1.1828882 3.7300143 41.087559
8.6544819 5.8511724 41.000824
-4.1458349 -2.7407327 41.116188
11.177057 -1.134136 41.119549
10.223228 1.5863961 41.193481
-1.684007 1.6403174 41.191956
-5.2034545 -4.717515 41.259819
1.3934197 -4.5893621 41.266914
0.8102805 -4.2234864 41.256802
11.408414 0.080648541 41.220367
11.762219 2.4407139 41.272491
-0.80298245 4.4683104 41.221302
10.433048 4.7480826 41.289803
7.8016872 6.0609741 41.240005
1.1156343 -4.4972615 41.312805
3.2606566 -4.3531451 41.362301
12.54215 2.9913442 41.346428
12.586359 3.3938456 41.369537
1.173627 -4.5117507 41.460918
13.430342 -0.27651873 41.436134
11.627745 1.2191615 41.482723
10.070961 1.7014409 41.416008
12.961605 3.96172 41.401043
-7.0376024 -4.0457644 41.530113
6.4506435 -4.0803037 41.564663
-4.2692442 -3.339982 41.526695
11.307414 -0.47992137 41.560436
-1.4628969 2.8279448 41.527336
16.23189 2.871819 41.573658
2.7595077 6.0065546 41.587631
4.3219652 6.0120578 41.529827
11.276364 -0.65493184 41.699062
12.550343 3.3013465 41.637146
-1.2024605 3.4899051 41.691254
4.1905637 5.9950533 41.640602
8.9582748 -4.1836472 41.70578
-1.2692751 -2.2245862 41.752548
10.072692 1.4330506 41.774925
16.104593 3.5570703 41.713757
7.8739347 5.9753065 41.798168
6.3879271 -4.1107059 41.862473
0.52292466 -3.9263306 41.893005
-0.93888837 -2.5180688 41.831005
-1.2872455 3.2155085 41.828476
1.8714249 -4.7428503 41.947193
-1.8514028 -1.1271266 41.956924
-4.152432 -0.71121687 41.965942
11.705541 1.5940629 41.942963
13.485096 4.3378992 41.95311
5.5623479 5.9543529 41.90575
-4.3388934 -3.5902314 42.056847
12.62969 0.33871344 42.044025
11.143019 3.9871125 42.05883
13.662939 4.4604497 42.091385
4.3270988 -4.387722 42.188354
-4.432745 -0.2510615 42.142094
-1.7080402 0.86084247 42.126953
-1.6455657 1.748349 42.155293
7.5021095 -4.0595632 42.2565
7.3820472 -3.8209393 42.258739
-3.8417501 -1.5037791 42.253593
13.455854 -0.15035132 42.202034
12.337975 1.0344342 42.203987
11.500216 2.9748368 42.291519
13.294216 4.2523503 42.236565
1.1288438 5.3993354 42.233917
9.7834463 -3.5212872 42.359032
-7.3264112 -0.66161442 42.314201
10.425261 4.5624094 42.388611
5.7987943 -4.2255793 42.46209
11.694012 1.496618 42.406609
-5.1543336 -3.9398899 42.51572
11.188685 -1.2369856 42.541611
-1.7017174 0.7917819 42.594048
3.3262367 5.9424286 42.59285
-5.5784469 -3.826611 42.60878
-1.6991743 0.89288342 42.699478
11.749776 1.7707144 42.668362
12.36846 2.4982321 42.697639
14.958714 4.538702 42.667953
1.9369798 5.8449688 42.621185
2.9806154 5.931951 42.63192
3.6852009 5.9635067 42.691158
5.6094847 -4.2758031 42.788815
-5.422986 -3.7276235 42.799751
-0.46362951 -3.031312 42.759319
12.579041 0.58565062 42.794044
11.523454 2.8339055 42.73531
8.5362043 -4.4092102 42.846001
-7.2098765 -2.9375637 42.864201
-0.62658817 -2.8750539 42.800987
-4.2275958 -2.7072015 42.849274
-1.5561162 2.2166657 42.876854
-1.1323309 3.3502991 42.876595
6.6999178 -4.0541282 42.926117
0.13464895 4.7391205 42.94294
0.17580727 -3.6856265 43.091736
-6.0452881 -3.4803045 43.066212
-0.5317753 -2.9855397 43.012505
-4.2002759 -2.4948282 43.028919
-4.0150719 -1.9681948 43.064732
-3.7661555 -1.3448619 43.094185
11.309321 -0.72083157 43.085903
11.799731 2.1491094 43.096981
11.614231 0.90732324 43.1922
-4.017828 0.019888699 43.296059
-5.8586607 0.80523211 43.298897
7.8900838 5.9543114 43.286137
4.4369144 -4.4575038 43.315105
9.9623871 -3.2716682 43.306278
12.379415 3.3420591 43.322487
1.9908108 -4.7862048 43.432869
9.1317797 -4.1198325 43.412048
10.387161 -2.6556067 43.443146
-5.1467791 -3.3161204 43.516502
11.157826 -1.3191993 43.564728
-6.905664 1.0449677 43.551559
10.705503 -2.1945372 43.602631
-4.2606711 0.54441679 43.635712
14.87673 4.7105818 43.637329
6.7620926 6.0269003 43.680046
1.2386323 -4.5315213 43.748318
15.560097 0.82096732 43.752956
7.1692262 -3.8317382 43.825378
0.10168716 -3.6779757 43.874687
15.983175 2.3956823 43.814831
8.9997206 -4.1929159 43.96402
-1.8028351 -1.7400661 43.915421
-6.8066969 1.2646372 43.961121
-1.7198358 -1.8416729 44.098213
-3.8813181 0.42134219 44.035507
11.650331 0.87623274 44.083054
13.20336 4.4247112 44.076183
12.063631 1.4403753 44.110268
12.586042 4.1611371 44.183624
2.995075 6.0445237 44.157806
-1.2086754 -2.4244919 44.245926
-7.032186 -1.6290581 44.216675
11.539682 0.23056895 44.259583
-1.8307278 0.35549444 44.264992
15.69338 1.5105329 44.229004
0.026251227 4.7710948 44.268646
2.7875016 6.0444403 44.265862
9.6200533 5.128664 44.3274
10.842875 -2.0037971 44.409851
12.192587 3.583169 44.418991
8.628705 -4.4405098 44.506969
-1.3730968 -2.2563007 44.561207
-3.5566487 0.5172869 44.51746
-3.6233954 0.60956651 44.544407
-3.7982244 0.82050788 44.580383
9.5587721 5.1848679 44.55394
10.613981 -2.3397942 44.697617
-3.6398783 -1.8826287 44.651302
12.071029 1.31958 44.664257
15.925776 2.5196381 44.603073
12.042424 2.7379329 44.634594
1.7477734 -4.7090254 44.722073
1.451539 -4.604845 44.712986
11.863369 2.3066278 44.749619
-3.3662324 0.58971661 44.818302
9.3867817 5.3154001 44.84111
6.659965 6.1124716 44.869106
6.639482 -4.0095072 44.902042
14.563939 0.47449371 44.997997
-5.7065153 1.6623938 44.963181
14.718664 4.9444656 44.984215
4.4759784 6.0909352 44.914917
8.585907 -4.4481797 45.067665
-5.0044074 -2.4122264 45.014961
-2.9076157 -0.76907152 45.017853
-6.4252491 1.7708659 45.012581
8.1345053 5.8847914 45.009174
-2.8780746 -0.67555004 45.131664
11.847441 1.6554883 45.115711
13.462456 4.8538265 45.159439
-1.5919156 -2.0268877 45.253616
10.837181 -2.0214925 45.255692
13.39878 0.16835238 45.333942
11.597625 0.42871845 45.360855
-1.8744355 0.58361644 45.39344
9.371933 5.3401232 45.394218
2.169594 -4.8081169 45.446514
-0.19295254 -3.5234389 45.491821
7.5717564 -3.5793786 45.497665
13.314251 4.8711534 45.470802
14.412462 5.1295185 45.446751
6.9716578 -3.8278546 45.53994
11.214525 -0.3994275 45.575485
-5.2941713 1.9283425 45.58707
11.802906 2.1117897 45.506779
11.746097 0.98676729 45.689049
15.44993 1.1488202 45.661766
11.794287 2.2082043 45.625191
15.920442 3.467453 45.690777
11.961905 3.5468726 45.673672
-1.1203694 3.7123706 45.656475
2.5418842 -4.3408465 45.745522
11.217194 -0.22111142 45.782921
12.650166 0.19150658 45.731789
-1.8794433 0.69142991 45.741901
-4.8122454 1.9660261 45.773396
-0.80154574 4.3645868 45.89048
2.9203761 6.1675811 45.873421
11.811651 1.2759196 45.950844
15.905404 3.3773022 45.987221
11.906201 3.4365413 45.902328
3.1095412 -4.1709428 46.076401
9.6361284 -3.5344112 46.006866
10.684035 -2.2530007 46.050285
-2.5665939 -0.87065709 46.029472
-6.6773348 -0.7263602 46.085918
-1.3762237 3.2215853 46.075813
10.57838 4.6641502 46.094788
8.6071558 -4.3871479 46.153576
-4.6200728 2.1380496 46.15971
1.4174047 -4.5902963 46.282944
0.61751312 -4.1745358 46.203758
-6.5181932 1.9625049 46.220612
-1.8072209 1.9847643 46.278801
-2.6280286 -1.7090228 46.398769
11.254946 -0.48156881 46.392838
-2.556138 0.36691278 46.37796
14.955979 4.7200084 46.358063
6.6698089 6.196846 46.323109
2.2142346 -4.6598001 46.42878
9.3539162 -3.8091893 46.403927
9.7257223 -3.4135208 46.499271
-6.2767839 -1.5583549 46.48518
11.286182 -1.2818857 46.409119
11.920977 1.7317786 46.490795
-4.6516232 2.3093305 46.492825
11.389939 3.6495709 46.450058
4.1558681 6.1880941 46.445679
5.8747454 -4.2383428 46.591381
-2.5501566 0.90138537 46.532921
11.92428 1.7281003 46.575577
9.0356359 5.4788418 46.564472
0.89059985 5.3496819 46.679585
4.0083485 -4.4333935 46.750534
-0.56323057 -3.2614775 46.764477
15.280402 0.88241506 46.785992
11.111052 4.22858 46.783978
8.8647842 -4.1818337 46.878208
9.5386086 -3.5901177 46.8652
-1.5120047 -2.1707249 46.834377
9.1610899 -3.9513791 46.918945
-1.8812432 1.4103531 46.933453
15.597928 4.2562366 46.991852
12.922309 -0.075337961 47.094482
11.452883 0.68738627 47.038094
12.510877 4.9411197 47.07373
7.120347 6.2510781 47.036972
5.7375975 -4.2417488 47.164406
-1.9471543 -1.5360684 47.161064
-2.2876585 0.22093649 47.157497
11.83649 1.5057354 47.193535
8.0908518 5.8883739 47.137115
6.7585192 6.250113 47.142456
1.8105021 -4.6499591 47.270111
1.4540111 -4.5701761 47.217453
14.978581 0.53296751 47.258884
11.512524 0.8671906 47.223087
-2.2994795 1.2215457 47.377571
11.363138 1.3130391 47.364899
11.852221 2.7768972 47.302647
-0.84621513 4.3535247 47.352833
1.296271 -4.49964 47.451893
-2.0576777 -1.5437851 47.405689
11.313464 1.0904938 47.477966
11.378493 1.4963679 47.413746
11.545111 2.7482357 47.40427
0.99694812 -4.3392529 47.569298
-1.2988963 -2.4380922 47.501625
10.58898 -2.4081135 47.569115
15.724298 3.3428292 47.564796
-0.90183258 4.2540097 47.577496
5.4628353 6.250515 47.568443
7.7877436 -3.9708612 47.663258
-2.1577044 0.52410394 47.630478
10.181801 -2.8656375 47.765278
11.304201 -0.097603321 47.79303
11.422764 2.2722392 47.735538
11.619425 3.2681668 47.709843
11.124499 4.2598591 47.723732
15.312186 4.4132166 47.763176
10.889053 -1.9750305 47.856598
10.346826 -2.6826158 47.943668
-0.95787805 4.1623669 47.96468
2.4120183 -4.2182546 48.086311
9.1124077 -4.00947 48.061592
-5.5001073 -1.5376524 48.029968
-1.6719462 2.7330413 48.025845
11.458767 2.9520812 48.032974
13.762205 5.3602324 48.087032
7.5035377 6.2719517 48.003696
-6.1719995 0.82261658 48.155479
15.656011 3.2923937 48.143116
10.42645 4.8580961 48.170341
2.6705456 6.2766719 48.143341
3.5501227 6.3296967 48.164104
6.5812178 6.3260016 48.148407
-3.7153769 -2.2391937 48.203766
-6.1833634 -0.017526507 48.298111
15.557186 3.9286342 48.219166
15.492125 4.2702127 48.207527
9.86273 5.1165328 48.213943
12.665106 5.3567581 48.286121
6.9954748 6.3160954 48.289932
-2.0128293 1.7170781 48.376545
15.568254 3.813534 48.319534
-0.94684076 4.2077346 48.397011
6.6264057 6.3444176 48.394554
9.5042667 -3.5746582 48.488968
-2.3246257 -1.8352091 48.482147
-6.1143279 0.72183418 48.456867
1.3038534 -4.3798733 48.577213
3.4648366 -4.1937995 48.546165
14.769873 0.48510453 48.596127
14.97413 4.6052775 48.542141
2.3440938 -4.2173548 48.683254
0.23234279 -3.8517394 48.6143
15.601921 2.646523 48.641178
-3.7423568 3.2676058 48.607563
1.8144284 -4.4613819 48.717129
7.0393519 6.3298235 48.749088
8.1457167 -4.3766284 48.876366
5.2739949 -4.2576499 48.875957
-0.27825737 -3.4945128 48.885208
-0.77954704 -2.9793189 48.806145
11.370352 -0.54416668 48.869984
-6.0746593 0.087470651 48.836029
15.220768 1.3303404 48.89706
14.158945 5.143445 48.807304
7.6354122 -3.4573417 48.903763
-3.5009847 3.4252851 48.976746
10.191926 -2.7863638 49.026539
11.138719 1.861141 49.012375
-3.8390326 3.5243151 49.095398
-5.9540739 1.1907862 49.118404
-2.2951736 3.3600981 49.169449
11.658943 3.7802663 49.102135
-0.10019158 5.0827613 49.182518
2.2179809 6.2858582 49.13369
9.1088943 -4.0334711 49.243855
2.5667577 -3.6671529 49.279335
14.225441 0.11728531 49.216095
15.550507 2.7544625 49.282692
11.348137 4.4185829 49.27586
11.512545 4.9708791 49.211361
0.046857025 5.1785612 49.255905
-5.1124234 3.1791728 49.384975
-0.97655272 4.6626711 49.334454
0.36363348 5.3804688 49.393867
0.73118544 5.5632844 49.321999
9.174201 -3.9787219 49.419075
-4.6368141 -1.5863636 49.423809
12.94393 -0.24552955 49.497284
-1.6401602 1.4341391 49.438049
-5.6069326 2.9197581 49.445221
5.9017801 6.4154963 49.487511
11.724845 4.0001941 49.583298
1.4095858 -4.2812619 49.671192
0.83722562 -4.0476217 49.604904
-2.768775 -2.0145063 49.615524
12.518736 -0.35626882 49.606476
-1.6249855 2.1505342 49.667534
-5.7647924 2.2893622 49.77182
-3.3922091 3.7788129 49.704506
12.657059 5.6285257 49.788799
2.1994593 -4.3028488 49.852306
7.8250008 -3.9018064 49.821621
-5.1890039 -1.1700972 49.886475
-2.5661762 3.7752063 49.870205
11.867804 3.9178076 49.811352
1.1096517 5.8850908 49.850037
2.6425173 6.3389354 49.829098
4.6079502 6.4386983 49.869911
-0.38609856 -3.2397592 49.972637
-0.9738422 -2.6771963 49.910637
-3.448895 -1.9353502 50.071091
-1.486474 2.1693821 50.093803
11.088808 2.8865168 50.039806
9.7782936 -3.238555 50.103455
12.400484 5.6905851 50.164734
8.7063789 -4.1874804 50.236603
7.1359835 -3.5040293 50.232662
12.429185 -0.4223175 50.214706
12.380535 3.3373001 50.213696
-1.4743723 4.3796415 50.219574
-1.3054116 -2.2577317 50.395214
-3.9177146 -1.670802 50.387161
11.088255 3.3513434 50.382977
11.59032 5.4267225 50.346832
-1.1593105 -2.4270594 50.407547
-1.4535067 3.074621 50.425743
11.124697 3.6670146 50.411537
-3.9280105 3.9552274 50.464058
-3.7544942 4.042932 50.416668
-1.3994651 2.9692507 50.563213
-2.3023763 4.0680485 50.50806
3.8020904 6.4385548 50.534309
11.470115 -0.99750257 50.677948
9.3269291 5.8852215 50.69046
15.158242 1.6854366 50.747665
11.264802 5.2466559 50.789124
2.7795954 6.3840475 50.790207
-5.367373 -0.48944247 50.867947
15.179409 4.3587995 50.804649
2.6312628 -3.6292925 50.981049
2.5253515 -3.5639176 50.90443
10.389097 -2.4901209 50.961594
11.141673 -1.6421586 50.94799
9.7321835 5.7231588 50.957748
7.3438368 -3.3668036 51.072582
9.6491203 -3.3965302 51.054108
11.468338 -0.4995499 51.054848
2.5831721 6.3806591 51.025848
12.279995 -0.52484667 51.125195
12.011312 4.5630341 51.101624
10.984993 5.1736083 51.11084
1.8288167 6.3365374 51.11171
7.7999325 -3.6790991 51.398277
-1.0501624 -2.4864459 51.394527
-4.9061489 -0.86420012 51.328426
-1.5164412 4.4290934 51.375877
11.957026 4.8195477 51.343422
12.427544 5.699048 51.388664
11.074818 4.7531915 51.483276
11.104556 4.8967948 51.423172
11.168401 5.3917546 51.430714
10.181291 5.5765228 51.422218
8.4721775 -4.0521684 51.502808
9.9082336 -3.0789869 51.583214
-1.1511366 3.7050185 51.507061
12.69283 5.6413126 51.54147
14.046834 0.032291371 51.691139
-5.5271401 0.23066783 51.681515
-5.4300308 1.6391665 51.644962
11.098225 5.2598376 51.723969
11.747503 5.1563983 51.821373
3.2088168 6.449635 51.807262
11.576144 -0.40704411 51.90522
15.172338 3.3832769 51.999714
12.196704 4.8100619 51.913322
-0.5048483 5.4807491 51.929935
5.5249543 6.5468893 51.948448
-5.374341 0.27559745 52.112797
11.452168 5.3330159 52.288788
3.0834627 6.4579344 52.233109
-0.63578123 -2.6782727 52.324188
-3.9172835 4.1949749 52.313904
3.8482883 6.5093594 52.322208
-0.16918461 5.7700524 52.448696
13.59643 -0.23610023 52.599243
-5.1440144 0.23257446 52.580338
11.080377 5.4782934 52.540478
11.995025 5.8104777 52.59594
5.9979858 6.5401249 52.592735
2.32178 -3.7756085 52.630295
-1.9434134 -1.5893044 52.671944
-2.1625037 5.1362476 52.686634
5.3950853 -3.5894191 52.762325
9.3007097 -3.5747652 52.718861
-0.52086425 -2.6807835 52.742195
7.0503454 -3.4079328 52.821026
-3.8685207 -1.0114611 52.858803
13.278555 5.525548 52.864754
11.880894 5.8386583 52.811504
10.361805 -2.5187693 52.901566
11.569098 -0.92897993 52.904648
-5.0697622 0.37710071 52.992168
15.010525 1.8334696 52.931389
-2.7981515 4.8742466 52.906467
12.503127 5.0416818 52.997322
1.0180535 6.3549433 52.937222
3.1579916 6.4914589 52.984505
-3.2616377 4.6372523 53.011528
12.5519 5.004766 53.062286
-1.8269005 5.3775415 53.093781
2.1425409 -3.8525701 53.199726
12.401053 -0.63529074 53.186584
-3.936218 -0.86183178 53.200165
8.9472494 -3.5335033 53.341938
-1.8175831 -1.5200082 53.388813
-5.1119204 0.6248945 53.302094
-0.67857468 5.7640729 53.305508
-0.22875576 -2.7386281 53.485691
-2.0678296 -1.6321793 53.401833
11.860623 -0.7961033 53.452366
12.110988 -0.73190999 53.401943
7.8981285 6.4429445 53.444176
-0.56283092 -2.5175867 53.540924
0.74364936 6.3601556 53.528297
0.89853209 6.3703165 53.539688
3.5034118 6.5383878 53.581299
-5.1484437 1.299817 53.659512
14.356476 4.7798834 53.679489
6.7084227 -3.3705623 53.700005
9.3932066 -3.2793381 53.766281
-1.4073073 -1.9117846 53.706123
14.657979 1.2921212 53.774445
12.08703 5.5079112 53.707211
8.6074791 -3.5255263 53.815624
1.5684805 -3.4956269 53.864353
0.77367347 -3.2388363 53.82737
9.7918825 -3.0529962 53.828167
-1.1561867 -2.0781958 53.882542
-3.6677523 -0.7839129 53.947388
11.948419 5.5891485 53.91935
1.4986126 6.4244213 53.971828
11.546628 -1.0873904 54.00214
9.3612375 6.3688283 54.082199
8.8395233 6.4034257 54.080051
-0.14736718 -2.6645818 54.164116
14.346062 0.91998631 54.162384
5.8099895 -3.2932234 54.234314
7.313561 -3.2149563 54.224495
13.8076 5.1232429 54.280102
1.2766255 6.4232969 54.29995
8.139246 -3.5068674 54.399921
-2.2219131 -1.4842252 54.397198
14.897614 3.097075 54.370918
14.173115 4.8710098 54.376823
-1.0793419 5.8737159 54.372818
7.011116 6.5410528 54.348106
5.9675679 6.6129341 54.314266
8.7370081 6.4246531 54.46452
2.8310885 6.5288219 54.411732
12.872023 5.6372838 54.588966
12.747751 -0.59637833 54.664829
-4.7641549 3.1633782 54.607361
-3.6487157 4.6309505 54.614395
13.422783 5.3642306 54.695786
9.2934799 -3.0547638 54.783787
-0.352824 -2.4241738 54.777569
8.6251373 -3.237639 54.86779
-4.2968736 0.42033321 54.870308
14.053255 4.9303479 54.837524
8.7431173 6.4388561 54.82095
13.321922 -0.38776854 54.975922
-2.6802759 5.128705 54.919643
11.837023 5.851799 54.952236
8.9699383 -3.0689428 55.098148
-1.8733145 5.5339408 55.056259
9.3298044 6.4084759 55.084328
5.8493958 6.6525497 55.077179
7.3790746 6.5531425 55.271946
4.0349488 6.6409655 55.239281
9.4886475 -2.8511865 55.313179
-2.904994 5.0454302 55.370842
3.7526422 -2.9490287 55.48101
0.20251861 -2.6531718 55.410042
12.002816 5.8092527 55.401302
7.8602986 -3.1498826 55.567673
10.117157 -2.5366428 55.565929
-4.7774682 1.8070742 55.574669
14.418859 4.6476612 55.574528
14.161031 4.8241625 55.536209
9.1642056 6.440258 55.575287
7.9567661 -3.0798981 55.69548
-2.9335957 -0.67537129 55.663601
-4.0666924 0.56830359 55.652351
-4.3682952 0.98482424 55.633881
14.812326 1.9669142 55.654949
3.8889666 6.6480598 55.643013
10.631886 -1.8072565 55.757904
13.935621 0.6368497 55.779491
14.332336 4.6956601 55.798279
-3.0546062 4.9399261 55.718319
3.1640453 6.6045485 55.729729
13.633012 4.989902 55.896637
8.9417763 6.4660454 55.88665
3.5322917 6.6328125 55.835762
1.9544338 6.5212178 55.962479
-3.0180888 4.9282627 56.022194
0.82629138 6.2429204 56.052116
1.9238082 -2.6909575 56.118053
3.6534753 -2.7112546 56.295013
11.844073 -0.77601695 56.228275
-4.646214 1.9923249 56.247795
-1.2722845 5.5884933 56.265533
-0.17836456 5.9103017 56.289673
0.64363074 6.1114521 56.281326
7.3397861 -2.6170728 56.392982
8.5401354 -2.6949821 56.376266
-4.2943368 3.4408553 56.300339
13.660469 4.7693262 56.447201
-2.1905711 5.2278137 56.43969
-0.28289858 5.8130546 56.459454
6.9262538 6.6315899 56.408394
1.6270305 6.2275105 56.517574
4.8728814 6.7475224 56.509556
1.4970909 -2.4482069 56.673279
-0.031522002 -1.8081784 56.643238
10.16576 -1.8412068 56.673019
14.49492 3.7607837 56.690098
3.94648 6.6599636 56.680431
5.0703435 6.7678995 56.693596
1.7828314 -2.4176512 56.713295
13.349051 4.7948523 56.724064
13.473201 4.7344656 56.766979
-1.6718228 5.2625127 56.75087
1.4385214 6.102541 56.727516
-4.2327614 2.281755 56.81744
-2.2181406 5.0294404 56.899284
-2.0833392 5.0943246 56.844791
-1.3451943 5.3121066 56.879585
5.6333494 6.7252336 56.881802
-3.7496223 1.5786465 56.953293
12.740982 4.9374409 56.981506
6.1496053 -2.4499922 57.035805
14.368863 3.8627164 57.090984
9.119935 5.9424348 57.083981
0.78784019 -2.2236598 57.127735
1.0705026 -2.2611616 57.109673
-1.5037043 5.1418395 57.171318
6.7011175 6.3943019 57.167629
9.0846987 -2.2986941 57.330223
14.253523 3.8842053 57.322987
12.230059 4.9390659 57.382427
5.8293386 6.5143971 57.302711
6.4769359 -2.3402817 57.43552
1.1247574 -2.0850143 57.418667
0.18773368 5.5131679 57.440495
5.3558078 6.5660291 57.409466
1.4558682 -2.0433798 57.540176
-0.39873898 -1.0495952 57.50531
11.987668 -0.11149687 57.559944
12.463623 0.15136302 57.522232
-2.5956597 1.1774604 57.509373
14.280592 2.2009749 57.521809
13.406528 4.5029292 57.549801
12.070942 4.9345264 57.507439
-1.4783347 5.0060458 57.519634
14.140149 1.6327451 57.629135
1.4050511 5.7203231 57.652618
11.044032 -0.58369702 57.717873
12.355239 0.20880757 57.730095
7.0336161 -2.2623594 57.826553
9.1620502 -1.8946363 57.845287
0.61268282 -1.5567874 57.884003
1.6345428 5.6784062 57.884186
7.4052663 5.9736586 57.852989
3.2791367 6.0575056 57.821312
13.745781 4.145062 57.970566
7.0421324 -2.2121007 58.036003
0.54046971 -1.2141117 58.059669
5.3049917 6.2623281 58.084877
7.0143661 -2.2106576 58.113308
1.9561583 -1.7202015 58.164429
13.906939 1.5701814 58.113396
13.894544 3.6058352 58.122787
13.556772 4.0716 58.121498
0.81121427 5.3678493 58.144005
5.726059 6.1773186 58.181084
0.7068435 -1.1674976 58.286797
-1.5134811 4.6878443 58.263767
3.4541767 5.9099884 58.281208
7.4665122 -2.1457424 58.322647
9.4611216 -1.2196528 58.36655
13.82489 3.2945008 58.307442
8.577096 5.460906 58.483269
1.675746 -1.2789254 58.59827
13.278856 2.4150431 58.579552
10.141066 5.0244298 58.58955
3.9107513 -1.0412102 58.635391
9.6056061 -0.73250252 58.622616
-1.1251782 1.5935783 58.675419
7.5067806 5.6211138 58.668343
4.0986252 -1.1434329 58.708931
11.143492 0.42790788 58.792747
12.536563 1.2413006 58.702984
12.897507 3.4372635 58.752132
11.792279 1.0521935 58.882805
12.273519 1.3655154 58.869164
0.58518004 -0.20272836 58.91877
10.295223 4.8460402 58.907143
12.340303 2.866287 59.016483
12.228498 3.3452888 59.056103
-0.42767203 4.7023954 59.003788
5.2443175 5.823266 59.002434
3.5539181 -0.84843469 59.108063
-1.0002694 3.3222759 59.167145
3.764298 5.6377592 59.123024
3.7466877 -1.8732038 59.291077
4.0550728 -1.1204835 59.251846
10.297217 0.71906692 59.269112
10.4452 0.82421499 59.269646
10.915774 1.1579678 59.271008
11.857311 3.3284373 59.223423
9.7070913 4.859374 59.209312
11.610177 3.6940901 59.320118
-1.0855383 4.176126 59.327812
-0.7554242 4.4597158 59.388901
10.233269 1.0614707 59.477219
11.287994 3.5260949 59.471336
0.36485046 4.7211723 59.416557
8.0083857 -0.38541704 59.551369
2.7668641 0.17681414 59.536732
0.80856746 0.77307433 59.539032
0.11969775 4.5913277 59.582348
6.1467276 5.550652 59.511959
8.9602623 0.16677497 59.646305
6.3458166 5.4516335 59.656853
4.0948405 5.5130243 59.609283
5.958519 -1.7296617 59.77177
2.4806309 -0.49341884 59.711605
1.1522486 0.47248664 59.715698
8.9794235 0.40835825 59.739204
9.1053438 0.7092827 59.739632
10.209549 1.734432 59.778687
9.9679976 4.5518675 59.759499
7.9464889 -0.73859984 59.857559
10.417085 2.6268034 59.881374
10.557362 2.7140975 59.820114
10.390488 4.0990615 59.870369
-0.26444989 4.1329751 59.820293
0.71376103 4.6098948 59.881126
1.6594574 0.065159261 59.979408
1.9289814 4.8961878 59.904793
4.8766556 5.3563013 59.978302
5.0130367 5.3705854 59.948452
1.3627651 0.82545853 60.096947
10.094223 3.9195731 60.01088
9.0457296 1.5466436 60.155144
8.1135302 0.0019674301 60.2953
8.389658 0.4803651 60.271122
9.5282288 2.5807455 60.282791
8.9054317 1.9042554 60.326904
9.3957977 3.6565113 60.360985
0.74294662 3.8033018 60.331139
8.8541985 4.3009124 60.364655
7.6933551 4.8350377 60.40271
4.3257446 5.112875 60.487022
8.7287006 2.4822323 60.58564
9.0307932 3.4741957 60.538666
1.8008325 4.2822289 60.526703
1.8658941 4.3741121 60.502522
3.5157337 4.9984341 60.578255
1.3413103 3.6032872 60.634071
7.6376619 4.566215 60.659599
6.880969 4.8561974 60.778786
5.3720512 4.9850273 60.754196
6.35921 -0.60470772 60.82386
1.7746027 1.5639277 60.864285
2.5612488 4.2381668 60.819004
3.4212115 4.8512855 60.808632
4.8395958 4.9586358 60.809349
1.9043113 2.6115954 60.986099
2.5778265 0.30079466 61.064064
8.117466 1.7038436 61.047401
1.944514 2.620815 61.044548
2.4054375 3.7151232 61.066635
3.4057159 4.5179663 61.019314
4.5597076 -3.1194975 61.156872
4.597609 -1.8592932 61.178467
7.7031717 1.2769012 61.124912
4.796515 4.4954562 61.25256
5.6337628 -2.5806916 61.334915
5.6569486 -2.3817918 61.366531
2.1576524 2.7224817 61.345642
5.3813801 4.4338946 61.305698
4.4723449 -3.9860175 61.488861
3.8017607 -2.1497328 61.469208
4.0238895 -1.4073939 61.461853
2.2396173 2.6088638 61.483864
5.4759874 -3.7741518 61.534012
7.636982 2.2266572 61.590023
2.7823162 2.3094602 61.5597
3.5508533 -2.8566375 61.698196
3.2204633 -0.57972443 61.627991
3.3678422 -1.9121296 61.758823
3.6260879 -2.9806056 61.877735
3.9696271 -3.4369543 61.903072
6.3734674 -0.88633281 61.96249
2.6014872 0.39372081 61.922829
2.651576 0.81842625 61.943878
7.1597624 3.4157636 61.900848
6.9124889 1.5187204 62.009468
6.9558821 0.97804767 62.170258
6.0318518 2.6810308 62.121311
2.6987016 2.8661761 62.126759
2.9891369 -0.67266566 62.27523
5.6801996 3.7847228 62.296036
2.6218736 0.13406715 62.427963
6.9293647 1.6570801 62.464256
2.7284098 1.9445485 62.411263
6.9024529 -0.27004272 62.582111
5.6308546 2.8088343 62.586567
6.9444256 -0.53945178 62.607338
4.0017309 3.4477839 62.600067
5.9163623 3.4610384 62.621101
3.153146 -2.7540357 62.716568
3.3009641 2.4462969 62.713875
3.3782051 2.4494753 62.951275
4.4948878 -4.059031 63.148621
6.9797006 1.2126491 63.112537
5.5300469 2.8315086 63.148735
5.6408043 -3.612112 63.200584
5.0670042 3.1177442 63.21764
4.8459616 -4.2925453 63.360428
6.9549866 -1.8134239 63.332443
7.0867252 0.19870397 63.317131
2.5729952 0.34897017 63.312565
4.5529327 -4.1852636 63.465092
7.0078831 1.3579849 63.475887
2.4616458 -0.13863815 63.580334
3.8646517 2.8470316 63.738171
4.880197 3.3813918 63.756824
2.7745476 -2.286474 63.850849
7.1872911 -0.69575953 63.976154
2.0169876 0.070929073 63.955315
7.599143 0.23721156 63.984261
2.4956422 0.62131548 63.934322
2.4960496 0.82936877 64.039795
7.1988573 -0.95370287 64.215424
7.1581273 1.4384339 64.2286
5.9524975 3.174499 64.230202
2.4270604 1.1799095 64.396729
4.2201099 -4.0027447 64.486984
2.9953594 2.9970679 64.471016
7.5346627 -0.083671764 64.562561
2.40082 1.2339094 64.506203
2.7507424 -3.0686316 64.63353
2.5491929 -2.5735698 64.641922
7.1050191 -2.7789478 64.756859
1.89476 0.73620987 64.747223
4.8888412 -4.2999959 65.160995
2.6710811 -3.0734215 65.172394
2.1795871 0.095652223 65.119362
1.7174056 1.0615203 65.18187
7.0558958 3.1449995 65.100174
3.7562122 3.9277358 65.110237
3.8126166 -3.58901 65.258362
2.6378393 -2.9996939 65.232613
2.3724489 -1.7952726 65.330986
7.486186 -0.14047149 65.364288
7.1678338 -2.5871408 65.475296
7.5484724 1.6483142 65.463852
7.4190612 -0.42510033 65.528473
7.5577307 2.671046 65.566559
4.8669276 4.4201903 65.561493
7.4877119 0.82784963 65.634598
7.0520201 3.5852823 65.634712
2.8930674 3.8809347 65.618935
5.992569 4.1965585 65.619362
4.2744207 4.3488135 65.683937
2.2812905 -1.2647866 65.787506
2.2705455 -1.1236541 65.797188
7.5464997 2.597846 65.793297
6.363452 4.160326 65.793556
2.848911 -2.9640942 65.812515
7.2307067 -2.1988375 65.889862
4.3542852 -3.7710953 65.944221
7.3755784 -1.0687553 65.992126
7.5626626 2.8147519 65.901863
2.5578108 -2.688853 66.045288
2.4662428 -2.309233 66.071434
1.7674513 0.67108834 66.076134
3.4683657 -3.4240134 66.16272
7.0618982 -2.7663262 66.118942
7.5680637 -0.30534059 66.125229
1.7896888 0.63617802 66.123772
7.9423046 0.9965114 66.111832
3.8859971 -3.601711 66.200279
2.4136724 -2.0180373 66.239899
8.0075588 1.2175243 66.203102
7.5842929 2.5245886 66.208099
4.1252475 4.4531984 66.295883
1.9021608 0.3773298 66.327026
1.9005396 1.6956971 66.397324
7.1120834 -2.9022923 66.413895
7.677084 0.2913892 66.455452
2.8197284 4.0301456 66.493759
5.693469 4.4580951 66.483528
1.7806003 0.51727951 66.532867
7.9898634 0.86315024 66.513885
3.6822617 -3.8626695 66.657417
3.4899986 -3.7662103 66.640671
3.0476613 -3.631856 66.680855
2.6017344 -3.206399 66.609161
2.2317932 -1.1087173 66.633316
2.1949472 3.4294417 66.733383
7.6016912 -1.836849 66.840347
1.9344798 0.90918165 66.877518
4.3867059 4.6604891 67.0439
2.1004174 3.3581467 67.196495
5.6056471 4.5841117 67.107086
7.8142614 0.90411234 67.239929
3.9377823 4.5404854 67.262817
4.4021401 -3.7644653 67.402992
7.3924351 -2.004847 67.437859
2.2159889 -1.3250227 67.408142
7.696641 -0.40846327 67.517891
6.8282337 4.0793262 67.569778
5.6746106 -3.6212876 67.657059
2.1796217 -1.2455866 67.75808
7.7490578 -0.13425389 67.949203
6.3651485 4.3043365 67.979317
1.784458 1.0555438 68.159119
2.2832057 -1.3855697 68.277306
5.8020344 -3.4275329 68.361992
4.076292 -3.4383466 68.415359
7.6564922 -1.1168514 68.475906
7.8285837 1.1752226 68.415878
4.9186296 -3.3898773 68.547874
2.7411566 -2.6602538 68.574974
