# .PCD v0.7 - Point Cloud Data file format
VERSION 0.7
FIELDS x y z
SIZE 4 4 4
TYPE F F F
COUNT 1 1 1
WIDTH 1612
HEIGHT 1
VIEWPOINT 0 0 0 1 0 0 0
POINTS 1612
DATA ascii
7.5194016 40.04525 23.307987
25.501686 47.598663 23.349365
16.029881 48.302036 23.396189
8.2315197 49.427742 23.392307
18.911396 50.646061 23.325937
6.7738647 39.277283 23.481056
30.832066 56.26902 23.484945
7.5706491 39.907043 23.662323
8.606657 49.021976 23.774218
14.504962 59.264759 23.992363
22.226734 62.570499 23.912895
19.714005 50.945068 24.037102
13.228534 51.693935 24.007933
20.394468 52.061634 24.028278
4.6834683 40.991951 24.19409
20.311535 58.068043 24.176664
13.26975 58.16991 24.162167
3.5975554 42.140808 24.220938
22.053032 47.169785 24.256983
22.022894 59.199783 24.240452
4.1768064 41.498146 24.360266
21.536833 47.414627 24.33746
9.8649712 41.445839 24.488453
3.4858029 47.415951 24.482521
7.0154905 38.94788 24.533859
21.142254 52.865036 24.517183
21.694107 53.763847 24.50415
11.046097 42.888817 24.656158
11.25908 46.516193 24.678001
3.0649242 46.701054 24.900311
24.105164 64.364548 24.994614
15.034938 48.535488 25.040222
30.669994 53.584427 25.033203
12.196467 55.795097 25.087923
23.216885 46.841831 25.226845
30.130632 46.889336 25.267605
19.762009 57.410721 25.357878
28.253748 46.516338 25.448433
21.677919 53.972408 25.46447
11.980768 54.254414 25.500248
21.837696 56.133606 25.562378
30.07066 64.209923 25.58264
7.550539 48.783218 25.601124
25.004696 64.523315 25.603508
21.403482 47.495438 25.791862
17.476833 58.878746 25.71423
31.144712 61.42907 25.7253
4.7860832 40.992714 25.880728
21.445801 54.049011 26.088749
10.775204 42.913071 26.15184
16.156208 46.86385 26.141827
21.264254 52.148609 26.172186
28.722549 64.337326 26.131994
26.060017 46.484566 26.294504
17.224808 47.826271 26.202707
9.4745979 47.986786 26.341248
26.189173 46.614704 26.498199
10.232365 47.687336 26.469492
13.878782 49.47908 26.415733
14.773438 48.13903 26.647291
1.9134401 44.375629 26.72332
11.794704 45.495548 26.893265
15.328178 57.274441 26.87694
7.4001503 48.795353 26.999943
20.979725 54.50882 27.057026
3.3580647 42.323246 27.176682
11.774755 45.74387 27.161289
24.150978 46.721794 27.139771
18.389616 57.040287 27.237381
26.698147 64.704704 27.25761
14.041448 48.914833 27.301287
19.849298 55.83226 27.395334
22.039478 59.463615 27.359293
30.317284 64.20945 27.373705
11.481944 46.944901 27.460852
20.00691 50.009056 27.412102
5.3562641 40.345352 27.52676
11.117914 47.325607 27.513557
17.900002 48.02174 27.55467
14.871325 31.661674 27.67177
17.019506 32.912468 27.762091
6.9110932 39.008575 27.863571
20.496109 50.580166 27.886232
12.565508 51.16832 27.895376
7.8182564 38.852974 27.915527
9.5432816 40.946053 27.982328
21.326212 47.669518 27.902626
18.644238 48.596607 27.949657
11.50985 44.074944 28.277779
16.026676 31.027174 28.333672
19.524315 33.357098 28.368437
19.558298 33.435139 28.36351
13.042996 55.638367 28.456772
14.952456 56.40279 28.483942
30.926779 58.260906 28.471804
15.633185 46.418095 28.553505
11.81555 53.000805 28.532633
30.384054 64.175156 28.571661
18.716112 32.449165 28.643835
12.566347 50.864498 28.600065
10.030087 41.63052 28.759706
11.307694 43.673908 28.714657
23.789724 64.569527 28.754068
26.498583 46.536041 28.871231
18.164209 48.02977 28.843159
30.250774 49.997059 28.825809
18.287539 56.407421 28.832193
18.860418 32.567188 29.098902
16.972633 33.024513 29.007452
11.36514 47.728127 29.194666
20.750961 55.014305 29.196354
14.906281 56.40675 29.125875
30.865658 56.803635 29.255493
18.704227 32.744091 29.391354
14.804756 31.243513 29.467825
22.258598 58.67445 29.402313
11.646337 44.761311 29.577721
29.288111 46.349915 29.559444
30.234474 64.158722 29.580746
30.014807 64.16983 29.667221
11.826685 52.499699 29.728745
16.3055 46.280357 29.871588
24.192322 64.513885 29.992815
27.545437 64.30587 30.197914
26.07436 46.707394 30.248535
13.677756 56.054405 30.286009
21.217403 54.366348 30.330502
11.290436 32.343529 30.427813
13.548441 56.016895 30.441051
6.0329318 50.793621 30.540884
10.421825 42.11311 30.643879
11.31629 44.131252 30.716904
30.235229 52.586761 30.759724
21.921467 53.532513 30.772709
10.791871 42.667175 30.915985
30.35696 48.388504 30.990662
20.104755 49.276154 30.999315
17.979406 56.898514 30.994263
18.029436 56.873405 31.01638
6.6892757 39.732075 31.188072
5.6509705 50.986771 31.199083
1.8578515 47.173321 31.211361
20.800392 50.169456 31.251421
12.024327 32.310547 31.315296
6.4934297 39.975861 31.493198
10.32056 41.934631 31.407856
26.568937 64.115372 31.414238
29.648882 64.14666 31.461449
22.853836 64.44342 31.490591
22.049919 53.134048 31.539747
22.142277 61.146858 31.584408
22.293697 35.898487 31.685534
15.440945 46.24778 31.603134
19.978725 55.746643 31.767984
9.0988827 40.379776 31.853064
1.2549198 46.357712 31.899124
11.57153 32.47546 31.949219
10.893774 32.835148 31.90752
3.5465429 49.648884 31.977322
26.056759 46.409935 32.058262
11.774494 47.635849 32.062103
21.637188 53.875179 32.035858
30.760277 55.051502 32.060097
3.6589622 42.608864 32.182079
11.453433 44.271107 32.166176
19.424299 56.196777 32.166695
1.7927701 45.11924 32.201088
1.5828526 45.427582 32.27636
21.42802 47.238464 32.208572
22.157362 61.393349 32.328541
22.774439 36.496719 32.483383
23.12912 37.534332 32.453091
1.4772787 45.596813 32.458908
12.005147 46.49379 32.454243
27.210228 46.403446 32.416088
11.904782 47.102779 32.429432
19.112852 48.183876 32.44812
10.736931 49.839867 32.431812
13.425195 56.184525 32.56488
31.123739 63.61879 32.502998
1.2152741 46.666168 32.68243
11.88191 47.301632 32.620712
5.6518774 51.559952 32.605152
30.448784 49.89962 32.726746
21.437284 36.860641 32.894394
5.6968479 40.962135 32.883808
22.682035 46.665245 32.89698
22.259451 63.079117 32.814529
29.482887 64.121559 32.852867
6.594492 40.207047 33.046417
11.8539 51.447155 33.097023
30.644857 53.139931 33.028996
14.454774 46.699959 33.114834
30.481651 50.441212 33.186367
30.435394 52.244789 33.216965
30.426037 64.052338 33.333908
21.818535 37.767864 33.44495
8.0271301 40.005188 33.486298
26.180744 46.44054 33.412685
4.6999559 51.028057 33.415615
21.983429 52.027618 33.425549
27.069708 64.478836 33.472878
9.9252872 31.602962 33.554901
2.8235221 43.776783 33.673927
18.68103 47.558784 33.722084
21.813614 53.773308 33.778
26.537523 64.46167 33.892693
11.702256 45.007057 33.974754
11.630119 49.13633 33.901634
3.3942578 50.166401 33.935699
9.1956091 31.69945 34.033939
7.4635119 52.307137 34.153526
2.5430341 44.221104 34.202759
21.693489 53.718788 34.232067
12.656709 48.633926 34.312054
10.341627 51.383087 34.396709
21.661076 53.182045 34.498161
2.3209743 49.511673 34.567249
22.263016 51.325306 34.574718
25.620117 46.72147 34.642651
30.689011 53.86338 34.675262
11.941549 53.77364 34.736469
22.195391 62.013367 34.754646
27.594849 64.18837 34.730728
4.6138039 51.51796 34.80809
23.11459 39.521923 34.979614
15.486811 45.831833 34.997314
7.9730115 32.07362 35.12999
6.4813528 40.608463 35.111835
9.5740108 52.1558 35.1562
5.971735 52.822945 35.352406
28.704844 46.23539 35.489738
8.5625687 52.753979 35.586166
25.649572 46.417107 35.612278
19.034735 47.42865 35.652435
11.667843 51.810352 35.60083
6.2994699 52.914448 35.613548
23.2486 39.730003 35.708584
16.260736 45.438286 35.777546
0.81603491 46.93412 35.744255
4.0461044 51.447399 35.896126
6.9780169 53.003841 35.890884
11.842023 53.176205 35.977188
24.423437 39.653763 36.05085
30.497858 50.69838 36.046101
16.352905 57.422749 36.148323
9.4824085 41.680386 36.237041
11.924614 46.772408 36.204445
19.57419 47.74625 36.223969
11.131053 51.020302 36.250523
8.8951674 32.64994 36.405312
30.194288 52.165768 36.442783
0.78992939 47.316753 36.573418
30.40276 49.125122 36.515942
11.733463 51.032345 36.674091
13.159396 47.242729 36.70826
0.76891798 47.327011 36.708103
30.875916 56.94545 36.779434
21.679018 54.105637 36.846767
13.670503 46.780819 37.093071
25.437899 64.255562 37.236309
24.259834 64.32608 37.265598
10.418358 52.598595 37.422623
26.469923 64.187996 37.439678
7.3029623 31.714354 37.528702
1.9160342 45.434834 37.504654
20.549049 55.237621 37.545475
22.076519 54.113239 37.6968
7.1971493 33.344597 37.758392
21.401999 48.886543 37.700333
24.849442 39.794617 37.859024
10.387264 42.634037 37.874641
22.045181 53.031841 37.888481
8.6554155 53.7075 37.862103
22.858162 64.288155 37.828743
23.800537 40.439903 38.058868
19.249966 47.058594 38.097404
14.743027 45.795746 38.161064
14.303826 57.073498 38.189739
4.9329205 53.461033 38.214043
31.107685 60.771111 38.235786
3.0546961 43.995617 38.304062
11.677864 50.075142 38.319866
14.583729 57.172703 38.338898
30.125559 51.022224 38.411461
22.361807 52.816925 38.493362
17.01333 57.44458 38.437756
17.286015 57.436119 38.465176
24.075851 64.306107 38.496861
15.77038 45.599621 38.596966
11.72225 51.063126 38.598804
12.764849 47.514145 38.690887
20.37232 47.885754 38.669632
12.922335 55.851852 38.678925
27.637976 64.084808 38.727123
4.0397291 43.271271 39.112999
15.914879 45.553921 39.172859
9.2305679 42.012917 39.278454
10.642286 52.902058 39.26144
24.755861 40.631649 39.485718
18.878832 46.625786 39.440128
3.0588102 51.968895 39.403763
9.2185211 42.051212 39.518173
2.6847737 44.492313 39.562771
15.890612 45.500076 39.584
17.590744 45.597027 39.547546
25.960281 46.073433 39.549961
21.664658 53.221718 39.579056
9.2410269 54.202026 39.52808
18.458075 45.856609 39.696888
12.972594 46.969959 39.61734
21.487236 50.288475 39.624771
22.944605 51.706432 39.665489
7.6225462 32.066936 39.780796
26.192646 46.280174 39.732441
0.72603661 47.547665 39.890888
21.543039 49.91011 39.998859
22.944017 51.702553 39.951534
17.353527 57.438599 40.062939
11.797438 47.503429 40.14706
6.0316787 31.066013 40.276245
25.17329 40.043945 40.204601
6.7765265 32.571926 40.374424
19.314486 56.593075 40.374298
7.4242668 31.139977 40.459557
2.2536919 45.087399 40.417725
21.195673 48.111465 40.49292
7.3256946 55.210114 40.480587
22.16412 61.238899 40.414913
25.279179 64.183952 40.451111
5.9854217 41.965919 40.572289
11.090489 44.43396 40.580482
0.94382328 47.337379 40.595169
16.976971 45.150612 40.661362
21.41482 47.031319 40.684288
12.34398 47.917309 40.626518
12.16283 48.242805 40.620411
28.802601 49.575943 40.6521
4.1967487 55.071594 40.686428
30.875572 56.925468 40.695232
3.8042581 53.431351 40.72094
20.890194 47.841473 40.860077
6.1368699 41.963524 41.074764
27.89661 46.144157 41.036499
4.5403266 42.770813 41.154503
11.869607 51.793491 41.107918
12.18243 54.118015 41.106277
10.279091 43.095001 41.216618
18.594431 45.370003 41.254562
7.1064525 55.346821 41.271244
19.731491 56.230904 41.218475
22.425167 49.809391 41.336399
27.187647 50.355991 41.367111
6.3881726 55.371685 41.321884
24.956104 39.67424 41.415874
1.2576046 46.933571 41.542755
30.807346 55.794342 41.595982
18.004349 57.471825 41.514778
16.005016 57.734028 41.596424
2.4068255 44.767925 41.640526
29.91124 46.213051 41.678833
26.891556 49.080048 41.65625
7.5723014 54.739788 41.790024
4.9836512 55.025406 41.758904
23.981461 64.230164 41.729595
16.62241 45.116642 41.955128
20.494835 47.350113 41.907936
12.165541 48.209709 41.904816
29.347263 63.900421 41.933525
1.6190393 46.420052 42.060181
21.37484 48.421761 42.194866
21.778601 55.095833 42.111122
27.178061 46.436787 42.318161
12.204492 52.748962 42.38987
14.445734 45.310692 42.453609
27.882042 46.490929 42.402794
22.801037 51.934059 42.484093
13.769064 56.931931 42.442131
1.0321221 47.297779 42.57452
12.504472 47.695057 42.578976
10.674362 51.392807 42.557346
10.08615 43.449791 42.625736
25.691715 46.946938 42.633579
1.1311437 47.086624 42.636215
11.084665 50.948792 42.661781
25.454996 41.150185 42.749264
3.0429308 44.710903 42.781036
22.928734 51.68047 42.889481
9.8729763 43.420528 42.916451
0.4287107 48.879684 42.981247
12.408833 49.971123 42.9776
21.622795 52.516609 42.977615
31.09654 60.570129 42.921242
2.610009 44.342491 43.006367
11.030852 45.164917 43.059563
21.324688 47.234344 43.023785
21.958866 48.304199 43.059395
13.144491 55.592995 43.034119
1.1007545 47.156639 43.109001
28.010809 47.752171 43.133221
12.145913 49.139679 43.112911
18.222425 57.736084 43.149456
27.713104 47.924774 43.215065
12.331546 50.060593 43.230682
2.4329481 54.162041 43.229717
10.501569 43.742039 43.397842
0.68028516 49.531223 43.368221
12.221051 53.135674 43.37199
18.839724 45.908661 43.400654
4.9535093 56.289455 43.41613
19.68478 46.45319 43.574303
28.592882 47.392685 43.683765
24.118095 49.09568 43.720245
22.287613 53.126041 43.713322
12.293528 53.593124 43.777679
5.693368 28.80723 43.898441
4.8229914 43.555618 43.803596
18.413216 45.523777 43.801956
22.235359 62.639885 43.807907
24.800316 64.12677 43.86145
22.143963 53.472008 43.908752
6.6350551 56.944557 43.930359
19.108284 57.657082 43.980171
22.646751 49.467209 44.054817
22.951582 50.155495 44.071716
15.197113 57.139618 44.015327
4.3434711 42.768219 44.149246
17.483969 44.078606 44.192783
25.256514 40.235653 44.233585
20.726391 45.939671 44.259995
23.068995 50.223339 44.275242
1.789536 53.797169 44.280499
22.17672 61.668507 44.266418
21.231222 46.719193 44.339893
0.61549807 50.038166 44.35928
29.015594 46.947659 44.458218
1.2934911 47.159084 44.43832
22.377735 50.66658 44.495941
22.924608 51.729904 44.419174
3.0243602 55.12923 44.426968
15.27374 56.4076 44.406879
20.767841 56.52158 44.421219
10.526325 57.504238 44.427887
24.16913 41.399632 44.591763
29.503656 46.868557 44.593037
27.311382 50.383717 44.503063
25.318548 40.334572 44.641541
19.941494 45.220154 44.684029
1.03886 52.071194 44.667267
26.832378 46.898113 44.704388
28.044533 46.844376 44.768578
24.240778 50.945648 44.70277
25.742775 51.217659 44.79808
22.635643 52.12458 44.709846
31.009939 59.131874 44.756088
20.936871 46.054245 44.885075
28.001783 46.689709 44.878727
26.200123 51.331863 44.835087
19.522158 57.297962 44.801735
0.57259929 50.540733 45.048027
28.891794 52.644394 45.075275
24.387924 53.114288 45.081295
25.802458 53.768951 45.099625
26.270874 54.509094 45.014526
22.453093 55.804779 45.082245
26.525492 58.922482 45.072704
16.70565 44.214344 45.148232
26.425911 54.384159 45.115921
26.201267 54.905533 45.128761
23.340778 55.444481 45.138596
26.13188 55.484856 45.164375
25.628937 55.570454 45.168083
11.459332 57.95422 45.124893
7.2352233 27.076082 45.221188
28.168184 57.637707 45.200073
31.086414 60.394131 45.259907
3.9747663 43.202736 45.306633
29.101639 50.13105 45.350014
25.926569 53.53801 45.309052
4.4256153 56.426544 45.360897
27.076059 54.205368 45.437813
4.521708 56.512714 45.453365
13.797243 57.713928 45.471722
16.884476 57.951633 45.476891
22.634514 53.035606 45.581066
24.598827 56.810928 45.510948
3.5745883 43.565956 45.673668
2.0397079 45.466259 45.612976
2.7350841 45.426193 45.685425
28.446516 50.034367 45.602432
20.147209 57.346428 45.699333
25.194248 58.259182 45.61319
2.0387068 54.196644 45.767487
14.168461 43.145451 45.816433
21.167839 46.178219 45.894447
0.3905032 48.851849 45.897766
28.834396 46.299618 45.921669
1.4037031 47.307526 45.990227
26.508392 57.268982 45.952904
11.076447 42.389297 46.067001
11.750348 42.689468 46.05854
1.864135 45.826099 46.161404
21.523632 46.73291 46.135262
22.116787 60.671581 46.124786
14.247619 43.045097 46.259506
0.73529738 48.339302 46.219246
6.1368933 57.424515 46.2686
18.139771 58.086319 46.221626
23.844793 59.598934 46.354122
20.846548 46.766891 46.407082
27.530437 47.339081 46.456371
5.9015789 43.093559 46.581062
7.3369951 25.237181 46.712708
23.175629 50.059204 46.728523
22.611597 54.250191 46.74535
27.43568 46.122715 46.841129
1.2397076 47.170956 46.81485
1.3794135 47.497414 46.890598
28.09914 45.277676 46.939911
15.487123 58.596622 46.931774
23.398491 50.963726 47.067413
0.80005634 51.913967 47.0336
26.503229 52.999516 47.045025
26.777184 57.027267 47.037624
17.90217 58.208935 47.013073
16.711489 58.524395 47.045834
17.372316 43.960976 47.187683
28.190353 55.262802 47.166107
19.716328 57.488308 47.163681
23.292101 60.479748 47.12001
19.019154 45.229256 47.239048
1.4639695 47.426048 47.214867
18.664703 58.024033 47.217354
15.783141 43.130653 47.317551
29.16629 45.630428 47.318516
23.587433 54.345634 47.302391
27.263382 59.355598 47.387264
28.87793 59.937393 47.382957
18.453697 44.758911 47.453476
23.62805 54.796982 47.466022
27.236576 58.892265 47.429008
30.186775 59.140034 47.445606
22.251987 62.889294 47.428719
9.1679411 16.977484 47.568352
7.7961469 20.322187 47.585529
2.8118618 44.342651 47.524681
29.043653 46.316528 47.576847
21.449154 47.330048 47.557388
29.173166 63.709366 47.511612
9.4744854 16.868593 47.695152
1.9540514 53.804012 47.698227
27.282898 55.052994 47.616943
22.848236 57.483955 47.681873
7.701272 58.347347 47.736801
22.327915 61.850441 47.737118
8.0496445 25.440742 47.867638
0.70363849 51.491253 47.844173
29.206505 54.23745 47.800529
8.230794 58.525742 47.874214
7.8465381 25.911316 47.937435
18.777334 44.885201 47.949322
27.883881 53.873791 47.963852
19.992636 57.109314 47.956684
14.805885 42.571983 48.099865
27.931047 46.236759 48.036167
23.255169 50.023384 48.017288
7.1527557 58.150627 48.082497
24.356579 61.251617 48.173649
7.0116434 23.651194 48.299606
25.606743 41.087551 48.292133
28.687531 54.356972 48.22599
20.771219 44.916676 48.3046
22.459465 48.025009 48.396996
24.559597 53.844059 48.379299
5.9909124 57.732784 48.324341
29.119741 44.499847 48.462696
9.9994545 42.038857 48.542007
29.3368 45.482811 48.559029
1.066485 48.562664 48.592358
28.528532 54.124516 48.512062
28.930141 54.72303 48.593853
24.489717 42.321133 48.606899
13.609776 42.174484 48.733498
29.414019 45.38195 48.767357
19.174759 57.615875 48.765293
9.2970467 58.77581 48.724876
8.3886595 23.646584 48.816605
8.1831121 24.674023 48.890488
9.7051125 42.053223 48.804611
19.957836 44.294968 48.832306
28.710392 44.214912 48.871552
3.6339927 45.271103 48.863457
23.413052 51.341488 48.898766
22.849499 48.88694 48.901848
10.595715 16.713379 49.01722
10.638939 41.837212 49.077507
11.291056 59.096836 49.010929
6.8077841 23.541639 49.191906
12.059942 41.769611 49.105133
12.875263 41.969128 49.167374
29.561222 45.188343 49.149097
28.091446 54.006908 49.161053
6.7845969 58.035263 49.119873
9.3840818 58.786766 49.180019
22.137827 48.287903 49.278725
17.952232 58.126228 49.269539
10.715203 13.811247 49.342468
8.1437912 23.863438 49.384315
20.654335 44.509716 49.386372
21.673637 47.696339 49.341415
0.8639769 52.045143 49.396431
8.7632694 58.624374 49.370113
10.16867 16.492853 49.48645
10.11133 41.863693 49.478153
28.031645 45.471405 49.416409
22.902269 52.052494 49.477009
13.106009 41.743805 49.50613
11.424639 59.100361 49.565468
10.766693 12.690994 49.651146
10.33447 58.893238 49.732956
12.648096 59.166267 49.722961
4.8804913 44.375935 49.896629
25.935545 55.855904 49.844761
29.201071 56.232475 49.871227
9.5922079 17.740913 49.911587
7.2570076 20.608728 49.92395
4.3397713 44.821602 49.98082
0.97399753 49.024094 49.99947
8.4511147 15.421185 50.0648
19.848722 43.988171 50.074886
0.80446267 49.673237 50.096031
4.8780756 43.567768 50.147846
22.58815 47.816994 50.113785
25.588551 55.428619 50.141064
3.4904504 56.20488 50.154976
8.477541 16.723719 50.216782
28.166485 45.164185 50.223473
14.052105 59.206882 50.203907
8.7669458 16.340191 50.356102
2.94976 46.34227 50.30085
9.1285782 16.202053 50.442123
8.2322807 17.007463 50.46101
6.4072351 20.756456 50.428902
25.543674 41.979862 50.455612
1.7583892 47.983322 50.701588
21.633818 54.334946 50.780434
15.365165 58.900272 50.748512
8.0131388 15.460335 50.824776
18.657749 43.415428 50.829082
8.2457476 16.324436 50.961586
9.3419867 17.206097 50.941494
5.2750149 20.058086 51.056911
9.0274801 14.399296 51.132179
6.4345274 21.30035 51.198662
24.732594 42.541122 51.14703
0.89173543 49.630398 51.136406
26.342239 56.917088 51.101593
9.7160606 58.482613 51.107677
5.6150756 18.392256 51.207054
1.3954923 50.447899 51.239464
27.986652 54.872116 51.391182
4.0184193 45.159565 51.419029
26.338058 54.297707 51.417526
6.5633383 43.08947 51.585743
1.6246867 47.466705 51.525299
1.0690731 48.699329 51.527794
2.5809603 55.503025 51.53455
9.2944565 14.170001 51.686848
19.476828 56.591419 51.636238
3.7504089 45.583149 51.707489
11.273353 11.651334 51.850574
10.319192 14.934496 51.888374
11.819595 41.064522 51.848549
12.272412 41.014542 51.887203
18.747997 44.026726 51.837765
18.29451 57.670639 51.893562
11.013744 13.200624 51.911694
29.907562 44.386108 51.958088
6.4270573 57.275574 52.030281
7.1059642 20.663784 52.167191
6.0927753 22.026272 52.177734
3.8792365 56.995121 52.105854
12.020737 58.711975 52.129372
9.8799057 20.59885 52.289543
12.733841 40.861298 52.210529
4.7851529 44.471241 52.288555
19.282787 44.672222 52.254417
28.533489 44.690178 52.22263
21.938864 49.581917 52.273483
25.42568 57.337631 52.238552
22.460201 51.202236 52.388622
22.82502 51.347843 52.32259
7.1782055 19.797935 52.421837
7.3804321 20.994354 52.414207
1.9494674 50.611542 52.465836
9.0878801 57.909199 52.488174
9.0949278 41.447613 52.533134
2.0308149 53.185986 52.564823
28.877768 56.146648 52.512917
27.563484 60.082737 52.570755
5.1109457 19.682198 52.648216
5.5989575 22.362734 52.663681
8.6416626 41.708874 52.630028
11.212624 12.604352 52.765629
4.9729886 21.628822 52.798717
17.581213 42.831627 52.863419
25.133829 57.485947 52.880856
7.5121593 18.27556 52.923653
5.4466696 18.465933 52.913734
3.128726 56.124302 52.916176
18.326548 57.500278 52.968315
10.770738 15.209907 53.052254
20.923515 49.301361 53.078941
1.9602025 52.404804 53.070354
5.3048019 23.565147 53.108486
23.95063 41.152748 53.149815
6.6845198 21.521324 53.235077
20.198145 53.598854 53.287521
26.734535 55.950417 53.225266
25.005478 57.907001 53.24807
11.374708 17.787498 53.384396
7.742424 18.19334 53.384003
18.817396 44.239258 53.343899
7.8019905 56.97419 53.302818
7.5963964 15.800117 53.492615
10.58029 18.385075 53.473446
4.3861632 22.839689 53.401512
30.267601 56.811996 53.455795
11.942674 58.185604 53.408424
14.79608 58.434044 53.46257
5.6616664 17.989191 53.609283
5.5034943 18.521563 53.698547
18.055216 43.010654 53.659973
30.28826 45.156361 53.674263
29.677639 55.852814 53.658096
3.2953486 56.012585 53.624561
26.303699 58.51902 53.679047
7.7386661 20.329052 53.780552
1.7655332 48.165688 53.77565
8.4780493 56.981514 53.711212
25.855471 59.629555 53.722736
8.111763 18.277624 53.871143
5.5938559 24.423134 53.858604
20.085873 45.872856 53.875553
21.251043 54.520947 53.884262
5.1205082 23.30267 53.961868
27.182816 55.23259 53.953987
6.506721 24.199238 54.01659
28.78199 45.362534 54.091904
8.1205301 17.827585 54.102524
8.6600723 19.601093 54.180897
25.209803 56.415073 54.193596
9.6305437 57.064796 54.128998
6.3321977 16.762157 54.218002
1.8244948 50.884785 54.289288
1.8597937 51.908257 54.289299
28.859524 57.344612 54.232979
6.6568604 22.418789 54.300549
11.600992 40.15115 54.326134
2.1628451 44.176163 54.347885
19.923264 51.215134 54.393509
11.108158 57.54586 54.383163
20.271475 46.097015 54.464649
26.451553 59.45163 54.425686
9.893362 18.545321 54.50766
4.2115722 24.825312 54.579613
27.113562 56.234577 54.538433
27.764778 59.64352 54.574333
10.453075 17.164555 54.666191
6.134531 17.538548 54.607254
10.10463 18.232393 54.60199
4.1490092 24.439655 54.637218
28.801739 55.778526 54.612019
15.536209 57.86763 54.663445
15.73738 57.852852 54.628178
23.47208 41.505947 54.809395
26.818722 55.354801 54.867611
27.650047 55.368698 54.85659
30.366999 45.710114 54.959072
16.783844 57.553879 54.945461
3.2971449 21.891371 55.159611
23.933567 41.088005 55.117573
5.5458422 42.86306 55.115719
21.344196 54.145222 55.162876
28.616205 59.853554 55.134048
6.710741 18.00539 55.237747
20.36784 47.446609 55.264969
6.5026059 26.24012 55.326233
16.501488 41.073349 55.373268
5.1803064 54.916985 55.339417
29.574862 57.477104 55.377708
5.5631518 42.751732 55.467022
5.2369781 25.722591 55.526375
5.1455536 27.268085 55.572685
19.147387 43.836166 55.528015
2.7556067 44.765327 55.516357
19.97732 49.512932 55.589752
28.976887 56.459782 55.512154
17.918592 57.109276 55.560963
18.55905 42.933456 55.656025
29.081997 45.85947 55.619961
27.171978 55.151943 55.615917
18.444828 56.980061 55.684216
7.4077196 18.296047 55.705063
19.44743 53.11964 55.777187
28.295248 57.347672 55.782887
10.055194 40.155907 55.852226
6.9030318 41.406395 55.826679
3.7854371 27.231241 55.903358
16.555149 57.100861 55.942772
8.2608328 20.502316 56.091721
24.384016 41.135143 56.055344
2.442646 46.07798 56.080109
26.270184 56.552132 56.065765
23.232414 57.602226 56.020775
3.3664117 27.057735 56.131695
29.659744 47.998848 56.189468
16.463333 56.970798 56.193104
5.3400855 20.994646 56.274864
4.3547916 22.398592 56.271156
4.941618 27.122095 56.351036
28.384466 58.039803 56.311886
9.8072777 11.172579 56.473457
6.9490337 20.179968 56.408504
11.027273 39.544945 56.412605
24.422264 42.729515 56.446583
28.156517 55.641159 56.403275
28.573265 55.838799 56.412827
9.9741793 17.055727 56.582497
5.5795255 42.550434 56.516079
19.940125 48.892036 56.589584
10.736256 17.03484 56.613041
7.7287064 21.249863 56.657005
15.797354 40.28241 56.682976
19.40889 52.80439 56.656219
7.8960834 22.244781 56.72506
4.8394847 43.246407 56.779861
19.71192 44.349525 56.755077
3.827302 53.769028 56.746109
24.526093 60.786175 56.797283
8.4011469 24.864679 56.890209
4.5277219 28.140917 56.86644
14.269539 39.608822 56.861423
7.660131 54.979347 56.893188
27.60067 55.511147 56.8386
24.629772 57.959106 56.843945
6.3111897 21.87331 56.953415
15.879316 40.249916 56.906425
23.393303 41.44239 56.900043
3.9412439 53.535137 56.904057
3.6666038 29.475319 57.07032
7.8414793 55.024197 57.00787
14.442682 56.843578 57.051918
5.8386493 21.669518 57.115471
29.315517 46.721638 57.13229
28.736895 47.083141 57.186058
29.733521 48.520325 57.135674
13.137841 56.84193 57.292362
27.689005 57.361706 57.24659
22.801685 59.326199 57.251823
28.51326 59.789871 57.266918
1.8845623 50.455242 57.33007
8.0772858 54.961727 57.375385
28.855036 57.061455 57.39249
4.0114851 21.86245 57.437008
5.7408118 22.244968 57.483425
2.095325 26.982498 57.490513
5.7465372 27.696236 57.418098
13.107258 39.129925 57.405182
16.62241 40.599976 57.421631
29.043758 57.451435 57.410717
23.508335 41.2878 57.565254
2.1978886 48.718201 57.542141
7.3549285 54.475769 57.540337
22.197676 58.204895 57.502323
4.6524215 52.989914 57.65329
6.7933207 41.309921 57.737206
22.236526 58.781322 57.708088
6.9118462 22.138849 57.813568
3.8760424 23.830757 57.874165
28.74898 59.041267 57.869507
22.389717 59.238434 57.832077
6.4549465 25.150795 57.940979
9.4084587 39.158276 58.046722
17.527782 40.996189 58.043983
1.9382615 51.223717 58.026443
19.512249 54.520035 58.050396
18.10104 56.047356 58.097496
27.118971 60.870335 58.055992
7.7283883 40.383541 58.188946
3.9105055 52.140636 58.164612
7.8424525 27.110401 58.212029
2.1829638 47.415855 58.22715
20.500582 53.525532 58.285023
10.634113 56.06797 58.23209
6.1781664 30.292692 58.317631
3.830461 42.810509 58.325974
20.271439 53.833694 58.350857
17.100248 40.355656 58.42482
19.469772 53.086994 58.494183
4.9840069 23.748943 58.555412
3.3494647 25.120605 58.588058
18.399216 41.566032 58.591511
20.472157 48.292839 58.565441
23.991026 57.850227 58.531418
23.780983 58.189396 58.566383
6.2280698 24.862322 58.633045
6.2381306 25.71217 58.696323
2.3475945 50.98225 58.698723
24.782778 61.705482 58.628502
11.90916 7.9832916 58.710979
7.5203133 23.422258 58.739754
4.0030627 30.984505 58.786114
16.173618 39.832443 58.721134
19.35317 54.142395 58.837906
24.212742 57.49794 58.883621
28.48958 57.696369 58.883675
12.233375 7.972476 58.996311
2.4509261 30.391544 58.911179
2.8228886 31.218462 58.921352
1.8867853 49.998402 58.929153
2.2076561 30.014767 59.063904
4.8621349 32.107246 59.076218
1.5125583 49.265087 59.036324
21.854307 59.756798 59.079979
4.9696712 24.39776 59.147797
3.4882102 31.809242 59.188488
13.949118 38.801704 59.194664
1.3720531 26.96114 59.212334
5.3412409 30.520727 59.22049
11.167913 9.6460199 59.305656
20.83704 46.967575 59.335129
7.5071888 24.365566 59.401211
7.6034088 25.497784 59.482605
24.51815 42.44236 59.400074
6.2276812 52.694927 59.475494
18.451822 54.735538 59.492722
11.194391 7.2024331 59.505119
3.6904464 23.35817 59.576904
6.671237 52.982769 59.5434
10.261283 55.299423 59.548222
27.350218 56.201519 59.551319
15.821586 56.429417 59.569695
24.732632 62.117912 59.58963
20.126059 51.581879 59.674126
6.0191464 28.206253 59.770149
4.4103236 32.2714 59.727013
4.1554885 33.447716 59.762817
28.235445 58.959076 59.771477
7.4788022 25.477283 59.849388
17.706715 55.199306 59.893013
21.084377 45.944138 59.999935
25.456238 55.458977 59.978054
5.9413319 29.732416 60.063126
12.8542 5.9307752 60.186653
7.6836858 39.567017 60.134552
20.272446 43.493378 60.187065
11.835419 55.594398 60.16201
24.006891 61.444405 60.136017
4.3507409 32.995117 60.206291
23.280556 42.922302 60.215263
2.9600208 43.037384 60.250782
15.579525 56.22924 60.249352
2.0305667 33.324657 60.366627
21.570675 60.885677 60.375484
11.825527 4.9426479 60.419495
4.5678511 26.199797 60.42799
0.85085309 28.014748 60.429001
0.70872736 30.564388 60.494183
1.6207849 31.277035 60.429871
19.642632 53.661926 60.421257
13.507195 3.2010996 60.581882
7.3139496 26.119442 60.529194
3.3666711 33.913727 60.506668
26.883968 56.307808 60.565243
26.254272 58.032593 60.555679
3.5521281 34.679489 60.610561
18.634501 41.03244 60.677101
20.534328 43.922539 60.600433
20.69426 49.968143 60.635387
4.5924716 50.165474 60.623196
11.645634 55.136787 60.610073
16.164879 55.8424 60.674519
26.751228 56.278488 60.648403
12.958205 0.72574532 60.742611
12.033457 3.946538 60.702847
1.6406491 30.74184 60.752796
0.52670068 32.01181 60.704803
23.437243 57.911907 60.75074
3.4785171 34.875816 60.879845
23.480579 55.756027 60.810387
13.51802 3.5317645 60.992172
1.4165461 33.071789 60.9842
17.852318 40.228813 60.942513
26.748611 59.417759 60.945263
26.17374 61.413002 60.99577
4.7270122 34.868076 61.040718
16.035088 38.970108 61.096264
24.207375 53.204376 61.09552
10.148486 37.888706 61.168365
11.185152 37.9184 61.174835
19.806562 53.156651 61.123451
27.481636 57.823975 61.129791
12.843607 0.78389108 61.280075
6.351017 33.158394 61.245377
17.056183 39.524162 61.297523
20.42911 59.697964 61.228157
4.3114815 35.184647 61.301895
11.419874 54.824554 61.325962
23.887201 55.438248 61.33255
20.712137 56.663456 61.372692
18.374474 40.484947 61.411434
22.863369 54.252792 61.460121
2.5965462 28.604546 61.53067
5.16958 28.794056 61.536125
2.6161942 35.362907 61.515472
4.1507621 49.074177 61.508133
21.900951 57.312801 61.539478
6.2454724 33.711662 61.690296
16.536991 55.692947 61.621258
25.161211 61.351151 61.693634
4.9925013 24.952887 61.73035
9.3644028 38.04681 61.784145
19.803467 41.817554 61.766899
23.740181 55.032784 61.768871
4.1927333 41.353317 61.815506
12.672032 55.238316 61.884209
20.197065 58.522987 61.887512
2.8064497 35.662998 61.915474
15.863234 38.51226 61.964424
1.4909819 30.506699 62.036308
21.149706 44.506897 62.001507
25.045845 56.021309 62.034393
25.181374 58.126858 62.072685
5.3141789 31.607193 62.171974
12.480719 37.568115 62.137688
1.8197491 44.205982 62.185398
11.710295 54.99567 62.147263
22.505342 62.499569 62.182899
6.6024179 27.540379 62.245056
21.053299 43.994221 62.240311
23.27479 62.241207 62.215977
6.9420848 29.548536 62.382706
14.736547 37.860916 62.332794
6.7925119 52.527973 62.382839
22.565023 42.476791 62.417118
2.8854985 42.572647 62.466045
3.4215217 41.800858 62.586777
25.00882 61.42094 62.549118
12.284265 37.329781 62.623535
9.1413965 54.294388 62.630466
15.307891 56.790379 62.696384
20.838062 58.362495 62.679527
17.547689 39.05825 62.728485
23.644192 41.421558 62.737614
21.754202 62.527962 62.78891
12.128501 37.217457 62.821892
5.4317451 39.947899 62.840141
16.830009 56.436562 62.846138
21.269844 57.108433 62.858788
4.6592069 36.311752 62.967575
0.22080745 30.290281 63.004215
22.148724 43.247868 63.061676
13.494504 56.353943 63.067894
20.657005 57.620049 63.005737
20.376293 41.711056 63.139904
22.233656 56.664604 63.139103
0.32737452 30.484138 63.346096
20.007938 58.067017 63.359715
22.998487 56.476719 63.460964
18.547689 58.559029 63.492287
10.228349 36.410095 63.578472
9.4407692 37.475052 63.507027
21.764282 47.975216 63.523335
25.671518 61.657707 63.519478
0.70732188 35.040257 63.656544
4.278924 36.8643 63.640369
20.800192 59.319206 63.69014
5.9125366 35.852341 63.795006
14.190598 37.041862 63.730381
19.306492 40.25618 63.728386
7.1631289 53.237885 63.799942
26.695471 58.959316 63.747429
26.824402 59.785084 63.703568
20.572599 62.088135 63.750351
12.569539 36.751701 63.881485
2.8285031 42.064301 63.837444
22.458332 62.609001 63.865791
3.5525346 28.105366 63.967144
1.3125631 36.042088 63.955727
1.8368264 47.761051 63.926205
6.915277 34.594872 64.066315
1.8901973 36.903572 64.039742
21.255077 41.635178 64.064781
18.278286 59.065117 64.077446
18.149284 60.829403 64.132599
0.16730392 31.858503 64.237267
1.3489323 46.797745 64.241882
20.145321 57.004719 64.285179
5.9624548 30.900793 64.379143
17.207716 38.33448 64.393929
22.063725 46.323151 64.331047
4.5258164 39.870163 64.451256
16.722742 60.441139 64.474037
12.604959 35.862549 64.563515
13.919909 36.323868 64.523552
16.41013 37.76812 64.55732
19.056732 57.944492 64.519035
19.182442 58.964516 64.552895
18.559103 59.952202 64.56916
6.0328097 31.054832 64.621223
5.4518895 51.802658 64.64106
18.838203 55.640823 64.732735
3.6683757 37.544243 64.887558
18.96471 57.715458 64.812233
24.577591 59.910812 64.884872
2.2185066 29.867161 64.992676
22.277237 46.711979 64.948372
19.076416 59.179783 64.923775
18.31353 60.289047 64.93222
21.858057 63.136986 64.992798
0.24270028 34.635269 65.086456
19.812668 40.15897 65.008453
22.573622 43.471825 65.000122
11.696002 55.994003 65.036522
23.891273 62.749886 65.001595
13.447848 35.964478 65.10685
18.51693 38.98632 65.199234
22.322283 48.323547 65.189934
21.884346 49.817421 65.179367
22.198074 55.263988 65.167938
18.554129 55.883472 65.115227
19.032276 59.58139 65.186569
24.515686 62.479225 65.19191
19.095654 39.432705 65.277725
24.563908 56.719849 65.20285
9.6587334 36.677597 65.312973
20.251226 40.473103 65.390648
18.828032 55.752369 65.385124
6.4918437 36.816208 65.591827
22.488276 45.004585 65.567863
9.7884579 54.800682 65.578636
12.04084 36.147106 65.608459
17.644236 38.275066 65.693169
2.5557189 42.180714 65.652977
1.2971797 46.522465 65.697777
8.4054546 53.95417 65.682274
11.109201 55.613949 65.657898
15.169991 36.850338 65.792923
13.784299 35.879414 65.807533
17.749907 38.315998 65.888992
2.4451394 48.591297 65.878883
13.502127 56.512535 65.895523
23.486944 62.63829 65.86924
2.3208823 48.378906 65.967972
12.537615 36.114395 66.047821
18.124208 38.53397 66.153145
20.009462 54.014286 66.192581
25.447104 58.693157 66.117577
12.144985 35.485676 66.243172
3.9752164 38.3377 66.272865
24.186264 55.142784 66.257278
11.579313 55.887676 66.238304
14.579474 56.803108 66.203697
6.7216449 37.250938 66.347
23.743286 42.689968 66.380333
1.3589709 46.886131 66.321533
19.636379 54.556046 66.31926
3.9310777 30.67392 66.419685
9.6043005 36.337616 66.491501
4.169755 38.479488 66.445023
23.646275 41.955124 66.442535
3.2250817 49.545959 66.427597
2.7587965 30.674055 66.541313
4.1142907 30.743477 66.574623
5.8055573 38.053074 66.550941
23.107471 45.457546 66.581856
18.863539 55.282562 66.530251
1.4825053 45.808811 66.652664
4.5328999 50.861435 66.614723
20.674324 53.672237 66.634567
25.581476 60.174328 66.600113
20.209972 39.961781 66.750237
6.7566204 37.510674 66.92392
2.6124358 38.597431 66.90464
3.0763834 41.213165 66.961174
2.6538365 48.524723 66.968353
3.2428122 49.41053 66.900055
19.02301 59.71772 66.919182
14.458071 36.282379 67.013855
19.416189 39.329788 67.023605
6.1536078 31.638084 67.171509
7.1549311 37.580803 67.193398
19.472343 39.355034 67.180443
24.220284 53.615433 67.110779
2.3167098 42.400772 67.222809
12.377 55.972198 67.282448
3.0605617 38.935921 67.318611
20.102665 39.945171 67.373314
10.646627 35.664921 67.450371
19.425957 39.32357 67.404785
21.986301 42.268673 67.459259
13.766893 36.009365 67.545395
23.646307 61.616508 67.515671
6.0172234 31.332392 67.652542
16.118721 36.785858 67.648529
11.962284 35.120274 67.778229
3.7045498 39.960205 67.711128
19.70056 53.123016 67.726906
20.332024 61.578701 67.745445
0.71600676 34.797684 67.891594
19.953142 39.814884 67.8116
3.1656544 40.826256 67.809723
23.154989 43.198357 67.807098
16.278938 60.007271 67.863052
23.345711 61.543068 67.888077
0.81503582 33.230827 67.991798
20.795837 61.497158 67.989319
6.3122587 37.606068 68.017883
6.0259037 37.82328 68.084198
24.317348 53.030464 68.077438
9.7122755 35.513325 68.232246
22.030848 40.932762 68.251358
23.572105 52.033962 68.272476
11.595639 55.450554 68.222885
1.6279341 38.180603 68.312576
21.777563 41.7304 68.384056
24.013401 60.50444 68.380806
2.6550689 41.493496 68.407722
20.535461 51.603256 68.475189
5.3279834 39.940956 68.568054
12.229603 35.636314 68.785202
22.328865 41.05661 68.782837
6.6831751 32.008408 68.84063
12.288458 34.826897 68.866043
2.581491 39.936768 68.87471
3.655272 39.999138 68.816483
3.9319148 40.127338 68.990112
1.8696148 43.650944 68.972946
8.2521038 37.517948 69.133797
5.6125522 37.897053 69.154953
6.9430246 39.278107 69.155792
23.090702 47.696289 69.18399
16.980335 55.947994 69.168716
24.927252 59.151951 69.11602
1.100557 33.568081 69.230057
6.8936224 32.292812 69.324669
8.1507454 36.124783 69.39782
5.1283274 38.243305 69.352684
23.33164 42.931862 69.307991
19.83868 51.031654 69.437531
6.2138343 40.230579 69.562218
22.016781 50.982162 69.593079
9.1981869 53.541458 69.560287
8.3844576 37.724682 69.618454
23.168467 43.063591 69.675217
8.3948212 38.183216 69.72435
3.3998992 40.579056 69.724174
2.6115017 41.64888 69.722565
22.804621 43.413204 69.735519
22.445179 49.831825 69.862419
13.791948 55.822922 69.829109
11.55583 54.957527 69.934319
13.529483 35.962326 70.088234
1.9822896 43.010525 70.00602
21.009392 49.719284 70.099228
19.726818 54.154495 70.077087
16.325533 56.070061 70.070816
18.961132 58.314316 70.000061
22.292269 60.084557 70.080872
21.907156 41.837051 70.161308
24.78614 53.105221 70.12606
1.097971 34.575489 70.245598
17.982641 56.327209 70.232635
24.411261 58.528038 70.202385
7.6925344 33.618114 70.371246
13.288815 35.892357 70.368713
1.9040444 44.300541 70.309593
24.965113 53.515388 70.364075
5.9752941 40.339718 70.473419
17.841471 52.496429 70.480659
24.928118 55.99258 70.470459
15.995661 56.151199 70.425468
6.4872985 32.554836 70.647018
3.1370695 40.600868 70.688126
15.28805 56.095749 70.663101
15.901079 56.15337 70.634346
7.4462676 36.132893 70.787796
21.610533 52.135437 70.767792
9.2307816 53.21463 70.775291
15.527939 37.085773 70.927681
18.932884 51.386681 70.928604
15.091841 55.987019 70.923248
2.7697406 47.465046 71.00103
23.913084 58.102707 71.077774
23.519985 58.404045 71.027985
19.854118 50.997166 71.174812
20.658884 51.44458 71.159874
17.680099 55.523247 71.131393
12.564667 35.688072 71.256279
10.307144 53.713482 71.392075
14.271521 36.577118 71.465347
22.153244 49.750206 71.587257
10.905214 54.052311 71.513931
12.829177 35.863174 71.634163
6.4478245 36.697018 71.684006
17.637943 38.242241 71.681648
21.747282 42.055008 71.642113
7.6102905 51.86092 71.602188
19.08618 54.587219 71.689468
12.075244 54.748505 71.634277
3.7892213 48.429222 71.778275
9.3351326 34.950397 71.816872
20.142315 52.874435 71.885345
15.2778 55.84866 71.858849
7.1949058 36.961468 71.916557
1.2767321 35.372501 72.023636
23.707775 44.731747 72.006134
4.1262841 48.760464 72.016678
17.695705 60.375641 72.039337
1.2184187 36.023632 72.188927
12.207556 35.706131 72.260139
22.82534 42.035686 72.269623
23.084482 42.956371 72.206146
23.489008 44.313988 72.250519
17.307854 58.724651 72.231537
17.904037 58.977028 72.223442
9.6790619 34.876911 72.348602
10.768167 35.195129 72.346474
8.2869797 35.287422 72.357048
7.8455062 35.500366 72.396423
12.904873 36.106113 72.367493
21.675411 42.078491 72.337585
2.4787061 42.234665 72.321701
1.6564715 43.092499 72.371117
17.854652 53.489788 72.30146
22.878437 57.752777 72.341675
10.341672 35.120872 72.583313
19.030598 53.774574 72.681244
18.356892 56.812996 72.650414
18.6217 57.326019 72.652649
1.2074482 42.138264 72.757828
21.587706 42.170761 72.791039
24.867455 51.500107 72.763222
11.574704 54.073784 72.776009
18.50024 57.077702 72.757332
11.104248 35.41954 72.840096
17.766491 60.158062 72.813492
0.95948315 41.327396 72.962158
7.1231713 51.019642 72.921608
14.240067 55.173187 72.934433
20.924715 57.773369 72.95224
1.1321762 36.069828 73.041382
2.7331262 46.829369 73.157715
24.950703 51.282066 73.265343
0.62031281 38.299675 73.33876
17.281969 38.225285 73.33609
23.333824 47.900558 73.461037
13.978134 54.932892 73.470657
10.411498 35.405647 73.552284
1.1274047 36.019039 73.584618
18.277588 39.338337 73.699188
1.2075181 44.186642 73.786469
23.501923 47.719463 73.710793
24.268698 55.329403 73.767693
18.242775 56.455273 73.749939
0.90894902 36.901459 73.880096
1.3844105 44.778366 73.819656
24.87759 49.451073 73.880707
23.997635 47.829498 74.070831
17.552187 55.805847 74.108833
13.149956 37.025459 74.31382
0.27668786 39.796009 74.331284
18.587057 58.840385 74.407898
22.81669 42.550999 74.685188
14.911754 37.782719 74.840096
21.257265 43.16674 74.857513
25.394049 51.258553 74.872681
18.373886 55.398582 74.929306
22.79858 55.85178 74.983368
2.2505696 46.085773 75.043182
8.8299417 35.478474 75.163002
24.830688 48.939171 75.180817
19.443739 56.181259 75.147583
17.394667 59.110596 75.10984
22.188059 44.079483 75.279831
1.4692037 44.641548 75.242493
22.090857 56.093788 75.27861
0.45910281 41.073826 75.444832
9.5838137 51.613804 75.498474
25.146467 49.973656 75.550354
5.8669548 48.833096 75.629433
7.9678116 50.340755 75.67981
0.92316848 44.218132 75.745293
22.215008 55.807316 75.743591
11.58975 52.894539 75.848793
9.8270102 51.511547 76.012741
12.823165 53.707588 76.00132
23.341021 45.92046 76.226402
5.6000209 48.290855 76.234024
8.5998125 50.476723 76.253731
23.471046 54.864021 76.300522
6.2759323 35.548954 76.451309
15.483477 38.367973 76.422394
0.71806592 39.894878 76.512054
1.0444103 43.262428 76.558289
24.101471 47.654099 76.597122
5.109067 47.737495 76.566429
12.18257 52.938164 76.530373
20.67985 41.393974 76.654053
1.4166024 44.173492 76.698196
7.0678616 49.08968 76.723106
23.490383 54.67971 76.771408
6.1955266 35.739494 76.887321
4.4874687 47.068398 76.888794
7.1017699 36.091396 76.97731
24.60523 48.640221 76.922638
8.7920189 37.055141 77.064835
14.724074 38.746834 77.046181
12.358591 52.758911 77.065376
16.437664 55.424179 77.068954
5.7642603 35.701256 77.257904
3.0924301 45.560394 77.260681
11.904173 39.319206 77.381721
20.859116 44.698471 77.399254
22.164093 46.036316 77.337677
23.84635 47.813019 77.330322
8.9121561 50.065819 77.378571
21.846285 55.236336 77.34494
1.4041196 38.017487 77.481163
18.898905 42.71386 77.505699
11.945051 37.583912 77.616745
17.921486 43.104588 77.692383
17.888372 57.568806 77.602493
16.17252 38.346363 77.742462
12.984735 37.56414 77.824486
9.038867 37.780193 77.844124
21.500433 43.360294 77.862686
23.995977 52.143921 77.87336
8.1661024 37.589985 77.985283
19.043272 57.362183 77.997299
1.6341792 38.057861 78.07457
19.553516 41.764313 78.182556
23.747545 48.176575 78.165359
4.4183645 36.79055 78.21524
19.438181 44.1903 78.248894
5.8889413 46.970837 78.264793
2.8717391 37.455288 78.339752
6.7437587 37.713539 78.39389
14.8411 38.839859 78.361412
21.785196 54.341301 78.32795
10.638853 39.418808 78.446259
19.038874 41.249401 78.486359
21.753494 43.815056 78.464508
19.266922 56.792034 78.469872
6.5214295 37.873943 78.516693
17.627256 41.731228 78.532913
8.3732138 48.691818 78.574051
13.493043 39.637432 78.691269
18.660074 44.740669 78.605469
19.72583 54.772221 78.62439
12.945665 38.014927 78.700813
8.2502832 48.247765 78.794411
5.6922545 45.810696 78.891739
3.4717038 38.239075 78.951424
13.431262 40.168724 78.96611
3.188741 41.490234 78.927139
17.602072 43.481136 78.946625
23.108133 48.857174 78.978134
10.773171 50.104477 78.905457
23.491808 52.247055 79.091705
6.1181555 38.874119 79.17746
14.402346 40.211926 79.120644
5.2621865 44.904747 79.126801
6.8570547 46.44434 79.158707
4.2553034 42.641289 79.298737
17.418322 43.176994 79.473503
20.035358 55.093525 79.570976
13.211939 40.37072 79.620697
6.4352894 44.977749 79.670166
21.732496 46.222286 79.672852
18.960836 46.644127 79.688492
20.399939 49.933971 79.690865
22.865543 52.589497 79.789192
20.173082 54.574734 79.715561
21.826382 49.989582 79.865875
22.847561 51.721565 79.896858
16.327265 52.017902 79.890022
19.128191 46.07798 79.936089
20.055882 47.857002 79.957581
11.512452 49.237274 79.918091
22.511215 52.506199 79.917984
6.387393 43.111938 80.064659
20.518 52.723885 80.048218
9.4120159 46.986935 80.138496
20.600542 52.475651 80.177925
9.147378 40.943954 80.291916
17.293774 44.202572 80.256615
20.986845 49.972046 80.234543
20.599579 52.596977 80.207886
17.591545 44.801819 80.335571
21.351114 48.536186 80.348167
8.8596287 45.644615 80.443001
21.29421 48.823257 80.425468
16.116013 39.099297 80.539017
11.931223 48.254082 80.507736
7.4369926 43.300575 80.67305
21.326191 47.761929 80.677002
19.863136 48.261295 80.663254
21.141258 49.433605 80.671661
19.871147 49.922119 80.689713
14.792354 38.662102 80.705338
13.966847 39.173649 80.718018
18.217615 50.342545 80.735016
7.2036233 42.247372 80.818314
18.10894 46.533699 80.879997
16.965776 38.376186 80.98011
10.376982 40.021461 81.167549
13.51573 48.237854 81.150703
17.178802 43.958282 81.288521
17.478106 37.922539 81.352852
17.198334 46.677689 81.318169
16.310371 49.024921 81.364098
16.45005 49.071781 81.348686
19.640764 51.164276 81.372673
16.57704 37.000866 81.57634
10.103788 40.490219 81.558762
10.387907 45.5709 81.522766
11.986742 46.926849 81.52742
17.84358 47.854362 81.508675
9.383812 44.452713 81.600189
16.790791 45.394604 81.61705
11.586941 46.510208 81.794113
10.38529 41.621231 81.80191
15.01137 36.236824 81.973679
17.767765 44.306278 82.048317
14.986254 47.491604 82.188637
9.7026653 42.296333 82.330772
17.280766 44.139488 82.360428
15.401034 46.565941 82.307495
12.241141 38.471737 82.465652
10.438969 41.944874 82.445801
16.403553 46.661133 82.507599
12.063375 45.777508 82.606331
13.411047 46.154346 82.637268
18.609417 39.394428 82.786423
12.659173 46.220364 82.744247
16.62075 46.48642 82.727936
16.739378 36.393887 82.991699
12.648527 36.770615 83.037994
11.716356 39.45385 83.186165
13.431233 45.882 83.117172
15.993166 36.007362 83.27317
14.303557 36.4534 83.306152
16.74931 36.885223 83.399597
11.918705 37.763016 83.451012
11.695061 38.100101 83.589622
19.014139 39.83007 83.59539
11.4884 39.728626 83.731674
10.904686 43.156086 83.709389
18.530334 41.398262 83.896996
15.573287 45.5872 83.84771
16.615107 36.114605 83.919197
11.592635 41.072609 84.094643
11.603204 37.693077 84.293892
12.602859 45.662178 84.220978
17.070251 36.245197 84.304306
15.365025 35.622219 84.470459
14.860952 45.918903 84.485428
15.498399 34.51622 84.544235
11.191635 41.865688 84.726112
12.491674 44.396717 84.755386
15.223699 45.208313 84.739334
18.50378 42.941723 84.849304
14.373592 45.149193 84.894379
17.298412 36.140965 84.902168
10.823051 39.817009 85.091286
18.025885 43.378365 85.443512
11.172614 40.738926 85.516647
12.066549 36.27047 85.651794
18.402203 43.159683 85.661011
11.754814 36.8559 85.72052
19.325081 41.165859 85.743179
14.844384 34.707825 86.109436
14.066187 45.446575 86.145493
10.55528 39.752583 86.272072
19.825588 41.395409 86.240662
18.499121 43.416046 86.239532
11.978322 36.525253 86.326195
17.552908 44.167046 86.391014
14.215932 45.542847 86.366272
19.548355 36.61586 86.409042
16.744921 44.849659 86.46225
19.562851 39.898136 86.700775
17.029964 44.764565 86.76442
17.874746 44.403858 86.881668
10.154961 40.63406 86.911255
13.014878 45.082924 86.927277
14.853535 35.731476 87.026382
14.84261 35.669182 87.109039
18.204044 44.172676 87.136139
18.396751 43.986465 87.246849
18.224245 36.259201 87.313461
13.277551 45.254513 87.333366
12.239422 44.616653 87.650726
11.81012 36.810001 87.796661
19.241562 42.84341 87.708984
12.698225 45.011116 87.730675
11.477392 37.478615 87.817421
10.705603 39.571335 87.806778
14.560499 35.050121 87.940247
10.226534 38.936886 87.991386
