# .PCD v0.7 - Point Cloud Data file format
VERSION 0.7
FIELDS x y z
SIZE 4 4 4
TYPE F F F
COUNT 1 1 1
WIDTH 1613
HEIGHT 1
VIEWPOINT 0 0 0 1 0 0 0
POINTS 1613
DATA ascii
28.239702 8.0622883 14.497221
22.120106 9.3261194 14.410645
35.220596 9.4290142 14.488478
4.5695162 19.397316 14.476467
9.993104 19.369148 14.466326
35.391167 10.472415 14.583692
29.892948 12.190577 14.568415
31.302586 8.4491587 14.67004
34.215805 11.16949 14.62492
29.173412 12.322556 14.633178
27.26973 8.0311556 14.706303
28.003883 12.488832 14.763525
24.75646 12.500077 14.740314
5.1290698 22.270041 14.759548
6.2119012 23.010506 14.751431
33.19545 8.6954536 14.802444
34.436356 9.271081 14.910316
34.490322 9.459549 14.914194
29.184351 8.3548613 15.050676
31.015343 8.5435295 15.031004
6.9670854 23.152529 15.090667
21.4643 10.151135 15.278262
34.240112 10.424831 15.236971
34.176254 10.808539 15.256904
25.672773 8.1189079 15.420901
30.317871 8.6206989 15.437763
33.39003 9.4201565 15.464039
31.651512 11.184685 15.424108
10.717532 20.481569 15.492771
4.8661022 22.16828 15.482725
30.082228 8.6277208 15.502832
30.232265 8.6657848 15.547741
32.660652 9.2700081 15.594765
21.472332 9.9496202 15.522524
6.6341763 18.857439 15.522987
31.846672 10.983043 15.667582
31.395172 11.042379 15.675751
29.310177 11.365012 15.645235
21.024199 12.48551 15.696476
9.3591537 22.693195 15.765082
5.2754235 22.827114 15.73122
5.6893139 18.888695 15.87986
25.194378 8.3017693 15.97805
5.032548 22.687771 15.942477
27.838577 8.6525793 16.037125
22.077717 12.778463 16.034697
7.1249218 23.228437 16.070118
30.235695 9.5165062 16.142973
30.249466 10.846329 16.182959
5.2926903 18.891047 16.105104
29.373955 8.9958792 16.293125
26.65526 11.516854 16.251263
5.9586682 18.8223 16.220045
6.0660167 18.81271 16.225595
29.230337 9.4941216 16.362629
29.655655 10.797435 16.371855
29.621317 10.826411 16.338139
5.0339999 18.875765 16.380339
4.7321796 22.352551 16.327009
20.569183 11.39009 16.438335
5.849627 18.797894 16.474579
22.108135 8.6841335 16.59761
25.285683 12.393985 16.534111
23.694519 12.852168 16.556479
7.4498267 23.172375 16.550962
21.538965 8.9971189 16.627518
21.320368 9.4641466 16.624622
28.085846 9.9590044 16.649963
24.114857 8.1388311 16.702003
25.060974 8.4446964 16.743999
27.743013 10.109002 16.736851
20.391792 11.867938 16.844057
3.8947182 20.725533 16.898819
9.7936573 21.348663 16.812351
9.6579494 22.138563 16.899471
25.039053 12.565724 16.974449
9.7030783 21.272541 16.957218
4.7823157 22.726921 16.944445
5.3069153 22.826809 16.943424
20.650101 10.566606 17.166134
24.34108 12.948219 17.111786
9.5956535 21.272968 17.120306
21.261099 9.1615124 17.248856
20.172668 11.828844 17.264202
20.220163 12.057972 17.201542
21.139393 9.3349934 17.366798
4.2158527 18.810919 17.376896
20.539501 13.005424 17.415554
3.7505884 20.1675 17.411848
25.745609 11.771375 17.548046
25.174835 12.333189 17.56955
6.7434902 18.583389 17.554234
26.225449 9.0420599 17.77095
4.2003593 18.767609 17.716938
9.2181845 20.526377 17.765291
26.485773 10.246041 17.869997
9.0924835 20.820293 17.927916
8.7403259 22.422733 17.906002
22.479897 13.15699 18.039936
9.0604639 20.393417 18.01758
3.5995688 20.874083 18.090242
5.6502132 22.927094 18.054487
21.66156 8.8457479 18.184954
20.131172 13.137894 18.165306
21.619175 13.185995 18.167522
8.9192476 21.119478 18.16222
20.740921 9.5968609 18.218134
26.304682 9.7194443 18.242125
19.899658 13.140914 18.219067
3.5005374 19.105949 18.298319
3.5034628 19.713009 18.276604
25.923666 9.0398149 18.311268
6.7448921 18.483809 18.316595
3.7126217 21.335331 18.378319
26.175486 9.322732 18.484777
4.4991541 18.643589 18.480263
3.4454913 18.932335 18.481016
3.4263575 20.046398 18.53233
3.495868 20.925348 18.580124
19.751202 11.486725 18.630064
24.864941 12.466069 18.626076
20.768177 13.259344 18.685781
21.663607 13.281925 18.654327
3.4057448 18.995781 18.629725
4.4775305 22.659853 18.684036
25.121685 12.197184 18.714554
19.974947 13.265379 18.847763
20.754215 9.1099491 18.964685
4.3050756 18.593655 18.98037
23.172237 8.4293175 19.091377
24.547089 8.6960325 19.012846
25.577522 11.692103 19.03973
19.486797 13.289371 19.05191
26.337431 11.031366 19.155106
3.2511861 19.348583 19.156433
3.2496135 20.534029 19.126715
24.78619 12.433283 19.298527
4.6541405 18.535625 19.209225
8.2735882 21.785515 19.226536
4.7230139 18.509071 19.36965
23.719898 8.4431639 19.413465
7.9672804 19.617037 19.421419
7.2676072 22.638582 19.467352
22.844252 8.5301323 19.543005
26.238834 10.642193 19.588135
25.355171 11.827641 19.553837
5.1888509 18.443361 19.589996
8.825655 20.14147 19.553337
9.1077042 20.83058 19.761534
23.276108 13.504572 19.917681
7.1233463 18.215099 20.071913
7.4259501 18.387506 20.021858
8.5405817 19.2125 20.026691
4.738215 22.774374 20.00272
25.834673 9.359333 20.163067
20.043598 9.7655001 20.148087
26.014969 10.050179 20.112225
22.700945 13.555975 20.136225
9.0631456 22.183901 20.100613
22.587524 8.6092825 20.245132
9.8303642 21.00831 20.24848
22.267572 13.607626 20.368164
10.060051 21.007757 20.388992
6.0843725 23.06282 20.342508
10.270636 19.808979 20.486336
10.263904 20.723993 20.442905
8.7592402 22.334202 20.407784
23.801477 8.6857738 20.536057
25.996634 10.367573 20.552706
25.227478 11.924417 20.569744
6.9562092 22.87574 20.587479
24.956837 9.1529598 20.678417
20.076986 13.612144 20.617134
5.3691635 18.275715 20.639652
5.8421469 18.236176 20.625408
8.0209951 22.587061 20.614956
8.9784431 18.437901 20.747677
10.735661 20.894562 20.774418
24.927719 9.1710987 20.827578
7.7176027 22.729942 20.867317
25.150173 9.2669191 20.92704
21.157005 13.703918 20.911636
25.673161 11.617368 21.093067
19.30348 10.58247 21.226999
25.897633 10.853106 21.293934
18.241901 13.611027 21.239992
22.730938 13.787142 21.342422
8.2079105 17.931255 21.314251
24.164526 12.700138 21.416252
21.927523 8.8124371 21.570305
25.851387 10.969777 21.507767
11.631839 21.563471 21.564909
18.266771 12.581375 21.612514
24.062941 9.0221634 21.77541
25.72542 10.195482 21.779997
12.756197 19.96014 21.778183
22.226095 13.902416 21.899532
4.009376 19.216244 21.809416
18.527439 13.814165 21.913465
10.42214 22.242062 21.915716
24.161879 9.1125851 22.047287
17.8407 13.822104 22.06769
5.7925043 18.012148 22.087355
22.359425 13.940192 22.107605
8.1475925 22.900383 22.110218
25.509508 9.6408672 22.246231
20.26569 13.928682 22.216499
5.6585679 18.003706 22.217079
17.962229 12.740644 22.312664
11.63744 17.858671 22.335316
13.19219 20.953554 22.354597
25.661417 11.24177 22.403053
11.792696 17.715569 22.485481
13.525231 19.302776 22.427359
12.976145 21.467072 22.429008
22.096434 8.7614222 22.658007
20.532154 14.017207 22.628525
7.4144573 17.780903 22.650784
22.841637 8.7069225 22.701223
21.809267 8.8494921 22.764793
25.599821 10.684063 22.746223
7.339993 22.564354 22.762228
8.6133175 22.821949 22.737408
23.718018 13.026517 22.858717
4.8469372 20.332706 22.842154
5.4134769 21.785423 22.857376
12.859663 21.84705 22.81152
17.400822 13.924541 22.91234
10.265854 17.517551 22.974016
12.315226 22.002314 22.94063
5.5769181 21.827616 23.008213
21.988253 8.7949114 23.154408
18.032173 11.958227 23.16003
12.343734 17.363689 23.17609
5.4902372 18.439217 23.12027
5.1340752 19.96064 23.189854
25.234795 9.7338772 23.240534
17.439522 13.244387 23.202969
24.380333 12.566011 23.361717
18.288116 11.200146 23.471695
17.68507 12.470642 23.510761
6.0025616 21.500471 23.585369
18.501049 10.640123 23.655121
17.610346 12.523589 23.663809
10.512031 17.376621 23.683323
11.423006 17.337496 23.61367
5.5602016 19.942789 23.657875
25.279282 11.937213 23.798542
23.799288 12.982727 23.751305
10.72399 17.345684 23.789066
25.38451 10.488956 23.802168
17.7264 12.139517 23.834122
6.2868128 18.39842 23.881422
5.8991203 19.153177 23.887905
17.043453 13.605446 23.905474
7.2101765 17.777567 23.999302
21.857269 8.83564 24.019098
17.474728 12.55952 24.022902
17.250744 14.196037 24.091194
19.227367 9.6416216 24.143307
15.195481 17.674709 24.148933
16.24789 18.597328 24.171623
16.522329 18.921844 24.133411
15.169281 21.580536 24.189545
15.229023 21.56399 24.177788
13.862085 21.873219 24.106165
15.975422 18.228575 24.234047
16.54961 18.725182 24.249987
13.422794 22.003384 24.234343
21.83003 8.844243 24.391909
23.053452 9.106863 24.386463
24.550228 12.46131 24.368124
16.65052 18.677578 24.323709
16.18054 21.004141 24.388899
25.226116 10.234246 24.425777
6.4499617 20.234756 24.499235
19.287977 14.347552 24.535465
12.066933 22.386503 24.538454
17.34705 19.659203 24.618
6.9067845 21.230293 24.632284
6.5451584 19.82325 24.709396
12.522546 22.319223 24.738083
6.9472752 20.649654 24.890663
14.051458 21.973564 24.819233
9.8419952 22.371864 24.942535
12.594368 22.354925 24.996948
12.701259 22.315735 24.928843
17.980288 10.997348 25.047859
22.229464 8.9211864 25.155485
17.578266 11.823051 25.134193
16.579256 13.801772 25.179667
19.41423 14.476869 25.180738
16.278606 21.509882 25.118973
20.308247 9.3037949 25.226385
16.671915 13.606593 25.211287
9.7231436 17.175781 25.219084
20.345182 9.2861061 25.393284
24.7684 12.322362 25.366516
22.072855 14.227039 25.310535
14.249901 16.863846 25.365017
14.794579 16.827641 25.394924
9.6812487 17.161036 25.337137
19.952766 9.3960571 25.491459
17.214701 14.439744 25.401138
18.294352 14.490225 25.470316
17.551817 21.126825 25.480637
23.727539 9.6016626 25.590511
24.55484 9.9292469 25.573063
20.733616 9.1617289 25.669064
17.769928 11.169343 25.708775
15.581985 16.72583 25.7145
8.9466 17.739374 25.726122
18.028488 14.531456 25.802048
18.585342 20.263081 25.898518
7.9831786 21.072092 25.809608
12.673061 22.506229 25.801027
10.204599 17.020445 25.941208
18.360577 17.661711 25.912743
21.061689 9.0487423 26.092457
19.810347 14.637387 26.063221
7.9242792 19.948162 26.077404
8.0857086 20.791821 26.009161
16.760883 21.620548 26.03895
20.022808 9.3493109 26.124706
19.46052 14.631165 26.106663
18.855732 20.361662 26.162292
20.524191 9.1976109 26.268476
19.068312 9.6452198 26.223629
17.23642 12.081268 26.258612
16.684568 13.173914 26.282299
22.754145 13.78749 26.275917
19.330908 18.166161 26.273563
15.927485 21.839493 26.2117
16.431681 14.573644 26.459171
18.789062 14.666656 26.498358
8.737483 21.479643 26.415979
17.249866 21.612144 26.453468
20.382078 9.2279291 26.531977
15.359098 16.603725 26.530415
20.291695 19.200722 26.533611
14.440171 22.237244 26.550159
13.487391 16.677492 26.647133
9.2135706 21.627745 26.745054
12.776576 22.396147 26.725006
9.9893188 17.800009 26.874449
16.849415 21.793007 26.861588
21.481157 8.9469872 26.98653
19.72294 17.351965 26.992584
19.492426 20.86462 26.912285
15.797323 22.049311 26.993326
20.557989 9.1567822 27.012484
16.450098 13.419494 27.016987
19.457577 14.778601 27.069546
20.420229 18.054014 27.056229
20.961716 18.610186 27.099445
20.667923 19.704885 27.096535
21.166054 8.9758577 27.113573
24.824228 10.817749 27.166384
9.1803503 18.664284 27.198105
11.017809 21.890198 27.109289
11.736858 22.044077 27.108757
21.353279 8.9462976 27.277298
10.926474 17.332983 27.211462
8.9915571 19.549725 27.272461
13.896299 22.45833 27.292198
21.898802 14.875896 27.378969
19.329571 16.36743 27.313917
9.2437057 20.365881 27.30405
9.525135 21.210752 27.342075
23.661957 13.251084 27.427988
16.287952 16.450851 27.452198
13.44701 16.532064 27.556417
9.8838577 18.373199 27.530401
21.612093 18.551975 27.56179
20.518253 20.626888 27.520258
20.11898 21.205261 27.589853
20.648285 9.1037998 27.65416
19.814209 9.3537722 27.616341
17.68251 16.37237 27.693243
16.68865 16.405418 27.694611
12.6954 16.540674 27.681427
23.681648 9.943429 27.721622
18.605169 14.847286 27.733391
12.098984 16.804918 27.708086
10.420406 21.54114 27.763622
12.468872 21.99192 27.725466
15.170938 16.432169 27.87616
10.657618 18.026993 27.861156
19.545099 9.450098 27.992008
14.780964 16.440075 27.914999
20.444866 16.426258 27.990061
21.116947 17.265923 27.961685
19.143496 16.265703 28.130756
21.970015 18.111183 28.179356
9.814146 19.369818 28.158504
16.536243 22.106342 28.153017
11.92417 21.687065 28.282433
22.708721 9.6625175 28.350573
22.971193 9.7560654 28.353981
24.368996 10.250607 28.336605
17.765678 14.91362 28.377325
20.350311 14.963692 28.306877
12.737474 16.673717 28.436354
10.183548 19.695049 28.444557
11.015302 21.446445 28.419422
16.618 12.247334 28.66571
16.153797 13.695701 28.637711
21.85619 19.69175 28.641083
11.995099 21.566612 28.691561
12.289454 21.627752 28.703737
15.444307 22.411606 28.76837
24.020103 13.1408 28.81073
20.213892 16.113697 28.889219
15.279914 16.254837 28.855619
10.848219 18.637697 28.870205
10.530512 19.379902 28.884193
13.158191 21.765776 28.868631
24.66448 10.913945 28.99659
20.403934 15.056801 28.997692
21.81258 16.714685 28.937206
22.501202 17.903526 28.935265
11.641168 21.409481 28.931086
24.429901 12.884152 29.197891
23.305622 14.274308 29.133913
20.789824 21.407711 29.26815
13.592986 21.743166 29.229866
20.383039 15.948437 29.369406
22.913971 18.563742 29.321674
23.451105 10.043588 29.495113
22.493649 17.052837 29.499382
22.041435 20.751881 29.459412
24.626392 11.078073 29.594955
15.665073 14.695653 29.549324
11.706936 20.805111 29.537865
17.697273 15.081062 29.648167
23.125362 18.562122 29.659386
12.426009 21.3361 29.682137
21.218325 9.2876406 29.77141
24.968307 12.178972 29.743139
21.784315 21.288586 29.786652
13.379576 21.541088 29.700542
13.132245 17.082352 29.84199
22.3011 9.6865129 29.994598
15.773081 15.126857 29.941404
22.649883 16.605295 29.981964
24.950598 12.090332 30.023827
18.582817 22.006908 30.076117
24.992256 12.557011 30.148849
13.597948 21.437981 30.16087
21.311485 9.4171486 30.256239
24.968328 12.251658 30.290154
16.756838 15.326941 30.271391
19.311256 15.72526 30.266626
14.620025 16.018595 30.218912
14.936998 21.766953 30.218296
24.650785 12.932587 30.37438
22.072891 15.364708 30.424229
23.614784 18.415575 30.499954
21.914438 21.363333 30.428408
22.341805 15.406599 30.564468
16.621649 15.806612 30.576332
18.951294 21.982283 30.534931
16.054344 15.322324 30.664467
12.647871 18.33219 30.610565
23.709738 18.490347 30.620615
22.635073 21.221153 30.776325
17.525589 22.303286 30.795404
21.601799 9.6424561 30.899172
19.839071 15.655266 30.810259
13.676811 21.232428 30.838734
22.469423 21.262648 30.811905
16.499516 10.93401 30.987524
19.351528 9.2531357 31.090824
18.251524 9.6537046 31.074354
24.934448 12.499862 31.050827
23.708609 17.501936 31.025095
20.677851 9.4003105 31.165051
21.465321 9.6546478 31.171938
16.922947 15.552155 31.197594
22.852764 21.167727 31.160639
18.499058 22.14637 31.179087
18.863283 9.4039116 31.26284
24.791405 12.905369 31.213985
23.740257 14.504827 31.247059
23.595076 15.426359 31.238897
21.822447 15.681904 31.266357
13.967183 17.544083 31.255932
23.269749 20.459568 31.277287
13.808866 20.568584 31.250221
18.48481 22.161457 31.288816
18.263184 9.6031809 31.381678
15.674451 12.251707 31.382608
20.060276 21.841999 31.319046
18.361691 9.5571585 31.450531
15.294333 14.626358 31.436605
23.351665 15.706683 31.594791
19.790434 21.922766 31.548794
23.650822 10.353516 31.699541
24.737854 12.26382 31.611326
14.486261 21.026245 31.66884
18.053366 22.289629 31.647486
17.03635 21.991791 31.777988
15.593646 12.15562 31.878288
15.240021 12.826205 31.892601
23.914234 19.043764 31.856934
14.604412 17.370565 31.94278
17.609306 22.14473 31.936073
16.368235 10.678914 32.005051
15.056903 15.022365 32.180595
14.105371 19.094891 32.191551
23.881872 16.446423 32.273502
14.925205 20.778437 32.295616
18.43442 22.275064 32.306934
17.089951 10.007059 32.419868
15.030537 16.905048 32.470737
14.631581 19.778843 32.455444
14.94392 20.594929 32.408279
19.974083 21.890469 32.40546
14.30225 18.347397 32.584614
14.594342 19.435869 32.583145
16.135214 21.423872 32.542744
18.69223 22.211149 32.510948
23.841379 16.113653 32.688858
23.538904 20.147577 32.701275
21.879725 9.9356461 32.805103
24.436247 12.213425 32.829582
17.714073 21.863388 32.869007
23.536909 10.418411 32.936543
15.045909 17.46184 32.960407
23.848587 18.744675 32.986061
19.586676 21.98876 32.973351
19.13562 9.1932783 33.019005
21.541859 22.777292 33.063305
20.939646 22.94519 33.093094
15.179818 16.314499 33.151333
23.848629 16.880508 33.197334
15.08333 17.38546 33.129185
23.832878 18.704863 33.118736
21.278046 22.999926 33.162323
21.185928 23.066786 33.10955
21.242859 23.337429 33.132622
21.68598 22.748627 33.271114
19.808338 22.860783 33.201981
19.787157 23.046591 33.269302
21.043362 23.133305 33.223442
20.155914 9.5111237 33.364803
14.769156 14.063721 33.323765
15.09711 17.522554 33.309418
23.858555 17.801224 33.316189
21.672741 22.897957 33.34042
21.548306 23.148922 33.371033
16.528017 21.256748 33.417137
21.715071 22.489992 33.442307
21.197161 22.931461 33.474339
24.19799 11.996353 33.5453
23.815731 16.610767 33.535225
15.248158 19.256992 33.512085
16.414396 21.172407 33.538242
17.744564 21.627144 33.513596
21.285778 22.212887 33.550533
20.817396 23.359144 33.575172
15.091291 17.978525 33.60054
23.783319 19.283773 33.680851
21.188366 21.590105 33.634735
20.809868 21.684845 33.686203
21.638794 22.604692 33.659492
15.289513 15.791149 33.736198
23.769129 18.958469 33.741692
16.171488 20.69965 33.772816
19.774559 22.153675 33.787941
21.048416 23.23831 33.834217
16.005695 10.412955 33.943325
16.127428 20.235195 33.970768
19.647308 22.700138 33.920677
18.947777 9.2422333 34.011097
15.456594 11.373074 34.011425
23.809652 14.088045 34.097893
15.673774 19.106247 34.082367
16.057264 19.852234 34.097908
18.24012 21.582621 34.06395
14.757602 13.759851 34.178268
23.796276 17.365259 34.142395
23.742676 18.086189 34.181286
17.039562 21.142776 34.163139
20.746365 22.722727 34.128143
23.621984 20.304867 34.213978
20.683668 23.198029 34.257477
23.915478 12.003754 34.552818
15.37731 15.857109 34.558735
17.68774 21.206602 34.563751
20.601715 22.370899 34.599701
21.032095 9.881115 34.615051
16.936096 9.9174042 34.68951
22.401131 10.233146 34.648777
23.65135 14.922431 34.661041
23.764936 16.887283 34.628067
14.212396 26.694244 34.689137
16.576437 19.608955 34.779835
21.323687 22.84841 34.705376
23.591431 14.249206 34.866825
20.921783 22.967205 34.884159
20.686617 23.093761 34.800865
17.462099 9.6995468 34.922894
20.513187 22.320862 34.94902
20.636887 22.851376 34.957806
20.31353 21.940456 35.066025
14.891582 26.083246 35.047764
22.690586 10.2989 35.160263
23.582298 14.322536 35.111153
23.684189 15.793009 35.101265
24.4842 17.623333 35.100998
23.456083 20.924816 35.146015
23.421177 21.032761 35.246899
13.90918 26.099001 35.213638
13.893839 26.7318 35.216309
19.881819 21.667927 35.363422
17.194763 9.7656469 35.484478
23.234983 10.422106 35.448586
14.151291 26.862101 35.454971
23.776356 12.959932 35.584766
23.65304 15.713081 35.565773
23.674572 16.134619 35.546524
24.343559 17.678473 35.569962
19.441631 21.453545 35.546394
20.09639 22.821632 35.538475
23.570312 14.580425 35.627632
16.071056 16.873772 35.670658
23.416328 11.138124 35.714561
13.883163 13.40424 35.72773
15.445196 15.22079 35.741852
16.485235 18.006145 35.723087
17.372108 19.514427 35.740402
13.991989 26.171141 35.772381
14.285267 10.582616 35.807049
15.546362 15.466801 35.873959
23.563313 20.179567 35.835022
21.998459 22.40255 35.859612
17.687252 9.5441046 35.970726
17.277315 9.7087803 35.997444
16.572315 10.107738 35.936413
23.286421 10.672784 35.916798
14.334372 14.457031 35.97945
23.552959 17.916887 35.987541
19.448792 22.516171 35.920719
14.70508 13.305765 36.020081
23.533567 14.450252 36.096054
16.540585 17.273291 36.088703
23.557564 17.790249 36.023869
19.680733 21.33264 36.040489
21.162954 21.685635 36.079659
21.105473 22.074873 36.054516
16.961407 9.9741631 36.196125
24.177691 17.845446 36.168617
24.234209 18.96134 36.182381
20.67614 22.43771 36.13065
18.90258 27.349625 36.167908
14.813771 14.756017 36.263634
22.461166 21.891842 36.267654
18.826637 26.445202 36.258652
15.954515 9.4466419 36.395401
15.64077 26.0525 36.397316
17.809055 26.2572 36.389313
16.334686 26.7784 36.347828
24.453503 17.759563 36.458794
23.702417 18.921349 36.460361
20.419201 21.509333 36.47691
21.651217 21.808529 36.403748
20.138063 22.019308 36.475822
24.39876 17.165501 36.575619
24.453556 18.161255 36.566242
16.948109 26.439281 36.530346
17.346861 26.747149 36.566238
23.468121 18.074081 36.652443
24.39464 18.118822 36.610718
17.690277 18.880728 36.60807
18.421762 19.981129 36.660156
19.609549 22.38788 36.628967
21.96207 22.595303 36.676128
18.649836 26.354555 36.616318
14.748958 26.767834 36.682625
19.737255 27.976933 36.649963
16.352821 9.3973808 36.726887
13.971574 14.018934 36.758263
15.609289 16.271378 36.755299
23.441607 18.252102 36.781197
23.750275 18.2407 36.725639
24.116127 18.991375 36.7859
20.323017 21.313066 36.799774
21.925392 25.996597 36.77652
18.126274 26.239325 36.754604
18.20232 8.7568264 36.815723
22.31613 10.215419 36.806381
22.087513 21.567833 36.814228
19.106033 26.424994 36.847343
19.868639 27.001846 36.808533
18.589796 8.8419333 36.972286
17.116617 10.090694 36.920113
16.947525 10.200369 36.937119
16.986244 27.831629 36.992687
16.375765 9.4888887 37.079201
23.615314 19.471895 37.056992
19.07795 21.84343 37.083927
21.19809 21.953064 37.060623
21.69025 22.340202 37.076965
17.551914 27.183945 37.042667
21.418247 9.5686626 37.158497
23.041157 10.859578 37.118229
14.850738 16.7309 37.171104
19.472572 20.605803 37.153992
19.392651 9.064455 37.262627
19.914518 9.160183 37.209885
20.703518 9.819911 37.251926
23.518269 15.205838 37.271599
23.797276 17.4585 37.257736
23.403578 18.105032 37.212635
24.2143 20.773527 37.364368
20.707726 22.307455 37.323166
17.888838 27.250971 37.395844
16.573681 9.5226221 37.449512
24.247801 12.09693 37.482754
14.00301 14.099068 37.456142
23.825514 17.490818 37.496246
24.201082 20.529945 37.494316
22.815607 21.062828 37.456665
22.500721 26.029245 37.493652
20.355621 26.15906 37.418701
19.014303 26.75996 37.446022
19.170454 26.842297 37.451
18.352516 26.913551 37.40781
17.441046 28.154234 37.446976
24.228676 15.932896 37.578407
23.274035 19.355759 37.522583
18.760221 20.723961 37.519997
20.146328 26.438278 37.51675
15.956465 26.862103 37.583698
17.35589 28.115934 37.526466
22.655455 9.7987471 37.603195
14.373861 11.681193 37.669918
24.141499 11.761285 37.613808
24.211605 19.868364 37.6637
23.043499 19.956429 37.616604
22.174257 21.81188 37.67247
21.314642 21.945105 37.619781
21.379547 22.05537 37.641014
20.796688 22.235964 37.632629
18.63611 26.219929 37.629726
22.61618 26.239616 37.655159
23.178165 18.727406 37.716522
21.944202 21.855938 37.777908
18.067297 9.0527401 37.836342
14.317457 15.200782 37.85173
23.441593 15.356758 37.83897
23.350693 15.80857 37.848293
18.812092 21.497458 37.887211
23.112453 13.770541 37.961502
14.473354 15.549776 37.90324
24.319326 16.247908 37.956108
14.097888 12.981306 38.047611
23.862186 20.055632 38.050282
21.874493 25.9167 38.114445
19.128366 26.0525 38.176559
15.929861 26.180946 38.180893
15.268487 10.221615 38.261948
14.341127 15.398106 38.206322
24.205938 16.866159 38.245735
21.370903 21.91888 38.243717
18.822851 26.577133 38.230598
18.695618 26.703608 38.23941
17.092762 27.250294 38.21516
14.161221 14.472411 38.32407
14.435555 16.230072 38.32856
14.406794 15.621072 38.410526
23.40382 17.227215 38.421413
14.583804 17.911083 38.470909
17.412685 27.436823 38.449764
21.869429 9.8285637 38.548943
17.011154 21.37813 38.565907
19.092392 22.125896 38.542984
14.41378 12.340838 38.62088
22.589521 21.469584 38.621017
20.04283 9.5010672 38.763508
23.916988 19.844448 38.7486
23.924648 20.08898 38.728081
15.903562 20.993277 38.785919
22.305555 21.534584 38.705147
19.978773 26.938198 38.799286
18.543331 25.9167 38.841396
20.910425 25.9167 38.834389
22.27474 26.784195 38.892815
1.1591648 4.9972754 39.071053
23.400768 10.257254 39.057415
23.948801 17.933937 39.095032
23.937824 18.851273 39.070709
21.834349 21.596542 39.043697
23.947023 16.710289 39.129082
14.950964 19.751902 39.197281
1.4097222 3.8550234 39.245247
14.220815 14.583632 39.292236
14.199057 15.468194 39.293762
23.905264 16.644995 39.277241
23.35527 19.051739 39.25589
1.900104 3.2400935 39.385651
18.507921 9.3022995 39.32729
14.191054 15.11026 39.365238
14.177506 17.48035 39.368279
23.448549 21.03533 39.328705
21.491768 21.596817 39.313568
20.960896 26.864244 39.329178
21.035728 26.826212 39.335552
20.481606 26.9382 39.351936
23.394302 10.773188 39.406193
14.190116 13.636093 39.414268
23.868355 18.457453 39.471031
23.636393 18.976915 39.421955
20.297701 25.709326 39.406361
21.15551 25.926571 39.459007
18.611921 26.9382 39.450573
1.901968 3.8745072 39.523354
23.777582 12.531927 39.52029
20.624229 26.164101 39.571068
18.44092 26.938198 39.579174
21.354244 25.72699 39.673431
1.95205 3.6375113 39.720291
17.949469 9.5599613 39.777725
14.911553 11.175626 39.710052
14.100265 18.214872 39.732113
21.110943 26.518763 39.704105
2.1212063 2.8736131 39.809048
0.49630767 5.1941028 39.858826
23.809155 13.998519 39.880508
14.904808 20.060173 39.81131
21.213659 25.614542 39.803822
18.855923 26.388601 39.806217
1.313619 3.0464792 40.054008
23.729155 13.113157 40.08503
13.925082 17.57193 40.076778
20.922316 21.472269 40.057526
18.948278 25.938629 40.063248
0.54865426 4.6170506 40.14476
19.703783 26.088499 40.196877
19.853493 26.604658 40.197834
23.573936 12.447523 40.207577
23.177937 20.785975 40.217953
23.629112 15.823132 40.312248
13.751886 16.625229 40.366329
23.447014 19.583717 40.393333
17.356531 26.107138 40.344982
18.362236 26.862101 40.335175
1.4370894 4.8146749 40.488571
1.2415667 5.30231 40.416039
21.716421 10.13439 40.40374
15.881904 20.994328 40.444042
19.390791 21.610832 40.44001
19.93248 25.454357 40.445511
17.576666 26.84272 40.462898
17.234566 9.812356 40.594563
13.738365 17.217367 40.553558
14.269338 19.056057 40.516918
19.061716 26.9382 40.557808
13.778502 17.992962 40.623928
19.381918 26.005459 40.662495
20.468946 9.9576349 40.755539
22.926367 20.88975 40.70013
15.953156 21.026302 40.720955
23.155516 11.561552 40.874931
13.561424 14.923147 40.889412
14.746463 20.303068 40.97485
22.038101 26.632038 40.992775
18.414555 26.667601 41.077694
18.840466 9.6167068 41.148315
22.067015 10.333407 41.130978
14.266542 11.851784 41.130608
13.800724 12.796459 41.15004
0.53743088 4.0498247 41.273903
13.428682 16.387644 41.283379
17.205151 21.498604 41.22002
1.6391369 4.2223639 41.34417
22.232613 10.392101 41.371197
23.296196 15.689077 41.48534
15.960789 21.092802 41.472023
23.205097 18.913021 41.516636
21.863752 20.962196 41.505371
21.729038 24.983969 41.522766
22.546404 26.471437 41.582684
1.3182662 2.7713153 41.620636
19.205444 9.7277336 41.652725
14.476471 11.184591 41.679504
23.261839 14.825362 41.617222
0.89546657 3.3970871 41.712364
15.903398 10.193805 41.793129
20.751066 21.180786 41.70052
2.3727648 3.4442368 41.832928
22.476606 26.866678 41.888386
20.652044 27.087336 41.81826
23.273273 16.398705 41.902134
19.201267 21.537968 41.914082
15.456802 10.339458 42.023724
22.65089 11.120736 42.087616
22.888151 26.463026 42.022755
23.269066 17.074835 42.121712
20.352568 25.207932 42.19371
20.314133 25.671946 42.160103
6.1113386 2.8250012 42.293861
13.269173 13.39501 42.218029
13.192307 15.151432 42.25544
0.083316877 5.2060757 42.341515
16.646667 21.385065 42.352318
6.8980012 2.7054133 42.454929
22.083862 24.654787 42.467285
6.0201492 3.2724717 42.578022
5.6102252 3.4723091 42.572388
18.219837 9.5700226 42.505257
22.611067 11.511806 42.50692
22.310961 20.740677 42.561611
1.7559078 5.6531763 42.634911
20.970453 10.246518 42.620461
19.118549 21.518282 42.627525
20.971809 24.805319 42.640678
23.802851 24.85026 42.677452
6.6928902 2.4111843 42.785469
2.5707393 2.5456572 42.788177
1.3775916 4.151917 42.785934
1.6104926 4.8380594 42.7314
13.092613 18.112206 42.720909
20.276369 21.232647 42.773483
22.345865 24.554895 42.774498
22.476366 24.551796 42.79808
12.988271 17.307484 42.836914
16.425701 21.328217 42.872833
20.721199 24.906849 42.821568
4.7838759 4.1836596 42.980713
13.051913 14.758948 42.931702
23.070374 24.484758 43.05228
3.2177238 2.8472114 43.10804
14.398668 10.71331 43.136242
13.264979 12.66487 43.175629
12.951859 13.267958 43.156792
12.899668 16.554853 43.17366
22.303064 20.694443 43.143875
23.151785 26.767393 43.152771
2.9383345 3.020191 43.266747
6.6270723 3.7842872 43.206299
21.44886 10.453753 43.298302
22.961138 14.216208 43.287041
1.789889 4.5015178 43.320923
2.3726926 4.9645619 43.376957
17.62369 9.4617786 43.398479
13.835859 11.675493 43.353077
14.353611 20.597002 43.370548
4.4465594 4.1949439 43.44334
22.695805 13.068544 43.417782
23.060448 15.548901 43.452957
21.089674 24.646929 43.452271
8.8361292 1.9958992 43.540756
4.4189372 2.5044565 43.569336
20.81472 10.340405 43.590294
24.470835 24.348808 43.592049
9.8084488 2.962858 43.661934
16.178087 9.9754429 43.69574
5.1307278 2.2625904 43.744392
12.807664 14.560686 43.704117
12.719065 17.530447 43.796597
11.052519 2.6455109 43.879627
4.0190058 3.2883575 43.879898
16.439831 9.8738661 43.837189
15.530625 21.071201 43.820911
9.2541914 1.7202768 43.971073
22.87442 14.534016 43.923027
12.81788 18.363987 43.957031
24.498535 26.241131 43.992569
18.586956 9.7225647 44.058632
12.695982 14.365612 44.02108
12.487783 1.6715306 44.17382
21.868866 11.655138 44.172386
24.941628 25.306292 44.127617
8.64468 1.5553281 44.205204
9.445137 3.7428782 44.265358
16.503981 9.8670588 44.20385
13.059488 12.482738 44.205013
12.765332 12.946961 44.280548
22.211803 20.140291 44.253071
12.827163 2.40639 44.381023
17.993092 9.5449171 44.372204
22.20717 20.284235 44.31094
24.073345 24.081684 44.312004
25.188643 24.63155 44.318497
10.927014 3.4012458 44.436817
12.620257 13.176349 44.445122
16.895178 21.672041 44.417007
11.090168 1.3333141 44.577538
14.098355 1.6455535 44.588661
16.981159 9.7082081 44.598618
22.18375 13.065382 44.548309
21.784231 24.262098 44.539074
12.627161 16.055969 44.67662
21.764769 25.947155 44.666519
8.7923679 4.3180723 44.724785
17.001596 9.7065659 44.726768
21.935421 11.924754 44.792091
22.128254 19.616709 44.791111
13.834047 2.4884124 44.856987
8.9828739 4.3446097 44.830811
16.758621 9.8039246 44.880821
16.191441 10.014934 44.890057
25.706287 23.947054 44.843376
25.53299 25.233877 44.821922
15.191683 1.8960441 44.94762
15.538555 10.259098 44.92804
11.248547 1.0168059 45.037346
11.73349 1.0436314 45.000397
8.9083252 1.4253917 45.017273
6.6607571 3.4306095 45.001808
21.864241 11.569244 45.041656
23.068972 23.931608 45.075851
24.75956 26.451519 45.028488
7.061285 2.3520079 45.145451
14.51083 2.5046434 45.140347
7.2996993 3.4654195 45.130825
22.104698 25.348438 45.13092
15.005198 1.2715786 45.241753
15.860931 1.9269705 45.224586
12.645752 15.794065 45.23378
17.138134 21.706005 45.20237
25.982298 24.254993 45.269852
13.793926 0.93160117 45.387871
14.133861 3.0137453 45.376068
10.202972 4.3354855 45.346172
16.660786 1.832939 45.439999
15.116381 2.6415067 45.482491
22.033628 19.637537 45.499966
14.755335 2.8595271 45.504868
8.0383148 3.23595 45.531502
21.675507 10.559319 45.579758
12.652659 15.249355 45.52459
22.690689 15.368255 45.548637
22.632399 26.337227 45.591797
23.64238 26.733242 45.506413
13.047781 0.70635802 45.609463
15.218107 0.95909899 45.611786
9.9684515 1.3084036 45.679722
9.2196074 3.5002408 45.662231
21.725098 20.902002 45.674313
15.252277 2.9591856 45.755833
14.79459 3.0608931 45.701126
21.821035 11.266184 45.735123
22.47031 16.891264 45.713898
22.597628 24.370102 45.733437
16.664402 9.848362 45.839771
19.418762 9.8734083 45.848194
21.759766 10.945875 45.817669
12.656616 14.641544 45.818516
22.586193 16.367041 45.845287
23.806305 23.672909 45.810562
25.327389 26.360859 45.883537
21.987087 20.201105 45.938316
21.992382 20.339142 45.921227
23.573101 23.690926 45.97691
11.288825 0.9484272 46.02174
8.9053726 2.8400707 46.090656
15.86255 3.0947425 46.069149
22.33474 17.495321 46.067596
16.938164 21.635702 46.047356
17.941393 21.832886 46.068329
26.136044 25.930733 46.031116
12.376476 0.59721369 46.107174
12.125176 0.68253851 46.10836
16.042385 0.69915175 46.115307
22.016308 19.358709 46.119438
26.343876 25.300304 46.130924
23.346294 26.355026 46.153694
9.4273529 2.7195659 46.286953
10.367256 3.2979374 46.240608
12.276246 4.0571508 46.235554
15.912619 10.005902 46.236805
22.677376 15.309522 46.246616
13.628731 20.180649 46.290676
16.380314 21.499603 46.290821
24.642683 23.468254 46.22438
24.732826 26.567238 46.238598
21.056532 10.263556 46.374481
20.349604 21.254471 46.328434
26.352654 25.746801 46.357883
17.003077 1.3650196 46.43235
17.424957 2.31112 46.408821
17.512173 2.4267316 46.49408
22.499607 16.750767 46.456081
13.458473 19.773264 46.442841
19.078629 21.569277 46.482449
26.82988 23.634777 46.489029
17.426937 2.9430392 46.523781
14.72208 3.9563513 46.607952
22.511703 16.693455 46.63118
16.173153 21.442078 46.62722
16.654871 0.70883286 46.775646
12.020517 1.003302 46.750427
13.652334 3.7407784 46.776447
16.090046 9.8980236 46.725952
10.818084 2.1831615 46.863476
11.332287 3.0108719 46.806644
13.896224 3.8197653 46.804108
15.455631 4.1591673 46.877663
24.076622 23.505941 46.806885
12.924572 0.80608946 46.992996
10.987791 2.3366847 46.974453
14.5204 4.2526083 46.917988
23.708141 24.590313 46.970821
26.720303 25.570724 46.976585
15.904534 4.2340069 47.008312
21.867441 20.58717 47.086266
26.59314 23.22345 47.013641
27.227528 23.485004 47.072201
14.217596 0.43381649 47.178207
17.46328 1.9196136 47.185074
13.153293 3.3748908 47.103653
22.08255 18.725929 47.128853
14.010015 20.920921 47.115108
18.563612 2.5591094 47.261093
16.395445 4.3975754 47.296875
16.928011 5.0799775 47.233971
22.569065 16.425068 47.279228
12.74935 18.315186 47.253281
21.455261 21.023838 47.203739
23.797855 25.565304 47.253479
18.475155 2.7079408 47.308861
17.486923 3.9992881 47.343609
22.268311 17.769127 47.349453
13.484734 3.062279 47.455898
17.193707 4.2023358 47.408306
16.759146 4.4493098 47.460335
21.90062 11.374908 47.4044
12.699732 13.856653 47.413284
22.409014 13.967054 47.436028
22.21841 17.990438 47.453365
20.588526 21.364241 47.495163
26.018772 26.259956 47.447475
18.4769 3.6189573 47.582584
15.463961 5.8554087 47.553024
13.54413 10.666202 47.549622
13.154367 11.789988 47.551651
18.63036 21.977976 47.593742
16.438347 4.8610439 47.694717
15.918629 5.6429257 47.617172
16.691429 5.6503458 47.620232
16.63648 9.5088453 47.606129
13.357311 20.146702 47.644878
26.990023 23.034508 47.650761
25.350513 26.495861 47.634979
13.828483 3.0048065 47.770462
14.461301 3.6627989 47.793621
17.703146 4.481514 47.76741
25.603352 26.442112 47.739643
13.299354 1.212149 47.851765
12.775199 2.1253388 47.885189
19.415558 4.2589316 47.816986
22.525171 16.669254 47.805241
12.728226 17.342611 47.899689
27.099987 22.93327 47.891438
26.570042 26.020935 47.895184
24.899944 26.235067 47.809776
13.607226 1.1144316 47.976711
14.26749 3.3519573 47.903427
22.310415 17.693016 47.93401
13.464943 20.636478 47.951946
19.120369 2.6862369 48.018059
14.581071 3.8830354 48.022625
19.239351 4.8975706 48.095852
18.552225 9.1708336 48.084759
26.256199 22.950581 48.000229
15.297624 6.5647149 48.198372
15.408687 6.5139623 48.174786
22.189068 12.714765 48.164894
12.743899 13.608887 48.108662
12.751868 17.41923 48.183411
25.570078 26.361057 48.151295
21.208569 9.9596748 48.264641
12.769978 15.290347 48.296658
21.099335 21.061941 48.261345
14.799061 21.299786 48.227871
24.467529 25.768213 48.283367
16.936111 6.5293846 48.380341
14.125155 10.087474 48.355343
17.32675 1.8905255 48.462471
20.042744 9.5615425 48.458023
20.392445 9.6763802 48.418358
22.326233 17.757671 48.406052
25.552303 22.775255 48.415588
14.947707 5.4849544 48.517666
15.09329 5.6770225 48.556934
15.17987 6.4594264 48.537018
21.457291 20.774761 48.533699
16.111401 21.705856 48.520378
18.927635 22.158352 48.564716
14.200727 1.694539 48.638584
23.970211 24.772154 48.614895
19.103733 2.381079 48.787216
14.988729 5.7671976 48.715412
12.810178 15.148569 48.7799
22.288317 18.036392 48.765633
18.757656 22.261635 48.753532
16.607788 7.2192092 48.877819
22.137217 18.863359 48.847145
13.115938 20.17989 48.898224
24.470051 22.590672 48.80793
25.379845 26.129906 48.841011
19.744497 5.4228454 48.952782
14.986386 21.530212 48.90073
22.201557 21.955366 48.946205
26.31815 22.452343 48.990997
23.614803 22.509729 48.962383
21.655525 22.71439 48.955307
15.029972 4.9265471 49.067543
18.291189 7.0587425 49.078655
16.654888 7.4069185 49.045708
17.443811 9.0939751 49.034981
13.972875 21.324907 49.071148
18.506958 22.361887 49.044147
26.93462 25.722912 49.002876
19.182915 2.5981143 49.110008
12.823907 13.081323 49.135735
19.775993 21.593086 49.118011
23.708788 21.941748 49.114178
22.362572 23.745907 49.255192
27.380344 24.342827 49.24802
12.851515 13.762121 49.39476
12.858091 15.879264 49.324844
22.327688 18.031404 49.370956
17.80228 1.4298944 49.431393
22.3249 18.053755 49.403778
23.259438 21.556236 49.493683
16.818241 2.0139842 49.597404
16.018269 9.3197527 49.518364
12.995505 11.521587 49.597984
12.854326 18.17889 49.501492
16.317955 2.0730982 49.6408
14.694292 3.1842251 49.645561
14.814264 4.1732845 49.696793
19.966896 5.7037678 49.682808
18.145704 7.9743218 49.65641
15.362257 8.2167301 49.665627
12.865587 13.105487 49.639957
24.644897 21.643105 49.665512
27.135427 25.021959 49.615322
17.859066 2.3034077 49.757034
15.233749 8.1375866 49.777199
22.185169 18.835224 49.724571
26.182949 22.145645 49.719765
17.060829 2.2823002 49.85651
18.184031 8.2543344 49.885315
17.144255 8.3799086 49.836678
12.996465 11.674238 49.846832
22.665428 15.393103 49.861534
20.362431 21.042353 49.8461
19.592165 21.810467 49.864182
24.430191 21.800175 49.800789
22.383869 24.896761 49.818672
18.463699 2.4059994 49.927895
13.038254 11.32342 49.920391
22.137091 11.951136 49.938103
22.342283 13.344831 49.935516
20.553545 24.16691 49.905819
17.510029 2.4686909 50.096695
19.952888 7.5042534 50.009705
17.587168 8.6426229 50.079189
15.52934 8.8344545 50.099331
15.295788 9.4011641 50.081699
13.037966 19.85976 50.09148
21.349998 20.420027 50.000462
20.854362 20.685535 50.087456
17.986036 21.950144 50.019894
26.562035 25.082571 50.075497
22.938583 25.299061 50.07774
15.180719 8.5172806 50.122978
17.576113 8.7617807 50.174332
19.41766 8.9952726 50.159397
15.57082 22.277916 50.145977
16.033791 2.8260388 50.286713
17.086164 3.0034359 50.294456
21.476189 21.282955 50.262127
20.449068 21.367785 50.297997
19.27549 23.734018 50.292023
19.300249 23.736172 50.274483
20.509092 24.471897 50.244984
25.412544 25.007744 50.246887
17.444233 3.012521 50.367115
18.830481 3.0860596 50.393238
20.167902 6.0357342 50.334415
15.33395 7.7673578 50.369904
16.766821 9.0450516 50.349884
22.324549 13.142669 50.375641
24.505005 21.263214 50.35136
14.183731 21.869839 50.337902
25.249407 21.883301 50.311996
18.908201 23.571156 50.380558
26.031353 24.965765 50.368931
15.719837 3.253408 50.444862
14.862605 4.4467058 50.457378
20.201832 5.552743 50.420448
20.235214 8.1163931 50.461349
20.033413 8.2202187 50.434681
26.999489 22.446384 50.499466
19.388098 3.7913041 50.551273
16.842621 22.481842 50.596111
23.547268 25.277517 50.535267
20.282146 5.7437959 50.6908
14.658131 9.4147921 50.602638
13.104511 11.170494 50.62645
16.898335 22.49567 50.620018
19.123795 23.893867 50.626423
15.296411 6.3071814 50.707272
22.342537 13.477836 50.729172
22.165712 21.076437 50.768814
26.469864 21.733925 50.779396
18.003551 22.99836 50.745121
18.967693 3.5417109 50.850033
13.079717 12.675779 50.894592
22.167952 18.474028 50.81411
26.435516 21.781345 50.875015
15.849458 22.418751 50.800758
15.102617 5.5530291 50.909496
15.34164 8.0235748 50.966587
22.260958 17.194988 50.953465
13.204414 19.781874 50.981285
18.637381 23.821493 50.958199
20.47209 8.2409763 51.09013
13.134344 14.283005 51.028946
21.045065 21.030134 51.081753
26.371655 21.913582 51.087849
26.023043 22.530903 51.068665
25.811354 23.849472 51.096359
19.288887 24.326099 51.057453
19.332256 24.335978 51.034733
25.67947 24.638344 51.044563
25.816578 22.31675 51.18544
26.908112 22.816307 51.217941
19.95499 4.925282 51.352619
22.951628 21.05364 51.394306
23.922028 24.569683 51.357277
25.333883 25.015339 51.362427
22.023746 11.607648 51.422775
22.449099 14.630402 51.42503
21.210491 21.010635 51.463821
24.614779 24.522493 51.495293
21.969021 11.277244 51.565331
13.489635 12.213503 51.569149
23.845987 24.499432 51.538971
15.331085 6.191021 51.658928
15.228222 8.8780651 51.683533
21.315517 9.3259268 51.687012
21.972351 11.348575 51.632839
13.426432 16.196484 51.614586
14.914674 22.12978 51.662281
25.978827 22.785473 51.60421
15.512247 7.3652844 51.794769
15.159972 9.7760849 51.748802
21.479664 9.851512 51.707672
14.096482 9.9886866 51.743561
22.019585 11.761987 51.700268
19.081179 4.1851888 51.894794
13.638577 12.26476 51.860058
24.199659 24.388865 51.835102
22.165707 13.062335 51.939495
13.611786 17.807367 51.990467
24.431202 24.366636 51.96257
25.538574 24.576363 51.991333
17.359831 4.1836901 52.084091
19.227158 4.4019623 52.002281
14.682611 9.9459972 52.043663
21.589022 24.855049 52.014816
15.348225 8.366189 52.106869
13.944069 10.575594 52.126511
21.829754 18.807222 52.103859
23.888214 21.349136 52.13673
22.260361 14.688135 52.226501
25.42527 22.415707 52.265667
24.650938 24.730503 52.29303
22.876768 21.190405 52.385048
17.135885 23.173676 52.302795
17.732281 23.851723 52.36628
22.050091 24.846052 52.33445
18.869017 4.2981644 52.407974
19.067623 4.4262195 52.440212
15.534418 7.5588589 52.462677
21.498327 9.4811001 52.573948
13.77944 19.326757 52.585289
24.897518 23.88719 52.529072
18.804691 4.5971527 52.677963
15.273632 10.145923 52.678062
13.929716 14.965355 52.64711
23.58342 21.640129 52.660984
20.254562 24.752251 52.697113
18.650808 4.700079 52.767899
20.039738 5.6884599 52.770447
14.144044 11.921667 52.758568
22.177767 21.269003 52.768028
15.722826 22.840117 52.764576
17.725727 24.082191 52.703491
24.560108 22.924267 52.849724
24.301844 23.825695 52.826447
20.299877 24.742565 52.83857
17.946384 24.028309 52.98341
14.159193 13.191792 53.033279
18.793606 5.0748277 53.111404
21.679138 9.9818697 53.180969
23.758101 24.391354 53.18071
14.363832 12.258022 53.256882
22.010717 24.576008 53.220798
19.279209 5.3852711 53.404434
19.825932 5.9367142 53.676682
21.927502 12.535787 53.605068
14.432032 15.599311 53.649769
14.418708 17.383551 53.619923
16.534649 6.6583614 53.722137
15.429803 9.982192 53.764069
14.454718 17.771065 53.740635
18.792324 23.739084 53.870045
21.232224 24.430805 53.801445
14.558112 15.42366 53.908379
14.528056 17.774345 53.902374
21.64513 17.962069 53.937027
14.789563 12.019761 54.078732
14.697054 12.806154 54.018528
16.721134 23.195786 54.083195
21.361643 16.224047 54.121433
20.915138 19.583759 54.280602
16.042742 23.054945 54.223156
22.187191 23.282768 54.233074
19.323977 23.865025 54.287903
15.116202 10.912182 54.346241
21.16275 11.422015 54.377968
14.778837 13.602088 54.312035
14.960586 11.980838 54.418026
21.415956 17.306801 54.446751
20.963285 21.573196 54.524136
17.694229 7.3684235 54.699959
15.06265 16.429607 54.648514
15.907021 8.5191517 54.710796
20.840345 11.86718 54.786701
20.92993 12.056644 54.77739
21.183552 17.514294 54.712177
18.738234 23.246773 54.726246
19.557169 23.606789 54.70348
15.79407 19.447199 54.888672
15.787378 19.751511 54.891396
19.052187 7.8589191 54.998528
15.328101 14.216805 54.909184
15.496 13.666221 55.047413
20.919586 16.403873 55.047729
16.185688 19.007748 55.009705
16.000425 20.223906 55.014843
15.598391 12.010106 55.134773
16.41909 21.457207 55.181633
15.733185 10.196768 55.243576
21.03688 15.439659 55.231728
20.447563 21.067348 55.260612
19.190626 22.889725 55.28743
17.987907 8.4473934 55.334755
17.274055 8.9562845 55.399185
16.223057 11.839045 55.368134
16.256207 13.294975 55.339485
16.786846 20.890385 55.398285
20.407085 21.192429 55.338699
20.41321 21.26693 55.337418
16.563259 9.652791 55.435345
16.449305 10.268301 55.453751
20.923634 15.634073 55.411568
15.684749 17.464893 55.479839
17.453318 22.126312 55.48019
20.485256 9.9567747 55.504475
17.362291 13.298214 55.531261
15.510293 13.870726 55.505901
15.358786 14.100116 55.531937
20.512257 17.915272 55.517128
20.225584 20.471344 55.56942
17.477076 21.860725 55.574192
17.922535 9.0842943 55.643639
16.974312 13.635325 55.681816
18.650871 9.5924606 55.716007
18.794018 10.202429 55.707115
18.388578 13.049511 55.783604
16.171869 13.486291 55.729069
20.229307 13.784104 55.773777
14.79319 15.722239 55.795383
17.772591 21.062298 55.787186
17.786608 21.16514 55.781326
18.489697 12.925652 55.854813
14.838279 15.566134 55.880066
18.484472 20.986866 55.898235
19.159874 21.928493 55.852974
19.540331 22.004963 55.878174
19.993315 13.136665 56.068501
19.356419 13.576053 56.033577
15.159866 14.292454 56.008617
15.870738 17.672138 56.07613
19.560883 18.102379 56.090652
19.917421 13.848242 56.193031
19.836065 17.762497 56.192657
19.47435 17.385616 56.259315
17.077953 13.751812 56.314568
15.090805 14.034193 56.705807
14.973464 16.049053 56.730061
18.385204 17.098888 57.060188
17.504162 17.302711 57.067139
12.496299 16.119677 57.122704
13.256116 16.920261 57.118378
13.152246 14.767897 57.204964
14.215145 16.423084 57.259251
16.163059 13.996937 57.455818
14.939312 17.139071 57.672363
19.328072 16.805912 57.797787
13.348749 14.745293 57.961143
15.679924 14.131351 58.146996
15.387923 17.280584 58.136257
15.159351 14.225351 58.273724
15.6565 17.224987 58.245613
14.443205 18.006447 58.314289
13.508705 17.502344 58.555008
14.38357 13.744617 58.608295
13.968655 14.104519 58.625183
14.444677 13.648968 58.769623
16.150526 14.173591 58.782387
17.225689 17.046314 58.739975
17.344179 16.994083 58.893898
15.534356 17.976366 58.804935
16.489044 14.167484 58.927731
12.338135 16.016632 58.946175
16.022867 13.906296 59.068386
17.726831 14.171322 59.025299
17.227922 17.312332 59.176086
15.76618 18.322683 59.266029
15.355444 13.404095 59.537373
17.43198 17.669558 59.557442
13.801929 17.944443 59.545925
14.058209 13.268883 59.657322
17.503092 13.954409 59.633293
17.745386 17.52865 59.60532
18.043673 17.507071 59.738663
16.035715 13.281248 59.955097
13.99203 18.182138 59.928101
12.946028 17.079706 60.043476
15.456844 18.894751 60.038803
12.692202 15.078082 60.114883
13.246334 17.617876 60.167755
14.683396 18.838026 60.1436
15.243242 18.914429 60.18232
14.246206 13.18144 60.270134
13.956308 13.194647 60.303452
18.485947 17.962059 60.379398
16.844059 13.064989 60.415661
18.894123 16.998791 60.430183
16.714106 12.988016 60.508102
18.936239 17.281324 60.572048
16.09428 19.190258 60.758812
14.423976 13.090672 60.845684
19.086721 16.859402 60.850224
19.167385 15.749582 60.924782
12.85861 17.095276 60.965694
16.199114 12.51562 61.13649
16.796041 19.367989 61.100517
19.055408 14.64321 61.279156
17.129383 19.301298 61.217957
18.628956 13.220797 61.396111
12.88129 17.202759 61.389099
17.978888 18.999609 61.34745
14.193473 12.869234 61.450165
19.356714 15.306078 61.412315
18.908144 13.785176 61.541771
12.865843 14.135258 61.7048
15.947838 12.220836 62.029285
12.845626 17.995485 62.099987
17.59277 19.324594 62.264038
12.850268 18.077261 62.397064
18.293486 12.530764 62.599453
19.126385 12.927186 62.541985
17.670818 12.398455 62.642136
14.98419 12.518911 62.672836
17.616116 12.401364 62.739792
19.176613 13.096698 62.761101
19.482027 18.558571 62.794331
12.586635 17.386375 62.875755
18.793268 12.718285 63.090637
12.852569 18.246889 63.110916
17.424099 19.205223 63.163864
16.608395 12.35862 63.276051
18.685934 12.714864 63.223251
12.488635 15.072408 63.24416
19.744812 17.969551 63.241066
13.569609 18.988033 63.252251
13.078435 13.446909 63.358612
19.656521 18.489882 63.488724
19.474998 13.987002 63.797394
12.441602 16.922392 63.84967
19.719303 16.96904 64.437164
12.639597 17.805685 64.403
14.676212 12.837607 64.580307
18.805975 12.944051 64.531021
17.65037 12.906485 64.80722
16.313166 12.80774 64.900444
17.09474 18.915737 65.034744
13.744203 19.233614 65.018433
13.164009 13.416388 65.300385
12.558777 14.172924 65.467255
17.442783 13.473474 65.549149
18.890968 13.866261 65.519478
18.138222 13.567093 65.64621
12.361753 14.542439 65.643288
12.442411 17.703516 65.605522
15.794777 18.715267 65.699608
17.611038 13.65687 65.781036
12.924895 13.840689 65.724297
13.027973 18.873993 65.710594
14.176554 13.72716 65.821404
15.27738 18.643702 65.863304
15.435225 13.629426 65.975998
