# .PCD v0.7 - Point Cloud Data file format
VERSION 0.7
FIELDS x y z
SIZE 4 4 4
TYPE F F F
COUNT 1 1 1
WIDTH 1557
HEIGHT 1
VIEWPOINT 0 0 0 1 0 0 0
POINTS 1557
DATA ascii
-13.627298 16.816824 49.575996
-21.218159 38.750267 49.680779
-14.673691 23.256351 50.025795
-21.532883 29.405706 50.819729
-14.503704 44.210258 51.108109
-9.7400227 16.840698 51.305653
-4.154294 14.103122 51.478287
-1.0121684 36.269272 51.494705
-15.650534 -3.871825 51.607475
-21.625286 37.767349 51.610279
-11.875458 22.815989 51.860943
-0.82701349 5.0005393 51.939491
-12.686714 44.4734 51.965244
-22.174896 31.13553 52.494995
-11.856272 -4.7193098 52.870296
-19.999359 -0.66274673 52.810547
-8.0115538 43.932461 53.143074
-0.80409259 7.1560135 53.389336
-6.6673155 15.842901 53.997467
-19.150419 14.036668 54.172306
-13.860785 16.898983 54.615444
-8.8695478 22.99094 54.775002
-4.0774832 14.248677 54.856815
-7.8666897 -20.114006 54.990788
-2.041045 0.50100702 55.039864
-5.9204092 43.281876 55.185143
-7.462306 16.537399 55.697231
-19.237585 -2.0833576 55.863159
-22.612755 3.6078572 56.158089
-9.107749 -14.008413 56.326637
-21.426729 39.440407 56.340446
-20.141369 41.103951 56.306618
-1.8893685 27.673523 56.669395
-8.6553726 51.629417 56.677204
-21.722546 0.89060819 56.722778
-12.836549 22.366495 56.818527
-0.071763515 5.7038355 57.230667
-17.400997 43.723045 57.260178
-4.9293671 43.093361 57.362213
-22.044245 11.050657 57.433815
-2.5802591 13.427118 57.653389
-23.246456 34.089958 57.816387
-6.6994371 53.320717 57.969254
0.012242764 31.673409 58.609268
-6.7348995 -12.365351 58.881439
-22.45994 10.818619 58.850483
-21.069897 13.226517 58.834465
-7.0660954 -12.133619 59.157574
-6.7640586 54.213181 59.36108
0.30466393 32.483772 59.492805
-9.4229317 59.58012 59.439888
-2.7970161 25.489128 59.594753
-23.540581 32.408028 59.777973
-12.649267 45.742218 60.090664
-6.5537429 44.695335 60.136768
-14.668076 -5.6784844 60.402115
-0.49518147 1.1512992 60.536152
-8.4726887 50.584347 60.533466
-5.1207905 44.112209 60.681442
-16.838621 17.212793 60.738449
-9.8167048 -22.780556 60.839321
-16.050644 45.093517 60.833954
-9.8872738 -19.757374 61.034641
-23.905895 33.014706 61.135967
-0.82223773 39.890755 61.250488
-21.461346 -1.2790909 61.443878
-12.608903 18.546476 61.66872
-1.0781529 -0.59808618 61.915417
-15.984831 45.426544 62.189339
-9.8097572 61.976936 62.938179
-24.137522 11.313559 63.00045
-8.3155613 50.391922 63.14584
-7.6576366 20.899708 63.342606
-9.487854 -22.988132 63.466541
-6.4396834 45.136658 63.684193
0.47433054 11.942531 63.845993
-11.388404 -17.087767 63.98349
-11.354055 -12.503016 63.930256
-24.367361 14.58349 64.112373
-3.5195708 17.320807 64.127686
-19.580912 18.849373 64.11599
0.49767062 38.33609 64.368935
-2.0225792 16.423859 64.413353
-11.971445 54.764244 64.490685
-4.0428843 18.340725 64.838318
-17.637589 19.207024 64.869972
1.7555928 4.9250422 65.082703
-19.942036 19.737274 65.149246
-28.232382 9.8584185 65.221008
-3.6549325 21.28668 65.451622
-19.801458 -5.4047132 65.61779
-4.3749084 -4.1381946 65.748665
-10.397989 22.013271 65.881065
-18.677891 21.700684 65.960541
-8.3256397 -19.411861 66.016121
-8.4050932 52.071983 66.222282
-13.44869 54.530014 66.29641
-12.42482 63.553146 66.416214
-28.03574 23.935493 66.507973
2.1112025 35.30632 66.507858
-1.2696729 41.378571 66.558289
-12.725885 -11.43475 66.792953
0.28800595 15.948606 66.74559
-8.6936455 17.450777 66.825432
-6.581027 62.504105 66.880157
1.1491008 25.189114 66.993034
-13.554863 -22.702446 67.260719
-8.8692932 -13.409232 67.262299
-13.219418 50.518394 67.269981
-20.524748 59.904888 67.23645
-11.307574 64.864296 67.251091
-4.8596377 -16.358122 67.396622
-6.820385 22.239542 67.394516
-3.7233443 -18.049019 67.418327
-27.509811 19.518295 67.790237
-25.012066 43.69397 67.734329
-15.597809 -11.521531 67.849861
2.948977 29.907658 67.850845
-21.125771 59.886372 67.803146
-21.592751 -18.971674 67.993233
-12.472859 61.749641 67.908699
-31.24255 37.809303 68.167572
-6.8474646 57.219658 68.143089
2.1630139 3.5809569 68.215912
-17.441063 54.512199 68.294289
-20.738283 -21.778124 68.382576
-23.434509 23.303383 68.498863
-30.920233 0.64227551 68.529587
-18.532463 14.927334 68.69574
-31.896816 15.816908 68.601181
-31.343727 16.947674 68.615196
-9.6156139 -17.821651 68.712173
-2.2398381 56.020378 68.795135
-18.258804 63.681679 68.723228
-7.7366247 -14.703876 68.802254
-2.1364241 -2.4892621 68.824814
-15.633892 14.425786 68.873177
-31.805107 22.775787 68.915909
-16.516994 46.892803 68.935646
-14.488978 56.582932 69.015701
-10.637097 14.695113 69.114037
-9.8405743 55.475945 69.123596
-10.298178 61.551807 69.197006
-13.957978 -22.247906 69.244278
-10.90398 -11.72673 69.259964
2.1652408 36.667965 69.243546
-7.0404601 15.634268 69.49221
-19.711208 -6.7936869 69.586571
-0.64435756 19.888987 69.544472
-18.075186 63.706875 69.541451
3.7369835 9.0565319 69.670151
1.2767457 22.153269 69.678192
-30.779989 19.397781 69.818268
-16.23064 26.517687 69.928848
-18.306881 46.864326 69.919205
-20.690842 51.428795 69.901184
-2.4579642 -19.269409 70.034294
1.4736893 17.811325 70.075813
-20.468721 26.205599 70.068138
-13.132656 52.667561 70.19046
-10.545273 64.92308 70.154114
-7.5639038 45.480133 70.252617
-2.3227921 57.164917 70.243126
-16.572407 51.189774 70.433701
-11.04576 -21.198637 70.552902
-7.9307327 -9.1000805 70.7798
-27.3055 -4.575985 70.753448
-29.928148 16.853806 70.725128
-21.783909 26.782137 70.753258
-18.03244 52.330173 70.761879
-8.0768595 12.939888 70.884354
-13.690329 14.979862 70.8153
-5.6843357 19.175732 70.826439
-35.508392 23.460466 70.808136
-19.195246 23.696716 70.883759
-14.550299 27.210457 70.852188
-11.455499 -25.496914 70.92382
-21.261784 -13.577018 70.992371
-26.416723 14.35207 70.993187
-3.6528654 16.056473 70.928703
-9.1035776 28.695814 70.915085
1.1797417 38.914146 70.946869
-1.8464172 16.031895 71.032455
-14.135759 31.327271 71.069138
-14.622208 54.202644 71.038795
-4.6646347 9.5156212 71.199928
-22.705122 15.826649 71.105835
-10.959218 32.069157 71.109467
-19.601259 46.93327 71.119881
-6.9252653 7.3745584 71.293266
3.7302656 33.907219 71.296829
-11.60275 47.708725 71.264931
-22.139709 10.52339 71.332153
-25.783981 16.89813 71.350739
-11.257671 34.582294 71.347244
-18.70113 6.6658783 71.451912
-26.761658 19.864706 71.412323
-37.898045 28.973394 71.408356
-22.21283 31.097868 71.419838
-16.527603 60.305122 71.481094
-11.914294 -12.508793 71.507484
-22.2878 7.999845 71.572449
-23.13055 8.4718857 71.590706
4.3792386 22.103321 71.593773
-20.793753 46.886665 71.587479
-17.039776 59.888191 71.561203
-6.0355344 36.18409 71.679581
-3.7415228 35.721657 71.741043
-28.54748 44.366455 71.764465
-21.133551 11.743783 71.890358
-4.9046841 37.228966 71.893074
-13.51823 38.027206 71.817627
-10.600657 -23.700104 71.903702
-6.6302953 -22.211615 71.965858
-14.518394 -17.272127 71.972023
3.9682264 6.2303324 71.962372
-6.5033903 -16.174709 72.060028
-6.8944702 1.7325569 72.001686
-30.935905 20.824768 72.011353
-33.230244 41.383793 72.058533
-19.827955 55.59074 72.00843
5.377748 9.7037735 72.177231
-29.692513 11.772574 72.129021
-4.8494821 25.502583 72.196671
-8.5326643 52.957466 72.139427
-20.704498 -17.238724 72.22934
3.5332067 4.9489541 72.262787
7.0424833 12.930586 72.207466
-32.299843 23.946609 72.234558
-22.524351 1.8077224 72.390717
-12.720914 28.502169 72.32843
-13.800547 28.671265 72.384109
-30.96382 43.263142 72.324982
-20.850384 47.020065 72.396065
-18.977379 51.82589 72.354111
-15.352804 52.29837 72.383057
-27.762627 5.6373177 72.466827
-20.200045 40.086544 72.462463
-19.215034 -13.260368 72.564682
-31.313673 9.4718533 72.579468
9.6556368 14.302176 72.565315
-18.042957 -12.041671 72.673019
-16.224144 -1.7504883 72.628731
-23.00943 0.43989459 72.673515
2.9047086 3.6017404 72.647209
-18.868412 10.671791 72.656769
-8.7041979 42.426247 72.628281
-17.60429 -12.607626 72.757133
-4.7321372 58.466015 72.777313
7.9291368 7.2227764 72.887314
-32.825893 10.262083 72.818207
-34.013748 23.566864 72.821014
-25.488272 39.15369 72.835503
-14.371652 -16.837879 72.999496
-16.249447 -3.1048505 72.923035
2.2800574 1.1745883 72.914505
-38.939964 22.791119 72.937553
-27.195549 38.427338 72.936752
-10.961013 43.989243 72.902687
-7.4766912 45.384312 72.90593
-20.951271 -7.2527652 73.016006
-7.6771822 -3.8923364 73.083786
-36.297516 0.42065436 73.095505
6.2510405 3.4853113 73.093689
-2.5352778 42.833214 73.069122
8.6091137 6.0169888 73.172905
3.5984378 39.720493 73.164665
5.6124711 38.387573 73.20652
-12.77836 57.359058 73.22541
-12.933278 -14.232361 73.344971
-4.4454184 -10.654574 73.381233
-16.97591 -7.5448666 73.330536
-29.496954 -5.729579 73.353653
6.0063248 -5.2656994 73.385361
-0.39455694 -2.8364782 73.38195
11.209219 -1.1710622 73.357483
15.175611 4.2484536 73.377716
-10.991665 10.82802 73.302635
19.090466 13.868977 73.361252
18.963812 14.738684 73.367706
19.749569 19.616495 73.348808
-41.726944 28.94924 73.397034
-34.690025 31.867874 73.360649
-37.334698 38.883301 73.382736
-36.114414 39.985996 73.353882
-28.423471 39.901386 73.388748
-6.6810837 45.256393 73.32476
-20.80607 50.264656 73.371475
-20.356501 -9.1098213 73.47464
-34.04557 -2.7934861 73.412025
7.4273214 2.6786666 73.444626
-42.129578 17.590519 73.471382
-42.77174 19.215843 73.415016
-37.93829 21.986013 73.49678
17.042088 35.191795 73.481567
-36.149078 41.164131 73.4422
4.2556791 48.746246 73.496552
-22.146008 49.153339 73.439713
-8.6678028 50.734303 73.444458
-24.849756 -9.8867016 73.549698
-19.362427 -5.3105907 73.58638
-36.608543 11.547823 73.523659
18.197685 17.288593 73.512741
-44.219078 26.372822 73.596077
-40.99057 26.384235 73.596718
3.6562381 41.576714 73.538948
-26.809357 46.327431 73.559952
-4.0478563 49.382309 73.542366
-29.387932 -7.8054638 73.604271
-0.87111676 -7.3681121 73.621185
4.8373923 8.5299168 73.667686
13.555614 11.848183 73.615532
-40.034756 37.80307 73.655701
-30.034761 43.544418 73.665405
-29.705837 43.816669 73.658813
1.68959 46.674023 73.672668
-0.9807303 47.954582 73.605324
4.9270601 13.927226 73.783257
-36.966652 39.595596 73.781876
-19.144793 46.479225 73.754433
-12.177125 46.916363 73.79644
-0.41716957 47.340515 73.752235
-28.502001 49.359776 73.737251
-22.502911 -4.6301494 73.802505
-0.63003719 24.019609 73.867416
21.515953 24.286263 73.844635
-40.463326 25.975824 73.837357
6.933939 -1.951152 73.906403
-39.012569 19.366531 73.966187
-4.3032255 -13.084172 74.044838
-2.0780797 -12.673686 74.089806
-37.595745 -2.0333757 74.050308
15.035463 25.264343 74.005035
16.099459 27.612856 74.073624
13.654726 33.589676 74.073235
12.68819 44.206905 74.035248
6.5379367 49.176201 74.078011
-11.312773 -24.210739 74.172104
-6.8873615 -7.834168 74.133453
-1.8828094 -6.4412451 74.15921
-41.679283 8.9934816 74.106247
-8.8610039 50.901394 74.158691
-7.7481737 -12.095558 74.231949
-27.608002 43.904922 74.200768
8.7939053 47.844772 74.288521
-8.0003071 51.318798 74.312927
-33.561176 -6.6171436 74.402077
5.8086033 -1.063344 74.467133
-36.255692 7.2656846 74.406815
-4.4230261 47.542187 74.481895
-40.737656 0.97500211 74.503639
-19.676277 -15.41284 74.642349
18.563238 2.4347026 74.677689
-19.637032 54.38913 74.636032
12.622384 6.5022125 74.706055
-46.222103 13.987627 74.701424
-46.486809 24.603382 74.711693
-0.79788691 45.821911 74.727463
-11.289072 55.510151 74.753883
-26.803524 -11.555398 74.83625
9.2588511 -7.8499784 74.817772
-38.773506 -2.2918229 74.8368
-31.633558 -9.0503674 74.987938
15.292955 15.782539 74.946365
1.3074423 45.146694 74.953201
16.610516 19.839359 75.197533
1.6497165 -3.5925531 75.231735
-24.175335 44.513836 75.249512
-32.195541 49.355373 75.203018
-27.538218 52.176647 75.215874
-45.353016 8.2114334 75.337791
13.143273 30.845196 75.33873
12.78993 31.743282 75.316086
4.0373516 -11.845201 75.459366
-34.270752 -7.5148811 75.465744
-39.535961 -2.2414067 75.454773
-21.882986 45.290646 75.459244
-37.660236 8.2254477 75.561653
22.242344 8.6651888 75.677032
-46.958004 12.794531 75.633804
15.168073 19.155785 75.627609
13.0779 30.308466 75.68811
-17.888065 55.614166 75.655403
-33.541023 38.915298 75.705994
-43.057941 38.698833 75.892731
-47.637733 16.312311 75.916084
-34.81279 33.980404 75.949265
-6.1322122 61.458244 75.949516
-17.137072 -15.532848 76.072205
-2.965116 -4.7956896 76.092041
-47.943096 22.379381 76.003784
13.874243 46.12706 76.042831
-9.5864334 49.141212 76.092949
-16.471111 56.237064 76.224487
-20.138149 -7.8628016 76.386414
-41.012413 -1.3877691 76.386215
-36.261353 4.273582 76.353043
13.917706 26.966051 76.351479
-21.802586 55.4897 76.465401
-14.722294 56.544331 76.410484
-4.2829828 57.061352 76.494156
-0.84417677 -14.648197 76.564896
-3.9280519 48.717018 76.560699
11.73892 8.5258474 76.691826
-31.774689 37.222137 76.779137
11.451288 38.407581 76.787888
-42.598465 0.31437218 76.927025
-19.249611 -8.7439327 77.071312
-46.182892 7.5912776 77.027588
-35.267635 31.751282 77.010239
-8.0213957 56.704185 77.0616
13.62515 4.4661608 77.134979
-40.087456 10.827293 77.109283
-21.894562 55.775249 77.193611
-16.327255 -11.841328 77.242157
9.820632 -0.58222061 77.203133
-1.5770016 55.761929 77.262794
-4.4380097 55.834198 77.280342
-20.069145 -16.218784 77.362114
-19.772522 -15.77437 77.363953
-19.246113 -4.7644544 77.323746
16.945517 11.40755 77.333733
5.7805853 44.531872 77.369339
-6.6283135 49.786278 77.366089
-19.000772 53.547966 77.400566
10.664037 7.0358891 77.583519
10.444875 33.805817 77.500366
-4.2187891 57.174057 77.569244
-12.921387 64.21595 77.575821
13.247746 37.236092 77.671799
-31.457327 43.209324 77.652863
4.3556166 0.11336729 77.937378
13.896439 22.804428 77.972504
-27.972218 40.353111 77.960739
-37.139633 47.338402 78.098389
-35.84697 48.322533 78.051208
-19.350349 50.04052 78.067978
-15.29711 -24.284588 78.184563
-32.955845 5.5105228 78.228775
13.893728 17.909752 78.207314
12.359789 48.280258 78.217621
21.199829 3.3158052 78.366165
-25.809919 47.748894 78.37661
-42.211739 15.240952 78.432518
-4.9984922 -4.7836161 78.527466
-48.968781 21.159731 78.537498
-19.382553 54.070358 78.513901
-11.81986 -10.982839 78.727112
-24.882679 42.588322 78.78447
-27.358643 -13.371057 78.840599
-28.886276 -12.74136 78.862282
3.8869281 47.440918 78.809563
-19.668617 54.657272 78.808258
-38.482372 46.292709 78.925323
8.2857647 -11.044811 79.059052
1.9172719 -1.573509 79.056534
-46.901443 32.274174 79.002014
0.18484108 49.166531 79.02993
-10.727594 -24.807795 79.143173
7.6412086 3.4048362 79.233353
-16.507704 51.296043 79.288811
-4.6916814 -20.434504 79.31514
-49.019299 21.11668 79.318886
-11.453843 51.886356 79.346016
-8.067193 -16.591612 79.416252
-36.775745 27.080158 79.454613
-31.628483 36.599117 79.407661
-16.87241 -5.0187778 79.589066
-6.356462 -4.9651279 79.530624
24.191717 10.432177 79.518143
-36.390308 28.030727 79.51339
-3.894376 -16.005463 79.695847
-19.951809 -15.972214 79.68026
-9.2872925 -11.16539 79.62513
-9.5401344 -5.3936672 79.602058
-3.926898 44.829964 79.600723
11.392825 49.077438 79.643829
-4.9804444 60.677666 79.62471
8.3375473 36.289497 79.70813
1.3803524 54.806683 79.771439
-5.1879339 45.348557 79.813797
-8.7868938 -24.35952 79.910583
-46.356308 7.203826 80.057312
13.760662 16.805708 80.083221
-17.907232 56.679787 80.148155
-5.0836134 54.16629 80.221878
-11.083007 -16.870794 80.311493
-4.4142418 -10.693569 80.362244
-42.951012 14.593477 80.32856
24.912838 24.09951 80.350365
-22.924355 43.577175 80.330017
5.2783875 47.029079 80.334984
-18.595808 -22.516666 80.478119
-30.4478 38.360756 80.447693
8.5913363 44.518864 80.445679
-24.196045 55.02393 80.468399
24.273382 28.756472 80.550385
20.062021 39.238083 80.662704
2.6556792 41.798557 80.690666
-15.968441 -11.740764 80.703201
18.630911 41.026306 80.776604
8.4538708 3.925873 80.954208
-0.96361852 50.163528 80.965523
-26.511192 -8.0643778 81.026054
-13.473155 50.509781 81.041496
-37.756493 22.716488 81.124756
13.870197 25.14378 81.151886
15.145741 37.422333 81.155663
7.0808764 -5.4041762 81.232117
-41.918167 9.7598915 81.276199
-38.01255 19.264492 81.272217
11.739067 41.914711 81.296089
8.1422167 51.009109 81.374023
-21.849991 44.491085 81.560104
-6.9383707 51.795311 81.532127
-18.595749 52.844437 81.595558
-23.923977 54.698978 81.533768
-3.9964051 -17.498867 81.696274
-29.944324 -6.0788922 81.671402
10.411594 -2.978384 81.683609
-17.713854 -5.5186701 81.74398
-38.29142 -4.9949331 81.720428
12.717941 -0.34309745 81.84021
-47.45652 12.863834 81.884735
12.068898 -1.2181513 81.918083
-17.980122 46.050404 81.905312
-43.936485 21.500963 82.089157
19.785683 25.753569 82.032829
-20.247387 45.42944 82.083778
-20.617807 57.091396 82.080162
0.65059435 -11.758518 82.18927
-23.470381 -3.651113 82.152573
-42.326447 4.676044 82.176994
-38.321514 21.886396 82.109337
5.7329988 47.208828 82.171471
6.0716023 49.850189 82.151024
-33.959934 -6.0602999 82.261711
-45.423248 33.351242 82.239563
-42.751827 34.679913 82.285118
-9.6469269 -13.960866 82.342972
-12.01233 -10.586836 82.304466
15.28607 -3.6118572 82.346481
-8.2331228 -15.545681 82.415718
-4.882998 -14.383192 82.432121
-35.609615 32.69701 82.439941
-30.395336 46.457905 82.453468
-35.017651 47.739433 82.421021
-7.5568886 51.372292 82.464073
-13.511351 -11.935053 82.521629
17.681704 7.439805 82.500092
-46.185295 30.925072 82.534531
-35.537842 42.080513 82.505371
-38.077202 1.6850924 82.621986
-22.977154 44.748055 82.629364
-2.6747139 53.425827 82.667709
8.3829927 -9.2935553 82.724869
11.351043 -5.4161878 82.724754
-44.99382 7.0433278 82.70797
15.114009 17.836445 82.725426
-28.553516 49.847427 82.715942
-11.109037 56.180779 82.73307
-12.575017 64.604584 82.74659
-6.8309851 -23.293846 82.878128
-36.274601 -0.73384595 82.807938
23.367933 14.1987 82.819969
-36.176071 41.404099 82.91951
-27.009361 52.441494 82.925659
19.87487 13.714111 83.010078
-45.252506 17.543747 83.043343
19.234089 29.670034 83.09938
24.367222 16.721418 83.158699
23.7183 25.069557 83.13839
-42.460705 30.548618 83.150421
20.314463 34.581085 83.158623
-41.693127 37.235832 83.152512
18.99855 37.717571 83.128006
-28.612654 48.02993 83.162643
23.741405 19.396793 83.200134
-26.3302 43.64212 83.23288
-11.110682 50.030842 83.27552
-6.5460491 -12.287086 83.322174
-29.332436 -7.0200591 83.310081
-38.949135 24.747681 83.313782
-6.8231139 51.655476 83.334747
-12.555855 48.015415 83.401329
0.44892779 -9.7232962 83.574623
-39.686974 -0.63105607 83.581894
15.583334 25.592409 83.561935
22.812712 27.070362 83.591354
-39.125469 40.78199 83.593361
-28.545792 49.853352 83.526855
-20.754055 51.579777 83.578064
-11.127963 52.82045 83.588348
15.941989 -0.68690264 83.658142
-40.528793 5.0079503 83.61853
9.9594517 44.393555 83.657944
9.8511105 47.445335 83.655746
-32.004078 -6.816761 83.758385
-45.276989 17.939859 83.763245
0.39602965 52.246883 83.765862
-17.855579 -23.15168 83.836517
-23.997318 -9.8038626 83.851059
-43.55854 6.9140635 83.883636
20.567829 33.96941 83.84021
-36.404678 44.327839 83.895515
-23.946415 52.521744 83.873581
-33.645378 -6.3524055 83.9179
-36.603863 6.2243462 83.916298
16.221907 16.213242 83.920036
-9.8453989 48.591015 83.961876
9.7249298 -7.408205 84.026566
9.4602442 -4.3789158 84.013359
-42.480007 9.4880705 84.004967
-43.833038 9.8562021 84.008812
-46.161247 21.000149 84.089554
4.1977735 -10.289233 84.106972
-30.511345 -8.7064619 84.109192
14.439657 -2.3059866 84.18454
16.933258 0.94376469 84.187431
19.706615 4.334362 84.167458
-29.060873 -9.0944118 84.248802
-12.610295 -8.8723345 84.277847
20.686258 10.160386 84.219818
-45.540752 22.526417 84.263329
-38.220894 31.946236 84.242531
10.236267 45.842834 84.28334
-4.9804344 -21.433416 84.397865
-13.294314 -13.415888 84.340973
-13.762378 -13.236368 84.389801
-7.344429 -11.953074 84.365906
-32.652245 -6.3194056 84.309395
-36.115765 -3.2716422 84.322403
23.7183 16.403423 84.322937
21.749029 23.042845 84.361992
16.879831 25.869123 84.351624
21.014597 28.652576 84.322029
-28.894464 43.733322 84.304306
-15.631796 53.975079 84.350586
-3.7105777 56.827354 84.307785
-24.59498 -10.583271 84.419289
-27.872257 -4.3722405 84.421814
-45.359478 18.356256 84.424606
-28.236893 44.724075 84.465446
-5.4726458 -12.354361 84.518303
2.2464752 -9.7788448 84.533218
-3.7930183 -8.4605865 84.530457
15.821268 9.4921408 84.547318
-44.938206 15.156468 84.562408
-15.298483 -12.148237 84.685715
11.726471 1.2401979 84.699242
-38.684868 1.6471437 84.674622
12.183218 2.0005586 84.685883
-36.786049 3.2444243 84.693306
-39.600719 9.4969606 84.624298
-40.796127 11.563278 84.685272
11.797403 39.031593 84.688263
-3.6014166 51.950703 84.696465
-6.495141 -13.54591 84.732544
0.090226531 -9.5237913 84.755554
-42.101131 18.243814 84.710693
-43.936245 19.215487 84.761665
-15.474691 -10.659189 84.818436
-19.310068 -10.225131 84.827774
19.873941 21.026039 84.829948
11.399241 41.201721 84.821785
-34.51067 -4.8933907 84.921318
-35.693253 -3.9020691 84.987091
20.785728 6.9395504 84.989059
-44.597427 27.81485 84.971809
18.307545 32.624756 84.949059
-21.804356 -12.946304 85.065819
-45.354103 19.078899 85.096069
17.113869 39.203751 85.130676
-6.2231531 62.405235 85.162537
-2.5229576 -13.618536 85.245903
-13.951584 52.807259 85.294769
-9.5906563 -12.305192 85.340324
20.941372 33.067604 85.380249
-40.678234 37.788467 85.398071
-5.7169304 -22.233574 85.449295
-19.13295 -21.883366 85.407303
21.822102 16.29808 85.624916
-45.828903 17.39789 85.687271
9.9008112 47.656132 85.661545
-24.836042 50.109222 85.612404
-24.378712 50.302975 85.682045
4.7143388 48.660744 85.736305
-5.2634549 -21.719961 85.836464
4.5145264 48.776741 85.875908
6.2389622 49.721767 85.831558
-18.133068 -13.858435 85.981644
-44.52248 28.384094 85.929413
23.530643 21.616938 86.024879
-13.009302 54.320351 86.095665
4.9371867 50.36591 86.127983
-3.3568268 -13.728312 86.265472
14.710573 -2.9228625 86.338387
-26.035812 51.576466 86.351952
-24.568836 -9.7733288 86.472336
-44.36272 17.718552 86.418129
-32.762623 45.279415 86.411469
-3.8376746 59.018349 86.426025
-32.658936 46.697205 86.541473
-3.5163221 -16.892147 86.639084
18.867764 8.9583378 86.746292
-44.574127 10.10238 86.723633
-17.079992 52.476852 86.702423
-21.015879 53.016678 86.9841
-36.865284 41.223301 87.05674
18.527643 2.0516398 87.15696
0.54875565 52.822739 87.145332
8.1589785 -5.6253686 87.226486
17.662025 1.8935194 87.292603
-18.129999 -13.858839 87.346466
-10.398283 -9.5959845 87.3013
-36.335026 44.418613 87.365265
20.145422 5.393724 87.431625
-42.219444 35.965179 87.495018
3.9014957 50.794899 87.489548
20.893353 31.640526 87.52433
-44.507992 11.888792 87.606728
-45.500114 19.455788 87.619614
23.071608 20.580332 87.693092
-26.624233 49.4963 87.670105
19.240223 9.6997643 87.798798
18.252949 33.17601 87.747025
11.487188 46.438858 87.704277
-15.650283 -14.185288 87.870331
-13.858118 -13.825699 87.866028
-32.224598 -7.3918552 87.803368
-35.63739 -3.9748707 87.944191
-42.469139 6.5633998 87.95517
-45.054741 16.041595 87.90229
0.78504169 -11.702829 88.046974
-24.839769 -11.049864 88.082718
-34.801506 43.834923 88.070625
-8.210042 49.786892 88.018074
-12.368261 53.176872 88.079277
-38.900703 1.8244361 88.169525
-26.982374 51.184387 88.196716
-6.0795031 52.503864 88.121025
-45.295498 17.870308 88.213257
17.365248 39.846123 88.257187
-34.114323 45.580433 88.284042
-43.221668 8.3801985 88.388985
7.8175421 49.254688 88.324524
23.390203 22.68372 88.411774
-40.099205 39.512974 88.544724
3.0729563 -11.39427 88.658653
-45.763184 23.484207 88.690582
-12.203501 -14.524982 88.774696
-6.2141047 -13.68603 88.774696
-1.9132951 -13.239556 88.774696
-22.197838 -10.897245 88.756287
2.9437449 51.191605 88.734406
-19.535473 53.461128 88.728134
15.986096 37.878674 88.886673
-6.2400937 -22.627413 88.916031
-10.66717 -24.486788 89.023483
21.271824 18.529654 89.075897
-18.307632 62.316036 89.283585
-16.802105 -23.582493 89.341301
-42.548912 31.627047 89.307808
15.952869 37.928558 89.318642
-21.253195 55.889351 89.305656
-17.835533 -10.599195 89.51841
3.5449286 49.328129 89.666451
-3.7724977 53.739807 89.727646
-30.442028 -6.6732378 89.828506
-45.165588 16.25 89.816101
17.91095 34.015717 89.899361
-7.9637022 49.423038 89.92688
-8.8704023 48.986027 90.201965
-2.0345469 -11.061463 90.318184
18.939224 31.361885 90.493866
-4.3768649 52.289219 90.450172
-4.6311765 -11.720978 90.582458
13.510011 -0.34538746 90.791519
-9.3714714 -24.07762 90.992798
-33.509308 -4.1594229 90.981369
4.8114634 48.589195 90.972778
20.61492 23.563425 91.240532
-20.418583 59.985249 91.438858
-19.207294 52.077759 91.561798
-32.920067 45.012611 91.693207
-32.454937 -4.8573804 91.780647
21.746546 23.470879 91.761734
-43.395767 11.721766 92.099365
-21.478245 56.420593 92.18927
-43.918991 24.824787 92.210464
-43.338924 11.643805 92.305092
-7.0949187 62.794945 92.601425
-44.420986 18.989391 92.973808
-42.868217 29.799881 92.973839
-39.826874 36.844215 93.174889
13.633142 40.241096 93.241814
-44.384365 18.81571 93.303093
-40.681816 34.968258 93.355736
18.694584 31.03363 93.683411
-35.31332 -2.1098793 93.818665
-43.357773 27.557745 94.021347
-35.664043 42.107082 94.071091
-3.8161449 52.13427 94.046677
-45.044884 21.818165 94.138092
-8.4807148 52.311729 94.297455
-21.493088 55.540943 94.420425
-2.9026072 51.376518 94.513474
-13.915499 52.362106 94.664268
-13.869509 -11.836699 94.773979
-21.423428 -14.577662 94.851151
-10.973704 -11.984843 94.838226
10.128216 43.778996 95.036392
-10.781543 52.362133 95.177864
21.184282 16.624437 95.353683
-31.545397 -4.7814617 95.470383
-16.530109 62.34668 95.421494
-11.148775 -11.808239 95.534355
7.3379059 45.740223 95.5382
-1.8200619 -10.072753 95.668015
-15.39187 -11.356611 95.749046
-44.621731 20.073574 95.790024
-43.759258 20.992489 95.794067
-35.025238 42.232765 95.712769
-3.9094329 -11.47144 95.836594
-20.689026 -10.471915 95.809586
-44.581657 24.040668 95.929718
19.199081 27.953075 96.023758
10.528383 43.118996 96.021027
-44.526863 17.172932 96.120758
-2.3517084 -10.112531 96.254257
-10.420946 -6.5358858 96.294632
18.328588 10.51381 96.648018
-4.7130919 -19.372152 96.894951
-19.947121 50.938972 96.857529
-42.707783 26.567749 96.900902
-5.4654684 -8.8094845 97.07164
-42.667553 26.515268 97.065262
-4.8750825 51.043221 97.065216
19.354263 16.282661 97.197327
-21.306841 -16.02286 97.217796
-22.101673 -9.4375944 97.268982
-20.263088 58.53994 97.203606
-14.942343 -10.920905 97.474548
15.461777 36.20504 97.416641
-15.436469 62.032936 97.503479
-10.880719 62.430328 97.541046
-43.846626 24.25 97.646446
-7.0681953 -7.3039808 97.753326
-17.317175 -10.501364 97.847176
-2.0729947 49.994244 97.888115
-26.999153 47.678982 98.016441
-13.569963 51.43684 98.048965
-11.209679 -22.476524 98.106163
-3.2334867 -15.684175 98.16893
15.545153 35.292297 98.550468
-41.269432 10.43158 98.607101
14.671537 3.9432549 98.868454
6.8860683 44.896339 98.859833
-3.2737095 51.860023 98.886215
12.148518 0.7037226 98.972275
-20.168636 58.0527 98.923302
-5.2168174 48.178375 99.322388
-37.29171 3.0800672 99.576187
-40.134769 32.032463 99.543968
-3.5197268 -16.139494 99.752823
-8.3734713 50.642254 99.863647
-42.566002 20.605955 99.995438
-42.576149 22.273788 99.96843
-8.3541965 45.328831 99.967773
-41.122532 11.325822 100.03069
16.967606 30.557505 100.04062
-41.261646 28.710907 100.16164
-3.473371 -9.2033291 100.3589
18.056477 14.402561 100.46685
-13.978031 61.365616 100.48747
-41.832512 16.355175 100.62392
-2.4216909 49.157879 100.63139
-10.185857 61.273079 100.62472
-19.79443 -17.924427 100.86259
8.2314234 -2.4405978 100.90735
5.6195755 44.904938 100.99217
-21.297924 54.529812 101.18922
19.307058 21.143246 101.31588
-5.9456363 -9.1456394 101.67676
-35.247002 1.6482671 101.60048
-10.498903 50.245815 101.67481
-6.9565525 -5.0364995 101.71854
-41.611153 18.382427 101.94153
-30.886055 43.146271 101.99771
-12.230865 -3.0415556 102.01299
-3.5788887 49.385536 102.0524
-21.345676 53.892532 102.01926
-7.1743016 59.563591 102.08442
-6.7538505 -19.350378 102.10721
-3.0868287 -13.014481 102.24667
-3.0799835 51.637268 102.41621
-36.932304 4.3980885 102.52908
8.5634165 41.713642 103.02396
14.68139 32.891468 103.36983
2.4932418 46.038017 103.37701
-41.249012 19.654016 103.56781
-41.112278 19.198385 103.95161
-39.891266 28.431314 103.93376
-41.875031 19.203863 104.04131
-26.670414 45.441792 104.07179
-23.684216 46.758629 104.07841
-40.894009 21.314386 104.21404
-39.039589 10.378212 104.32999
16.87739 24.181728 104.38571
1.1165404 -5.6705551 104.52203
-23.282537 46.737785 104.56818
-6.3589225 48.630699 104.63396
-19.02956 -17.167419 104.76223
-12.393768 -8.7412529 104.70332
-39.007175 29.79961 104.76387
15.188774 10.422972 105.09215
-3.1649227 51.771118 105.0928
16.606827 16.572784 105.23931
-3.2702 -12.376629 105.40444
-20.933458 -13.39515 105.52316
-9.7984247 48.717819 105.66847
-5.3069482 -7.5993776 105.74667
3.0543427 44.684502 105.85128
-4.7150202 -7.4099755 106.06804
-17.585026 -17.483521 106.19261
16.447252 17.797276 106.16061
-12.40057 -8.1706333 106.3279
-21.41362 48.873772 106.31194
-11.23618 -4.021831 106.54511
-27.909233 -2.8912437 106.57433
-17.311857 -1.6110414 106.54477
-13.845546 0.15180469 106.64234
-3.5914645 52.656593 106.65398
-4.0239697 -5.1858244 106.82668
-15.34716 -7.5744009 106.92841
-11.727882 41.764519 106.96529
-21.329813 -7.6443477 107.07136
-37.54261 31.272499 107.043
6.1153483 41.832703 107.01161
-18.968941 -2.506228 107.29121
-7.9157038 -0.56245732 107.2776
-39.6017 23.108761 107.22754
-20.536589 -13.103691 107.47025
-7.9865727 -7.3741651 107.41297
-39.734997 21.523817 107.44515
-17.47793 47.539532 107.66817
-11.669565 -5.1223302 107.75594
-27.28661 -2.8653414 107.74492
15.422808 26.191784 107.79996
16.174896 23.845459 107.88946
-16.805943 40.104565 107.87419
13.873155 10.023183 108.19541
16.389206 16.25 108.22105
-6.5510864 -6.8728061 108.33879
7.693315 0.43593499 108.32331
-16.724438 46.547295 108.38442
-14.050753 1.9985262 108.46605
-12.262857 -5.3670435 108.57742
-18.39415 47.121399 108.55051
-15.915938 -5.2860126 108.71635
-19.1535 41.576683 108.76019
-9.0768967 56.918133 108.84674
-3.6039436 -1.4374818 109.05416
-19.602367 42.100403 109.01397
-20.201902 42.891666 109.09498
-20.150915 52.835365 109.23169
-20.601864 -3.386234 109.3932
14.569993 12.702152 109.33625
-10.880747 -16.965981 109.46568
-37.16584 30.103767 109.4109
-18.399261 39.829521 109.60706
-8.6044207 47.205223 109.64126
-4.4365368 -12.456107 109.77597
-12.17252 36.771465 109.8038
-6.2156076 0.96273518 109.96793
-21.227798 45.556988 110.09553
-15.976741 55.934196 110.08122
-8.19137 -6.4890051 110.13507
-3.2348864 49.14798 110.17204
-38.940357 22.281063 110.27512
-20.86441 -10.387986 110.38201
-17.870016 40.835541 110.40133
-21.040033 -9.8755894 110.50107
-33.964298 5.2137332 110.85365
-39.449692 20.613905 111.12498
-12.866016 41.617775 111.19531
-4.5090761 40.771919 111.27857
-31.057213 38.819866 111.33148
-11.119809 46.774437 111.44072
-16.091665 -14.878996 111.52271
-21.073988 -5.2829633 111.57061
-6.300807 47.208694 111.53044
-33.162922 35.892857 111.67638
-10.000489 -4.4091368 111.71178
-21.43651 -6.5819473 111.80617
-19.085608 -5.3319645 111.84399
-16.216146 4.5773745 111.83213
-9.2552929 41.858406 111.89251
-10.400146 46.704407 111.89966
-6.027914 -12.992261 111.94656
-13.98997 0.11162753 111.9481
-4.8782802 47.142616 111.90927
-27.381754 -1.0259304 112.0193
-11.19486 42.793945 112.2002
-3.1981058 47.292755 112.22289
-18.544943 -5.5763311 112.37283
-13.976225 7.0376177 112.32174
-14.611267 7.3266091 112.45647
-13.820811 33.745491 112.48041
-13.957659 42.778088 112.41775
-20.402443 50.407913 112.40085
-7.0043888 36.149986 112.5302
-4.9890189 0.74938512 112.61574
-6.2998734 -12.706117 112.7111
-7.5146203 -4.5571718 112.71597
-9.8664637 33.079033 112.74189
5.4016752 39.96912 112.85034
-17.850327 53.093605 112.84212
-37.761311 17.63423 112.9064
-38.862534 17.986198 112.94872
14.303324 21.530262 113.08168
-15.560252 32.746094 113.0791
-20.544537 0.66865379 113.16122
-4.1241045 40.665894 113.16466
-12.942678 -14.573426 113.2708
-5.872972 52.200325 113.26305
-8.4840488 -1.5114151 113.30344
-20.5033 0.99244714 113.35634
-16.664621 8.3671474 113.3008
-8.4140072 9.3861141 113.34793
-16.58806 9.1736155 113.444
-32.574387 35.702415 113.52255
-18.769075 4.8924441 113.76348
-10.225984 12.928273 113.71539
-16.410969 53.497673 113.70514
-20.104528 -9.4517965 113.97632
-7.2392654 -3.2006431 113.96567
-18.839783 41.027298 113.98341
-3.035984 43.564423 113.93102
-4.0319662 -8.4768562 114.01239
-3.1707392 -5.8453388 114.05268
2.8916497 -0.89366704 114.12392
13.543812 24.843548 114.11004
-20.426189 -8.264286 114.44851
13.165545 26.962523 114.41001
-33.407688 34.141308 114.46216
-22.166702 40.634274 114.47817
-17.205776 -4.7612438 114.7999
3.5009208 40.696068 114.71967
-1.5015694 43.624817 114.7084
-15.469307 -12.984514 114.82332
-21.236118 40.19426 114.8845
-37.458389 19.486948 114.92807
-8.9503174 53.086067 114.92039
-5.5395269 30.903957 115.02725
-35.737263 11.786016 115.25675
-4.460721 44.649456 115.31483
-3.6025314 -5.7026629 115.46469
0.15552619 -1.2509607 115.41245
-6.5012145 -4.5386109 115.57539
-35.241409 29.708101 115.51028
-24.87616 42.028595 115.64598
-22.941603 -5.7136507 116.16813
-18.116158 -3.3805332 116.24274
-23.729618 -0.87051666 116.41829
-3.4596391 37.054508 116.43837
-3.4528296 38.142513 116.40025
-12.351177 52.35696 116.60178
-21.384466 32.444176 116.75542
-4.3155704 41.065392 116.79162
-18.946703 44.223709 116.84409
-24.519308 42.332211 116.97468
-20.465424 -5.4993715 117.01756
-3.0256128 36.048676 117.0229
6.7628894 36.846664 117.06746
-3.2268453 -1.9943755 117.39559
-21.817593 31.060469 117.31287
11.028895 29.63538 117.56873
9.695507 7.7676001 117.66636
-18.920979 -7.4176579 117.79332
-32.792839 33.336807 117.7114
-27.784487 38.990131 117.79627
-22.918509 42.293491 117.73012
-29.745949 3.2688129 117.8682
-2.0254033 12.297377 117.82962
-20.672134 0.2627525 117.95435
-31.848455 34.462318 117.92918
-2.7112992 37.234154 117.90927
-13.058649 50.919418 117.94714
8.7019215 6.683774 118.10637
2.7116971 39.815483 118.6806
-0.021443933 -5.2389445 118.71455
11.238939 12.27405 118.75867
12.197275 16.206203 118.82267
-22.558979 46.225872 118.826
-13.272274 49.876545 118.97141
-1.7460822 -6.224925 119.03011
-13.623569 -9.3360233 119.12083
-36.207756 16.601152 119.11367
-20.540854 43.448849 119.2597
-10.179474 44.423546 119.28139
-17.851994 -3.920753 119.3242
-3.2532828 40.705002 119.42245
-24.324093 41.033783 119.47945
-20.26594 -3.47579 119.5222
-19.173944 -5.0783496 119.66872
8.556591 33.283592 119.63301
-2.0167615 37.030548 119.74255
-10.84531 -8.6144724 119.80943
12.435234 22.337551 119.83656
-21.20126 40.952965 119.84506
-0.98033547 40.435143 120.07407
-0.76430506 45.708542 120.045
0.15261558 -1.7677057 120.10227
-17.663158 46.606766 120.21994
12.012831 22.297768 120.3757
-0.90963405 45.70993 120.45573
-16.937153 -2.1923048 120.52776
-19.081808 43.02224 120.50417
-20.363319 0.066757478 120.64383
0.34332481 -3.3672922 120.82538
12.121952 19.253101 120.9461
-35.680779 19.834023 120.95951
-16.630993 43.48185 121.09409
-14.314797 43.761208 121.18501
-24.286745 31.072212 121.20076
-15.338083 -3.1508384 121.57666
-8.3077087 43.064354 121.50548
-3.8149593 -0.67484134 121.61668
-14.634971 47.035488 121.63589
-8.5923443 42.730957 121.70222
-9.0781984 -2.5582588 121.94278
-14.3675 42.231888 122.07317
-22.102695 -0.78395951 122.11896
-23.281235 4.8301411 122.10544
-35.173008 21.722099 122.1324
4.5127192 37.148373 122.30246
-12.890591 43.501801 122.349
-25.055611 29.524536 122.48264
-5.5284429 39.901463 122.52888
-14.350281 -5.6136522 122.61696
-6.6663189 -2.4764366 122.78294
-32.235981 31.560932 122.71466
11.12545 23.283195 123.10309
-21.867161 1.9931452 123.22163
-1.2862357 -4.7666597 123.35316
-24.761639 8.4712362 123.40547
-4.9363165 -6.6305952 123.54221
-6.5536542 43.136578 123.5251
-3.6318169 -0.54751164 123.69847
-5.0331054 -0.2023219 123.62035
-4.2096705 39.837093 123.70486
-9.8879375 45.70425 123.7879
-10.630346 -6.2566881 123.86972
1.1732451 1.3376268 123.91587
-1.1021003 5.0474663 123.99667
-33.855553 26.797764 123.92513
-1.6105385 -3.2180536 124.10992
-35.50116 22.718693 124.42841
-30.441261 33.314419 124.40742
-7.9429212 -2.1384027 124.57008
-11.479571 -6.6559763 124.75582
-2.9336989 -0.57252413 124.79677
-13.775925 46.018883 124.73802
-13.673676 46.025726 124.77822
-15.147001 -3.1028304 124.87363
-6.5298882 -6.7247982 124.91521
-12.354563 -0.35178256 124.91901
0.32773757 8.5154114 124.94583
11.759892 18.072392 124.9812
-14.198827 42.710571 124.93199
-33.541988 26.625587 125.07543
-23.740154 6.0551071 125.27048
-1.1645508 35.229736 125.24849
-6.380106 41.665264 125.27564
-2.6301315 43.26535 125.21426
0.58110183 9.1045532 125.40132
-6.8529792 45.876839 125.54152
10.088191 25.209345 125.69892
-12.683187 39.536098 125.60291
5.196691 5.701611 125.71512
9.3564539 27.409317 125.89169
-3.5898087 41.594307 125.83032
-6.9388723 -0.83381319 126.09753
-6.0386686 45.384869 126.05858
-15.594654 -0.59473115 126.13972
4.3900323 4.9635816 126.31047
10.112984 23.461416 126.33449
-23.887466 6.7973371 126.56632
-25.969275 3.4314277 126.79786
-8.1539211 -1.4088631 126.86076
-2.640687 40.212002 126.87138
-18.86245 41.835747 126.82397
-10.226288 45.542976 126.94405
-27.680462 5.2897863 127.39522
10.128814 17.742218 127.35963
10.124362 20.041122 127.30728
-14.177212 41.740021 127.61713
-11.45041 -6.0492959 127.87416
-15.804695 41.279667 127.95638
10.660467 22.185255 128.00995
-10.516429 -1.8988061 128.10973
-15.334776 -3.3252017 128.38501
-4.1126237 37.5075 128.39828
-6.4556565 41.010239 128.39401
5.3417487 32.579395 128.81192
11.644906 21.811325 129.04436
-1.4082769 34.025696 129.01808
-2.2484908 1.5686934 129.2184
-25.849716 4.6922917 129.23241
12.346149 17.037148 129.27115
-20.591593 36.724789 129.27255
1.9029984 4.4733348 129.32245
-29.358444 8.9427567 129.3746
-22.59309 34.439896 129.37602
8.9784126 16.25 129.8703
-11.572719 40.811554 130.09917
-4.0932317 4.6997671 130.1675
-4.5912075 36.565102 130.12672
-20.975161 35.537159 130.43384
-26.832645 6.7221565 130.53156
8.4002457 19.215006 130.56448
-25.578896 5.5184603 130.68787
7.2158351 13.926538 130.87242
6.899354 20.120167 130.8909
-3.5037849 35.157669 130.86609
12.896584 20.290649 131.07089
-4.832191 1.7861856 131.32924
6.9419899 13.91737 131.31508
7.5447345 16.379881 131.41284
6.6976404 28.161228 131.46445
11.616539 15.618107 131.57701
-19.164234 36.052662 131.6055
11.179193 14.613106 131.7019
-32.083126 23.581673 131.91605
5.83325 28.764332 132.03795
-16.996193 38.726448 132.28769
-15.505752 38.861038 132.46564
5.0366845 28.919674 132.53757
7.1055245 19.787556 132.66899
6.851738 22.132839 132.76268
2.5476918 22.624102 132.71959
-5.650599 37.977997 132.7619
2.1383522 21.321123 132.83174
9.7456894 29.533882 132.88882
-0.51245081 5.4599938 132.94464
-0.3379848 34.874249 132.98044
-29.854595 15.669251 133.07115
0.75374901 6.6540651 133.1944
-10.521399 1.8795294 133.25546
6.0685935 15.466645 133.32568
-6.5587015 37.852703 133.41745
-26.880562 10.490793 133.86011
5.0971975 25.965225 134.00471
-30.459938 19.460312 134.16487
-20.944506 5.2117262 134.33017
-24.683249 8.3308992 134.35152
1.6022863 8.9432173 134.32677
6.923707 32.168457 134.38507
-2.1431818 34.787842 134.44324
11.553398 23.648396 134.67151
11.473132 19.444771 134.78763
-29.890221 19.410233 134.81242
-2.7127781 21.12677 134.87866
1.6540231 30.847168 134.87347
4.9336534 18.283785 135.09641
10.967506 17.944931 135.19246
2.8795171 28.709728 135.15018
9.3955498 29.219963 135.32236
-28.206196 20.533596 135.59383
-1.5916201 7.6464143 135.78392
-26.992336 14.525229 135.75591
-26.78389 26.489439 135.75182
-13.450655 4.5487585 136.17908
-17.055141 5.2685103 136.11131
-22.82881 8.8461037 136.19391
10.226664 17.736309 136.14099
-1.2970573 8.500845 136.2496
-1.7335522 32.18364 136.36107
-14.265394 5.1433644 136.6304
-0.17913251 33.483791 136.64949
-15.694612 5.4647484 136.75378
7.3974018 11.452801 136.73712
1.473106 27.239189 136.97917
-26.264338 16.371881 137.04413
-3.1576598 28.183428 137.02827
-5.4993029 6.9225893 137.17285
-27.532701 17.776083 137.23254
-26.44861 23.572775 137.22176
-17.809668 33.570465 137.27499
-3.5658722 28.223091 137.30843
-23.845861 12.52858 137.56787
-8.4882536 34.28051 137.51064
-8.5940523 6.7905931 137.95081
-19.911127 31.123394 138.09528
-22.213154 11.754505 138.19327
-4.3213997 13.074574 138.24559
-8.9391785 7.3310666 138.39163
8.6497955 16.319805 138.37415
-18.308489 8.9282684 138.56281
0.57836926 17.950886 138.86119
-4.7268839 30.295055 138.84048
8.2291546 28.54772 138.98454
4.0312939 17.081951 139.04349
-18.612545 30.584257 139.01981
5.0514088 27.880238 139.22554
-3.0320804 28.552671 139.23788
-15.761592 9.1044102 139.34995
0.61054659 24.816643 139.31114
-3.2183073 7.639308 139.44437
-21.336689 27.017086 139.42487
-0.72368485 23.199596 139.57236
-8.3658514 23.092779 139.79997
5.3327131 11.183635 139.89899
-16.19799 30.309475 139.8587
-8.6521778 22.290464 139.94104
-0.63039166 7.6525717 140.01115
1.3651762 8.5356274 140.08478
-5.8358865 32.142193 140.13998
-6.3321657 21.349514 140.22119
-4.0299187 7.2780414 140.38747
-6.6292133 11.173497 140.54587
-3.1141276 15.414726 140.55681
-7.3945012 23.193249 140.58524
-3.9259796 16.096024 140.69939
11.02569 17.014416 140.64545
10.702197 26.135994 140.63504
-19.014704 27.56884 140.78394
-1.5340344 34.748531 140.79587
-6.9635196 11.082282 140.81947
-9.7308779 11.673072 140.81709
-7.7142754 12.490591 140.97949
11.497379 22.500477 140.98573
-14.99287 30.095182 140.90363
-14.051281 16.583565 141.08159
-7.5908489 18.835299 141.06583
-22.144718 24.039417 141.05591
-7.3633175 12.965803 141.17294
-15.604384 13.431084 141.10025
-19.441515 14.065526 141.15993
-10.048021 23.175972 141.16512
0.73709601 8.824955 141.22284
-17.585077 14.860948 141.29622
-17.247173 29.663509 141.38168
-5.5481982 24.9855 141.47675
-4.1084032 27.537378 141.45064
4.7152853 14.00563 141.58015
-6.3259754 7.9802856 141.63739
0.28343874 8.89674 141.69496
-17.573618 15.618753 141.64703
-5.394372 16.269335 141.66116
-5.9668937 14.702051 141.74835
-6.2924905 14.909153 141.7834
-18.390419 22.667955 141.78348
-12.648319 25.774645 141.77895
3.3458321 12.936684 142.08209
-20.137392 14.07767 142.07111
-16.518618 23.840305 142.12479
6.9048033 25.108528 142.11871
-8.9964447 11.808049 142.24565
-6.6602788 20.300379 142.45926
-9.2481689 24.828693 142.43015
-15.002169 22.912544 142.68289
-9.0536652 10.660913 142.79803
-13.54856 22.712265 142.96091
-11.377607 24.949867 142.96423
-11.349945 17.718374 143.06665
-4.6051364 33.970123 143.07779
-11.573642 10.240129 143.1987
-21.711624 15.540396 143.14136
-11.012032 21.826111 143.17708
-10.403931 20.241188 143.22852
-23.023514 19.097155 143.38196
-10.680787 25.360378 143.4057
-9.4075127 9.2233658 143.57335
-8.3746433 30.416082 143.58025
-11.487672 24.034157 143.62054
-8.9077473 33.807384 143.63037
1.298736 12.884778 143.76263
-9.569787 9.1334553 143.81367
-5.0702729 8.303112 143.92522
-0.86153346 21.303612 143.94135
-7.5503292 23.78853 143.94138
5.8341174 15.520989 144.08514
1.9392103 19.263391 144.01793
-6.7888918 19.767551 144.02852
2.5746858 22.642097 144.00301
-10.060671 31.564476 144.05611
2.0337672 18.035858 144.14365
-6.5037832 20.96353 144.17441
-1.2991071 24.820377 144.18727
-1.9628878 18.051605 144.23636
-22.236382 25.530079 144.23119
-10.653668 28.757229 144.2485
-18.118414 30.056465 144.22176
-9.9171629 11.626023 144.36641
7.279295 26.742153 144.37781
5.7453074 19.528439 144.49123
-19.26182 18.903805 144.56839
-15.55994 23.971813 144.58134
-10.509915 9.112504 144.78506
-19.039848 23.43821 144.76926
1.5690341 13.510469 144.81277
7.3168659 16.103107 144.98534
-4.7347107 7.3977718 145.2971
-10.864384 8.9595776 145.31415
3.4040251 31.380489 145.31105
-1.6282785 34.268681 145.32547
2.2816472 9.943902 145.48921
-3.4599209 31.335308 145.44965
-5.1446614 32.945099 145.4686
5.7992234 28.006823 145.50337
3.7378552 30.873875 145.51895
8.2357435 16.060677 145.69247
-1.6754559 25.300343 145.72327
-7.8750362 17.173298 145.80125
-8.0752697 27.109108 145.88937
-16.144419 14.88693 145.94434
-6.8507018 7.6398125 146.01971
2.3303382 16.374222 146.04079
-23.144432 22.734686 146.01904
-9.2730541 31.468773 146.08118
2.8970873 33.083622 146.09415
-2.9284835 12.624305 146.25328
-0.5878849 14.196536 146.30624
-5.8197689 16.764151 146.36597
-5.2512441 19.265215 146.4843
-5.0995469 22.825872 146.48314
-3.8023934 32.642616 146.40463
-14.282047 11.726243 146.52032
1.5917351 15.769236 146.54977
-9.9752188 16.363459 146.54556
-21.146721 14.724676 146.66702
-16.519173 21.518105 146.67007
-14.403543 29.004845 146.6517
3.0850506 9.6935997 146.83046
-13.453819 25.691097 146.88353
-10.763921 25.902691 146.89148
-8.2305288 32.458328 146.83577
-13.315166 10.807616 146.91269
-15.113191 12.258191 146.92188
-17.805775 16.059345 147.08757
1.1120875 8.4538288 147.10646
-8.5866613 26.453751 147.10631
-7.0072389 8.3905573 147.2795
-10.250585 8.7445555 147.29988
6.0945411 20.26597 147.29179
-2.8664658 20.805828 147.30913
-2.8086891 21.392534 147.31616
-8.8517532 26.779076 147.4761
-7.1281943 33.17614 147.4324
4.1127119 16.810549 147.51204
-0.17887829 20.797398 147.54486
-10.817642 31.402897 147.51738
-1.8697913 7.3070965 147.75948
-3.036315 23.427055 147.73454
-21.119356 26.775726 147.71074
-20.864103 26.964867 147.95645
-11.990398 27.205133 147.90761
-19.850382 28.239481 147.93634
-13.539179 10.252889 148.06154
1.865624 20.284712 148.14291
-1.3521111 34.680508 148.15573
-2.6990502 18.34458 148.21698
-9.5945539 27.352959 148.24916
4.3349133 30.764957 148.29617
-5.8068323 35.326332 148.2789
3.5007458 15.896549 148.39922
-13.322039 26.300114 148.36797
-16.386332 15.446407 148.49402
-21.937183 17.417425 148.57887
-0.69449699 31.598862 148.5549
-0.87173331 12.851526 148.72229
-0.92922986 23.1842 148.72345
-14.863768 28.061422 148.71085
-6.296133 32.844948 148.73557
5.3696985 27.29987 148.80736
-4.9404402 15.395208 148.94606
3.3112521 16.92734 148.91759
-22.261736 22.537285 148.91852
-17.006674 16.526302 149.05042
-17.648972 21.103579 149.09042
-10.432133 29.988546 149.06097
-5.1047831 7.1680975 149.11349
5.5396566 14.037672 149.15846
-16.37039 28.378492 149.14658
-10.952072 12.564204 149.28349
-8.0511026 13.144835 149.41714
-14.9366 14.358738 149.45279
-20.944338 22.238972 149.41742
-5.0897293 26.64839 149.44716
-13.409775 10.562278 149.57053
-3.8957901 25.504168 149.51682
-3.0871961 15.771594 149.62143
-4.6306696 27.504599 149.61739
-2.1240273 32.420177 149.61107
-18.269951 20.451681 149.83447
5.7269444 17.848156 149.93591
5.2001572 21.535908 149.991
4.0222807 20.191568 150.08693
-8.5153675 13.784442 150.1179
-16.941807 20.039557 150.27737
2.4797366 18.402624 150.39842
2.9707205 30.18231 150.30962
-13.718407 32.71793 150.33237
-4.9543505 18.796965 150.43658
-10.239372 25.688385 150.46194
-16.833288 13.833597 150.51012
5.3954291 21.44978 150.51913
-4.6023121 28.363285 150.53027
1.4981434 17.740946 150.60948
-10.557199 29.198061 150.60645
-16.08205 11.177176 150.74225
-12.799748 14.787535 150.71799
-16.072884 27.357298 150.78131
-7.5539379 13.18763 150.82648
-0.45970735 16.291704 150.84117
4.4410133 16.726192 150.89569
-17.543463 17.627405 150.86052
2.7587764 22.285709 150.89581
3.3770514 12.017034 150.97845
-1.2249174 15.314751 150.96327
0.72167003 30.776184 150.9355
-9.6600046 12.38941 151.00294
5.2329974 24.529997 151.0309
-13.630159 28.522886 151.03764
-14.49362 25.991913 151.11206
-17.471046 23.457802 151.25296
-3.9348378 8.8930092 151.35606
-11.87999 15.577682 151.52281
-11.622207 29.010296 151.51678
-17.158758 30.076258 151.54297
-4.9836602 12.457166 151.68619
-17.44198 30.282288 151.68529
-1.5179266 28.383127 151.79234
-1.2852739 28.415316 151.96303
-9.2539692 16.499472 152.0014
-2.7952869 25.670523 152.03206
-15.687512 15.892816 152.1991
0.91436797 18.500839 152.12265
-18.392136 12.437756 152.34256
-3.6775811 25.201397 152.35249
-13.725845 29.005911 152.35251
-9.663271 24.449297 152.4359
2.2560596 25.962784 152.49312
-17.956314 30.085617 152.5672
-4.0600781 31.392841 152.51799
-9.2177954 9.6240692 152.6915
4.6963983 14.787094 152.67256
3.9618158 17.261009 152.66724
-17.281292 16.163645 152.71527
1.8731719 16.32341 152.75003
-16.842144 17.626305 152.76515
-2.1184983 29.954048 152.84932
-1.1093884 12.710502 152.99866
-13.52552 14.217512 152.97403
-2.5982728 30.282396 152.98462
