# .PCD v0.7 - Point Cloud Data file format
VERSION 0.7
FIELDS x y z
SIZE 4 4 4
TYPE F F F
COUNT 1 1 1
WIDTH 1612
HEIGHT 1
VIEWPOINT 0 0 0 1 0 0 0
POINTS 1612
DATA ascii
10.645873 14.11236 9.6379099
9.7424545 15.524501 9.601265
9.6108932 16.193747 9.6530828
10.663069 19.343275 9.6243553
9.4411478 20.046705 9.6772032
4.6012545 7.4617419 9.7491655
10.359084 14.298697 9.7481709
12.164709 15.157045 9.7151575
9.3460484 20.136616 9.7278976
9.2677479 20.37291 9.7629223
9.3432178 21.337742 9.716301
9.5010471 16.049461 9.8829145
12.016622 17.136284 9.8719902
9.1906433 20.511175 9.8013191
9.0918293 20.851952 9.8437548
10.049414 21.468472 9.8303823
8.5224648 8.4854717 9.9889736
6.8157806 9.8814392 9.9587059
11.248847 13.4586 9.9338055
10.517611 13.660128 9.9871826
11.636095 13.793322 9.9395123
12.505742 15.89331 9.9217215
10.575188 20.73489 9.9764519
5.3247032 9.4055662 10.007049
11.146321 19.560875 10.049409
10.782806 20.612755 10.092039
9.4600687 22.841999 10.030167
8.9467525 24.299915 10.067703
8.6660967 7.9752846 10.165173
4.4000931 8.0286274 10.180073
6.2590137 9.908946 10.168903
2.5584075 13.720871 10.178374
10.125502 13.836194 10.180719
2.2797539 14.219017 10.138224
12.247956 17.163425 10.183237
12.093801 17.466795 10.103491
8.9563293 22.886284 10.126972
9.4460449 26.170723 10.147038
4.4104767 8.0789928 10.215121
7.9885378 9.2884598 10.240112
9.6744871 14.629008 10.214899
12.520017 14.962715 10.211519
11.210155 20.22319 10.289557
8.5985165 22.275219 10.279062
8.7525187 23.09724 10.230217
4.5206432 7.7256722 10.354216
10.836538 12.814295 10.363123
8.9843664 24.070801 10.323562
9.5554829 24.003166 10.388302
4.939693 9.1895494 10.465141
7.4213848 10.012195 10.478775
9.59093 14.52012 10.433474
11.172681 20.848459 10.445052
9.7597809 21.214607 10.442128
9.2704191 23.8141 10.454102
6.1707506 5.0805492 10.57923
12.097713 13.833244 10.512893
12.671973 14.81229 10.580626
9.3516874 20.914211 10.578842
9.6510715 21.853226 10.53088
9.908617 22.446579 10.583606
10.24259 25.522015 10.583398
6.0746293 5.17067 10.638573
10.478013 13.003886 10.653913
8.6159143 18.435595 10.695301
9.8178854 22.869568 10.621313
8.9076309 23.576324 10.668285
9.9735422 23.976971 10.685743
10.069909 25.962147 10.610584
7.3217497 10.196013 10.726851
10.604369 12.496735 10.783792
10.212263 13.282172 10.7253
9.1261549 19.747757 10.72277
8.2639933 20.11871 10.732889
8.6628723 23.895376 10.721328
6.2155027 5.2222033 10.898861
10.196955 13.111005 10.872885
12.414164 13.936158 10.819393
12.353836 17.921841 10.855168
10.590206 23.161417 10.845919
10.172789 25.286484 10.892229
8.2497034 25.411251 10.843066
8.4470434 25.804029 10.850587
5.3591323 6.0339518 10.980181
4.349133 8.0206757 10.913075
9.3929653 14.511034 10.991628
8.8457451 21.987373 10.983547
7.6753545 23.351624 10.914356
6.6820908 5.5291047 11.088478
6.9817929 5.6422124 11.018521
7.3816419 5.8632603 11.087212
12.069099 13.544185 11.050592
9.6744843 13.782001 11.014481
12.877906 14.853107 11.014137
12.850181 16.927992 11.04036
8.7460098 22.675085 11.05724
10.083317 24.046364 11.028231
8.087904 25.561829 11.019115
8.447753 25.717739 11.084972
5.213994 6.2377057 11.188356
8.2793388 7.2172394 11.184631
3.1659317 10.602585 11.109991
12.530152 14.046286 11.186633
11.786267 19.707567 11.103815
7.7032995 6.1851416 11.202412
8.5687895 17.051876 11.295997
8.7209272 20.53087 11.298664
7.6523156 21.767195 11.291083
7.7264915 6.2429886 11.307748
5.088182 6.4133711 11.313795
8.5508804 8.9016848 11.362722
4.6532636 9.1109209 11.326203
7.2269382 10.566309 11.380881
9.1823425 14.681116 11.386452
9.1149902 14.940911 11.350837
8.9556942 15.778433 11.334799
13.078379 16.358049 11.384722
8.1265373 18.953148 11.322701
7.9099932 19.832966 11.38713
9.8144073 25.736126 11.386898
9.8878918 25.931761 11.301255
6.1677351 5.4619293 11.457357
8.5578184 8.7990055 11.435548
3.7663183 10.541859 11.482073
9.3118458 14.169684 11.461495
9.0925512 14.911898 11.429544
12.657763 17.754663 11.416533
8.6494246 20.797291 11.408561
10.031813 24.72072 11.415933
8.4663544 7.8303895 11.555399
8.2962952 18.011862 11.57487
7.733808 20.229389 11.563311
8.6175442 20.703762 11.556366
11.629335 20.897585 11.595318
5.5836468 6.0729556 11.61423
4.6494999 7.6207838 11.695826
4.4964023 7.9894381 11.685006
6.3309984 10.806927 11.694936
9.5742035 13.258871 11.686464
7.4852281 21.376663 11.610375
10.595175 22.714535 11.685544
8.0779753 24.48477 11.639843
7.7494802 6.3478761 11.771685
7.530313 10.504108 11.758347
9.4768295 13.417093 11.776779
12.721533 17.258867 11.750209
7.8873682 19.587757 11.784281
7.1008959 23.253 11.72972
5.4834471 10.417435 11.852245
12.171898 19.49929 11.891919
11.731662 20.860092 11.821867
11.343877 22.177923 11.817891
7.220881 22.360628 11.834093
11.180922 22.758701 11.818433
8.240181 23.953148 11.879808
8.1368361 7.0380073 11.989629
4.7439694 7.512413 11.983812
13.132533 15.573017 11.906778
8.8129215 16.48221 11.990634
12.836378 16.407639 11.907556
8.3057976 17.915382 11.924478
7.7308397 20.188477 11.942773
11.335609 22.420797 11.952119
8.2324114 23.033012 11.967537
6.9858837 23.300056 11.964977
10.252613 23.654562 11.966243
8.5724649 8.4972935 12.044423
8.4610081 9.55126 12.02899
3.4825759 9.9007797 12.00439
3.764889 10.015559 12.04385
5.5324926 10.529984 12.02676
11.737364 12.749012 12.091405
9.9993858 24.195024 12.054713
10.861867 24.163647 12.00701
4.3328676 8.8733168 12.177173
7.3407054 10.838346 12.179554
12.750537 14.147472 12.199357
13.065383 15.602988 12.18324
12.417068 17.861334 12.165702
12.063513 19.988722 12.16682
8.6986217 25.759382 12.127051
7.5892162 6.3212357 12.286072
8.5543108 9.0614433 12.223463
5.5131321 10.623155 12.261695
13.193016 15.072258 12.202755
8.6473989 20.292833 12.220115
10.337575 23.088926 12.291797
4.9519825 10.301259 12.349808
8.7549343 17.243071 12.388714
8.1837559 18.473833 12.388825
10.616686 22.092159 12.302616
8.1798468 23.223427 12.375998
7.9723434 24.181068 12.351318
4.7806745 7.5870523 12.436412
11.885513 19.969704 12.499863
10.448761 22.309149 12.455658
6.8492298 11.135171 12.557854
9.1622334 13.508958 12.581762
12.909982 15.793262 12.533081
7.9058867 19.770317 12.599591
7.1694746 22.510353 12.567099
9.6016884 25.559963 12.540745
9.2796335 25.884493 12.592629
6.7130518 5.487721 12.625016
4.4093509 9.2806482 12.611356
11.288228 12.00855 12.679984
11.983604 19.05121 12.651604
11.873427 19.597067 12.656496
6.7194438 5.5214252 12.717081
12.083134 18.194639 12.705531
8.8464794 19.87919 12.791315
8.3725853 21.915426 12.709001
11.023001 23.868876 12.779673
7.2126093 5.739697 12.832443
7.0075316 11.255953 12.867469
8.9317169 14.76791 12.895387
13.184763 14.816853 12.802774
8.4745808 18.3085 12.818609
11.813058 19.34668 12.857489
11.726897 19.714359 12.882676
8.4082355 8.1670847 12.978694
5.6280522 11.015593 12.959621
11.612633 16.751122 12.974998
8.1598434 19.517303 12.931835
7.5350285 21.954208 12.987694
8.384594 22.062677 12.958757
9.616766 25.09642 12.942575
5.4355917 6.7968721 13.0955
8.3954201 8.1292343 13.033166
8.4924603 9.7053089 13.005434
12.076912 12.633312 13.058887
11.629765 16.525812 13.068989
11.518885 17.332148 13.020401
8.4734344 18.782537 13.0799
10.572762 20.790497 13.064137
10.429451 21.15172 13.024389
7.3866048 22.550026 13.037681
9.7916412 22.847231 13.05316
9.659276 23.447325 13.045696
7.8316708 24.459381 13.024939
9.6897182 24.438732 13.052969
7.9290733 6.983408 13.175587
4.4395604 8.6469765 13.171173
8.4885311 9.7762794 13.153469
5.7317667 11.162753 13.121932
9.930357 16.982666 13.121747
9.1496048 19.391094 13.19305
8.7248707 20.637974 13.101147
7.8171644 21.182085 13.163183
10.957943 11.56102 13.220716
7.8923764 24.258074 13.246988
8.4358463 8.431776 13.328313
11.70117 16.368107 13.30716
11.017196 16.587307 13.387461
9.3721933 17.634138 13.38131
8.8603668 18.265993 13.300072
9.7362223 21.924389 13.359453
8.6710958 22.142679 13.355091
9.4194164 23.409004 13.334871
7.924047 24.347759 13.35615
9.352562 25.493244 13.365404
6.1277847 6.1539588 13.419477
4.7643647 7.9592085 13.482188
7.9807158 10.782458 13.409347
9.0260305 13.185013 13.462814
11.099128 16.463268 13.408804
11.272297 16.674652 13.42276
9.0415564 21.068621 13.477565
9.9718275 21.105198 13.423701
8.2215748 7.7357149 13.543539
8.4286575 8.468915 13.507687
11.247065 11.50703 13.51977
13.089714 14.310299 13.524533
12.64941 15.926105 13.521434
10.316759 20.04701 13.511896
9.7046623 20.387835 13.570058
8.1218262 21.088608 13.529415
8.4870625 8.8865871 13.679008
11.035658 19.840206 13.658263
10.715653 22.566877 13.682968
9.139389 25.198364 13.654157
9.2391272 25.367044 13.657029
4.5056171 8.612709 13.741136
6.7038441 11.78434 13.747217
9.4179869 18.055073 13.71121
9.3325033 18.232891 13.707096
10.755985 21.760506 13.735032
8.9405584 23.849463 13.751148
8.7097387 25.023861 13.77452
9.1023197 25.350477 13.7502
10.26132 11.224758 13.888506
11.509578 11.628429 13.813999
12.386648 12.525377 13.869445
8.8678408 13.607117 13.875522
9.0650425 24.667524 13.822012
8.3148651 25.29978 13.863977
8.3948574 8.4809523 13.936551
8.5155859 9.9455719 13.977132
11.31995 11.364824 13.924465
6.9767132 11.767502 13.932997
11.94595 12.019635 13.951578
10.53238 20.617287 13.924998
11.985329 12.026462 14.016127
5.4236774 13.447142 14.02125
8.8737545 14.066004 14.069644
10.329682 19.589127 14.052996
9.5327959 19.771002 14.088741
8.195055 22.832888 14.072412
8.0381832 23.220051 14.077573
11.519494 10.176536 14.17854
4.6777287 10.679662 14.184223
11.441994 16.650118 14.13673
10.022824 19.571009 14.139645
8.380929 22.47407 14.115286
9.8995752 24.058033 14.140642
5.9598703 6.6635599 14.233395
4.619935 8.237649 14.228094
8.5052633 9.3397999 14.269548
4.3773708 10.053416 14.20504
8.2654085 10.633917 14.27655
13.066585 13.897211 14.215949
13.071205 14.470339 14.273246
9.4822607 15.820986 14.290137
10.024908 20.378691 14.214875
9.1381264 21.38225 14.216488
7.879467 7.4119091 14.328079
9.699645 8.8531704 14.354737
4.4193659 10.235714 14.380148
11.416272 11.256012 14.314015
9.3032265 12.052776 14.34927
4.2020769 12.407042 14.337472
8.906785 12.931198 14.381033
13.158632 14.202465 14.366793
9.4343081 23.215908 14.389366
8.3833809 23.653549 14.386336
10.855892 9.7612419 14.436097
8.5380831 9.9446068 14.499422
4.9066215 11.241245 14.463382
3.9470487 12.145445 14.44269
12.729563 12.936213 14.491241
6.5336447 13.819902 14.473351
8.9756479 14.729012 14.43724
12.484808 15.718933 14.430537
6.9622736 6.5183191 14.548683
3.5796442 10.442262 14.522943
9.6406307 11.461406 14.51684
3.8265588 11.63958 14.56295
12.599297 12.578164 14.578783
8.8287601 13.170258 14.569455
5.023428 13.401085 14.577437
10.431673 9.4418354 14.66236
8.8336582 13.57696 14.690784
8.1691523 14.95299 14.696926
11.662623 10.075209 14.789935
12.884838 11.342264 14.759869
12.45016 12.108223 14.782062
12.877211 13.146852 14.771549
8.9144869 14.207066 14.71675
9.7266932 15.878944 14.715461
5.917449 6.8949375 14.81946
10.331886 10.758501 14.8351
10.623533 10.723839 14.832973
8.4735651 15.228603 14.899851
10.63715 16.307867 14.871973
10.983429 10.684772 14.951862
12.621397 12.428755 14.924739
8.8236866 13.400996 14.994562
12.729292 14.974859 14.910975
7.6800809 7.4260902 15.053753
12.411581 11.924631 15.044081
11.216908 16.256664 15.053805
6.4719687 6.8162079 15.113253
4.5193195 8.1661625 15.167818
10.392183 10.592875 15.162326
4.4174633 12.774119 15.127847
8.835144 13.4377 15.162685
4.4096599 9.2143154 15.267919
10.528431 9.3607426 15.22676
8.4824276 10.33952 15.216687
8.9066429 12.28783 15.222369
4.5120502 12.917892 15.276903
10.033705 15.871558 15.295012
6.1445622 6.9562535 15.367018
6.7935085 6.9234948 15.396104
10.011908 8.9747095 15.396759
8.4749556 9.8117247 15.366821
12.620811 10.896037 15.377151
11.781619 11.090478 15.317587
3.7860546 11.357672 15.314623
5.8184781 13.77371 15.341014
7.5998149 14.495273 15.369458
12.208405 15.416626 15.387709
11.080047 16.116741 15.32799
5.7332668 6.7545471 15.439051
6.4764576 6.9506097 15.40604
8.8916063 8.0322781 15.454822
9.5519924 8.5995302 15.486027
9.6107626 8.6522245 15.457529
11.294993 10.460415 15.494967
11.91804 11.15913 15.459005
13.811407 13.301164 15.421785
9.7778492 15.581884 15.430293
11.925527 15.594656 15.461329
7.1834016 7.2248421 15.585158
5.662878 7.4103785 15.575541
7.4239054 7.414773 15.537142
7.5335054 7.4988809 15.509701
4.29954 9.6007566 15.582234
3.7508638 10.000643 15.550667
12.851005 14.323296 15.508116
9.0625324 14.430897 15.517632
6.8534532 7.0132208 15.600368
7.7610598 7.8232279 15.641893
7.9310465 8.1908216 15.697435
9.1299534 8.2224712 15.671677
4.5420341 8.9622078 15.684986
8.8480301 13.382391 15.68825
9.247509 15.65502 15.600129
6.6789889 7.0879741 15.737361
10.85692 10.247561 15.75771
12.667386 10.88384 15.702563
9.3872194 10.988039 15.79927
13.098606 13.598214 15.722042
7.4950209 7.5945773 15.803931
4.0015473 9.0840807 15.809762
8.3125839 9.1498165 15.870371
10.888559 9.3703136 15.827461
9.0955029 10.659049 15.875336
7.2045932 12.986196 15.824492
13.158629 13.37945 15.851456
7.6289921 7.0993595 15.952705
4.5783243 8.1764383 15.993341
9.7353859 8.6445704 15.903717
10.553921 10.196997 15.957024
8.6362247 10.36867 15.984221
9.2600393 10.859159 15.972018
9.2005606 10.905501 15.976506
4.8727922 13.545935 15.901794
7.2288718 14.526354 15.933954
5.0411606 7.552846 16.049393
4.4897075 9.2062616 16.074802
8.5445271 9.963398 16.052389
4.071456 10.337646 16.023928
11.600032 10.459707 16.08416
12.548404 11.626952 16.079708
9.5464134 15.026201 16.079975
4.8294735 7.8506184 16.172529
4.5896282 8.1763515 16.174086
4.5202613 9.14398 16.158253
8.3241129 9.5015402 16.116268
3.6595216 10.563814 16.179678
8.731554 11.590465 16.123848
3.9711397 12.43218 16.120979
4.4284787 13.11525 16.142908
5.8573093 13.656664 16.174059
8.4428453 15.076891 16.115788
9.7421188 15.179579 16.118534
10.560585 10.071245 16.235004
5.0653787 12.439872 16.244692
5.7011676 13.464805 16.232048
9.2222347 15.553381 16.223434
7.2834024 7.6415205 16.301971
5.3511348 7.9876137 16.349726
9.8607988 9.4741325 16.381084
11.485615 10.172577 16.378056
3.7319272 11.035196 16.358269
8.5953941 11.702089 16.327932
7.9328709 14.385713 16.387062
7.3576937 14.743097 16.336243
9.6506023 14.951712 16.390547
11.749928 15.30032 16.310171
8.7529202 9.0828047 16.423437
8.2321329 9.2742538 16.468346
8.4544687 11.306194 16.403673
4.9833355 12.523051 16.447613
8.658823 12.948893 16.468733
13.148622 13.082208 16.427505
8.9366503 13.148136 16.495975
12.738083 14.07248 16.455038
13.581963 14.413801 16.435432
10.445565 15.491741 16.492655
10.000843 16.039122 16.455662
6.0596118 7.0148249 16.546684
10.836601 9.7684708 16.553038
4.1179533 10.354047 16.586172
9.4878063 14.723629 16.545149
6.8100567 14.884757 16.576981
7.9887505 8.9072561 16.61051
9.4603701 9.1639814 16.618834
8.237072 9.463892 16.611301
12.417509 10.367751 16.611553
3.8133283 11.708393 16.619425
8.8342628 12.38712 16.628178
4.8534508 12.687747 16.697487
5.1739712 13.166482 16.656727
9.0929737 8.1003342 16.790165
9.5499582 8.4143553 16.703447
4.8089418 8.7169132 16.779934
4.174695 10.253156 16.798981
4.737453 12.557143 16.768717
8.7700548 13.284855 16.705721
6.4084558 7.5484428 16.880644
9.9409513 8.5755348 16.854736
8.5818939 8.7615042 16.88203
8.8697376 8.8009787 16.898075
12.805893 13.663884 16.885963
12.755829 13.801933 16.858597
9.2074394 13.935747 16.820496
11.323805 9.8049507 16.90576
12.704548 13.879631 16.941345
4.9198451 14.367341 16.979153
11.943041 16.156475 16.920162
9.131197 8.1204128 17.018881
10.052626 8.526742 17.091356
3.8873272 9.9712114 17.068285
3.8181829 10.294675 17.05447
12.145353 10.545599 17.050606
13.144545 12.749677 17.036236
4.3158178 13.436089 17.069944
4.7150745 14.069122 17.025772
6.4360733 15.077625 17.098686
11.154885 15.261346 17.095001
6.3700891 7.6629944 17.14073
8.4482546 7.6009722 17.187721
6.8398213 7.7214718 17.143021
9.2487602 13.681271 17.127445
9.3373775 13.822878 17.118311
9.9548187 14.705275 17.150307
7.7896061 14.894819 17.165464
11.055481 8.9824123 17.247173
13.024934 12.300907 17.297146
5.0151582 13.08619 17.254776
13.491854 13.387499 17.222008
8.9647837 14.033489 17.200443
9.016118 14.216841 17.252604
12.300151 15.817017 17.285767
5.6460314 7.9692984 17.357285
11.107393 8.9817486 17.320984
12.547126 10.877054 17.333973
12.888498 11.882914 17.367783
9.755764 14.3036 17.315331
10.204934 14.808039 17.326515
10.648251 14.999797 17.386818
4.560267 8.4553471 17.461365
3.8332753 11.736006 17.466476
13.012491 12.812474 17.499582
4.0093784 13.019093 17.496641
5.6785517 14.827746 17.473301
12.06325 15.783314 17.462906
12.046011 15.817793 17.41593
6.1986055 6.8337173 17.55127
7.5096073 7.1946821 17.552408
9.4278088 8.0619993 17.575737
11.632444 9.1755905 17.591879
4.3482833 9.8708687 17.55512
4.3369884 11.940928 17.532484
4.9287443 12.982939 17.520439
5.9757996 14.223087 17.518808
6.6278191 7.9901762 17.631081
11.381714 9.6944971 17.689808
3.8116357 11.475565 17.62747
12.965115 11.970623 17.607441
9.8220158 14.989838 17.623409
6.3719301 15.11969 17.679573
4.6868792 8.3790607 17.751055
9.8914604 8.5388412 17.790928
10.403332 8.8399992 17.767296
4.4533043 9.5888834 17.764704
4.1009698 10.692737 17.723118
13.452936 12.772627 17.778538
11.750063 14.5516 17.789875
12.702901 11.162769 17.802404
6.6478491 7.1688948 17.933708
8.4267654 7.7447567 17.920082
9.8952675 8.4488125 17.943155
11.956913 9.4978476 17.997425
12.784619 10.611852 17.903814
4.0544448 11.340721 17.967924
4.5965252 14.047976 17.920578
10.393455 15.793059 17.93742
13.049568 12.417128 18.037996
11.97932 14.242495 18.080719
5.7235327 8.131525 18.180311
4.3814964 9.1588678 18.101217
11.782233 9.2469921 18.107586
12.835863 10.778644 18.179255
5.6148205 13.872061 18.198944
5.7334847 14.901112 18.105078
8.1894751 15.349869 18.159229
9.9672499 15.339422 18.127752
10.053642 15.304758 18.142487
6.4653358 7.2509441 18.269855
7.7429342 7.4597111 18.214457
8.2053719 7.7122936 18.21505
11.8011 9.2522974 18.252108
12.951122 11.098591 18.267899
13.355738 13.275545 18.236771
12.458737 13.751061 18.244503
13.336463 13.7047 18.260824
7.6668539 15.2029 18.228859
6.7379022 7.2797914 18.314993
6.5523052 7.397191 18.332424
4.9068279 8.3685455 18.320827
4.3272829 9.5058146 18.308867
4.5092835 9.6547871 18.366693
13.028908 11.80208 18.367672
4.0632286 12.876945 18.372072
5.7283149 14.002111 18.343071
10.231411 15.243195 18.367367
1.3693492 15.949501 18.399479
6.8324866 7.3780589 18.447525
7.0945959 7.4109735 18.418146
4.337028 9.8980484 18.451378
4.4234743 12.162837 18.491793
13.326587 12.174835 18.468576
5.8250418 14.077818 18.462427
12.259272 15.039655 18.483461
9.4654865 15.200303 18.411131
6.5831108 7.3253517 18.524971
5.981101 7.6070433 18.524519
6.7063675 8.2409191 18.541952
13.054407 12.139581 18.513824
4.0106301 12.39787 18.513206
5.3870087 13.671614 18.531834
7.1681414 14.619713 18.503002
7.3517218 14.668545 18.516989
7.9893661 14.824428 18.501589
6.184937 15.001375 18.543768
10.719748 15.02808 18.576916
10.504109 15.366268 18.594334
1.9405069 16.717434 18.500706
1.0465348 16.981894 18.588345
10.103375 0.95723665 18.693163
6.708168 7.4595485 18.629114
8.4009056 7.7097526 18.655687
7.1724029 7.8980203 18.685658
6.9451556 8.1713724 18.654913
6.7996988 8.2456417 18.679058
6.396553 8.3719406 18.651167
4.2820206 10.556833 18.630804
12.365556 10.715591 18.660944
13.283003 12.533894 18.613869
5.0435553 13.348228 18.633318
1.3566284 16.152016 18.643856
6.8554516 7.9213119 18.755625
12.394351 14.753779 18.720505
6.9167309 15.121946 18.732651
0.90044951 15.740394 18.764431
1.1907425 15.726424 18.785969
1.3609239 16.376083 18.707449
13.233389 12.311019 18.833536
13.2311 12.758862 18.828739
4.2970738 13.33263 18.842108
11.342858 15.062653 18.807388
10.889801 15.180724 18.859732
0.99256098 16.385382 18.800755
5.6658983 8.0393038 18.926479
10.452126 8.1918697 18.926903
9.6509247 15.01968 18.914858
8.193615 15.169096 18.915455
9.9802446 15.211009 18.944458
1.2190921 15.424094 18.955555
8.6667805 1.0178201 19.070164
6.3800888 7.797874 19.028196
5.2262597 9.3614044 19.005398
13.170202 13.311789 19.068142
6.3163748 14.251321 19.04792
0.52213252 16.851515 19.085554
9.6410265 0.8495239 19.133289
8.1015663 7.7989144 19.114315
4.7190886 12.897717 19.101213
11.668089 14.009749 19.181828
8.3123055 0.71490216 19.293865
9.1129723 7.6207914 19.242126
6.3572569 8.4092598 19.238171
10.886603 8.4193001 19.211912
6.0524049 8.6838083 19.294031
13.029345 11.354912 19.211676
11.690972 13.939238 19.233454
11.738363 14.532935 19.223579
0.27796039 16.331593 19.229971
8.7589035 0.16256741 19.347445
9.986702 1.0593302 19.349037
8.6994667 1.2654426 19.328531
12.739062 10.732086 19.317907
12.537107 12.799459 19.328249
12.361804 14.205485 19.324074
7.921979 14.465756 19.333347
9.0027142 14.558658 19.3174
8.7142544 14.982705 19.399267
10.890043 1.6902647 19.465448
10.918079 8.4775896 19.403473
12.562127 11.254675 19.406336
5.3802028 13.477874 19.482559
9.5993156 0.45898086 19.560848
7.8488026 7.3897629 19.530235
6.5564871 8.2654181 19.513102
5.845119 8.611434 19.553684
11.579947 9.1074467 19.538786
6.0547218 14.452082 19.573626
11.264636 14.522993 19.515682
10.44466 14.750067 19.56036
0.57995975 16.121346 19.562105
5.5500779 9.1831951 19.62204
11.496834 13.849962 19.624397
8.2549667 14.257442 19.658367
9.6800423 0.9907167 19.72448
9.1992912 7.7101321 19.717556
4.7783999 12.866801 19.75411
9.1199951 14.277575 19.798019
0.72419733 15.377606 19.797054
1.0677627 17.100414 19.760319
10.003618 0.33697671 19.817776
8.989727 0.60168552 19.897406
11.12533 1.3089955 19.811243
12.625955 10.677597 19.85099
4.9007463 13.459624 19.890076
11.712802 13.479672 19.864729
11.300874 13.892448 19.862701
7.2369781 14.042793 19.885775
8.5872564 14.128262 19.871204
8.7833881 14.143713 19.894241
11.67021 14.102224 19.893375
1.0861249 17.039597 19.821976
9.1148443 0.55272049 19.984928
8.5953827 1.3976226 19.993504
10.580628 1.8578451 19.91449
11.92007 2.3922594 19.925898
11.366754 2.672857 19.945555
11.443878 2.7296915 19.974964
9.3404036 7.3810825 19.975895
9.4565706 7.4225378 19.984901
8.9258881 7.5488772 19.970333
4.9098244 10.085513 19.91947
12.180663 13.835069 19.927147
6.7168012 14.482388 19.928856
8.1048698 14.668018 19.902193
8.3825932 7.1612277 20.03651
5.7494965 8.7099886 20.049423
5.5082722 9.0424461 20.06098
4.4877 10.980124 20.018932
12.736013 12.86918 20.098625
8.1499748 13.937449 20.045132
8.7812166 14.023538 20.045753
9.0994978 0.79960883 20.104771
8.6794052 1.5909777 20.19537
10.144521 1.9491395 20.14893
8.6424236 7.1159687 20.17836
9.5446405 7.6695871 20.126255
6.5124197 7.7130775 20.181269
10.295172 8.1000595 20.151972
5.3816705 9.1859865 20.128853
9.2245941 0.23692438 20.274483
8.5676985 0.4037365 20.235531
8.7499237 0.82287192 20.262856
10.350501 1.939168 20.253092
12.452739 2.9101307 20.26535
11.35292 3.4872034 20.226658
9.4882336 7.3590279 20.207748
9.9693584 7.8777494 20.227577
10.434019 8.1532936 20.230461
11.687635 9.5035019 20.225624
4.8259315 9.7827635 20.224161
8.8586349 13.838327 20.296791
10.405807 3.010895 20.389423
10.565184 3.0842197 20.358229
8.3617163 7.3724651 20.312811
6.2682471 7.8036742 20.380011
12.597217 12.727727 20.395769
12.631192 12.747235 20.336843
9.053298 2.2774382 20.452393
12.572777 2.897752 20.423908
12.819956 3.4127955 20.442211
11.929459 4.1527276 20.454378
8.5577307 7.0017734 20.459229
10.028782 7.8136606 20.497334
5.7237101 8.2286205 20.451471
5.4270554 8.9720612 20.419498
4.694572 10.415031 20.403049
12.320379 10.599368 20.47876
12.365777 12.953195 20.469788
1.3368957 16.735668 20.495451
9.7466908 2.3405809 20.523119
11.05689 2.788763 20.50174
11.613301 3.2522664 20.542271
11.359312 3.8714023 20.507744
13.248878 4.1418257 20.574047
8.2987213 6.9750071 20.543774
9.7186308 7.3389482 20.514099
4.9938555 9.276536 20.560755
4.3244448 10.963997 20.56735
12.685777 12.350755 20.544697
1.3998452 16.476109 20.571501
10.328352 2.3434117 20.608139
10.003954 2.9300823 20.693344
13.243145 3.9543164 20.64514
10.086218 7.7860079 20.623274
10.439603 7.9973397 20.657488
10.938402 8.4940128 20.691763
5.3534908 12.756313 20.663277
11.015616 13.506073 20.632778
6.2660427 13.843593 20.625463
10.5783 14.012729 20.614746
8.1787901 14.259535 20.611145
12.389956 1.8919386 20.703691
10.857689 3.795392 20.730251
13.640439 4.5574112 20.783583
7.4559374 7.2859831 20.729486
11.916094 9.950058 20.744791
6.8342891 13.99321 20.718479
0.94795895 17.538277 20.707731
12.859084 2.7242851 20.860651
13.206255 5.3164778 20.896372
11.227999 8.5846386 20.843437
5.0868211 9.1115761 20.893864
1.6714985 16.157703 20.87874
8.5779066 7.0848203 20.977867
10.31529 7.7495222 20.933287
6.2214766 13.148003 20.930229
11.709563 13.181278 20.991522
1.74147 15.607716 20.912334
11.054409 1.5419828 21.038986
13.218286 3.1101005 21.062876
9.6180706 7.3115091 21.002665
11.003214 8.4502001 21.034966
5.8007874 13.023864 21.006964
9.5960846 13.867254 21.041166
1.7161956 15.441854 21.074635
12.098751 1.4568725 21.100393
10.107673 3.0829861 21.176727
8.2754221 6.9483685 21.138975
10.422819 7.5676198 21.15826
5.4601679 8.1764336 21.138479
9.9420443 13.687845 21.147074
8.373558 13.762557 21.184238
9.8126965 2.5660043 21.217405
12.013686 5.5697756 21.264805
14.006816 5.9041176 21.262928
7.6877103 6.9420476 21.228867
10.777076 8.0032549 21.29126
12.217723 11.901651 21.220625
11.810531 12.415559 21.253929
10.914207 13.214684 21.203201
10.636233 13.359224 21.200043
9.4017677 13.621246 21.227966
1.7383523 16.056309 21.26157
11.92724 1.2300045 21.318491
10.290752 3.3959856 21.382401
14.421291 5.5662746 21.338863
7.5040512 6.7353854 21.388824
6.6979933 7.0159817 21.315449
9.6124992 7.0247922 21.393993
5.4104338 8.1552324 21.387844
12.237135 11.936591 21.397507
6.0190396 12.936388 21.387278
7.8282013 13.384292 21.396271
0.65369385 16.595455 21.304852
14.137387 4.377213 21.448124
14.233351 4.5697322 21.496647
14.014013 6.6744037 21.492325
9.008235 6.8046665 21.402027
4.9862285 8.6324072 21.48354
9.2316647 13.393155 21.427511
2.2237155 15.364904 21.439184
10.148293 3.1308098 21.573837
10.218059 3.2585034 21.521233
14.030319 3.9215095 21.547371
10.655884 4.0711684 21.50713
9.4558611 6.6293097 21.597389
11.495825 8.6795521 21.594336
11.827917 9.5455198 21.531475
4.7146978 11.989105 21.526083
1.9811428 17.248585 21.556564
9.8542404 6.8717766 21.608881
12.233767 10.155837 21.618494
4.5152111 11.798445 21.624317
8.5027895 13.340126 21.648542
0.77734077 14.910723 21.600128
9.9861441 6.6344395 21.76844
6.4694066 6.718864 21.732893
8.6511259 13.377251 21.773098
1.7614436 17.218275 21.77227
12.137029 1.6008816 21.891989
13.104467 2.6202581 21.829571
6.1860523 6.7678347 21.810749
10.684305 7.023448 21.825174
11.829854 9.3426113 21.837379
4.3147388 11.490194 21.886169
11.944857 12.016865 21.872042
6.3947639 13.106177 21.815187
9.2524195 13.273502 21.856525
9.9842911 2.3500128 21.900028
10.910142 2.5012839 21.925697
7.8447213 6.1233835 21.946835
9.3664646 6.245182 21.98233
6.5643935 6.5548182 21.905525
11.223894 7.9922261 21.903368
12.185854 9.9215565 21.952745
4.2886686 10.881651 21.921049
4.3421693 11.695663 21.96674
10.745879 12.845438 21.963688
9.9169559 13.162649 21.919325
7.4765472 6.0027409 22.034561
9.9576368 6.4341478 22.019482
6.2263303 6.5842295 22.026011
5.5188084 6.9338059 22.017309
11.963467 11.663731 22.076002
7.7000294 13.128697 22.00256
8.29603 13.187329 22.044186
1.0937378 16.869385 22.010614
11.942205 1.7659442 22.182926
15.077388 5.3500919 22.160824
11.326289 7.3047829 22.145807
4.0132327 9.7971859 22.174864
4.0245709 10.164907 22.18615
12.274223 11.424457 22.185637
4.3701611 11.535331 22.131783
5.1509066 12.589916 22.134892
9.3378477 13.17052 22.13026
2.3870101 16.214169 22.131348
15.024031 5.0230217 22.212452
15.238178 5.5705838 22.281734
5.2237062 7.0158901 22.256786
3.8797216 9.5992708 22.221283
12.161493 10.858013 22.259377
4.3525672 11.768241 22.232643
6.415741 12.85269 22.298832
9.6251011 13.092821 22.25404
9.3322992 13.146071 22.203608
1.5532992 14.697803 22.241779
1.7804753 14.68089 22.275452
2.84935 15.134846 22.202675
10.946362 1.6290312 22.376093
11.486058 1.7037766 22.378063
12.369253 2.1628549 22.362686
13.687092 3.25353 22.309496
13.835161 3.429404 22.304873
12.160666 9.8148317 22.350599
12.218668 10.169304 22.314281
12.202622 10.347101 22.319849
4.1663322 11.289726 22.399632
10.797438 12.494623 22.39823
9.8383284 12.893415 22.310516
1.3269547 16.790045 22.364069
11.14242 1.7563496 22.470463
15.159607 6.8544903 22.456264
11.443131 7.0230403 22.48349
14.584333 7.3264699 22.418816
12.889772 7.4513149 22.489058
3.7431176 10.222414 22.40382
2.6099663 17.122143 22.441059
11.655354 1.9468112 22.539341
11.09216 4.8798981 22.532265
9.182869 5.8810444 22.510223
12.068458 6.3545399 22.520449
12.314069 6.9690819 22.507408
12.353809 7.1012564 22.540043
14.243876 7.5600729 22.543293
12.113284 11.495238 22.588764
5.4860344 12.53797 22.538389
11.04085 12.50598 22.551086
6.000587 12.822339 22.516327
8.4615479 13.125656 22.577007
1.5999646 14.583542 22.599863
0.9329493 14.756569 22.578674
10.674192 3.0516186 22.657749
14.785683 4.504755 22.69503
11.292812 5.2153654 22.634079
11.07336 6.4003267 22.68531
4.4290128 7.3687382 22.678549
12.27964 10.183013 22.651148
12.257718 10.341738 22.602461
1.9072516 14.554622 22.66563
0.57959503 15.19128 22.686775
3.5305092 15.155872 22.634367
7.4586782 5.6395965 22.700806
4.1748877 7.5423818 22.712681
12.402682 9.2127018 22.715729
6.0130978 12.761583 22.773163
6.4127278 12.777415 22.780235
9.7252312 12.905351 22.765682
8.427763 13.079251 22.725689
0.41042075 15.390067 22.712282
10.890059 2.6408758 22.835224
10.780397 3.0292881 22.818558
8.645072 5.376801 22.858322
6.3839884 5.9232054 22.873669
5.4283919 6.574769 22.893368
11.534223 6.7796507 22.805727
13.961024 7.7301674 22.823862
11.681777 11.983961 22.811085
5.1183271 12.46424 22.853889
5.2087965 12.491576 22.865448
10.931952 12.411251 22.887985
10.385391 12.558359 22.831305
8.6577587 12.903605 22.81102
2.8433142 14.497107 22.872181
0.37188044 15.811217 22.826941
13.038363 3.0452495 22.964024
14.680335 4.2673974 22.992256
15.279473 6.6766343 22.97051
14.384309 7.5864186 22.911446
3.7705221 7.701458 22.954878
6.3320394 12.724769 22.967686
9.1220255 12.904533 22.987312
2.1502247 17.383747 22.974474
11.888482 2.7558694 23.097502
9.8998146 5.6863589 23.006395
5.0582342 6.3240147 23.079962
11.995419 6.4132519 23.096363
15.241957 6.8823013 23.009005
12.744119 9.0931587 23.074276
12.801239 9.557744 23.076435
11.302688 12.102047 23.040848
4.8536196 12.475824 23.009956
5.7100692 5.9678512 23.185833
4.1642551 7.3720236 23.159512
12.991129 7.7225838 23.155905
6.115819 12.743008 23.162437
7.8487749 12.926014 23.108034
4.1012831 15.29945 23.132549
3.7316525 16.5686 23.148899
12.288101 2.9798579 23.296307
11.277733 4.0002742 23.258791
12.079236 5.0268984 23.218582
6.7013025 5.630208 23.232189
5.0158324 6.254159 23.21492
5.6207142 6.3587356 23.238516
11.903912 11.155313 23.20083
4.5076857 12.484128 23.225096
6.2951956 12.792292 23.202034
8.0425997 12.888069 23.299112
3.7435844 16.608696 23.239735
11.393136 3.4756117 23.332436
15.374743 5.7564316 23.32893
3.9659176 7.1883287 23.359518
11.974918 7.3723321 23.346279
13.128309 7.821177 23.351078
8.6689224 12.829956 23.353619
3.4759943 16.888313 23.336863
12.6647 3.3511453 23.459877
11.724424 3.7032173 23.481327
14.968197 4.7528906 23.417212
5.9910097 6.0270567 23.410137
15.321014 6.4733024 23.448393
12.515495 8.1754351 23.420521
3.7688901 11.800985 23.475725
6.0528622 12.863599 23.44553
7.9244318 12.8716 23.414783
12.133562 3.8267579 23.587067
11.552892 4.1070147 23.53801
13.182599 4.2870097 23.561663
10.517074 5.4554482 23.574316
3.4247611 8.713191 23.523548
12.725651 9.147027 23.507931
12.726774 10.855182 23.589205
3.5339255 10.911325 23.568838
4.3557463 15.847937 23.586081
13.083503 3.98733 23.624966
13.258692 4.0762472 23.606146
13.754086 4.3311014 23.67778
12.708267 4.6553354 23.656597
5.5945611 5.8857298 23.668119
11.335356 6.2039671 23.647339
15.262998 6.4420381 23.67152
3.3696306 9.2960615 23.624783
7.8978682 12.90999 23.665718
12.21752 5.1238546 23.764326
7.4970617 5.2914696 23.720737
11.044947 6.0091438 23.772724
4.410511 6.4941502 23.796589
4.1379585 6.8092723 23.752914
11.427163 6.8840361 23.746704
3.7409437 7.3642817 23.704149
3.5588555 7.7593632 23.757215
13.879623 7.820076 23.790176
4.7214327 12.952672 23.71269
6.0006633 13.00544 23.702131
1.2031412 16.726324 23.733501
6.3191605 5.624136 23.89994
15.244771 5.8381829 23.846758
5.2569017 5.960299 23.884436
5.7568812 6.072947 23.810373
14.721472 7.5813942 23.878117
12.577997 8.7442026 23.820971
3.3468981 9.4995241 23.845596
14.050646 4.5792928 23.90823
5.3314576 12.999946 23.930136
7.6620378 12.990942 23.934677
1.4132545 16.799252 23.909645
3.3706176 17.300364 23.922756
8.7689114 4.9373512 24.073986
15.099978 5.5376377 24.011307
5.6976023 6.0326004 24.094707
12.714804 9.8193626 24.079464
11.753197 11.944165 24.011831
9.0172281 12.831347 24.000271
7.576138 12.980486 24.076685
3.2974761 14.079206 24.032091
1.0016509 16.192064 24.022854
11.304756 4.4150572 24.199345
4.6353159 6.8249469 24.14533
14.89677 6.9628115 24.169661
11.986452 7.0523438 24.142992
12.736086 10.654598 24.187876
10.585725 12.519244 24.17663
8.9284363 12.798361 24.187229
5.6935081 13.126654 24.197809
12.192074 7.3660774 24.227257
4.0733199 11.919026 24.272449
6.5551538 13.00668 24.23675
4.0099759 14.1385 24.276974
4.8080144 16.159046 24.232691
3.8370967 17.056301 24.211803
8.8004131 4.9240479 24.37587
14.686669 4.9148345 24.387827
4.90203 6.5651021 24.321495
13.442772 7.8009233 24.378746
10.819242 12.340549 24.301012
4.0260563 14.093643 24.38225
4.6337304 14.536398 24.319912
3.6638048 7.2676845 24.404144
4.0104585 7.2321458 24.408047
11.386131 7.4367495 24.499598
12.55639 9.2774439 24.422266
3.930624 11.48448 24.48736
8.9183693 12.751001 24.416513
1.2664256 15.740781 24.479445
1.2344799 15.850838 24.43935
9.9120731 4.899066 24.590363
5.6921525 5.9022508 24.54867
11.505929 7.4928541 24.554363
11.918531 7.6261539 24.500683
12.052576 7.6821556 24.531273
12.586609 10.120928 24.500671
7.7814941 5.1886859 24.63932
10.115061 5.9313207 24.682812
4.4195218 6.5325956 24.635115
3.2323432 9.0035629 24.625013
2.9956837 14.016706 24.621367
4.2912574 14.087675 24.60643
2.2592919 14.176098 24.620899
1.8354059 16.725769 24.626175
12.582108 4.112196 24.766157
10.881364 4.2080145 24.793467
6.2318201 5.4268341 24.73946
12.328712 7.835042 24.722771
4.9531083 13.226214 24.717672
3.2449672 14.036093 24.795826
5.1617908 14.53677 24.748383
1.439814 15.816941 24.799726
8.9241791 5.0408468 24.888401
10.90177 5.5731039 24.802082
3.7099478 7.1315603 24.804092
11.246253 7.4917741 24.873524
3.2703419 8.5152073 24.820347
12.428856 8.6273489 24.889309
12.501036 10.36447 24.885792
8.2625113 12.721914 24.818504
2.4435465 17.087133 24.828934
10.506883 5.2071185 24.912649
9.8942261 5.3746638 24.926588
9.8483982 5.7343035 24.920191
5.0699148 5.848958 24.90818
14.631618 5.8129425 24.946917
11.6444 6.2822666 24.946619
4.8283839 6.464529 24.987808
11.732738 11.565483 24.932888
2.4805341 17.05126 24.931087
3.8049443 17.174236 24.922232
11.297023 4.1244965 25.063543
9.6619949 4.4259872 25.032085
10.043483 4.8135428 25.081297
6.9841065 4.9933462 25.029291
9.7272177 5.5297909 25.059708
10.903128 5.5153389 25.043762
11.684946 6.3190403 25.055197
12.336751 8.0883656 25.068357
7.2952261 12.819537 25.031641
3.2804172 17.117281 25.088345
8.3662539 4.9666152 25.188246
7.3341227 5.1029797 25.146969
5.157814 6.1835127 25.161308
9.8837404 6.3179054 25.19965
14.222618 7.0520654 25.146343
10.489733 7.2994084 25.194174
3.499934 7.3613939 25.164881
3.6440222 7.3831563 25.136627
10.453459 12.01727 25.197592
3.1576967 13.92168 25.181364
5.4929948 16.078352 25.109642
13.573685 4.5654945 25.245424
7.5555115 4.9070497 25.280375
7.2227707 5.0896759 25.288235
3.4985662 13.872122 25.20042
5.5713339 14.297723 25.223013
9.7088242 4.7754955 25.323185
9.8964911 4.7597537 25.317204
5.876183 5.4560318 25.341469
12.104111 7.346817 25.391096
9.4530783 12.274081 25.321981
5.7962403 14.522084 25.374544
8.689127 4.6225066 25.459137
3.3471854 10.145456 25.482265
12.414073 10.801813 25.421852
11.753277 11.325064 25.425083
4.3101659 11.943213 25.409389
4.6885815 12.551582 25.405588
3.139874 13.817643 25.403461
4.8933172 16.723618 25.413246
2.6272681 16.85853 25.431208
10.479189 7.3743744 25.556887
11.185092 11.540041 25.553888
3.5022867 12.846994 25.576822
5.8361349 14.500076 25.505764
13.09758 4.4467096 25.661673
11.797292 6.3871326 25.605778
3.3575873 7.1054754 25.685863
10.462023 7.3824177 25.627171
13.448631 7.5896587 25.607925
5.3811674 13.019304 25.68358
5.8877134 14.64806 25.665592
3.4725716 17.021263 25.634356
8.9512405 4.5536027 25.737988
14.203876 6.1090059 25.726835
11.747864 6.3443861 25.724171
4.0785589 6.9663887 25.787899
13.057498 7.646255 25.73278
12.620541 7.7145815 25.798906
3.7507906 10.975612 25.743116
11.495972 11.306746 25.753935
5.7521853 13.038886 25.777859
5.8990536 14.432875 25.71974
7.8361292 4.7978029 25.834742
5.9946718 5.3520632 25.859436
12.370932 9.05231 25.877451
4.5230241 10.998333 25.865795
11.66511 11.156036 25.845789
9.3604345 12.125969 25.819824
5.3972492 12.217533 25.854778
5.7597151 15.928149 25.871473
12.947375 4.4501734 25.995762
8.7570829 4.5965042 25.906536
4.5765228 6.5192442 25.924841
11.909014 6.9850717 25.904617
3.4101005 10.211924 25.924419
8.2323494 12.465289 25.983368
11.29586 6.5484009 26.013321
10.459824 7.3017564 26.098724
11.543754 7.8825541 26.026285
5.4469452 11.66705 26.054386
2.7602856 16.607464 26.041775
3.1573651 16.873522 26.053253
9.1160278 4.4314704 26.141539
13.078363 4.5450377 26.166821
10.494181 7.5034499 26.137058
4.1083155 11.473372 26.224623
5.7457919 11.5488 26.240997
2.7783122 12.684098 26.287029
10.129639 3.8783245 26.375792
11.607527 3.9103131 26.312206
9.7441006 4.318326 26.372606
10.123232 4.5874529 26.323568
5.0718527 10.637425 26.332157
11.751836 10.808052 26.35046
6.1257625 12.758098 26.376427
9.2220268 4.226779 26.489155
8.5970116 4.4329972 26.431292
6.8243303 5.0749798 26.441517
11.557096 7.2124424 26.495512
5.3937426 10.74822 26.435881
8.2950134 12.312708 26.492706
2.7373295 12.936942 26.400103
3.137094 16.634491 26.437357
3.4860661 16.876175 26.434027
11.886059 4.0825014 26.568991
13.153682 4.65874 26.522108
13.351995 5.0884128 26.566111
13.526991 5.6434503 26.578718
3.2787056 7.6990499 26.568867
12.321945 9.6301308 26.515991
11.393492 10.902588 26.527391
5.9478769 11.18786 26.548059
4.8658056 12.232645 26.523184
3.165864 8.416255 26.681065
12.038202 10.415115 26.662592
10.990777 11.081303 26.622669
6.4216547 5.2095919 26.709557
11.828877 7.5462022 26.794624
3.3180678 9.750267 26.768656
5.5244274 10.826277 26.766907
5.607801 10.848385 26.7943
6.1192117 12.791044 26.775019
6.204483 5.3063526 26.836357
4.1084957 6.9478974 26.830891
12.913099 7.4418721 26.811245
2.7588334 10.944294 26.817963
5.0906706 11.034595 26.896898
2.6516817 11.833883 26.827459
8.1729774 12.189671 26.883554
6.1560097 13.591942 26.815077
9.9752321 4.0703559 26.979725
3.4490099 10.518336 26.999727
3.8001235 10.981657 26.963949
10.76576 11.077426 26.907143
8.0665312 12.202169 26.914021
6.174159 13.231689 26.911369
13.03867 4.855103 27.038752
3.4342005 10.251472 27.007257
11.687049 10.38912 27.005489
5.604228 11.075973 27.054228
7.5582585 12.312407 27.094135
2.7358384 15.84437 27.077414
12.123744 7.3466048 27.146481
3.3525119 7.6571712 27.115614
12.279646 8.8530254 27.193346
2.6557212 11.100072 27.168003
10.489992 11.148106 27.125834
6.2802458 12.625498 27.185257
10.628611 3.7169003 27.231724
11.521595 3.734827 27.266064
12.201651 4.1778069 27.26223
11.567133 10.309557 27.255707
5.5897903 11.225384 27.222279
6.1604052 11.237299 27.2031
6.2195358 11.819332 27.248583
2.4671998 12.468077 27.293291
10.150763 3.7793822 27.366142
9.0345135 4.0370798 27.382671
12.918822 4.8584614 27.310574
6.1981688 5.3201332 27.337479
13.036749 5.460288 27.380154
5.064518 6.1969056 27.362606
4.7889605 6.4695301 27.368849
12.296685 9.2310238 27.371655
6.0564003 11.228931 27.370667
6.2225008 11.316401 27.354061
7.7903862 12.176865 27.34827
7.0911818 12.4121 27.367752
6.1437707 13.68776 27.393545
5.824882 15.272821 27.357393
6.9506168 5.0177531 27.447393
4.8127522 6.4516349 27.4361
2.5709181 12.986511 27.402565
5.0935464 16.059877 27.432354
12.863554 4.8365884 27.577381
6.0984402 11.400773 27.592915
2.5634089 12.607317 27.559841
2.6597843 13.344988 27.543747
2.905817 15.147434 27.537161
9.9284086 11.21668 27.696198
8.5811796 11.803899 27.684298
4.0944562 16.210003 27.602652
10.610588 3.7220511 27.744146
6.5165434 5.1902552 27.736113
3.7829444 7.3202376 27.747131
11.374975 10.206797 27.708988
9.8332653 11.267688 27.720232
9.1961231 11.598063 27.734171
4.8088636 11.922006 27.701626
5.9298396 14.136254 27.784784
4.4135852 15.916121 27.779282
2.9590991 9.0118837 27.837212
6.2471442 12.817636 27.839024
8.4757671 4.3972731 28.071522
7.2493916 4.9054737 28.02293
6.1079764 5.3662467 28.07373
2.3739452 10.426948 28.068241
9.4768171 4.0321765 28.10873
12.773066 5.177218 28.125746
5.3642664 6.1717429 28.152605
2.5767605 11.71372 28.104757
8.5856905 11.717456 28.123386
6.0846386 13.133209 28.178844
6.3362026 5.5255461 28.286278
5.6837115 5.6248655 28.287155
5.06356 6.5694523 28.279568
3.578989 7.6196389 28.224602
8.8360395 11.558419 28.292612
6.3624239 12.051865 28.223621
5.2468004 14.714652 28.259678
9.8261404 4.0385337 28.341322
4.7887411 6.5802946 28.381588
3.2828841 14.264572 28.310431
6.6468611 5.3625627 28.434589
11.827736 9.2986221 28.419958
9.8033895 10.782055 28.43528
7.1337786 12.115105 28.483927
8.2199602 4.7247052 28.511215
12.50066 6.6745844 28.594196
3.3000553 7.9540768 28.55479
2.6174183 9.1376266 28.513659
2.5860152 9.2449398 28.525421
11.719269 9.257268 28.571808
2.2235041 10.540186 28.56181
9.4594545 10.941711 28.595171
3.1139498 13.64175 28.546846
4.2912078 14.653094 28.57547
5.3204904 12.184386 28.630013
5.6715527 12.536164 28.666098
12.45577 7.7130876 28.745861
11.707445 9.0884314 28.797897
5.6928773 12.056978 28.742912
5.5049844 13.769711 28.722227
5.3746204 13.856324 28.710796
7.8478432 4.3991833 28.870064
9.2127695 4.4930949 28.817539
7.5987 4.9380398 28.818661
10.779344 4.1874752 28.987295
9.9074211 4.2950468 28.908062
10.496964 4.2302971 28.96361
12.317389 5.0221605 28.998508
5.2111549 6.4193349 28.943388
12.055599 8.7031574 28.916687
12.198462 4.5370722 29.012106
2.2710731 10.287058 29.024258
10.543541 4.4121032 29.126822
11.772877 4.4524374 29.128374
11.93559 4.4688268 29.122158
4.5891981 7.1497645 29.167114
12.438866 7.3674984 29.173843
5.7843857 12.574924 29.137119
5.9973049 12.733286 29.138586
6.6381383 4.5959702 29.214094
9.7281084 4.5875092 29.269369
6.7634082 5.0071034 29.25312
6.4547882 5.4583607 29.207476
8.2103291 5.104435 29.338583
6.8338137 5.3806319 29.376835
11.725231 8.4679804 29.350307
2.3685493 9.8439617 29.392443
2.6254914 11.480871 29.307446
10.338772 4.7998729 29.478937
6.4871883 4.8530998 29.443398
7.7770424 5.4012179 29.414751
12.116395 5.4760809 29.41342
5.3262086 5.5680881 29.484169
2.2872703 10.191596 29.438347
9.0585833 10.451795 29.452608
3.0946832 12.302139 29.409576
3.7410679 8.2044258 29.559755
6.7360435 12.127991 29.501167
11.456063 5.0549674 29.64163
7.3565426 5.4367986 29.600346
5.2857285 5.9426193 29.687511
5.4201155 6.3184109 29.632961
12.355652 6.781672 29.646572
4.8716307 7.2061062 29.68721
3.6760154 12.302235 29.66271
7.7285757 5.2641759 29.780621
5.0631948 12.070673 29.720119
10.729576 5.1389666 29.891882
11.752756 5.8414774 29.809864
4.7402506 6.2313409 29.823278
11.738581 7.6994166 29.827332
10.914541 8.2483807 29.854034
2.7394416 10.346488 29.84483
8.6334658 10.370565 29.808914
11.549356 6.1026421 29.980553
10.857934 8.0912971 29.941093
8.048851 10.725415 29.971577
11.547375 6.5992241 30.065126
11.288833 6.616941 30.065945
11.111382 7.5827417 30.052681
4.8684826 7.6047125 30.094002
11.14836 7.7075338 30.014929
6.3018045 4.0353289 30.197113
6.8889928 4.3831315 30.195383
6.612082 4.5130329 30.100826
10.436197 5.6745801 30.179268
10.520897 7.8820772 30.141781
6.7589998 4.7421937 30.259687
5.8073668 5.5908265 30.271465
7.4471264 5.6145639 30.269781
4.7341237 6.6795564 30.278704
5.7281132 12.320463 30.240007
6.0618801 4.930542 30.358524
10.236639 5.9895215 30.300861
4.9425955 6.3688116 30.361881
3.012661 10.915933 30.360298
6.9160433 11.343092 30.33847
4.6366081 11.764309 30.313305
5.2401338 7.5218825 30.426056
8.459713 9.3409557 30.412552
5.4723611 4.9417605 30.596647
5.6076097 4.9431667 30.556473
9.068965 5.671258 30.529671
5.3739338 6.6102576 30.546291
9.5177708 7.607131 30.552212
4.8036251 8.0852642 30.558121
9.2326012 8.180131 30.510881
9.2188177 7.7300034 30.621716
5.1806579 11.868198 30.65884
5.5465703 12.128332 30.681911
5.4002886 4.6021075 30.744461
8.2413797 6.2881041 30.719616
9.3063831 6.3428841 30.707502
5.5002785 7.7763615 30.797838
7.8646641 9.092308 30.731464
3.6056452 10.16457 30.719128
3.8776233 11.183004 30.709906
7.4818263 4.4708023 30.846107
8.4767628 7.6376996 30.886604
4.0237694 10.605188 30.846182
7.7030115 4.9561815 30.985956
5.3586082 6.5978675 30.984558
4.9669704 8.3386307 30.902321
4.5424318 9.0684719 30.981092
5.5276899 9.8113232 30.977772
4.8287868 10.014291 30.924225
4.8408079 10.283939 30.943382
5.7136364 10.393706 30.916992
5.6089058 10.721042 30.994026
7.7269626 6.1233201 31.087055
5.6375294 6.6020112 31.072626
8.268383 7.5060101 31.013523
7.9653773 7.7244167 31.08849
8.0229778 7.8134785 31.031696
5.6575727 9.4493103 31.094835
5.6843071 9.5152197 31.079781
6.0507212 9.5876598 31.04402
5.271616 5.3907065 31.179207
8.6980391 5.3685079 31.167053
6.2114258 7.2837248 31.192043
7.7483006 7.8545637 31.13965
7.4697733 7.9464035 31.182295
7.3593125 8.1150913 31.157429
5.5176787 9.2024031 31.149452
7.7319617 5.3447876 31.27018
9.7985096 5.4315324 31.266159
8.3687859 6.7594123 31.220169
5.8919039 7.3838186 31.218794
6.9924145 8.2735548 31.21715
7.0732384 8.2461996 31.202261
5.1269388 5.1764016 31.319555
9.7245665 6.7189484 31.351147
7.5097442 7.1144996 31.300667
9.4634361 8.4694395 31.367363
9.3389435 6.56249 31.49107
3.6229472 6.8980865 31.457996
9.3969059 7.5040116 31.460251
3.766989 7.6368523 31.471767
9.4759922 8.0670433 31.40469
8.3392715 9.3920727 31.486664
5.0564547 9.6174898 31.478594
5.2128386 9.6381731 31.496071
8.2271624 9.6657715 31.454163
6.0262041 3.8014398 31.578108
8.9270239 5.4004121 31.574444
9.2657442 6.0741138 31.500946
8.8455153 6.4115696 31.591343
8.854188 6.6752753 31.561935
9.1205673 6.6332116 31.57728
8.8750715 6.7507515 31.528776
9.3042173 6.9816985 31.516594
9.0326872 7.422513 31.584438
4.166059 7.7707844 31.583057
5.02244 9.1524925 31.56382
7.9190979 4.6253109 31.609409
4.1764293 5.8065901 31.649239
7.7097545 6.2071943 31.689537
4.9012055 8.436017 31.667824
8.8658638 5.4313436 31.723568
8.0719872 5.6940198 31.766577
8.2326927 5.8749485 31.778032
5.441143 6.3007131 31.759212
4.3480544 6.7105064 31.774687
8.3420143 7.7433996 31.737068
8.7441559 4.7625151 31.881279
8.7890348 6.297215 31.802172
8.6031504 6.9772401 31.829823
6.3900928 8.5458574 31.860092
7.6971436 3.6197629 31.929626
8.0572977 5.10395 31.995832
8.5775547 6.9816256 31.915752
8.8183556 4.8653889 32.065491
8.0835257 4.9905858 32.033566
5.0356441 6.1898441 32.06427
5.1191139 6.4277797 32.07999
4.438149 6.7865086 32.050537
5.9588661 7.0048943 32.087807
7.1694131 7.4584112 32.01281
6.4881988 8.0885582 32.038536
6.8974266 3.7979155 32.125553
5.6946788 6.9012423 32.184425
8.958746 5.4368601 32.298187
8.8845901 6.33283 32.285664
7.6861148 7.7512226 32.296261
7.7850127 7.7406902 32.200962
5.5425377 7.8528428 32.25074
8.0979309 6.5247669 32.32457
5.186451 6.7363119 32.31884
7.4182825 6.9618845 32.333958
7.2950792 7.3023748 32.315445
6.5802708 7.4002304 32.315899
8.2312832 4.6715927 32.464432
4.1268916 5.312582 32.406956
8.8392019 6.6300583 32.443779
7.6431427 7.1412845 32.466492
4.5971074 5.588625 32.537148
4.4254236 6.8895016 32.500866
7.2605963 7.267046 32.556145
8.0783548 7.4006472 32.53479
5.858983 7.8342314 32.53857
4.1230063 4.9458647 32.659214
8.5191889 5.3763733 32.680836
8.4968834 5.7515373 32.602558
4.6221399 6.0538301 32.652977
8.8417654 6.5424905 32.743252
5.4860029 7.6408095 32.740162
6.898819 8.2311335 32.794521
7.6943083 3.1984036 32.885815
