# .PCD v0.7 - Point Cloud Data file format
VERSION 0.7
FIELDS x y z
SIZE 4 4 4
TYPE F F F
COUNT 1 1 1
WIDTH 255
HEIGHT 1
VIEWPOINT 0 0 0 1 0 0 0
POINTS 255
DATA ascii
0.78130054 -0.13171421 0.090322599
0.8081187 -0.13579735 0.089789659
1.0774535 -0.14752844 0.082515195
1.1202868 -0.14657198 0.079599753
0.77533245 -0.044582658 0.08351998
0.84219265 -0.058400013 0.078683488
1.0681361 -0.058879171 0.081561938
1.1368725 -0.053695191 0.079583451
0.82900441 0.049586352 0.074922286
0.9116407 0.061419785 0.086557448
1.0723727 0.047257867 0.078137949
1.1160789 0.043021519 0.074741043
0.87061739 0.12025573 0.088625677
0.91149646 0.11333439 0.084495813
0.77616036 -0.11671484 0.11935906
0.82562524 -0.13193043 0.10878595
1.083891 -0.16747905 0.11606622
1.1264688 -0.14527833 0.113529
0.79082334 -0.013645632 0.14750448
0.85828817 -0.034656417 0.1533014
0.90684277 -0.0078892857 0.14193492
1.0629866 -0.048877694 0.14842533
1.1423995 -0.025011107 0.16286312
0.79286551 0.017250873 0.17397718
0.82367253 0.074537404 0.15582189
0.9153254 0.062201601 0.14612156
1.0598936 0.062271822 0.14489061
1.13982 0.0603274 0.15175799
0.85742259 0.12485832 0.14842543
0.91125232 0.11609117 0.12964211
1.0735184 0.10189724 0.12141487
0.77450579 -0.013675717 0.27196991
0.84076303 -0.040107787 0.24420588
1.0553135 -0.057230994 0.24585424
1.1331555 -0.055398017 0.25606722
0.77709597 0.038478516 0.24830982
0.88547111 0.062731534 0.26555312
0.90721899 0.061087787 0.24306206
1.0489752 0.037730426 0.25286499
1.1392901 0.043130938 0.25533354
0.8490628 0.11665066 0.24359199
1.0484506 -0.10693061 0.38533366
1.1216111 -0.10995873 0.37436494
0.75000626 -0.034345709 0.36160523
0.83780003 -0.035344984 0.35042915
1.0372167 -0.044675127 0.34597909
1.1472201 -0.060031191 0.35648161
0.74891216 0.050514091 0.35369363
0.86909735 0.061818752 0.35188201
1.0643563 0.04226755 0.35176528
1.1356522 0.027613372 0.36274281
0.86969054 0.10084258 0.30391493
1.0498259 -0.13383195 0.45066923
1.1265937 -0.11420643 0.41810074
0.73112035 -0.05785124 0.45968518
0.82982945 -0.033886097 0.45524761
1.0280553 -0.048626557 0.44571954
1.1575093 -0.045797188 0.46073306
0.72086555 0.040499479 0.44373536
0.8532241 0.048237596 0.4301151
1.0539534 0.048804495 0.43482205
1.144824 0.052185196 0.45368487
0.77260697 0.15647538 0.45137385
0.84964722 0.14235435 0.44201067
0.90768611 0.1487529 0.49163425
1.0461326 0.14711332 0.45528772
1.147686 0.15164505 0.46883368
0.78253156 0.25475806 0.48865446
0.84472942 0.25053865 0.46307459
0.92256302 0.24515931 0.48793891
1.060624 0.2578086 0.47783378
1.14395 0.24229683 0.48217714
0.85606879 0.33566999 0.48122081
0.93807137 0.32449752 0.4844459
1.0441376 0.34008518 0.48310667
1.1432141 0.34979096 0.48988652
0.87647223 0.49493721 0.47943792
0.94130784 0.42035162 0.49173918
1.0599784 0.46213204 0.47944087
1.1198901 0.45562384 0.4784565
0.87674737 0.50428748 0.49683774
0.94419193 0.50942016 0.46743506
1.0569643 0.5080868 0.4807201
1.0502685 -0.13246579 0.52892154
0.76008242 -0.054237455 0.54141396
0.82479644 -0.025993327 0.51579314
1.0462097 -0.045913018 0.56233954
1.1359228 -0.036733661 0.5464527
0.73942119 0.05211179 0.56475741
0.85053962 0.045064371 0.55089116
1.0161959 0.052104507 0.53811651
1.1626348 0.045573331 0.54300964
0.74209404 0.15523918 0.56018883
0.89469314 0.12757015 0.57135475
0.93065476 0.17338413 0.55086786
1.0086132 0.15069987 0.54530442
1.1788256 0.13456808 0.53776157
1.2915788 0.16265976 0.59437561
1.3523508 0.16186306 0.56055033
0.75235003 0.24907017 0.55983698
0.96267337 0.23725818 0.5372557
1.0157791 0.25023204 0.5127576
1.1898805 0.24202606 0.54634696
1.2061307 0.28109962 0.59034646
1.3368009 0.2142598 0.58677834
0.77245504 0.35996142 0.56042707
0.81098509 0.37568867 0.52488852
1.1878831 0.35013908 0.53821677
1.2166773 0.34641042 0.55478054
0.79414093 0.44948682 0.54934293
0.85273111 0.44792822 0.52532029
0.94782323 0.46389258 0.51970965
1.042998 0.45464599 0.511967
1.1465733 0.45319861 0.54605627
1.2126421 0.42565924 0.57848966
0.94772214 0.52324456 0.55134046
1.0668575 0.51428801 0.5364266
1.0728871 -0.0078908596 0.60957575
0.77347785 0.065697849 0.61467206
0.82597345 0.084403612 0.61755389
1.0623628 0.062570557 0.62910885
1.1166891 0.048390478 0.61485994
0.77374619 0.15184097 0.63371646
0.83416551 0.15313712 0.64511627
0.94496804 0.18706797 0.63225734
1.0460886 0.15093249 0.65630704
1.1354767 0.13872014 0.64065611
1.2916533 0.17766696 0.60452545
1.3211639 0.17082582 0.61057884
0.76647872 0.25360358 0.64476371
0.82547051 0.22361828 0.67473835
0.95788348 0.20820303 0.66563922
1.0507686 0.20855096 0.67599463
1.1614406 0.2443234 0.66695851
1.2629184 0.26637933 0.64122164
1.3159387 0.238066 0.62417841
0.76996839 0.35426039 0.6509552
1.1939654 0.30692956 0.69425696
1.2205477 0.36456209 0.64282447
1.3092098 0.32543015 0.66765898
0.78323418 0.44319695 0.63623631
0.81383258 0.47805667 0.66184133
1.1655042 0.48216185 0.64810985
1.2153869 0.42447138 0.65265059
0.86124063 0.51021957 0.64430243
0.9489876 0.52651453 0.67077857
1.0551516 0.51726162 0.63497448
1.1252359 0.50749213 0.65659219
0.77396703 0.28177291 0.74236292
0.86085236 0.25803053 0.71889323
0.95633566 0.2342937 0.75127953
1.0327652 0.22652069 0.75079
1.1510587 0.26705378 0.74198252
0.75553393 0.36767948 0.75737864
0.83755767 0.33468467 0.76015735
1.1735802 0.35757753 0.77627647
1.2375885 0.35077292 0.74810058
1.3101343 0.36087862 0.73098338
0.76892877 0.42468318 0.76547241
0.84130353 0.46644202 0.75670296
1.162984 0.47188118 0.75823677
1.2353901 0.44912249 0.77119398
1.3048579 0.41092545 0.75599819
0.88199174 0.50647634 0.74672854
0.9596312 0.52090836 0.74297881
1.0568169 0.51596904 0.73671055
1.1160529 0.50875622 0.73642164
0.852763 0.27273816 0.86500323
0.95162457 0.23173799 0.84002101
1.0565712 0.22711609 0.85264474
1.1480073 0.24948281 0.86385214
0.75198799 0.35863358 0.84973514
0.85861063 0.33784077 0.84572107
0.90043151 0.37041932 0.8463043
1.1646934 0.35134417 0.8683579
1.2352767 0.35250834 0.84405303
1.3051353 0.37427625 0.83419693
0.76341909 0.42524418 0.83028436
0.84186238 0.44382083 0.85460651
0.95119953 0.49746475 0.88232809
1.0424944 0.49634284 0.87063783
1.1653125 0.46062779 0.85134017
1.2534283 0.44622096 0.84857011
1.3063762 0.417974 0.8300643
0.93477774 0.504821 0.84435987
1.0436647 0.50762302 0.81814229
0.79171205 0.29494256 0.934488
0.84696013 0.26348945 0.93909132
0.99399841 0.22161634 0.9314388
1.048039 0.22396551 0.95799047
1.148586 0.2524676 0.95230705
0.76359916 0.34114093 0.96758664
0.84621245 0.37352601 0.92277223
1.1827654 0.33606172 0.91973382
1.2452161 0.34382665 0.95149291
0.77802289 0.42175803 0.95059991
0.82649529 0.44399723 0.9360224
0.93531197 0.4832572 0.93295771
1.0596554 0.48136398 0.95219314
1.1716471 0.47092986 0.94910026
1.2388468 0.44325304 0.94278008
0.79931402 0.28860605 1.022754
0.84474033 0.27250698 1.0432562
0.95262998 0.237212 1.0596497
1.0555444 0.24204528 1.0432476
1.1404382 0.26483485 1.0561413
0.78204757 0.35032305 1.0433303
0.81299525 0.39629263 1.0921903
0.97167438 0.38367563 1.0866667
1.0647844 0.36113846 1.0883664
1.2315094 0.3401179 1.0473673
0.79340255 0.41946805 1.0309418
0.84753627 0.42849106 1.0642002
0.93728858 0.45377323 1.045704
1.0543412 0.44763294 1.0566123
1.1539643 0.45474249 1.0667474
1.2302192 0.44385782 1.0439042
1.0556066 0.087019153 1.1841083
0.96658772 0.15152867 1.180733
1.056592 0.14566442 1.1548015
0.87955225 0.27418047 1.1160431
0.95037609 0.25673193 1.1495707
1.0714947 0.26232535 1.1632836
1.1206012 0.27486277 1.1328471
0.83782536 0.35788128 1.1201211
0.97190994 0.34755528 1.159878
1.0486637 0.34028846 1.1623694
1.1433432 0.34291583 1.1439677
1.2128626 0.34875217 1.1076661
0.95993364 0.41403013 1.1312678
1.0541545 0.4206658 1.123451
1.1587777 0.43007955 1.1099128
1.203836 0.414424 1.1073971
0.98766279 0.082423538 1.2694077
1.0549123 0.081896178 1.2503808
0.93912882 0.14661005 1.2602991
1.0849906 0.13902473 1.2297094
1.1066667 0.17637232 1.2664857
0.96270251 0.25945386 1.2486088
1.0575842 0.27233177 1.2328751
1.1014198 0.21519636 1.2200292
1.0189159 0.30278006 1.2728541
0.97682065 0.083621345 1.3274013
1.0428604 0.087065302 1.3565998
0.94418001 0.15394004 1.358601
1.0623864 0.12547952 1.3745334
1.1171236 0.18332867 1.3255128
0.94853431 0.23881307 1.3494549
1.0692527 0.26109248 1.3469917
1.1093216 0.20886548 1.3406681
0.99020076 0.30078414 1.3102078
1.0184064 0.30472878 1.3261898
0.98168588 0.17497811 1.4051176
1.0329349 0.17307106 1.4077587
1.0224564 0.2174843 1.4092784
