# .PCD v0.7 - Point Cloud Data file format
VERSION 0.7
FIELDS x y z
SIZE 4 4 4
TYPE F F F
COUNT 1 1 1
WIDTH 1548
HEIGHT 1
VIEWPOINT 0 0 0 1 0 0 0
POINTS 1548
DATA ascii
28.113552 6.0023332 19.762222
4.7398682 -15.393366 19.887938
-2.3950729 -14.626325 19.885885
6.7182579 -15.485387 19.924461
6.2375937 -11.406739 20.023344
0.89984524 -4.5472827 20.060556
25.107735 3.2862477 20.030766
25.07896 2.4255526 20.151411
7.7987404 -8.8718166 20.285337
4.1599445 -5.9926682 20.261372
0.99374044 -5.9239278 20.378975
27.62067 -1.0088515 20.336546
0.17028394 -17.89707 20.44783
7.2894664 -13.279135 20.414354
31.666908 8.8470697 20.405884
0.23452824 -14.682724 20.511919
0.17276603 -9.2539959 20.57918
27.441393 -1.1162469 20.586975
28.220623 -0.8744719 20.520912
22.78441 8.1321583 20.584785
-2.718447 -15.252251 20.671738
-1.1780289 -13.063356 20.61887
1.4817302 -18.440418 20.77668
25.660824 -4.7086115 20.72324
24.682314 -4.516438 20.776995
23.472607 9.0601149 20.750126
2.8632083 -18.303791 20.867132
-0.60394263 -12.271573 20.978689
29.060471 4.7408352 20.99452
31.847132 -2.5079103 21.091875
21.460323 3.7613766 21.077667
6.6811547 -15.777403 21.133539
24.339722 -4.3575997 21.186783
-0.63179195 -17.529903 21.238243
29.562731 -4.4312267 21.205511
24.986467 3.553515 21.236156
0.78806925 -18.133486 21.339367
0.30898121 -4.8219442 21.383924
26.818108 -1.2838513 21.357058
2.5586002 -11.872059 21.545248
1.4763489 -8.9802847 21.51804
27.940376 5.5716572 21.581352
29.918682 9.3047686 21.547108
4.6302214 -17.946125 21.775404
5.0936103 -12.139926 21.726398
29.021828 -4.8129497 21.74947
2.8429027 -4.281949 21.739265
4.6030216 -17.952263 21.82896
-3.4957328 -12.995911 21.845432
0.78902113 -8.0607615 21.870733
33.176487 5.1920538 21.837065
-3.5541892 -11.588047 21.990904
7.6918116 -10.139421 22.068035
33.276432 0.38304189 22.094929
29.629509 3.0830948 22.079048
28.026062 9.6166849 22.24712
6.6197643 -15.868419 22.380669
27.856102 -4.5181575 22.331184
24.747631 3.3170037 22.357275
6.588871 -6.2175107 22.420614
-0.3929522 -11.508432 22.656473
32.065773 7.2815704 22.694782
23.18771 8.2139931 22.633089
32.892704 5.0248089 22.86491
3.8718874 -4.6093578 23.040354
-3.3310971 -9.8336535 23.383961
28.589611 -1.8071575 23.421986
29.557413 -0.38975006 23.46347
21.779825 0.91840243 23.485537
33.170128 1.4727173 23.45928
3.7562425 -18.145094 23.67837
26.761909 -5.9828148 23.632206
31.948929 -2.5141404 23.679066
1.3084028 -7.6734104 23.758039
25.360764 -5.7053409 23.723619
4.2263684 -4.7600536 23.809893
21.872835 1.6595696 23.86261
29.158661 -1.2787236 23.961288
23.009979 7.6181779 23.981094
27.376368 -2.3190641 24.008419
22.311321 -3.1776261 24.198627
32.690353 -0.35677606 24.196697
21.907133 2.4197547 24.191614
32.276955 5.4969501 24.249403
32.198753 5.5888467 24.392906
30.572968 7.5498171 24.417763
28.243456 8.6537495 24.418423
4.9851255 -8.8714266 24.656563
6.733202 -6.6565137 24.674084
25.782509 -0.97977114 24.715302
-3.1056592 -13.52919 24.879135
28.035339 -1.1014116 24.912109
26.606243 5.2157679 24.93746
6.8002701 -15.671021 25.096544
4.2203407 -14.951258 25.145214
-0.28502947 -13.823626 25.18502
-0.47725567 -13.03939 25.1266
30.031216 0.1541914 25.269825
23.990892 -0.10515845 25.322626
27.988153 -2.7670498 25.415421
24.733257 3.70575 25.401382
-1.9760273 -7.0322804 25.526804
4.483407 -4.9945865 25.582291
29.126928 2.5088048 25.593719
-0.11263479 -14.277629 25.779778
23.973516 3.7504191 25.799553
0.175754 -15.006433 25.864851
-0.0047394335 -9.4458179 25.852688
0.41961986 -8.3147488 25.819063
22.386997 6.1680799 25.812639
6.3528647 -6.1380882 25.903664
26.617355 0.59279227 26.16069
24.6159 6.5926261 26.242922
27.883316 -6.5392275 26.329247
3.7450621 -4.8836994 26.31988
24.858137 -2.922389 26.355114
31.208643 5.5802636 26.327688
28.730106 3.2117221 26.419258
31.490341 5.571528 26.483757
28.908714 5.347681 26.592684
30.767124 6.3009558 26.506088
-2.6704891 -8.9925766 26.674114
31.702782 4.758791 26.646427
27.035944 6.4304018 26.611853
-0.53846085 -12.249296 26.780212
28.994139 2.1882839 26.806919
25.011723 4.1978827 26.839657
3.0982952 -15.850952 27.076912
23.151503 -5.5875807 27.173985
-0.56723815 -12.833764 27.382875
-1.7524028 -6.9717407 27.469955
3.179893 -4.8583636 27.501137
-0.27914959 -14.278613 27.779228
5.8620224 -16.794643 27.858295
23.464481 -1.2175531 27.819241
6.3980007 -6.3686018 28.347786
24.236046 2.9173031 28.394236
-0.55421573 -17.236034 28.55855
2.7535102 -16.287371 28.632366
1.8024414 -7.2656078 28.688894
29.833471 -5.891695 28.69508
21.711887 4.2042084 28.678585
0.29989377 -15.643811 28.739439
5.8943601 -5.8054905 28.801361
27.987576 -4.4329963 28.889755
7.8237858 -11.011377 28.998192
28.539072 -4.1040468 28.995392
28.459335 -6.9457445 29.030037
28.468788 -4.3352795 29.089523
28.9216 1.2266672 29.21792
24.237961 2.8819654 29.236179
21.425116 3.4466162 29.591557
4.166081 -5.3069568 29.627953
26.706621 -8.0303802 29.97912
-0.35740855 -6.423708 29.963295
22.689293 -6.270649 29.95392
22.181669 -5.7231936 30.106396
31.60284 -3.5702543 30.308586
23.007565 -2.9675424 30.492533
31.753666 1.1719817 30.431118
23.511103 1.6274904 30.485111
-0.26455081 -9.7337608 30.54579
-0.19325209 -17.588766 30.640614
4.3958325 -7.08038 30.663336
21.389664 -4.0792589 30.697163
4.806396 -7.4206429 30.721233
0.53013939 -5.8145132 30.742393
4.6322937 -5.5270228 30.716213
5.8277855 -14.391393 30.825687
31.799936 -1.3755097 30.857784
2.9344189 -16.608482 30.957455
27.060385 3.2027588 30.98793
24.906042 6.0280294 30.910461
6.7861624 -16.339731 31.188025
23.870293 -8.1654701 31.293337
20.832323 -2.0507317 31.578487
-2.8112569 -11.922803 31.743582
4.1763611 -6.9697957 31.761234
23.251667 -5.0538349 31.767355
29.160675 -1.0905993 31.85503
-1.2316275 -7.3068361 32.174366
28.280828 1.6706588 32.289341
4.7131596 -18.436996 32.359818
7.2998018 -15.538534 32.448448
3.8900814 -5.5324335 32.668137
31.332067 -3.9397275 32.685688
25.67688 5.4632511 32.629387
23.286732 -8.7404261 33.012695
-2.5572619 -13.927917 33.480267
20.584248 -2.1500235 33.534309
30.238903 2.8483818 33.528057
23.061157 -6.2525225 33.615009
26.048923 2.926723 33.686001
7.8646798 -13.601214 33.932178
-1.2587401 -16.607534 34.178085
23.645557 1.782706 34.147797
28.898216 -5.2403989 34.435104
22.063763 -2.8155458 34.623295
-1.8726822 -15.890507 34.727989
-2.266259 -9.95228 34.71698
27.816874 4.0055928 34.795422
25.830006 -10.336005 34.87233
4.1917934 -5.8491611 34.814129
31.119883 -0.67910069 34.835098
20.428612 0.0026129484 34.865608
22.078941 2.9674091 34.822853
21.954279 -2.210717 35.211658
26.946903 4.0077682 35.245556
7.4158049 -8.3781662 35.555187
29.44915 -7.9844007 35.652351
20.544025 -5.2614021 35.705078
26.256023 2.071903 35.722164
5.1267891 -18.724867 35.887787
30.141214 1.366416 35.843964
7.6472301 -15.270714 35.947212
28.270737 0.094329223 35.907078
22.88335 0.4412902 35.924797
3.026072 -5.8114972 36.061462
25.40283 2.2219265 36.27536
24.816656 -10.895739 36.4216
8.1830235 -9.5344868 36.500202
20.193062 -3.3573306 36.54702
21.761793 -9.3100309 36.890377
8.2528296 -9.6851654 37.179512
30.654572 -6.1055617 37.161182
-2.4943399 -11.55571 37.216263
1.998377 -19.282009 37.322994
23.288273 2.8006239 37.316746
24.843723 -11.409748 37.427578
-0.51641572 -7.4919415 37.487381
27.377165 -10.606293 37.57003
27.918901 -10.30542 37.555923
25.380423 -11.652184 37.629986
25.871265 -11.48715 37.723518
29.639744 -8.3254614 37.707157
5.245615 -6.6729898 37.718124
-2.3567283 -13.024656 37.943737
29.026989 -9.2066765 38.02581
30.557983 -5.9356003 38.291901
20.003578 -5.3353667 38.285667
21.053814 -9.4322004 38.348423
-0.92060471 -17.268671 38.431374
-1.9310179 -16.075752 38.899914
28.045103 -10.781995 39.034729
3.4565592 -19.730831 39.74041
21.817118 1.0121477 39.825012
7.745266 -16.319855 40.156303
8.3459177 -11.843482 40.347748
19.694735 -5.858027 40.458702
23.627481 1.5138705 40.603672
26.00882 1.605037 40.840393
3.8197212 -6.7696404 40.902039
29.805387 -2.0133362 41.041191
20.86405 -11.001694 41.202919
23.894709 -13.205825 41.34903
23.084072 0.93702579 41.342346
8.4008541 -11.125909 41.462772
29.360542 -9.8883228 41.469429
-2.1462283 -14.047837 41.502602
-2.236629 -12.715559 41.592308
7.2129078 -17.739645 41.744957
2.3085885 -7.0170803 41.789261
7.6169858 -17.377102 42.06979
6.4216528 -8.2031965 42.030586
30.03421 -7.7326927 42.197971
19.933918 -2.7037218 42.145435
8.1127396 -15.552883 42.432556
4.4003873 -19.942051 42.739136
4.5209169 -7.5955644 43.277275
21.506338 -0.92201364 43.408028
2.6300838 -20.281738 43.569084
1.5184853 -19.790751 43.758564
23.126343 -0.47620434 44.081459
-1.8663704 -16.560448 44.138824
4.2983456 -7.7009568 44.164177
24.737864 -14.895886 44.352173
7.726675 -17.657885 44.487358
-2.1039219 -12.965947 44.543732
29.32449 -3.9395642 44.653008
6.1628599 -8.7315636 44.743832
22.154346 -1.3466713 44.718018
-0.63952184 -18.36323 44.842484
29.818718 -7.5931878 45.184143
29.847456 -7.277513 45.17477
23.172241 -15.016224 45.208115
-1.9931601 -14.113125 45.521225
7.7756329 -10.710685 45.813232
25.47625 -1.4533534 46.304909
27.583458 -14.081472 46.448109
22.578709 -2.1642923 46.468319
19.367109 -11.486284 46.606304
21.192678 -3.1160502 46.74308
2.2175472 -21.205843 46.867931
-1.4482361 -17.954197 47.196587
7.9522533 -17.56711 47.125946
-1.3885655 -12.034987 47.133987
27.507162 -3.2679493 47.163826
1.2538232 -8.8856716 47.291283
0.09161859 -20.05381 47.345173
-0.35292768 -10.442808 47.648438
28.428612 -13.617912 47.784294
21.211704 -15.946894 48.004406
-0.4651947 -10.735857 48.147438
18.927103 -9.5909281 48.21286
29.482525 -8.4853678 48.639969
29.309055 -9.9825907 49.0084
27.578712 -15.419342 49.127113
19.362251 -13.645898 49.117966
3.5531051 -21.939087 49.353722
19.818737 -15.26749 49.499092
1.3354049 -9.9182329 49.556938
29.280052 -10.034117 49.712265
22.505833 -17.691216 49.839226
5.7138557 -10.142591 50.05452
0.94894534 -21.202797 50.163773
2.8823481 -9.8947315 50.17802
-1.5296582 -18.049747 50.386528
25.15044 -17.725239 50.435246
-1.5922137 -17.229925 50.562946
29.165384 -10.842722 50.54092
27.888899 -6.1832266 50.527679
22.903446 -18.221994 50.69207
1.6228259 -21.804909 50.797928
8.6618338 -12.980577 50.771019
8.9099426 -17.010155 51.343842
18.813641 -14.627745 51.447186
28.434929 -14.846617 51.711388
20.568241 -6.4090781 52.308636
20.703068 -6.3723869 52.335953
1.1349903 -22.134403 52.461002
24.899218 -5.4489484 52.40184
28.900745 -11.562146 52.514954
28.436483 -9.5312576 52.693424
25.685181 -18.535872 52.761147
18.595642 -9.113883 52.765617
2.6870346 -22.894522 52.842354
6.6612701 -21.567665 52.848915
8.9216919 -14.034989 52.846027
28.725571 -12.826262 52.87027
26.661533 -6.8116217 52.825058
6.795186 -21.491096 53.119732
7.5557504 -20.695599 53.265232
9.0489807 -16.184568 53.208981
6.5902319 -11.126838 53.384949
21.60124 -6.7061434 53.536907
6.5762892 -21.888401 53.727936
-1.0530877 -19.843807 53.772739
2.8079298 -10.747501 53.789661
-1.9500141 -16.366133 53.941345
9.1055365 -15.638445 53.938492
4.737658 -23.060772 54.133266
28.309902 -10.257435 54.135166
27.313574 -17.452354 54.329208
19.115377 -17.553095 55.003155
5.9166689 -10.991765 55.029182
5.8581247 -23.033756 55.191944
8.4550037 -12.660266 55.105667
18.177588 -10.119519 55.301479
26.946358 -9.202549 55.495319
23.58202 -20.297482 55.591225
7.825592 -21.295153 55.675972
27.425619 -9.5657072 55.854073
25.172438 -8.0794067 55.917679
17.913675 -15.112595 56.130775
9.1112881 -13.375603 56.117599
4.7583361 -23.490522 56.259464
25.38821 -19.871292 56.732533
-0.56897473 -21.686249 57.094902
17.608124 -14.761803 57.03508
6.6280084 -11.1507 57.130428
18.083876 -17.606359 57.790478
17.748226 -10.312645 57.773338
5.7951188 -10.865208 57.886116
8.5705004 -12.506121 58.175606
0.95963967 -11.481653 58.140732
9.122797 -19.07596 58.22744
28.077454 -10.793571 58.491959
24.91753 -20.571774 58.720779
2.1806202 -23.900072 58.922615
19.597656 -8.4114828 58.902855
27.767954 -10.062716 59.158371
21.62208 -21.049404 59.500244
3.4049821 -24.415276 59.612373
28.109097 -17.672899 59.680866
18.021599 -9.7477512 60.233891
0.7113992 -23.557793 60.319115
17.05599 -12.63516 60.320969
23.200916 -7.8970714 60.328453
8.7455168 -21.261717 60.47739
25.061153 -20.942783 60.409447
16.968756 -14.558244 60.513901
24.198456 -8.1155529 60.5205
-1.2844405 -13.030701 60.66341
28.599756 -12.503482 60.615753
2.4028015 -24.343506 60.773918
-2.023221 -19.282959 60.823326
23.688633 -21.722679 61.479782
28.725056 -13.908739 61.586567
-1.1978065 -12.689724 61.631657
19.72797 -8.3661613 61.826061
4.4697766 -24.652798 62.017323
-2.0612926 -19.453999 62.213863
-2.0718496 -15.440074 62.233749
1.5460749 -24.300007 62.53685
23.244129 -8.0159883 62.730423
9.3881025 -13.378693 62.897682
9.8162823 -17.004375 63.123322
25.335262 -21.454308 63.233498
9.7110748 -13.846281 63.556767
9.5605526 -19.175648 63.650169
9.7756968 -13.941567 63.653332
21.397026 -7.8802781 63.646912
9.1713209 -20.678383 63.731049
17.435867 -18.900122 63.792568
26.557735 -20.661001 63.94025
5.2098327 -10.26134 63.953186
2.4230514 -24.948008 64.084373
1.2010034 -11.258839 64.076302
-2.0781031 -20.336761 64.298157
2.6101532 -10.722704 64.445198
2.3332498 -24.988918 64.585289
0.38239646 -24.116817 64.500481
-2.2559605 -17.716911 64.567123
16.536415 -13.630985 64.643822
6.8403792 -10.804346 64.737785
-1.1508304 -22.147528 64.878082
8.7481842 -12.267502 64.98951
23.871443 -22.513081 65.097824
9.9343958 -16.560953 65.045425
9.5097446 -19.870487 65.112167
-2.2099738 -19.038815 65.310982
0.31428564 -24.200729 65.403366
6.8902564 -24.255091 65.426521
20.17388 -22.423988 65.459709
17.738007 -20.139256 65.753036
5.2344079 -25.151894 65.847336
-2.3906682 -16.7757 65.94957
3.0532482 -10.602139 65.930405
8.896596 -12.371618 66.009438
21.160601 -22.804255 66.203644
19.252558 -21.961882 66.433739
10.057099 -16.816185 66.415627
28.193607 -12.596148 66.437469
-2.4270775 -16.597908 66.683609
-1.0155869 -22.603031 66.770027
26.951599 -20.516479 66.89724
-0.98003244 -22.691814 67.034538
2.4642634 -10.768996 67.110489
-1.1390778 -22.480196 67.246689
6.3436894 -10.6071 67.280388
26.298538 -9.648344 67.287827
17.553835 -20.53511 67.541481
10.151015 -16.643654 67.508598
22.092548 -23.331213 67.631996
9.941144 -19.225534 67.782379
5.5248079 -25.374609 67.840317
-2.260278 -20.992874 67.870865
27.141012 -20.351734 67.870361
6.7723212 -10.757895 67.850838
27.54561 -10.44539 67.825516
9.3210926 -21.750246 67.953613
-2.0178442 -14.90166 67.979172
9.5335522 -20.868509 68.034317
21.820576 -23.395884 68.159973
3.6145782 -10.46792 68.248192
-0.58566415 -23.466188 68.385948
19.963022 -8.3861084 68.323799
-1.1181254 -22.671879 68.450684
26.087952 -21.986414 68.429909
17.606001 -20.889732 68.449333
15.967484 -15.327601 68.570709
-2.4312472 -19.166889 68.699524
17.887573 -21.383011 69.043869
10.272948 -18.24329 69.08107
18.59655 -8.901926 69.263779
0.64488435 -24.7873 69.41227
21.082458 -8.0592813 69.565849
16.567265 -19.530375 69.607727
10.367 -16.489508 70.022362
-0.34723544 -12.113672 70.052902
-2.4737964 -20.07291 70.170517
2.4818213 -10.786335 70.172485
27.942553 -12.416572 70.21347
15.713001 -15.95404 70.354347
28.30711 -18.611788 70.546158
27.496542 -10.918115 70.537964
3.0379 -10.640856 70.731232
-2.596571 -17.977486 70.892303
8.900032 -11.777302 70.92234
8.0989933 -11.105088 71.078995
28.42263 -14.438114 71.111473
10.276828 -19.398993 71.673035
22.552544 -24.264212 71.752602
28.346714 -18.348116 71.883156
7.1482515 -25.148975 71.943558
10.528004 -16.693062 72.036613
3.6386979 -10.544897 72.32283
17.231174 -9.6592121 72.35054
25.277477 -23.101767 72.402649
10.529661 -18.786945 72.609642
3.9900818 -26.315765 72.736954
10.179157 -20.288174 72.826706
28.44141 -16.784504 72.981346
10.231129 -20.237217 73.199707
16.132309 -20.637403 73.216728
15.896671 -19.505585 73.251427
28.322609 -18.967215 73.231934
15.321449 -13.024073 73.524849
5.0116415 -26.258575 73.618538
15.315257 -17.201977 73.723228
-2.6906412 -20.380106 73.815239
28.133968 -13.828314 73.819107
-0.29117781 -24.648869 73.940849
2.5828972 -10.796816 73.981705
16.119282 -11.154432 74.091484
19.58634 -8.8035364 74.178139
9.585207 -12.513947 74.207458
23.340572 -24.340294 74.306946
19.105129 -24.254641 74.35289
16.493923 -10.507897 74.349174
3.7242007 -26.588579 74.491142
26.819736 -21.723627 74.570587
10.054346 -21.678234 74.555855
15.835457 -20.491877 74.680443
-2.7900589 -17.317156 74.895187
-2.0245245 -22.482105 74.941757
9.6475792 -12.525986 75.078911
-2.794862 -18.120413 75.288513
4.5863752 -10.438105 75.249481
17.113333 -22.615196 75.386513
3.9511657 -10.566376 75.385574
20.623936 -24.77692 75.459175
14.992926 -13.769027 75.704071
2.6647944 -26.458118 75.875381
15.721528 -20.989271 75.855804
16.136171 -10.91017 75.805801
10.817691 -18.677313 75.939034
10.134742 -21.945158 76.074928
5.9797783 -26.412088 76.23616
9.9784546 -22.74815 76.486679
28.362869 -18.364813 76.447159
14.876895 -13.332293 76.572571
27.337294 -11.821007 76.639633
-0.340727 -12.253412 76.886475
15.826996 -11.267426 76.988647
21.999218 -9.0631113 76.929657
28.407318 -16.527271 77.08477
-1.501392 -23.46048 77.195061
21.956951 -9.08601 77.208031
14.891916 -18.077404 77.321075
5.3837442 -26.631342 77.48317
6.7541823 -10.665565 77.571701
28.328884 -19.11747 77.756989
24.45645 -24.292545 77.810135
14.701586 -17.220013 77.852013
28.357437 -17.976805 78.057152
28.383398 -17.023417 78.099113
-2.8698425 -21.445482 78.275986
17.288225 -23.720308 78.362091
14.700443 -17.859406 78.405052
4.9033089 -26.814493 78.555992
9.5396109 -23.908211 78.886528
16.837116 -23.418911 78.858017
14.624718 -16.072874 78.866829
25.45895 -10.608183 78.833168
7.4970837 -26.042208 78.992203
21.779787 -25.654732 79.0354
10.993945 -18.266375 79.104218
28.38945 -16.159737 79.227661
23.451073 -24.944164 79.32502
10.582728 -20.842121 79.311295
22.807346 -9.5512838 79.324356
7.133419 -26.478493 79.441582
-2.9338462 -20.644161 79.472382
-0.26392621 -12.445135 79.454002
6.6545801 -26.619234 79.62529
3.0070732 -11.067282 79.652573
4.7746611 -26.946899 79.791924
9.6330738 -23.898535 79.722511
19.733755 -9.0793047 79.741051
28.27319 -20.130516 79.869995
22.412565 -25.515318 79.959106
15.19749 -12.287062 79.998169
23.410961 -9.7823172 79.949104
28.336979 -17.75753 80.078308
22.858484 -9.6951323 80.090904
16.551023 -23.52018 80.111244
27.945826 -14.7067 80.201477
28.341602 -17.474142 80.329987
23.43412 -9.9302864 80.771843
11.129954 -16.732605 80.817688
20.853451 -25.845285 80.946953
28.332745 -16.157425 80.949722
18.971176 -25.585217 81.199463
18.318596 -9.6270885 81.223038
7.9127398 -26.062649 81.416382
28.286995 -18.882055 81.47641
27.71608 -14.33986 81.670662
8.2086353 -25.879259 82.021851
18.502138 -25.663504 82.065285
9.2588806 -24.65815 82.195557
27.143833 -12.585295 82.159073
23.090286 -10.109032 82.198059
11.117849 -19.188429 82.337959
-2.3806596 -15.608393 82.318878
10.793955 -20.892611 82.488518
-1.1500957 -13.21244 82.482727
24.081081 -25.043064 82.571098
-0.56933975 -12.894106 82.520142
21.574989 -9.8593159 82.526154
-3.0662584 -21.05792 82.75235
14.273922 -15.929964 82.720596
3.048533 -27.086489 82.869598
28.034012 -15.687382 82.878944
5.6819897 -10.868818 82.815895
16.352465 -10.460514 82.85495
14.183619 -17.348475 82.9646
19.271221 -9.5434666 82.923134
19.874411 -26.076992 83.142815
10.552579 -22.542414 83.17495
-0.24301636 -12.768476 83.142258
-0.67645139 -13.016315 83.209129
1.3295379 -11.912146 83.423782
10.917657 -20.688639 83.572342
9.1037388 -25.029514 83.676445
6.3850307 -10.824857 83.656456
-3.0997863 -21.559486 83.73703
28.256271 -18.148088 83.706116
10.8511 -21.236235 83.968994
14.246981 -19.487516 84.090408
1.6568017 -27.97183 84.123436
0.083664596 -25.860939 84.170677
-3.1120024 -21.866552 84.144112
9.6129713 -11.67288 84.113724
0.55834043 -25.901611 84.284988
15.403162 -11.446888 84.249878
3.9235618 -11.314665 84.299133
10.793344 -21.706736 84.302734
16.846012 -10.475854 84.558807
25.843437 -24.15963 84.851799
-2.7184145 -16.626734 84.87973
23.085827 -25.789759 84.926476
15.45812 -23.538773 84.995529
20.982611 -26.572731 85.047028
27.504925 -14.544861 85.077744
1.8672373 -28.620068 85.295273
4.2495131 -11.346097 85.241951
-0.81255382 -26.547173 85.384453
18.573965 -26.264233 85.361526
-1.9550451 -14.282581 85.308075
0.015130036 -25.95713 85.472816
5.2532806 -27.369282 85.547455
3.415849 -28.206249 85.710114
23.010571 -10.717937 85.787216
8.4928761 -26.280272 85.979652
15.817036 -24.391111 85.943726
22.531002 -10.678219 86.116806
3.593642 -27.511986 86.306229
11.880569 -15.681658 86.579758
11.040362 -13.655036 86.574005
24.206848 -25.525663 86.657494
28.169981 -17.074547 86.61042
10.332987 -24.658976 86.7061
1.9327352 -26.781673 87.098091
-0.66706371 -25.214983 87.289009
3.5990992 -27.891333 87.342392
-3.0752544 -21.154217 87.437805
11.033526 -13.044588 87.408531
9.717145 -25.309258 87.51416
2.7487621 -29.349792 87.64904
28.120996 -17.172987 87.616394
13.882189 -15.134053 87.79435
4.0296774 -27.621223 88.107147
12.390791 -15.280403 88.169167
0.45838717 -26.056553 88.430298
15.898863 -25.335175 88.461716
2.2506545 -28.326771 88.503357
3.2943461 -28.900957 88.66864
-0.75165457 -24.938086 88.621162
22.715094 -26.250414 88.738632
1.3820599 -27.575859 88.884789
1.649552 -28.990906 89.021645
1.015787 -27.327908 89.033066
6.4854865 -27.284418 89.008522
21.327587 -10.961355 89.185165
8.1511698 -10.210659 89.190727
-0.30190536 -27.348877 89.221375
13.899063 -12.897662 89.208763
14.259516 -12.005301 89.317032
20.160494 -26.992691 89.4263
15.685841 -11.027117 89.437622
1.8258761 -29.937668 89.67247
11.762783 -11.191533 89.606567
3.2150724 -10.897792 89.666695
3.6284232 -10.81299 89.630676
18.846189 -26.839323 89.783424
-2.1368551 -23.034628 89.709183
3.8671672 -27.580997 89.863617
20.516968 -27.866655 89.989258
23.948839 -27.065163 89.911766
6.1434612 -27.558865 90.155479
20.030743 -26.820904 90.148766
27.903349 -18.347342 90.162674
20.522255 -10.654049 90.118332
2.8390989 -10.795874 90.243225
18.993591 -10.256735 90.201965
27.407242 -22.084162 90.3078
27.496696 -15.936157 90.30365
18.629215 -10.111835 90.353622
27.799446 -18.997078 90.579559
-0.46820098 -12.860987 90.586388
16.638248 -26.971523 90.635483
-2.2553253 -15.441186 90.635696
6.8746972 -9.7645464 90.666679
4.0221448 -28.749954 90.839478
-3.1749969 -25.830362 90.858307
-0.33935717 -25.207848 90.80661
16.849522 -9.9339828 90.857643
2.3993306 -29.66733 91.024551
0.59444875 -29.075991 91.07251
17.892689 -28.344179 91.075195
12.848655 -27.173162 91.047752
11.194622 -10.313809 91.007835
0.7254225 -28.846146 91.181892
17.494781 -28.587818 91.182983
0.48480403 -25.929344 91.185776
12.61225 -27.524975 91.377602
27.385691 -21.997406 91.453789
25.752777 -23.978981 91.643356
27.664434 -16.911167 91.604286
24.793352 -12.214139 91.708374
4.3925223 -29.598688 91.860817
3.8583298 -28.114378 91.860291
24.663136 -25.306999 91.81044
27.489065 -21.232201 91.982437
-1.3672926 -28.921053 92.065544
-0.74633253 -26.200668 92.023125
26.746708 -14.013327 92.061066
6.5892296 -9.3879566 92.309235
-1.8692527 -25.042374 92.464516
-2.5601561 -22.046114 92.455116
14.552425 -9.7192469 92.484009
23.581535 -27.108541 92.580132
-2.5010543 -28.229979 92.717064
11.322423 -9.521843 92.794418
20.875118 -28.381783 92.861053
-0.69516051 -13.042941 92.893806
24.052109 -11.741604 92.864166
4.4517651 -29.224628 92.978027
18.580374 -27.461773 92.940605
26.292582 -13.261705 92.944084
24.429649 -27.273979 93.173042
24.256212 -25.578053 93.204857
-2.6154947 -17.486639 93.297493
22.480198 -28.724327 93.723511
7.2431164 -27.799576 93.947769
15.736666 -9.240592 93.965347
17.868696 -29.261183 94.386078
15.809772 -28.009197 94.382164
19.547873 -27.52705 94.357857
2.2112188 -26.661621 94.337776
3.2414813 -27.151367 94.587914
25.727671 -26.714382 94.512978
19.752209 -27.543686 94.694031
-1.1377356 -13.693325 94.683563
2.0476208 -26.916008 94.728622
1.8798575 -26.487099 94.766327
21.456566 -27.786888 94.982841
0.42124191 -12.382438 94.901039
21.069824 -10.157446 95.071899
-3.8400216 -25.745823 95.213303
9.4888506 -9.4008923 95.43811
26.989973 -16.859343 95.54586
17.436781 -9.3130741 95.609634
20.01829 -28.669531 95.833603
1.4517467 -11.623675 95.835068
20.497757 -30.113947 95.908524
22.270042 -27.574554 95.986595
0.23129198 -25.41054 95.94371
18.894287 -9.7586937 95.910828
7.6006351 -9.3986225 96.078552
18.014685 -27.810951 96.275917
22.13913 -28.028969 96.501312
-0.45706153 -24.379856 96.501991
26.48148 -22.467735 96.568291
25.512436 -13.396666 96.538353
26.703329 -21.906363 96.695473
22.77215 -28.142874 96.728462
2.1247497 -11.153627 96.720558
22.774437 -26.353249 96.992905
26.20252 -15.412643 97.059998
24.992771 -28.147194 97.193306
24.270979 -25.288792 97.247635
21.217407 -28.418203 97.370026
-2.8816648 -22.39653 97.314957
-0.42738679 -12.850366 97.486099
5.593647 -9.4542217 97.422173
12.04 -29.463104 97.568413
12.80229 -28.536102 97.578468
13.514842 -28.505739 97.582291
-0.49486476 -23.320055 97.516541
12.473725 -9.8709641 97.566704
13.113388 -29.365356 97.773537
22.086565 -27.790525 97.728378
2.8642926 -27.413185 97.768311
23.37254 -26.052559 97.730247
-1.8164222 -15.18376 97.782394
25.297737 -13.574179 97.775581
11.061111 -9.9472733 97.756523
15.906579 -8.8936577 97.710442
22.330338 -27.457361 97.843948
0.69754219 -26.421558 97.82473
25.793842 -22.261919 97.820251
-0.67540956 -25.610126 97.93866
-3.0656614 -27.894421 98.047668
-0.39337176 -25.030746 98.001297
25.848118 -23.052086 98.145027
10.510084 -28.430252 98.249542
-2.9710264 -26.983097 98.274986
22.041626 -10.978659 98.204582
2.8188112 -10.791101 98.264526
27.316116 -21.881168 98.325272
-3.7219977 -21.771965 98.306259
-1.2751076 -16.208742 98.388947
15.367424 -9.9254627 98.386002
9.7488289 -29.18532 98.422546
-2.9361634 -25.516991 98.464928
10.305222 -10.198682 98.453995
19.957825 -27.807568 98.693817
-0.99113214 -27.892078 98.765335
2.9866729 -27.426386 98.85434
-2.4026678 -21.189627 98.879204
28.110504 -20.347591 98.818687
-1.6490151 -26.602489 98.918213
-2.3506026 -18.096653 98.943237
-2.2747874 -17.473677 98.954597
0.56692815 -25.379578 99.091194
22.699507 -11.060263 99.093536
29.151302 -20.926365 99.129471
26.557512 -19.582983 99.165657
17.853199 -27.986164 99.244652
-0.13875811 -22.778536 99.266151
-3.9582143 -20.880119 99.202209
1.664133 -11.622166 99.253479
-1.3846954 -23.881189 99.308395
25.137558 -22.494793 99.343857
20.912302 -10.504246 99.342056
20.686522 -27.658751 99.479362
-4.6325922 -24.057657 99.540703
-2.2673185 -21.425484 99.516609
28.233324 -19.042294 99.579483
27.357069 -18.72669 99.565804
6.1900864 -9.7657251 99.549103
23.467602 -26.162205 99.637909
-1.299583 -23.947083 99.696442
-1.3508976 -23.07695 99.687347
2.7273545 -11.235319 99.708664
2.9208014 -26.84186 99.875427
-0.95298326 -24.502804 99.811531
14.623658 -10.513664 99.839897
11.793215 -29.334404 99.934731
0.80683923 -26.232311 99.947861
26.120687 -20.007128 99.920845
19.612137 -10.990214 99.949928
15.637328 -9.4732046 99.91037
-1.1433623 -24.093246 100.07253
24.529745 -22.669491 100.09142
26.010103 -18.307129 100.05666
24.591581 -27.400158 100.18031
20.106453 -28.364689 100.21133
-1.4524431 -22.280745 100.26424
28.160517 -17.214344 100.49048
20.412201 -27.28776 100.5975
23.906197 -25.508127 100.52364
-0.93889517 -23.024506 100.50292
12.58855 -29.24843 100.60952
1.0885288 -12.434657 100.61735
19.509518 -11.273524 100.65042
10.035538 -29.127628 100.78431
15.735413 -28.082766 100.77948
-2.1528885 -20.749294 100.7402
-0.55831897 -21.258854 100.86073
8.3809242 -11.09096 100.87727
14.841879 -28.995382 100.98969
23.20723 -23.290565 100.92935
8.435729 -11.142945 101.007
-4.6480942 -25.268314 101.15744
24.489288 -19.638563 101.20326
2.9088006 -26.686985 101.36034
-6.0927992 -20.037374 101.37454
4.8305297 -12.129317 101.32568
2.8140807 -12.745117 101.44972
27.734289 -24.96422 101.65218
29.856873 -23.974522 101.63863
8.3980427 -28.92416 101.81985
20.499559 -26.989088 101.84902
-0.90215099 -22.9802 101.86299
16.40831 -27.859913 101.97532
24.899063 -23.441624 101.9333
27.060295 -25.341347 102.02644
24.291672 -14.929516 102.05022
20.628277 -11.294046 102.0457
9.2641525 -28.993698 102.13067
-5.8373137 -21.790367 102.18792
24.572317 -15.880657 102.12779
16.689049 -28.738693 102.26445
5.077486 -28.203909 102.2298
5.3693819 -28.292021 102.20863
-2.0104527 -19.270443 102.25262
10.295017 -11.434112 102.2338
16.605858 -10.119244 102.22755
-2.4501145 -19.106787 102.39924
-5.7980862 -18.947191 102.39646
13.710173 -11.397194 102.39839
16.740557 -10.160181 102.35955
3.7094481 -27.030586 102.45069
-6.6812458 -20.111612 102.41221
25.01939 -14.638342 102.45757
17.971071 -11.762348 102.47707
-3.8373849 -17.194168 102.53921
1.3837767 -12.99136 102.50346
10.112957 -29.051861 102.6604
10.628122 -28.050831 102.68561
-2.3822994 -17.588299 102.6929
8.2293844 -11.740374 102.63929
14.013271 -28.9757 102.78358
6.4252377 -27.674095 102.70246
-2.822089 -17.141346 102.70103
24.552998 -12.48361 102.71168
6.3563681 -12.161043 102.71872
14.475054 -11.511297 102.72018
6.328578 -10.651934 102.78835
0.019910634 -25.126791 102.83662
29.673004 -20.389133 102.86481
8.1484928 -28.851437 102.91818
25.501152 -23.973532 102.97247
25.073551 -12.533167 102.98745
10.762058 -11.60606 102.94731
-1.7512608 -24.682508 103.09115
-0.8486588 -17.777206 103.04072
26.877813 -11.688032 103.02328
12.107548 -11.575267 103.06457
17.311407 -27.601425 103.17809
24.58576 -13.026851 103.16152
10.604067 -28.002716 103.21213
2.8096459 -27.454189 103.24443
0.45632488 -24.867435 103.21951
8.237833 -28.802874 103.36922
-1.1174699 -20.657547 103.39508
28.773399 -16.641994 103.34352
20.331001 -26.748936 103.40361
20.631075 -12.792068 103.46567
27.968029 -21.286009 103.59171
23.654894 -16.658512 103.51995
-1.3664678 -22.832182 103.66771
24.294771 -15.162904 103.65313
1.7895133 -14.657596 103.794
10.301415 -11.961716 103.78548
-0.73157734 -18.324083 103.98309
29.378613 -17.830662 103.97755
19.584122 -27.505096 104.00244
9.4501848 -10.787352 104.00987
7.9942293 -28.667366 104.16579
15.300221 -12.002817 104.10305
13.807456 -27.850359 104.22552
1.1800821 -13.772042 104.22383
27.055649 -7.0814309 104.29258
-3.7141414 -23.461557 104.35255
-1.6558688 -19.291441 104.39501
14.042595 -10.626142 104.30675
10.545452 -28.889988 104.47862
-0.75695872 -18.93819 104.5901
-1.7143174 -16.872202 104.53249
5.1275806 -13.551542 104.5762
23.098158 -24.854361 104.69344
-1.5100627 -19.380318 104.69344
24.40237 -16.087955 104.6404
24.439291 -7.7802391 104.6367
15.860455 -27.525093 104.79057
25.09042 -17.715059 104.76091
28.606014 -15.288574 104.79686
8.6294603 -11.218554 104.73993
10.650496 -28.846516 104.87226
1.5474364 -15.486501 104.84708
9.0549641 -28.667974 104.96101
22.895184 -8.2495184 104.91496
22.890835 -24.221096 105.04211
24.496021 -22.60013 105.0017
23.006855 -6.8918815 105.04891
-3.0428133 -22.269981 105.18061
-0.73838496 -19.946249 105.14333
7.0424957 -28.50202 105.21293
15.548903 -28.508902 105.25211
26.847107 -20.296173 105.24989
23.227867 -15.229023 105.22206
5.098671 -12.142379 105.2965
25.973364 -5.605885 105.24905
24.33239 -15.622149 105.35252
19.360523 -26.685467 105.40702
8.374444 -13.075926 105.42464
10.8314 -12.745916 105.47682
22.473213 -8.625392 105.47842
23.236198 -6.7674508 105.4183
28.335201 -14.673222 105.60286
-0.68674374 -19.278988 105.73285
23.629837 -13.193148 105.76967
24.338482 -3.5048995 105.7106
-1.3317391 -22.430885 105.88388
17.955784 -13.301555 105.82836
22.560163 -5.0273519 105.87126
18.282923 -26.849602 105.95363
6.6608357 -27.266998 106.01656
27.352293 -17.591694 106.0074
-5.938714 -12.894266 106.07813
28.257561 -10.48587 106.01158
-7.4610395 -16.800425 106.11674
0.50251639 -15.072436 106.1417
3.0635715 -13.553628 106.17961
-8.4587402 -17.338209 106.20995
11.639714 -11.48328 106.35413
27.398008 -15.668139 106.46732
-6.3413649 -12.66645 106.41946
26.869865 -16.669468 106.59891
28.570377 -14.174804 106.50518
-2.3898096 -19.652822 106.68539
0.45271182 -18.023926 106.63027
26.555616 -16.887249 106.64163
-0.22108422 -19.496038 106.74933
22.86537 -13.607692 106.76711
16.968374 -11.812967 106.83987
23.631031 -19.511581 106.94814
22.219992 -1.7598896 107.0843
22.998409 -23.998901 107.10055
27.018333 -14.489388 107.17123
28.038368 -7.3166127 107.28828
23.331837 -15.858551 107.32933
26.310577 -15.573277 107.30232
28.795616 -11.087071 107.3488
21.746056 -25.274725 107.55574
12.219507 -11.964989 107.53671
15.167635 -11.862905 107.54482
28.975498 -7.9875793 107.56208
22.018106 -23.835583 107.69012
-1.2807258 -21.119598 107.65435
-3.748311 -20.597546 107.67444
28.015728 -13.15162 107.67664
-7.1304917 -11.559398 107.71143
20.75798 -26.184591 107.85251
-1.2288752 -20.781445 107.82599
-8.1735134 -15.072672 107.87527
-4.5897942 -20.400444 107.91949
25.942297 1.0918664 107.92212
9.4730873 -27.312107 108.02015
28.848671 -6.4210181 108.0677
11.71757 -28.500385 108.18427
2.0348012 -26.558163 108.11586
-1.2041316 -21.898392 108.13029
-7.1838126 -19.254936 108.14693
6.1187987 -12.815592 108.11678
22.872412 -18.722464 108.27347
20.306179 -15.436435 108.26409
21.208929 -5.8490944 108.2311
17.01825 -27.499809 108.35863
28.066746 -3.005363 108.39303
22.385265 -17.716309 108.42478
-8.4593248 -14.240507 108.44846
27.42383 -2.8224738 108.48122
24.214731 2.4234526 108.46996
-9.2390013 -15.688383 108.56535
25.757801 -13.360695 108.52254
-0.035701368 -24.573959 108.67256
23.655384 -21.917358 108.61992
22.923733 -16.069855 108.60514
21.169697 -1.5007815 108.6425
22.405052 -0.056541026 108.62047
-0.19578904 -17.554752 108.73122
24.939697 -11.462395 108.7686
-7.9430366 -18.221945 108.92995
-3.8795598 -18.773979 109.01675
-7.0071192 -18.131115 109.06618
24.158953 -10.404094 109.06548
21.056602 -4.4941607 109.09929
-5.3986759 -10.824453 109.13517
20.778492 -2.5730431 109.16948
25.783438 2.3632319 109.18446
3.8425546 -27.320818 109.29516
-3.3615642 -12.584666 109.27422
-7.889936 -9.8874617 109.21422
27.657709 -2.529192 109.28334
25.833464 2.3755474 109.23614
18.65448 -12.995353 109.44356
15.788733 -12.105642 109.47205
-8.5138788 -11.72926 109.40686
27.920456 -3.2124438 109.47229
22.410852 1.4075649 109.45218
-2.6297336 -16.326168 109.54907
6.4555745 -27.85635 109.60582
15.560886 -27.463461 109.64449
-1.9277161 -14.353643 109.61913
-6.7639518 -8.9234562 109.65401
21.609669 2.5785522 109.62587
23.560436 3.4884892 109.67567
-9.5906229 -14.406889 109.87964
-8.1991119 -10.782001 109.88109
8.9257288 -28.261515 109.9026
27.796761 -0.67313713 109.95746
27.933928 -6.524478 110.071
21.708179 -2.7862706 110.06891
9.7317963 -28.284058 110.42451
25.753704 -9.0846462 110.475
-0.027029514 -18.269964 110.55872
27.536663 -4.8191943 110.51098
23.661499 3.2976837 110.5724
22.318996 -7.6155958 110.64089
22.763592 -17.147572 110.75041
-1.9696845 -15.381138 110.78162
22.252964 4.0292034 110.76041
21.118538 -3.794837 110.83482
-9.3103609 -11.141083 110.97261
-3.3910675 -10.446177 111.00452
23.52079 -8.1889143 111.02113
14.540008 -12.036348 111.17089
1.5565012 -16.37492 111.29196
21.92794 -4.2252135 111.20312
21.101826 -0.37298787 111.20507
23.223272 -7.3586798 111.34875
26.538342 2.0216215 111.34153
9.7883129 -28.235672 111.4512
19.995886 -25.175438 111.54085
-2.5258527 -12.65764 111.59996
23.247747 -2.620049 111.51701
22.179668 -2.0498462 111.58655
26.817261 0.29875195 111.71862
-3.681128 -9.5927258 111.88098
23.078991 3.6816256 111.86909
22.832891 -17.833237 111.94023
-6.6129785 -16.47007 111.91305
-4.0078292 -15.529595 112.05415
22.403538 -16.834526 112.10091
-2.7126482 -14.920175 112.15573
21.813023 -4.4588947 112.18947
25.374756 -1.092247 112.3639
-9.2734509 -8.6963844 112.49149
-10.62899 -10.519014 112.51254
-8.260664 -7.0017891 112.59326
21.421225 3.0124712 112.58002
15.423084 -11.976593 112.60678
22.631678 -2.0160136 112.66763
26.541309 -1.895408 112.616
-0.16505007 -22.001347 112.74406
-3.060812 -11.201943 112.88892
26.061234 -0.32197705 112.86488
23.946262 -3.2349629 112.93083
23.628372 -1.6209564 112.90245
16.372227 -26.303293 113.046
-4.8442998 -15.975316 113.03148
-3.8200741 -13.898501 113.00878
25.178841 3.6898129 113.04013
9.5043373 -28.132219 113.15993
12.262098 -27.559113 113.35448
20.719536 3.1711268 113.34605
-9.9995699 -10.745927 113.49753
-5.8460817 -15.399644 113.54889
5.4333286 -14.294041 113.52878
-10.61814 -8.8381348 113.57658
18.414665 -25.237896 113.61444
-8.2881956 -14.620608 113.61651
-9.9150848 -13.104793 113.69918
25.253448 -2.5781221 113.69658
21.047392 -0.37227494 113.65034
-8.4119253 -14.44971 113.70349
8.252883 -13.202 113.7766
20.347277 -0.6373409 113.75642
21.336163 -22.614132 113.8829
-4.069438 -11.609664 113.89056
-3.820323 -14.553251 113.96484
1.3652408 -16.826239 114.03372
3.743211 -27.071123 114.25639
-6.8807073 -14.599813 114.39835
-5.1789479 -13.790539 114.37465
-7.1331887 -13.621683 114.33213
-3.2186115 -11.035728 114.35358
-9.8725996 -9.616353 114.33548
22.919453 4.7142825 114.36498
-3.0902126 -12.279757 114.41048
-5.0858326 -8.7838717 114.58576
6.7408433 -27.994856 114.63224
22.270115 -16.876764 114.74534
-5.4946194 -13.204029 114.79646
-5.7340436 -7.7605972 114.78368
-9.7541637 -7.0490799 114.87549
23.798018 -1.7461761 114.92697
14.732759 -26.830875 115.05479
-8.0979061 -7.146174 115.33798
20.731079 -1.57183 115.39404
26.499722 -0.34837621 115.32268
2.8241484 -15.662761 115.45465
-8.8892994 -12.864673 115.49536
13.687308 -10.9435 115.42339
-4.3744202 -12.19722 115.69828
-5.2037344 -6.737813 115.66396
26.357742 -0.75547004 115.67867
19.333843 -12.23356 115.71368
26.534731 -1.7768059 115.71672
21.963432 -16.15103 115.85118
-8.2619581 -12.378556 115.85304
26.874664 0.69248503 115.81082
-5.7149754 -13.700195 115.92165
19.102566 -11.872412 115.99289
26.875038 -0.28081197 116.04656
-5.5912728 -7.5745015 116.13132
24.350685 3.8673005 116.23804
15.803087 -26.529034 116.35195
-9.74055 -10.122972 116.34
12.990195 -27.506935 116.43977
14.610604 -26.978134 116.51428
21.797997 -20.510334 116.56357
21.086611 3.0707297 116.60363
22.08345 -4.6023912 116.74023
24.248501 -4.7046118 116.82776
17.83997 -25.60154 116.91991
-4.2886248 -12.917874 116.92687
3.500123 -26.742943 117.04166
-6.8417954 -14.015326 117.04268
26.418076 -0.85733539 117.00621
0.21547227 -20.484377 117.2111
25.49361 -4.2282758 117.21943
25.939419 -2.2403286 117.2387
-5.2107534 -7.6023202 117.3949
9.0152388 -28.15353 117.44275
0.64718437 -19.134565 117.40895
9.530304 -28.176395 117.53953
11.759989 -10.105015 117.69403
-8.1711206 -6.3528743 117.64905
-4.6452827 -13.485914 117.93892
1.7052261 -24.551987 118.13525
-2.6405535 -12.623469 118.182
19.36483 -10.962203 118.10291
21.438887 -4.7438979 118.137
18.782518 -10.343459 118.24558
22.691698 -5.6919079 118.22067
25.273111 -5.1056571 118.24078
26.566124 -0.52352774 118.24085
17.042149 -9.4121723 118.31226
25.038914 -5.2630668 118.35369
0.34798124 -21.397804 118.49228
19.061022 -24.182371 118.5249
8.446023 -11.680523 118.57222
18.406864 -24.567547 118.67389
20.813967 -3.6170163 118.62044
24.821312 1.919293 118.61544
-5.5716228 -14.008615 118.70415
17.920918 -9.3769379 118.97384
18.080894 -24.767288 119.10127
-7.5494194 -8.3336468 119.16795
-6.7679739 -7.8394771 119.28544
17.71122 -25.139971 119.36449
24.961922 -5.76087 119.34856
26.878784 -3.0613537 119.36679
21.458298 1.9275739 119.30977
20.163712 -22.315769 119.57571
23.324909 2.1096084 119.66544
21.263443 -12.835316 119.77495
-2.4181554 -10.904202 119.79787
-8.8060312 -8.191165 119.73222
24.290918 -4.8979397 119.71174
20.055658 1.3910844 119.74346
-2.2498136 -11.803572 119.84135
-2.5303407 -13.313162 120.05119
20.01552 1.2515379 120.08493
15.521095 -26.356447 120.19722
21.673676 -18.376726 120.28496
21.784481 -18.125717 120.3484
12.946419 -7.7268009 120.33931
19.520987 -3.246006 120.30585
2.8688867 -25.180693 120.46717
25.993597 0.54480541 120.55942
20.809242 -21.069 120.68835
-5.6323247 -14.897938 120.69176
18.481213 -24.236528 120.96274
19.679268 -9.6404085 120.93703
-8.7844276 -8.9307098 120.95911
20.439518 -3.8863423 120.94994
24.595715 1.4539282 120.96183
-1.7811224 -12.932019 121.09531
21.74774 -13.181916 121.13357
20.079201 -3.0918803 121.21768
21.123514 -6.1579065 121.33397
21.431322 -19.999241 121.45075
22.037939 -13.844661 121.45662
-7.8375864 -14.265266 121.57054
4.1502881 -13.192503 121.68519
-8.5381718 -10.814615 121.61276
25.661257 -6.1313472 121.66365
20.07756 -5.2968302 121.63561
1.0815309 -16.805384 121.79144
-7.1778975 -7.7384901 121.75659
26.053167 -4.2803011 121.71527
20.242863 -22.302803 121.86372
3.8646281 -25.844299 121.90261
0.93896359 -18.872547 121.91594
-2.3499339 -14.878904 122.02931
20.106804 -9.4104767 122.08279
-7.9710441 -8.7409105 122.02098
20.266134 0.52217644 122.03361
14.824301 -26.671692 122.14345
19.244535 -23.584938 122.14246
-3.9037552 -15.351112 122.19872
-8.2070198 -10.685429 122.17469
25.236799 -5.0555439 122.15253
24.280849 1.8947562 122.2811
-5.9193339 -15.867906 122.37038
19.566889 -5.0244522 122.35352
-8.5950756 -9.8373451 122.46467
-0.94750255 -13.714835 122.55031
-6.426631 -14.797414 122.61755
19.71306 -1.2393366 122.76793
-2.0937724 -10.20856 122.87047
16.128239 -25.937431 122.99219
-0.89960527 -14.952 122.99794
1.9183332 -23.776234 123.08157
-4.4796915 -16.624416 123.05101
-0.72694647 -13.428352 123.0204
11.281521 -27.787903 123.13995
25.083593 0.68559802 123.19688
23.249445 -17.76235 123.21597
-6.9580851 -9.4291573 123.25114
19.723103 -1.874486 123.25368
13.201971 -27.340864 123.3431
14.71969 -5.4607673 123.32394
0.9354372 -21.041313 123.58562
-1.0646497 -13.402681 123.53085
-8.6697607 -12.323841 123.56436
-1.5639582 -10.85377 123.64874
26.425762 -5.6738024 123.61259
10.812038 -27.839615 123.87912
19.727917 -0.35628122 123.8992
23.880472 0.63953674 123.97694
25.052744 1.174762 124.00196
8.6540642 -8.1476641 124.18382
25.460266 0.275769 124.11414
21.075031 -5.7622008 124.31022
12.462568 -28.003761 124.48317
-5.9281836 -15.624766 124.46807
19.906248 -7.9764562 124.48679
-0.032615006 -12.943164 124.58176
23.817448 -7.9786038 124.55457
26.520338 -2.8215272 124.5094
23.93372 1.1564077 124.56311
22.128674 -8.1783075 124.67343
19.915495 -1.2551529 124.66708
-2.9249194 -17.608454 124.75468
-6.5513272 -9.8447447 124.72005
25.556358 -7.6451225 124.75623
-7.4366264 -14.337039 124.8737
26.246386 -4.139462 124.84055
23.021725 1.1463151 124.8221
-7.612896 -14.707785 124.9396
15.703605 -27.373159 125.05908
10.739827 -28.721249 125.10389
10.001211 -28.60504 125.38249
22.833061 -7.1145816 125.37919
22.673851 -11.221109 125.40487
25.050346 0.67956215 125.40804
13.845152 -28.612862 125.59642
18.125641 -25.926075 125.55118
0.28959489 -13.615226 125.5262
0.91465306 -20.441513 125.79709
-1.6238073 -10.37106 125.74393
15.834949 -4.528173 125.8364
21.311596 0.40323484 125.81798
9.3726139 -28.678825 125.93503
-4.5297403 -8.9073696 125.98964
21.452991 -8.5166073 125.97292
11.723884 -29.412773 126.08663
-5.2640305 -16.305326 126.08472
24.788786 -14.835672 126.01697
15.180622 -4.3406115 126.0315
25.998159 -7.4722271 126.1203
26.279701 -4.4782557 126.16769
-8.0430088 -12.94154 126.23253
23.577339 -12.336637 126.23477
26.704082 -1.3167957 126.24779
5.9817061 -27.06831 126.33768
0.64275688 -13.30951 126.39326
25.214712 -16.836184 126.47899
-7.2356267 -15.334707 126.4718
24.968468 -19.402514 126.57841
-4.3205972 -9.5499573 126.57115
8.0301523 -7.7623253 126.51175
19.952581 -3.2337008 126.53548
-6.1105089 -16.634941 126.70449
22.103329 -9.4783726 126.71825
19.239021 -6.8052397 126.74917
3.8906629 -11.385843 126.81725
20.013025 -2.8663239 126.96875
23.597904 -12.266488 127.09274
26.370703 -7.274509 127.01514
19.280495 -2.2312152 127.05641
26.327059 -4.5447922 127.15308
22.721397 -0.25105041 127.17399
0.91122079 -19.980738 127.24871
0.40240449 -17.200613 127.71985
24.628723 -14.204205 127.7539
-5.3803101 -9.4888163 127.70683
12.812183 -29.784544 127.83269
0.84079713 -19.885366 128.07967
14.316871 -3.7138534 128.1122
-5.5011539 -17.583076 128.22665
0.81812441 -16.568552 128.37781
25.222042 -18.684847 128.49376
-6.4227562 -15.651958 128.608
-3.6043634 -10.424346 128.87572
-0.97732383 -17.371895 128.90115
-6.347578 -16.646889 128.91187
1.4660724 -14.236229 128.97801
26.043646 -8.5354671 128.98358
18.790085 -26.027529 129.00226
12.055513 -29.953009 129.20541
1.8096161 -21.956587 129.39035
-2.9287539 -19.102516 129.34235
2.4794672 -11.912573 129.37898
16.565409 -3.5116031 129.34732
25.531563 -1.4203956 129.55988
21.198662 -23.621799 129.70123
0.23707119 -15.876407 129.70854
17.768322 -3.4588811 129.7155
-0.73229825 -17.621336 129.86336
-6.7265921 -13.48236 130.03487
0.1423949 -16.765364 130.16104
-6.1351881 -15.601124 130.23972
0.26895249 -14.097856 130.21213
10.176902 -29.405754 130.33449
-6.35391 -14.592926 130.40129
1.2683821 -13.630648 130.44446
-6.7186913 -12.138173 130.43187
8.8893089 -28.845333 130.53638
2.9353468 -22.655926 130.53378
0.48924699 -16.332474 130.74565
1.3276148 -13.503409 130.74457
-2.905813 -11.095408 130.79599
27.187462 -3.7949085 130.72369
-2.9535155 -18.258614 130.88545
24.517321 -16.944704 130.91679
0.21208021 -19.501364 131.01656
-4.5774708 -18.890436 131.05269
0.88956612 -14.120926 131.12073
1.2906471 -19.478243 131.21107
25.719738 -9.4573965 131.21182
11.535155 -3.915637 131.21886
-4.6391678 -17.522642 131.48006
-4.9903383 -17.17358 131.56422
6.4554868 -7.3051534 131.58582
2.9044333 -10.81077 131.68982
0.42405528 -17.399656 131.79063
-5.2296052 -16.946041 131.71564
19.971304 -1.7062473 131.73251
17.403231 -2.3434181 131.99319
6.9104185 -26.836975 132.05809
19.259712 -22.629547 132.07513
2.261481 -20.530613 132.07477
-2.4707618 -20.062775 132.20599
1.913054 -18.268534 132.25571
26.568745 -3.9774492 132.21158
20.342228 -1.5710127 132.29951
2.9537153 -22.444462 132.35942
15.882868 -2.4132192 132.36957
20.843906 -1.3234472 132.39545
23.710861 -12.983744 132.41202
-1.3908343 -11.06391 132.4626
22.19566 -19.605112 132.50714
-6.5472136 -14.62961 132.53033
17.705359 -2.2651489 132.51146
7.216011 -26.646946 132.67105
-5.6886497 -12.462769 132.70239
-1.9920633 -20.59132 132.93874
-5.9996538 -12.911489 132.94058
-1.9607563 -11.002393 132.90805
-1.7661971 -20.757303 133.04529
24.923113 -10.714729 133.27902
-1.3899834 -21.064089 133.41747
-3.3556507 -20.070381 133.67511
23.220541 -14.720972 133.62192
18.363079 -2.0985816 133.67963
16.167311 -24.954365 133.98969
19.122053 -2.0260952 133.98898
4.0180168 -24.586727 134.00409
13.086736 -3.2969711 134.06819
16.107807 -24.453102 134.19571
16.384352 -23.677195 134.2323
0.15617612 -12.479319 134.23535
-4.3670206 -11.748623 134.21489
16.905743 -22.648607 134.37363
2.6629248 -10.925579 134.33255
5.056282 -8.771409 134.39719
5.7533588 -8.0460501 134.46814
5.7317123 -8.0702782 134.5676
9.7909899 -5.1874323 134.63336
26.275528 -6.9483533 134.74095
13.837959 -26.304655 134.84653
-4.2022114 -19.89315 134.88254
23.627823 -11.43748 134.89854
-5.6943593 -14.87396 135.04085
-0.7720629 -11.692026 135.17468
25.828974 -7.9451041 135.16652
15.853019 -2.7236543 135.30861
9.4914141 -26.085735 135.49248
1.1716039 -13.456095 135.49228
-1.2300165 -21.452312 135.50035
10.605314 -26.134663 135.61739
-0.79087847 -21.83835 135.65335
14.385257 -24.101097 135.75084
-3.325155 -20.41259 135.77283
8.9732809 -5.5782051 135.73079
17.814445 -2.7541261 135.98071
-5.3215666 -14.699679 136.06828
19.903397 -16.626453 136.17172
24.999477 -8.4931555 136.10378
12.912691 -24.264767 136.48721
24.058741 -5.34899 136.52855
9.3851776 -24.898935 136.79918
6.069499 -24.400829 136.73026
20.864281 -13.593739 137.0498
17.756859 -16.76074 137.21057
23.652512 -6.9137092 137.28474
20.888615 -4.237134 137.36681
12.45491 -22.764427 137.53455
22.671545 -10.007123 137.56355
22.773415 -8.701766 137.73074
21.410397 -5.2989316 137.78745
6.9348135 -23.348843 137.96313
13.826166 -4.0391755 137.97128
7.6062813 -23.412153 138.01643
9.9095163 -5.730751 138.07173
13.878455 -4.0563736 138.05179
16.765833 -3.6386442 138.0047
-3.4415755 -13.348656 138.21474
20.387794 -11.001174 138.20822
17.321068 -15.601025 138.32463
-4.4664278 -15.618377 138.43341
18.696583 -14.703009 138.46074
18.868139 -13.968058 138.49475
8.4587498 -22.886168 138.70685
20.457952 -7.3368001 138.89603
16.600252 -4.358254 138.85056
14.583815 -4.1992283 138.83748
20.420683 -9.7257824 138.9007
20.239563 -9.5011024 138.9912
