# .PCD v0.7 - Point Cloud Data file format
VERSION 0.7
FIELDS x y z
SIZE 4 4 4
TYPE F F F
COUNT 1 1 1
WIDTH 116
HEIGHT 1
VIEWPOINT 0 0 0 1 0 0 0
POINTS 116
DATA ascii
0.47139624 0.48777342 0.084024154
0.56269109 0.53781801 0.041336082
0.63755262 0.57885426 0.057273604
0.70462257 0.61561936 0.089229494
0.47592664 0.49025685 0.14077081
0.4988811 0.50283974 0.17176087
0.55154395 0.53170753 0.15230124
0.63055474 0.57501829 0.143015
0.6907351 0.60800666 0.16510847
0.71422756 0.62088442 0.14317247
0.47382087 0.48910266 0.25255892
0.54388916 0.52751148 0.25308743
0.6399141 0.58014864 0.2526511
0.69053555 0.60789734 0.25902537
0.71124476 0.61924928 0.23906818
0.47260609 0.48843685 0.3397668
0.49763069 0.50215447 0.34410733
0.55017745 0.53095853 0.34736383
0.63400871 0.57691175 0.34874645
0.68924856 0.60719186 0.33632946
0.71253794 0.61995804 0.35010478
0.47747213 0.49110439 0.450564
0.54580706 0.52856296 0.44579217
0.63273108 0.57621115 0.44716853
0.68871129 0.60689718 0.45852923
0.7191999 0.62360996 0.4362177
0.46618825 0.48491901 0.55412263
0.54772317 0.52961332 0.55004513
0.63717693 0.57864827 0.55330098
0.68632734 0.60559052 0.56002659
0.71573377 0.62170994 0.55822176
0.46935281 0.4866538 0.6530081
0.49841684 0.50258553 0.64535868
0.54820359 0.52987647 0.65106297
0.6475274 0.58432192 0.64740837
0.69098377 0.60814297 0.64523524
0.72296017 0.62567121 0.64218032
0.35675433 0.42493144 0.78018546
0.47004157 0.48703113 0.74469376
0.49586096 0.50118417 0.79521233
0.55011821 0.53092599 0.73897028
0.64035636 0.58039105 0.73860168
0.68551791 0.60514677 0.75634927
0.7423408 0.63629508 0.75412512
0.29294282 0.38995224 0.89302182
0.30703449 0.39767647 0.86783415
0.33718917 0.41420645 0.85749525
0.45474759 0.47864756 0.84703559
0.49906886 0.50294262 0.85319787
0.54668683 0.52904487 0.84851915
0.6458143 0.58338279 0.84628344
0.69335532 0.60944277 0.86024928
0.74468237 0.63757843 0.85122645
0.81456554 0.6758858 0.86402738
0.29341266 0.39020982 0.90715909
0.30518565 0.39666328 0.98440117
0.34099388 0.41629225 0.93936932
0.46277159 0.48304567 0.93777454
0.49787623 0.5022887 0.94471234
0.555044 0.53362602 0.95742863
0.64214939 0.58137387 0.95465696
0.68881923 0.60695642 0.92982996
0.74404001 0.63722652 0.95432049
0.81585646 0.67659354 0.93988752
0.30486333 0.3964867 1.0390432
0.34663349 0.4193835 1.0588523
0.46175504 0.48248845 1.0469992
0.55893958 0.53576154 1.0488952
0.64184827 0.58120906 1.0465682
0.68765026 0.60631603 1.0517999
0.75161111 0.64137661 1.053748
0.81708485 0.67726678 1.0509452
0.30630171 0.39727524 1.1179789
0.35551944 0.42425469 1.1493396
0.4640089 0.48372421 1.1410251
0.49620956 0.5013755 1.1934626
0.55369222 0.53288519 1.1497648
0.63235825 0.57600695 1.1442695
0.68841249 0.60673368 1.1345404
0.75522 0.64335477 1.1480156
0.81309795 0.67508131 1.1600285
0.36246005 0.42805928 1.2475563
0.44927087 0.47564548 1.2436588
0.49814034 0.50243384 1.2416863
0.54657346 0.52898312 1.2526426
0.63432378 0.57708442 1.2547683
0.68463087 0.60466087 1.2564048
0.7527613 0.64200723 1.2475799
0.80733728 0.67192358 1.2406111
0.37042046 0.43242288 1.336695
0.43990573 0.47051197 1.3510987
0.49718317 0.5019092 1.3805242
0.55376989 0.53292775 1.3446889
0.63430011 0.57707131 1.3497607
0.69023848 0.60773444 1.3373332
0.74712533 0.63891757 1.3520993
0.38518703 0.44051692 1.4600254
0.44310197 0.47226405 1.4466455
0.49935859 0.50310171 1.432645
0.54737258 0.52942103 1.4583946
0.63740796 0.57877487 1.4403093
0.68771994 0.60635394 1.4596741
0.7355175 0.63255477 1.435356
0.46974796 0.48687026 1.5497253
0.49601471 0.50126863 1.5386758
0.55431676 0.53322756 1.5575788
0.63142657 0.57549626 1.5559144
0.68324482 0.60390121 1.5384032
0.71641564 0.62208444 1.5050486
0.48740745 0.49655041 1.6373816
0.49404794 0.50019038 1.6646483
0.55064344 0.53121394 1.6533999
0.64022094 0.58031672 1.639066
0.67976916 0.60199529 1.6705747
0.55872995 0.53564656 1.7356073
0.63372433 0.57675582 1.7354463
