# .PCD v0.7 - Point Cloud Data file format
VERSION 0.7
FIELDS x y z
SIZE 4 4 4
TYPE F F F
COUNT 1 1 1
WIDTH 1610
HEIGHT 1
VIEWPOINT 0 0 0 1 0 0 0
POINTS 1610
DATA ascii
5.0646954 6.8266454 1.933135
6.1972384 7.068121 1.9398726
5.0478277 7.5515199 1.9049113
3.5031765 9.3138018 1.9201741
5.1025877 9.420661 1.9852728
6.5724382 9.7207127 1.9757926
7.0001812 9.7915325 1.9241322
4.1314144 9.827877 1.9502604
6.0386872 7.4600868 2.0279033
6.345778 9.360424 2.0491319
6.9139624 6.3498821 2.1468692
8.8065681 7.8037124 2.1357193
8.242732 6.3381062 2.2463036
2.9302831 7.0715041 2.2945073
5.4942684 8.5447712 2.247129
8.467514 8.7173233 2.2448153
3.3850243 9.2224817 2.2430639
3.694078 9.4758739 2.2884793
3.4259245 6.3181181 2.3218803
3.0742807 6.7930813 2.348918
3.585247 9.3873367 2.3149912
5.1122866 6.872808 2.4859889
5.1003356 9.4485912 2.4267259
3.8985775 9.6363144 2.4938855
3.2219539 6.5577002 2.5363436
5.4919057 7.4293985 2.5174136
8.5275421 8.6787014 2.5750053
7.197578 9.7670174 2.530509
3.446496 6.2758174 2.6027613
6.6890178 6.5501022 2.604486
2.581732 8.0039005 2.7246943
2.995326 8.7428274 2.7288764
5.4065919 8.9646158 2.7703581
3.3470497 9.198947 2.7032607
3.6450431 9.4284153 2.7164047
7.921164 5.7958641 2.8951254
2.5666466 8.1613712 2.8231022
5.9362392 8.2088919 2.857275
3.0244119 8.7989168 2.834938
6.0832424 8.9115276 2.8693805
5.3545475 9.0706301 2.8950653
7.9783707 9.2532053 2.8344307
4.4669476 6.2028933 2.9540567
8.4811678 6.611661 2.9666634
2.9294939 6.8792109 2.9375129
5.5425138 7.7316003 2.9696164
2.8141835 8.5216961 2.9332345
7.3671246 6.0099101 3.0066595
5.1208363 9.4427958 3.0607934
6.4906483 9.5931234 3.1069024
3.1802325 6.5188866 3.2450633
8.4991121 6.599988 3.2918715
5.4853806 8.6858521 3.2176218
7.6981287 9.4069042 3.2672329
6.4434147 9.5196686 3.235045
7.4448729 9.5668755 3.2653589
7.1932931 6.118845 3.3910081
5.5343876 7.6419773 3.3231015
4.1702871 9.7920303 3.3821659
6.0537395 7.3157105 3.4161644
8.4696379 8.8413944 3.4787736
8.3385925 8.984273 3.4727039
4.3831673 9.9479818 3.4978416
4.1772461 5.9564476 3.5939376
6.6565733 6.5308833 3.5798812
2.8361166 6.9301119 3.5780976
8.7727089 7.0229521 3.5449152
9.0100317 8.0076504 3.5782633
5.5692749 8.3590403 3.5208123
7.9444733 5.6986489 3.6763983
8.4814358 6.5338001 3.6259959
5.4734888 7.2470174 3.6497974
2.7266333 8.4985027 3.6347284
5.9805098 8.5571661 3.6650074
7.0350266 9.8049259 3.6508558
8.4372425 6.4491711 3.7601471
4.9314613 6.6012459 3.7316928
8.8733282 7.3594637 3.7979603
8.0167789 9.2396641 3.7356129
7.3858652 5.9710035 3.8864985
8.3431997 6.2881341 3.8803871
6.5033255 6.6651363 3.8698177
6.3274517 6.8346767 3.8568444
6.2432346 6.9166636 3.8533006
8.8822975 7.3897943 3.8193803
5.4835572 8.7031031 3.842838
5.2710419 9.1762991 3.8284893
5.965517 8.4853134 3.9265654
3.4286156 9.2759991 4.0320449
4.7030072 9.7939472 4.098238
4.9141736 6.5642447 4.1342626
5.2883902 6.9902349 4.1847439
7.0281162 6.1884718 4.2352219
3.1277072 9.0786228 4.243567
5.3068261 7.0030646 4.3370271
5.9034009 8.1633329 4.3547206
8.93995 8.3963814 4.3572669
3.0554032 8.992527 4.315208
6.153419 8.97404 4.3464561
4.7683754 9.7128325 4.3233566
3.1328907 6.4462447 4.4732676
8.9845219 7.6226873 4.4423513
2.4778364 8.2566471 4.4077392
3.0152612 6.5900087 4.5594049
2.7155716 7.0520744 4.5442743
5.8568163 7.8672795 4.5342298
4.4163284 6.0978894 4.6352663
5.9260292 8.3476725 4.6638813
6.709805 6.4193945 4.7384434
8.8756104 7.079031 4.7781134
5.6423798 7.9735904 4.7150574
5.8897743 8.1426077 4.736412
8.7647705 8.6236963 4.7550669
6.3841457 9.3052835 4.7063007
4.9713883 9.4681234 4.7855754
7.3545055 5.9467812 4.8038831
8.5263681 6.4746985 4.8025703
3.8884339 9.6129322 4.8686275
4.5985346 9.7898054 4.8747993
7.3063445 5.9723768 4.9241085
6.7547011 9.6766081 4.9034271
6.9307365 9.8051109 4.992485
6.8319139 6.2864656 5.0074086
8.3732281 6.2164888 5.0926876
7.4548273 9.5698223 5.1061554
4.243454 9.7988262 5.131567
3.7043705 5.6728549 5.2633653
5.5809731 7.4905162 5.2793293
9.012125 8.438942 5.2949996
5.1419687 9.1647387 5.2548552
4.2016506 5.9143577 5.3851528
8.8041687 6.845901 5.3897967
7.6599445 5.7495799 5.4042072
4.1074076 5.8461761 5.4966693
6.7112389 6.378499 5.4276791
6.5949593 6.4894896 5.4435201
6.5040445 6.5682569 5.475338
3.7765586 9.5272446 5.4161139
7.2593098 5.9824619 5.5385075
2.9341731 6.5964441 5.5189548
5.8806219 8.1852379 5.5376387
4.5736632 9.6818562 5.5938683
8.5721817 6.4623117 5.8781662
5.5849934 8.3699017 5.8586044
7.9336386 5.5801959 5.9741368
3.6803651 5.6631594 5.904604
5.5645618 8.4192543 5.9394584
7.3060293 9.5826511 5.9167137
4.0454378 9.6391497 5.9580674
4.3505158 9.7717457 5.9808736
3.0873761 6.3711433 6.0752716
5.037972 6.5803146 6.0863094
5.8664403 8.0944614 6.0326443
6.7421265 6.2959166 6.1947303
8.8498917 6.8431549 6.1494985
8.6899214 6.5929642 6.2849483
9.0320387 7.1999168 6.2807674
5.6728678 7.7333336 6.2955914
9.2839088 8.0269213 6.2950239
8.8744211 8.6874332 6.2629814
4.663868 6.2257524 6.3195281
6.3670511 6.6131759 6.3571143
2.7543812 6.7481823 6.3235841
8.817831 6.7734098 6.3401361
9.3231831 8.1385698 6.3530145
2.4449406 7.2838945 6.4782691
5.6785426 8.0646915 6.4363031
2.4657598 7.2085738 6.5835376
9.0799713 8.5143261 6.5603838
3.3397086 6.0014882 6.608788
8.6319542 6.4610949 6.6777477
9.321929 8.0396519 6.658402
9.14083 8.4667683 6.6896482
2.9619639 9.026207 6.6347356
6.3808117 9.0359688 6.6332078
8.1592798 5.7672577 6.700737
5.1117544 6.5997038 6.7283344
6.6525555 9.2473574 6.715147
3.3447447 5.9641418 6.8757744
4.2759123 5.9263048 6.861207
3.3061991 6.0093627 6.891232
3.5329869 9.2951736 6.8340607
7.2397013 9.5393438 6.8986282
4.299232 9.6450138 6.8105268
5.6682129 7.4692774 6.9706917
5.6906991 7.6325026 6.9077921
5.9041333 8.1365728 6.9367571
9.3875122 8.2529678 6.9791031
5.1945519 8.9532919 6.9122443
7.6277962 5.7117009 7.0888309
5.1941838 6.6611261 7.0054631
9.2491474 7.684176 7.029665
8.8874378 8.7372656 7.0097699
6.6882825 9.21558 7.0471983
9.0898371 7.1792326 7.1194258
2.2979882 7.4753251 7.1861291
6.2292085 6.6575527 7.2316298
8.3452234 9.0814829 7.2831049
4.0106125 5.7182426 7.3108606
6.1482601 6.7168903 7.3697228
2.4788876 7.0200591 7.380353
2.4328096 7.1171637 7.4258223
5.4335251 8.6190033 7.4696178
6.990386 9.3671141 7.4680014
3.9502673 9.4741859 7.4411211
3.0128422 6.2923417 7.5318551
4.8821135 6.3137336 7.5313091
2.2158084 8.3526497 7.5342073
2.3821805 8.5304594 7.5723758
2.8217313 6.5087719 7.6749887
5.2339239 6.652544 7.6778979
5.7962036 7.4414854 7.6915312
2.9860699 6.294703 7.7908792
9.2944527 7.6377397 7.7962112
3.9678817 9.4577513 7.7669396
3.421618 5.7577724 7.8380151
3.1391122 6.0959187 7.8939281
5.6868768 7.2818284 7.8486161
9.1784229 7.27669 7.8574553
9.1986198 7.3460703 7.8180141
2.3143094 8.4716358 7.803453
6.2223501 8.6914663 7.8064947
3.9735959 5.6580939 7.9322762
5.8878241 6.9693518 7.9311476
9.0974445 7.0189276 7.9256611
5.6975284 7.3483362 7.9069338
1.9761328 8.1195364 7.9461021
3.238004 9.1237001 7.9539409
2.7234898 6.5901637 8.0038404
6.2596073 6.5715637 8.0212593
5.3816433 6.7760553 8.0170126
2.312103 7.2779531 8.0160885
2.9649425 9.0079823 8.065937
7.6665606 9.2876387 8.0116529
3.3593156 5.7958574 8.1253223
6.7742629 6.1326976 8.1301022
2.9329238 6.3014278 8.1952362
2.6650271 8.8594646 8.1877728
3.4201617 9.1972256 8.1490316
4.0714283 9.4818773 8.171526
3.7180917 5.4322653 8.2522116
8.0865507 5.48808 8.2157669
7.5814514 5.6765909 8.232172
5.7732635 7.8523054 8.2237911
8.5242691 9.0034237 8.286376
4.3658748 5.9016953 8.3480482
2.6037469 6.6757674 8.3263016
6.121685 6.6624374 8.3942184
5.4981365 6.8712354 8.317337
5.5902781 6.9579906 8.3787994
1.9241446 8.0257072 8.3872156
3.0174427 9.0114613 8.3856096
3.7629437 5.3992577 8.4689856
4.9585066 8.9278183 8.4784422
3.0336356 9.0104084 8.450346
2.9945176 6.1474776 8.5759478
5.1398101 6.4948988 8.5789766
6.4070773 6.4171062 8.5099554
9.1161823 6.9504089 8.5951271
2.5681283 8.7454643 8.5880651
7.0469818 5.9680018 8.6141663
6.3469434 6.4598589 8.64258
5.8176384 7.9391713 8.6368093
3.8276808 9.3333349 8.6034451
3.9727671 9.3929176 8.6272068
9.0268936 6.7305174 8.7068253
2.0781417 7.5905619 8.7755365
8.8084555 8.842433 8.7211914
3.5424421 9.187686 8.7876091
3.4935174 5.5898094 8.8662643
7.2531834 5.8515744 8.8336115
8.6596556 6.1592689 8.861002
9.0715599 6.7786198 8.8169632
2.410574 6.9006648 8.8387423
8.6180687 8.8970852 8.864315
6.7977991 8.9994698 8.8743992
3.9735541 5.4507489 8.9234791
3.6353152 9.2126207 8.9097509
3.5694079 5.5097971 9.0193672
6.0789948 6.7514958 9.0666103
5.2115841 8.6478539 9.0421238
9.217103 7.0929074 9.1075563
9.2422714 7.1181393 9.1514921
8.3790617 5.8760366 9.2137012
3.1576674 5.9210367 9.2515574
5.6056585 7.0599341 9.2499561
7.9845023 5.4626236 9.4910488
4.431447 5.735815 9.4392262
8.2219419 5.7185106 9.425127
4.5917397 5.8794789 9.4997063
2.2867303 6.9537239 9.4179544
5.9485021 6.9937029 9.4960756
4.3806086 5.6385827 9.5406313
7.1078653 5.712842 9.5112028
6.810925 5.9967804 9.5315933
9.2723141 6.9624124 9.5525818
7.7977791 9.0989122 9.5699329
7.3588896 9.1222696 9.5864286
8.4994259 6.0224319 9.6335716
4.7082677 5.9040599 9.7112913
1.9872403 7.8671017 9.7752829
2.0725863 7.977354 9.7965021
6.6754208 8.775918 9.7968149
3.0012028 8.8454494 9.7605219
3.2937708 8.9702282 9.7487364
9.0073214 6.4764681 9.8128014
5.7417159 7.8497596 9.8029099
9.2536201 8.2059984 9.8896713
9.1383486 8.3964329 9.8718681
6.7562747 5.9093018 9.9794807
2.406755 6.6236773 9.9658375
5.2933645 6.7175603 9.9931831
1.9864874 7.8078842 9.9774256
7.7595835 5.2280312 10.009821
8.5381384 5.9630208 10.095835
2.3889148 6.6340628 10.05822
5.7696242 7.8568869 10.044732
2.7726521 8.7004318 10.064238
4.0164137 9.0711269 10.030543
6.913825 5.6731181 10.184647
5.5204105 7.0380449 10.120978
9.3074007 8.1338959 10.108463
3.3297639 8.958992 10.178514
9.1551943 6.6194115 10.258968
5.9754004 8.2155027 10.22135
9.2414589 8.2583818 10.293654
8.2846766 5.6740093 10.320357
5.1991196 6.4441595 10.301776
2.4023471 6.5714064 10.303453
3.4831536 5.4314175 10.445406
2.9100437 5.9695234 10.402064
7.3807893 4.9800262 10.5271
7.4741912 4.9053235 10.531603
7.0618105 5.4108686 10.541075
2.6788802 6.1471882 10.599855
5.1896453 6.3407621 10.569728
9.0121422 6.3486037 10.525071
9.4518871 7.0040293 10.515514
3.9804459 8.996129 10.542006
4.2876954 8.9242249 10.531638
6.2161202 6.5613675 10.629638
5.518867 8.3032055 10.627832
7.301023 5.0104346 10.724351
8.2801371 5.5822096 10.799273
9.7221985 7.5266299 10.768489
5.9902549 8.2748241 10.784002
8.9363146 8.5375986 10.722466
5.1695442 8.6133795 10.735579
7.7209873 5.0634747 10.859339
5.7286549 7.7031484 10.880343
9.5642071 7.8103261 10.818674
5.8464293 8.1332092 10.840196
6.148231 8.4308138 10.846515
6.2640734 8.5476389 10.846735
7.9872231 9.0026693 10.88365
7.9135828 5.2053213 11.069529
6.4626999 6.051445 11.034467
5.8703413 7.1060724 11.079988
5.7437553 7.5623131 11.086857
5.4321165 8.3902969 11.031712
8.6285648 8.678587 11.017609
8.2812824 8.862524 11.015139
7.6543965 4.9526286 11.176024
4.9353962 5.8259473 11.173031
9.5901546 7.063509 11.14245
5.6540318 8.1729603 11.193842
6.0002284 8.2858019 11.10546
6.1529927 6.4199953 11.27038
9.4159069 6.7723131 11.287109
5.0309677 5.8887205 11.316137
2.2544012 6.5565529 11.320034
5.5718403 6.8393636 11.340749
4.8844795 8.7561626 11.325687
3.9616103 9.0355167 11.392895
8.1542025 9.0014915 11.329012
8.5288544 5.7078862 11.444189
5.6582274 7.0578909 11.419064
9.7780581 7.2611866 11.473073
5.7516451 7.3019376 11.44412
9.7523966 7.5755463 11.462386
4.7440715 5.3287539 11.546755
1.9623131 6.9189816 11.591203
9.5514603 7.9366302 11.530334
5.9843521 8.2747402 11.531005
6.0839334 8.3801422 11.565695
7.4532166 4.7847347 11.632037
4.8964367 5.4633527 11.699921
6.0666866 6.5147839 11.633345
9.4739017 6.7728491 11.616642
9.8618355 7.4136953 11.691753
6.457345 8.698657 11.651728
6.4756446 5.6870747 11.786324
6.3008647 5.9687128 11.795929
6.1452284 6.258615 11.726769
9.3564777 8.3088017 11.734568
7.3860035 4.8116255 11.824986
4.9346805 5.4681048 11.843442
9.2529049 6.3941889 11.818052
5.5057597 6.5904274 11.896312
5.4868588 8.3527508 11.825672
4.1521578 9.0199795 11.812616
7.0357542 4.9953399 11.997093
6.0164986 6.5339394 11.995835
2.6034698 8.6582422 11.966621
5.0055737 5.4938908 12.067277
9.7035332 7.7325573 12.008459
6.4759569 5.523632 12.191484
5.7267547 7.3775802 12.147705
5.7916927 7.4462152 12.131546
9.7077761 7.7511702 12.18869
5.7088709 7.9506259 12.116443
2.1156657 8.2668753 12.123474
6.1105986 8.4483452 12.160042
3.1242237 9.003067 12.181537
4.2201428 9.0429516 12.1433
3.3864524 9.1587372 12.170948
7.938653 9.1631718 12.18871
3.1802757 5.4162188 12.215911
6.4844289 5.4787722 12.268621
2.0997896 6.5345726 12.296322
5.7847552 7.1826077 12.233529
5.6573429 8.1714277 12.211908
7.3685741 4.7873836 12.317815
6.621664 5.3075652 12.353556
2.0083027 8.1127901 12.383245
2.0922532 8.2553396 12.333351
5.5829825 8.2630482 12.38851
6.3418236 8.7060366 12.348533
3.5360684 5.0568357 12.478333
5.8461032 8.0563745 12.461075
6.8382611 8.9289932 12.442416
6.2029819 5.8499126 12.580786
6.0702734 6.103693 12.571609
9.3949213 6.4069586 12.581924
9.5630875 6.667789 12.535544
5.856216 6.860909 12.528384
1.8252722 7.8033156 12.501145
9.5839491 8.0296879 12.573818
9.4033852 8.3447542 12.565184
8.3161945 5.2982779 12.64992
5.3590932 8.5382328 12.684391
8.1610546 9.2099419 12.651374
5.2588782 5.6594214 12.7679
2.4324784 5.9558902 12.737438
5.9012499 6.3676243 12.787859
1.7684596 6.8960075 12.772454
9.7886944 6.92978 12.793701
9.292346 8.4223881 12.728036
2.715966 8.7719164 12.763744
6.8478308 8.9710169 12.79395
6.7410698 5.1346383 12.851738
5.4304776 5.9629421 12.839964
8.5631771 5.4345288 12.993868
9.5017366 6.4644985 12.946438
5.7788048 7.6943569 12.961287
9.3935909 8.3247509 12.999636
4.378849 4.8246522 13.013084
4.8780127 5.1881695 13.0846
2.8986807 5.4909372 13.006712
5.3249168 5.7217913 13.029051
9.7910538 6.8688841 13.076491
4.3058724 4.762558 13.186502
5.8097725 6.6999612 13.114748
2.1438522 8.3152828 13.173812
6.7128382 5.109549 13.298668
5.7319255 6.7112865 13.250772
9.4912796 8.1605282 13.221215
3.470542 9.2547283 13.260043
6.1140442 5.8109088 13.377501
7.2585449 9.1661863 13.399067
1.9863863 6.3860407 13.481916
5.804038 7.0666442 13.410368
2.5538392 8.5945206 13.447668
4.0375576 9.2027369 13.424921
4.3534479 4.7457752 13.51568
3.4777792 4.8664575 13.520134
8.324172 5.0995092 13.541655
4.9150372 5.1510091 13.570772
8.9590311 5.6408577 13.598408
9.8458099 6.8636332 13.514939
5.7655597 7.6518307 13.562115
7.2482796 9.1771479 13.565552
2.9223552 5.3285122 13.62495
5.2797565 5.503541 13.636917
1.8389156 6.596406 13.606085
5.5739393 8.2816887 13.652455
4.3117056 9.1817923 13.686357
6.4516044 5.2174988 13.861697
8.6793098 5.3421559 13.830611
1.6467311 7.367537 13.887787
9.757225 7.6101685 13.879601
8.7121105 8.7849998 13.806929
6.9369411 9.0902462 13.851253
4.2993279 9.1955795 13.845947
2.6719294 5.4646997 13.975528
9.3567495 8.271286 13.953439
6.3682976 8.8731155 13.914219
4.0373449 4.5695601 14.027302
8.6347132 5.2434349 14.081234
1.5408 7.1571975 14.079727
8.6842155 8.8047752 14.076447
6.8526182 9.0756578 14.045753
7.3043251 4.6368375 14.105709
5.2423997 5.3195257 14.170046
6.0789356 5.7038574 14.146914
9.3455572 5.9029975 14.140139
5.7206202 7.8645988 14.114004
5.2423067 5.305367 14.234238
2.3330147 5.7157092 14.232687
9.958087 7.2134175 14.2144
7.4544592 9.2549124 14.280836
8.1891613 4.8175468 14.371099
6.0819035 5.657608 14.334528
5.0964093 8.9742851 14.346905
3.507215 9.2373466 14.310528
4.928525 5.0109549 14.400164
1.9858568 6.1117921 14.422058
2.8306201 8.7909985 14.434314
8.8134527 8.7039642 14.45084
4.4848723 4.7078619 14.506514
6.4135776 8.9845629 14.502508
4.4905095 9.1922483 14.592344
8.6322412 5.2063808 14.606939
6.2331038 5.3192663 14.638376
5.7728858 7.4761972 14.605984
9.6136141 7.8501267 14.62505
5.7022109 7.9229794 14.64313
7.3113942 4.6238923 14.739522
5.9705105 5.7665105 14.776675
2.5894771 8.6318674 14.753462
6.3373466 8.9196806 14.78578
7.1787968 4.6417518 14.87586
4.7767334 4.8110542 14.838083
2.4980259 5.4715662 14.845507
3.0487828 5.0475221 14.992661
5.7199607 6.3166738 14.984852
1.4432452 6.9537811 14.91963
5.6711502 8.0359907 14.98605
5.178298 5.0663257 15.020372
9.954648 7.2001395 15.069914
1.7125788 7.4521909 15.087023
2.0641575 8.0914001 15.051071
8.5831776 8.9380512 15.067356
8.1099586 4.698431 15.197966
5.0839071 4.9744821 15.133579
5.9327455 5.7646265 15.148489
9.1356945 8.4405441 15.127003
8.8381777 5.2496223 15.263984
9.1950207 5.5008864 15.221095
7.8850017 9.231986 15.267203
8.157464 4.7347622 15.317101
2.4954939 5.3638587 15.352626
5.7660122 6.6510448 15.397399
5.5714426 8.3055687 15.348014
2.4060726 8.4366531 15.324896
3.9327488 4.5231738 15.42594
6.505096 4.8694429 15.440296
5.7818117 6.5382085 15.426759
5.9422493 8.2798376 15.406147
7.8840275 4.4737959 15.539517
7.3997746 4.5294151 15.504364
8.6188164 5.0316377 15.584747
5.4911833 5.4911876 15.54356
3.0139923 9.0356703 15.578773
2.1199634 5.6703482 15.647087
5.7260022 6.307724 15.626833
5.4034038 8.5903263 15.613716
6.0770903 8.5076561 15.612757
8.2188959 4.728735 15.731556
5.9242444 5.6748924 15.707154
5.6564827 7.9913754 15.789795
3.389673 4.6545758 15.829275
8.483428 4.8872175 15.829127
2.5397208 5.230258 15.852015
10.134718 6.8725395 15.843516
2.0671167 8.0436153 15.85655
5.9085374 8.1930494 15.892592
2.5422931 8.5378914 15.888521
5.9124331 5.6425195 15.995162
7.3095226 9.3381653 15.915294
4.5812101 4.4703493 16.009378
6.3593335 4.8212304 16.06336
9.3090115 5.5067267 16.172207
5.8483014 5.7546191 16.148748
10.112361 6.3991661 16.138403
5.7674994 7.1038914 16.116674
10.02311 7.1234989 16.153364
8.9246082 5.1112051 16.23587
5.5706363 5.5035191 16.293129
5.7583122 6.8914113 16.288885
4.7009921 4.4203281 16.382093
1.2621428 6.6913567 16.348858
10.165744 6.8841567 16.356916
5.7960973 7.0627565 16.331581
8.7246571 8.9244499 16.375439
5.1179466 9.0261021 16.372597
4.4495158 4.3204565 16.409761
1.1898681 6.4986973 16.499485
6.822536 4.2505341 16.583256
6.5604873 4.3798981 16.5277
9.8494835 5.9944506 16.518087
4.985095 4.2371101 16.692024
5.4145861 4.4131656 16.651211
2.8948662 4.8290672 16.672722
2.0073419 5.6423635 16.648216
5.8572412 7.2108192 16.648262
2.0470343 8.0584583 16.664146
5.5420284 8.0751619 16.658096
4.4217229 9.2429905 16.665066
8.6529131 4.8304501 16.731035
1.9194564 5.660727 16.786428
1.5106376 6.0573087 16.723827
5.853385 7.1167569 16.790638
5.4465666 8.2171402 16.741026
5.2506361 8.5345697 16.758991
7.7332721 4.1913033 16.862309
3.7205367 4.2512002 16.812908
5.4680624 8.1189289 16.846691
6.3850117 8.6634369 16.80282
2.4671886 9.0088053 16.838379
5.1733742 3.9923341 16.953815
6.1525302 3.9662721 16.97879
5.3886724 4.0859947 16.910219
7.3011627 4.0512547 16.936144
5.6276979 7.2753162 16.92705
2.0808697 8.2998104 16.974072
7.1036 8.8377075 16.993786
4.4984102 8.9085951 16.972479
9.0815639 8.973424 16.916546
5.7835965 3.8791773 17.029915
7.254303 3.9898233 17.082542
9.9249849 5.8108215 17.08893
5.6990533 6.7229285 17.027323
6.0053205 7.5803638 17.057537
5.5445323 7.9190331 17.183889
6.173687 7.9390173 17.173363
7.3004389 3.9255924 17.280823
9.4287682 8.3530846 17.241693
6.1819954 8.59091 17.212252
9.3265867 8.5367069 17.27132
2.3137465 8.7218075 17.208
6.2690973 8.7223291 17.215149
2.4586177 8.9845467 17.241135
5.0995207 8.9323921 17.233055
5.2878947 9.0649052 17.277538
5.9575062 9.0256958 17.263153
6.2618752 9.0943575 17.28953
8.7561827 9.2245569 17.290485
6.9315567 3.8160701 17.338749
1.6017301 7.3052197 17.349751
9.4973736 8.249136 17.36763
4.0093017 9.0933046 17.302902
8.2807302 9.1825485 17.320097
6.3757486 3.5606923 17.471472
2.6998253 4.788878 17.486702
8.7274227 4.7281075 17.421879
9.7969284 7.5429764 17.411686
2.9885244 9.323596 17.47216
4.2251797 9.397748 17.471012
7.388309 9.3845253 17.450632
9.9935207 5.7697482 17.53948
10.075806 5.8487511 17.559294
9.6592722 7.9863644 17.533096
3.4579387 9.388031 17.560724
6.129683 3.4215012 17.619347
7.0481911 3.7070861 17.689032
4.1219592 3.8196988 17.627319
1.8063469 5.5167847 17.624792
9.7371998 5.5206409 17.659637
2.3711643 8.8270645 17.698784
2.4370944 4.9646082 17.705204
8.6896982 9.3286591 17.723593
7.1994982 3.7003033 17.807707
8.0450945 4.1551175 17.822937
9.9480762 7.0825567 17.831184
4.3422623 9.5419121 17.830223
2.9498217 4.5136809 17.915184
9.2296553 5.0350642 17.92613
5.5784965 3.3368669 18.090979
4.67484 3.5252717 18.030735
2.7850273 4.6165781 18.011532
9.332489 5.1053953 18.003639
2.1769824 8.4776993 18.003736
2.0468969 8.2542419 18.155563
9.4219637 8.3532524 18.116238
3.3324389 9.4812918 18.111702
5.5275145 9.6838551 18.195358
5.6188192 3.3010044 18.254547
4.8045149 3.454659 18.238651
7.4377589 3.6194232 18.269684
8.0046406 4.0034933 18.211864
2.629458 9.0255194 18.215328
8.4498596 4.2659388 18.326527
9.0173492 4.7309532 18.333258
9.2724028 4.9626446 18.351736
9.6314087 5.2877378 18.343109
10.198642 5.8373766 18.311066
2.8428445 9.2182655 18.398674
6.3243928 9.7761221 18.397591
3.9272747 3.6439943 18.446051
2.2996192 8.5778131 18.408381
2.429945 8.736062 18.432755
8.8862782 8.9875612 18.409704
4.9562078 9.8006248 18.490997
9.5768356 7.8773675 18.580025
7.1054587 9.8077383 18.680786
9.1377907 4.6214905 18.779402
1.4670817 6.7380285 18.731535
9.7007103 7.4854345 18.785629
9.176054 8.553688 18.755568
8.70683 9.0766573 18.758467
4.1037974 3.4932299 18.832689
2.5008063 4.4660177 18.863239
10.108273 5.6346488 18.852169
8.2878408 9.4882774 18.871143
9.615324 4.9326401 18.964165
2.2380433 8.2701397 18.93149
2.7165205 8.8873281 18.940899
7.642148 9.6546707 18.922876
4.1318283 9.7227364 18.931122
6.5732045 9.8957844 18.920589
2.5669475 4.3137913 19.085978
9.4528046 7.8272371 19.086922
3.6962888 9.6079445 19.061096
5.3158898 9.9272461 19.026913
6.8766098 9.90909 19.035749
6.1254253 3.2031097 19.113791
6.4381056 3.2067327 19.272541
8.5505524 3.9032521 19.286427
10.210839 5.68821 19.213089
2.0076833 7.5436268 19.296848
7.0312686 9.8707695 19.271408
3.4197087 3.6451662 19.350874
8.7665796 4.0387135 19.362829
1.942413 4.5934153 19.303841
7.2826166 9.7888594 19.344984
3.7334805 3.4843986 19.47184
9.2660551 4.4117527 19.402744
8.8768921 8.5591602 19.413551
5.7095633 3.1342297 19.511667
4.5235853 3.2661734 19.550465
7.4975123 3.3697126 19.517361
3.7537489 3.4599719 19.551689
2.3448844 4.2831855 19.55249
10.102005 6.3437428 19.557381
9.4895649 7.4833446 19.55505
6.8903322 9.8986292 19.587124
6.3210483 9.9798946 19.589493
3.2826612 3.6480291 19.670795
8.2846031 3.6687107 19.671137
9.368536 4.2458305 19.602064
9.853611 4.8864708 19.605867
2.6717362 8.4471884 19.648323
2.855269 8.6761427 19.653063
8.6547108 8.6857061 19.69013
4.7059336 9.9191122 19.650007
2.0596516 4.3454294 19.748213
10.294665 6.0268936 19.712971
1.5638144 6.6129313 19.798214
8.7919006 8.5160866 19.774096
4.2092767 9.7733507 19.741631
4.6308541 3.1754096 19.887638
8.4570866 3.7236125 19.895411
8.3297224 9.0691071 19.84798
8.2280054 9.1937647 19.807072
2.6815572 3.9258733 19.986174
10.337601 5.9822178 19.997362
10.100321 6.4030032 19.982975
1.8028427 7.0527706 19.910677
3.2215319 9.0874166 19.989029
8.1361437 9.3015985 19.951155
4.8206749 9.8498812 19.990545
2.6249998 3.9455919 20.065544
9.9852667 5.4398098 20.058125
9.8453407 6.8562684 20.033447
9.0493212 8.1904821 20.073826
2.639864 8.3819818 20.074257
3.1594954 9.013195 20.091377
7.4244671 9.6519814 20.098354
6.6798406 9.8154011 20.066772
1.3692452 5.6290894 20.188419
10.150413 6.3380432 20.155083
1.9811932 7.397572 20.165882
8.2080612 9.2181158 20.14683
8.3327703 3.5984364 20.292196
1.9944246 4.5150862 20.29084
9.546876 4.9088712 20.37314
1.3861851 5.6275229 20.37101
2.7871988 8.5559235 20.339624
3.4688931 9.3687506 20.360466
7.1249628 9.6790123 20.321859
8.1093731 3.506896 20.403431
1.5360986 5.4421048 20.458733
1.4962578 6.5687923 20.444576
5.681447 9.5381374 20.456633
5.835938 9.5237236 20.493473
5.0656605 9.603653 20.470272
4.6270223 3.1749458 20.591621
6.7514849 3.1551137 20.518467
7.6682854 3.350781 20.511564
2.8672605 3.6257823 20.510481
1.6166834 5.3333025 20.514254
3.1490149 9.0139084 20.518015
3.1875045 3.5759544 20.607304
1.9264257 4.9370885 20.671011
9.489934 7.5254502 20.690468
2.3237813 7.9919252 20.634556
9.083107 8.1423817 20.613489
5.5240068 3.075001 20.791439
8.408639 3.5925994 20.732355
9.1133509 3.9225883 20.796436
1.3655175 6.0291591 20.797012
9.5530376 7.4056735 20.781925
3.498585 9.2703829 20.721079
4.8197613 9.5385571 20.708544
8.1589613 3.5026605 20.890907
8.7385492 3.6622829 20.801748
5.1331573 9.464633 20.810863
6.4611821 3.1417315 20.933716
1.3906022 6.3372846 20.945341
1.5436506 6.6141977 20.981268
2.2221694 7.917387 20.943058
2.6149662 3.9153903 21.133987
8.8869705 4.0977116 21.154966
5.8730102 9.3751841 21.124115
5.390049 3.1092138 21.282473
3.745996 3.3616271 21.270123
1.3931233 5.9327588 21.228924
4.9082537 9.3544931 21.291592
5.0873909 9.3525028 21.264362
5.8139157 9.3683596 21.239752
6.9587097 9.3677082 21.283276
3.807673 3.3343749 21.423412
2.8717818 3.6504154 21.436781
9.9111738 5.2854609 21.417105
10.047186 5.6698771 21.421474
10.0803 6.1139951 21.471298
6.4206772 9.3287621 21.588717
1.6611936 6.8582993 21.684465
7.3729095 9.2915964 21.625202
7.4816861 9.2574263 21.617273
7.4218225 3.2677009 21.726894
8.6153059 8.8280945 21.758369
4.8698606 9.3139343 21.715176
6.2329688 9.3221636 21.758242
5.7658505 3.1609876 21.946373
2.2926648 4.4344091 21.914001
2.4953222 8.3330097 21.931875
6.9915786 9.2960501 21.940767
10.012548 6.2520485 22.067951
1.6295102 6.7236109 22.090675
9.8625717 6.8415408 22.098608
4.1178541 9.2429981 22.051113
6.8659725 9.2988825 22.026058
5.7252851 9.3322639 22.013805
4.9829521 3.1806116 22.118771
8.4329605 3.8397396 22.133053
8.8927889 4.1613874 22.160202
1.8601404 7.3267403 22.133167
9.4644003 4.5901184 22.295933
9.9723387 5.3150768 22.263264
9.3654356 7.9479785 22.243149
3.4924982 3.5367336 22.395214
9.836359 5.0621638 22.316189
10.06091 5.9659109 22.3333
8.9732389 8.4212322 22.349068
7.8442411 9.083293 22.343323
4.0574346 9.2092905 22.372028
6.5293441 3.2054729 22.47987
4.141118 3.3559222 22.42675
9.0585814 4.2326183 22.440449
1.5299727 5.4894261 22.554132
1.6197295 6.5216007 22.516935
9.2502279 8.0995922 22.537212
6.1671772 9.3076582 22.556633
3.433008 3.5849652 22.655643
1.5115151 5.7882109 22.670204
10.028032 6.0281725 22.608631
1.7247601 6.9068036 22.689331
2.7342625 4.0479031 22.797825
9.7179756 7.1350784 22.714834
4.9643884 9.2387028 22.723049
8.6073036 3.9288158 22.819126
1.9530327 4.7155485 22.88615
5.5654078 9.1946726 22.86462
6.2391267 9.170435 22.88052
3.6477866 3.529139 22.907927
8.8428183 4.089807 22.924339
2.4186532 4.2624655 22.926287
1.7416745 6.8906832 22.910452
9.1475239 8.2371674 22.934591
8.4185905 8.8341255 22.938002
6.2825241 3.2281604 23.005173
2.3375368 4.324481 23.032307
9.876133 6.4958534 23.082767
8.6019392 8.6283503 23.078821
6.7573705 9.087985 23.019287
6.6563435 9.1001606 23.064129
9.9018431 5.1555076 23.108156
2.1649456 8.0193357 23.135746
2.2822819 8.1364031 23.14809
8.8307056 8.5342417 23.185112
2.9624777 8.6402063 23.121532
6.7364411 3.3480651 23.294443
3.7155104 3.5679562 23.295509
2.070893 7.7536392 23.23238
9.0028429 8.3582764 23.274271
9.7068472 4.9147263 23.376244
2.293057 8.0873137 23.30661
3.2874274 8.7955532 23.393925
6.9504366 9.1136904 23.329182
9.5569029 4.7390862 23.45429
1.6071484 5.8776989 23.487453
1.5853827 5.9764037 23.414379
9.8604584 6.4270458 23.478062
6.5729189 9.1799688 23.484253
5.5494003 3.2549038 23.551361
1.6420963 6.308115 23.509539
5.5836654 9.2540274 23.518381
9.912817 6.0180464 23.655457
9.8822918 5.6520534 23.749781
1.7168107 6.557332 23.725662
1.8070878 7.0738468 23.751913
2.3756914 8.7979736 23.793207
4.4453197 9.3795319 23.712204
4.1747208 3.5269392 23.839254
1.7422358 5.1529202 23.822956
9.6072502 7.6996503 23.874409
7.4446025 3.5696127 24.054197
2.933198 9.225194 24.062557
4.1831994 9.6637478 24.08309
2.8866711 9.2277803 24.116447
5.8034277 3.3682418 24.231432
6.2558775 3.3624923 24.222769
4.1905708 9.7275667 24.213861
4.5441613 3.5109138 24.315769
1.9780749 4.9238334 24.399105
1.8170362 5.1648393 24.346672
7.7260981 3.7054229 24.420736
2.228914 4.4564047 24.439037
9.0329189 9.1362286 24.532389
3.189455 9.507452 24.536575
3.1833835 3.8710277 24.633562
9.8640003 7.1462183 24.677568
9.5509167 8.3647251 24.640831
9.2698774 8.7976923 24.649826
1.7076868 5.5896845 24.700611
1.6658162 7.2552452 24.798418
2.1163194 8.601862 24.76759
6.494421 3.4877839 24.899372
6.536499 3.4889917 24.84412
9.2001982 4.2819014 24.877659
1.9238741 5.1340294 24.899822
9.3593159 8.7092304 24.877369
3.780211 9.8623495 24.896278
7.0728693 9.9780121 24.850636
8.6123257 3.9262328 24.957367
2.1659551 4.5801191 24.935654
9.8325748 6.1921935 24.909578
3.8955095 9.9188948 24.926777
1.7636143 7.8824863 25.028444
1.9515165 8.4015207 25.01247
2.2969198 8.9301996 25.000847
4.6666536 10.051986 25.094734
2.6168427 4.0161972 25.185339
8.9327202 4.0453396 25.118462
2.0216632 4.9322066 25.152863
1.6681635 7.5137758 25.154354
2.9785321 9.5973387 25.134304
4.7930689 10.07 25.167393
2.5795848 4.0130181 25.299536
9.1127367 4.1330533 25.248753
1.7309194 5.6408424 25.26325
1.6234218 7.3410945 25.228846
5.4361086 10.120805 25.294678
6.4251099 10.101341 25.24577
1.5649639 7.1482797 25.392658
9.9499903 7.2186146 25.385509
6.3769197 3.5318947 25.440823
3.5340071 3.794858 25.492107
3.3319776 3.8280139 25.494154
9.9190369 6.1667738 25.451988
9.935853 7.2943983 25.422239
9.9217224 7.3576026 25.426151
1.7848525 8.1416721 25.486078
9.7647524 8.0946188 25.596218
8.3973961 9.7181149 25.50251
2.0017891 4.9593344 25.660074
6.5778713 10.127545 25.658506
3.8742995 3.7555547 25.729719
4.0037456 3.7328086 25.723282
7.476078 3.723619 25.713713
8.8306789 3.9549558 25.751135
2.2563479 4.211431 25.70166
9.3033791 4.2984509 25.770048
9.9258833 6.0269527 25.718063
9.0546312 9.3700352 25.783001
3.5202689 9.9032393 25.729275
9.5616932 5.0467677 25.806026
9.9982615 7.1476507 25.858761
7.8538928 3.7977252 25.904446
2.2026045 4.3734689 25.958752
2.0562522 4.8366823 25.908947
4.9275651 10.14277 25.919323
5.4380665 10.169326 25.970638
4.8068743 3.5822482 26.000589
3.3847618 3.7790904 26.053902
3.2066274 3.8490188 26.000603
2.734709 3.9096045 26.024036
1.6588051 5.8718152 26.016018
8.2188873 9.8966074 26.051403
6.4447832 3.5599959 26.146177
9.0154276 9.5314522 26.111692
8.6170073 9.7675438 26.132923
6.3833122 3.5719917 26.234352
7.2050724 3.5056581 26.221485
9.9770555 6.3723326 26.240555
1.5131569 6.8905754 26.221107
1.5079737 6.921834 26.286694
4.6633863 10.151419 26.246052
7.0352135 3.3956802 26.386408
4.8054104 3.5070224 26.392334
7.4622283 3.518641 26.32513
8.7977753 3.7407873 26.350172
9.9616146 6.1621132 26.308918
9.7381649 8.4661598 26.306353
5.6892033 3.6422734 26.406387
1.4972055 7.1301575 26.421284
2.8254154 9.8119001 26.479431
5.0043063 10.180648 26.467648
7.332459 3.4755051 26.550755
5.0554361 3.6107659 26.505707
9.626874 5.290658 26.570677
9.8626223 7.9948416 26.59284
2.614743 9.7588654 26.591393
7.5152035 10.144907 26.580944
1.9597367 2.5088549 26.654999
2.4169853 2.8956077 26.6821
4.9897003 3.6286817 26.631199
1.5749638 6.1552339 26.603222
1.4806015 7.0574598 26.658432
1.7013524 8.1819057 26.636398
6.8907046 10.176692 26.649368
6.355298 10.206127 26.693604
1.3446548 1.905001 26.783091
2.5312099 1.9140415 26.777729
2.1682723 2.047421 26.732586
9.8054752 2.1657999 26.755476
9.9089174 2.5564218 26.725277
1.170306 2.6984503 26.794239
2.4108789 2.9717271 26.797871
3.0670714 3.0083187 26.733921
3.5156248 3.1623878 26.754681
5.8920679 3.6770039 26.749199
2.8409996 9.8513193 26.727312
6.9343081 10.187553 26.792042
5.1075745 10.209992 26.771585
1.2540697 1.6267865 26.893185
10.039301 1.7825671 26.801239
3.0967205 1.9821411 26.834133
3.3600023 1.997972 26.888479
10.421885 1.9634668 26.808994
9.5475454 2.0471151 26.819767
4.7676024 2.4811637 26.897104
10.500966 2.6239958 26.856714
4.1045427 2.7375989 26.829124
5.0111146 2.9685197 26.865719
5.1050262 3.0944746 26.860212
4.4319859 3.4611325 26.889053
5.3327227 3.5465481 26.890427
3.4355252 3.6720204 26.836754
3.7249918 10.103709 26.867004
10.254297 1.4600015 26.995104
5.9912691 3.2697799 26.997814
10.382648 3.2766538 26.977926
9.799963 3.3571467 26.92981
3.1718798 3.7275953 26.963163
9.4721165 4.940258 26.986425
9.611249 5.2945704 26.959034
2.9728413 9.9067488 26.920206
5.5999041 2.5792689 27.032825
6.0669422 2.9284129 27.039272
6.0978374 3.1228981 27.011211
10.446674 3.2568691 27.012474
3.4230986 3.5073538 27.059822
4.5223532 3.6583068 27.088573
6.0145178 3.6360731 27.086943
1.9688786 9.11203 27.087614
2.1837883 9.506319 27.078596
8.4188337 9.9557714 27.020599
7.4380455 10.185312 27.031204
4.4506583 10.202433 27.032326
6.3508716 10.236147 27.037338
3.4995034 1.6994478 27.162966
4.9585247 2.1910002 27.172161
5.0521746 2.1952078 27.194592
8.6359215 2.8936408 27.184345
10.614498 3.2911212 27.128893
9.6551657 3.3604589 27.134243
1.6752064 3.4482889 27.111832
0.90304339 3.5428309 27.157333
7.8159804 3.6321483 27.113445
4.9269505 3.7601728 27.154457
1.4512775 4.3430634 27.193123
1.6158884 4.474956 27.167078
1.6129975 6.1112156 27.138409
1.4768355 6.8597031 27.128044
9.8840332 8.1996956 27.192955
9.8533201 8.3507195 27.18092
8.7360115 9.8856411 27.151115
8.5854492 9.930995 27.195751
1.9653058 1.0994165 27.257973
1.1115171 1.1967194 27.28392
2.2937508 1.1551106 27.282757
1.2811456 1.2969898 27.21344
2.4362981 1.2454269 27.240688
8.6704054 1.6461509 27.24753
4.7755408 2.0517948 27.23954
2.5937893 3.463459 27.206812
1.9227935 3.6903131 27.229284
8.1695518 3.7200222 27.207123
4.3527784 3.8418555 27.298214
10.547713 3.9360571 27.28569
10.354116 4.0185027 27.222565
9.8678799 8.2922153 27.210903
9.8179159 8.6150246 27.239079
1.7721671 8.9301109 27.230089
1.7391566 1.0780802 27.325809
3.8256998 1.5491166 27.378605
8.2736225 2.2718892 27.302555
10.952228 2.2705777 27.369354
6.6918344 2.5743318 27.319872
0.61238062 3.2929752 27.342995
0.61603427 3.3503568 27.345861
6.6898613 3.6500726 27.331455
8.534483 3.7953355 27.309515
9.1605206 4.0038886 27.387112
2.0293379 4.6628261 27.338264
2.0014169 4.7780085 27.340677
9.8666553 4.8671894 27.301205
9.6957436 5.5628152 27.393499
1.7970673 5.6554346 27.360748
1.5085185 6.60746 27.363712
4.0057759 10.209463 27.342945
7.8132305 2.1377072 27.499485
7.9991202 2.4517927 27.40449
0.55617261 2.8610277 27.474857
8.0826712 3.717099 27.406555
9.2348576 3.7882941 27.450672
10.766338 3.8976574 27.407097
0.76322436 4.1290236 27.454052
2.4069247 4.1355009 27.484751
2.4488997 4.2394896 27.478828
9.0523376 4.2727017 27.453127
2.2422526 4.43329 27.405146
1.2810433 4.7817507 27.458088
9.6587944 5.4672041 27.409178
1.8047311 9.3250179 27.480055
6.5466609 10.24893 27.404882
9.1847391 1.0306495 27.557091
5.4123631 1.9496969 27.514933
7.6414742 2.2482264 27.563698
3.0717826 3.8352723 27.56488
3.367928 3.9030066 27.580847
3.6128259 3.9617503 27.508316
2.5922568 4.0294909 27.555803
5.2310719 4.1301322 27.592192
10.694967 4.3176956 27.500191
2.4654493 4.4295235 27.502254
1.4612677 5.3048024 27.551935
0.3981249 1.2151469 27.67725
0.45127279 1.8349988 27.635103
7.382206 2.886775 27.641764
8.9886208 3.1804488 27.66395
2.1581948 3.6244669 27.696663
2.2624278 3.7778158 27.679531
8.6750917 3.9336817 27.617369
4.0508289 4.0256371 27.643444
9.0160418 5.0856228 27.620823
1.6005386 5.8591933 27.676262
2.1619682 6.3784847 27.689054
10.008203 6.6535282 27.692217
2.0762415 9.7821569 27.600609
7.0846605 2.5068977 27.782904
7.6238356 3.5831342 27.768871
8.9359608 4.0979223 27.773367
10.928084 4.5726042 27.764477
8.8999405 5.5569019 27.753464
9.3751297 9.8729897 27.70174
8.9235249 10.050251 27.789696
4.3280578 10.265128 27.788183
7.8919802 3.3061588 27.809238
2.8104603 3.7657762 27.855843
0.45702586 3.8135366 27.88586
6.5052648 4.0129247 27.864132
7.269208 4.0073557 27.808868
5.1639304 4.1523743 27.824631
2.7030716 4.2698102 27.856251
10.390841 5.6799269 27.815802
1.4091325 6.0758748 27.824665
1.5831038 6.3131108 27.823471
5.6355414 10.256392 27.832722
1.2221599 0.97561765 27.98675
6.7478714 2.1023023 27.939789
2.2259707 3.5347576 27.987457
4.0048585 4.0502176 27.902603
0.7471028 5.5204558 27.950766
10.680164 5.7153273 27.947781
9.9423065 6.67343 27.913185
9.951149 6.7608232 27.926193
8.8150568 0.93095511 28.039555
10.998348 1.2807133 28.082018
0.47919089 1.3789413 28.052261
7.4620419 1.4495039 28.088982
4.0440888 1.5227754 28.030298
11.227076 3.1957879 28.014357
8.913991 3.2094994 28.093719
3.8214915 4.0512471 28.084866
6.0099664 4.1284924 28.026514
7.409255 4.2799964 28.000212
3.088212 5.008141 28.022264
0.72632074 5.5947008 28.021072
8.3831453 5.56567 28.040129
8.398097 6.2836895 28.092772
1.2606405 8.2714996 28.088732
2.8128524 10.137038 28.042185
5.0882149 0.27361882 28.102928
5.0153613 0.34166601 28.144314
11.057974 1.3543274 28.133934
7.3586287 1.4449915 28.15064
4.8591847 1.799686 28.130728
6.4191027 1.9696345 28.180084
11.272453 2.6246214 28.127596
7.739244 3.5570126 28.156549
2.6509459 3.7183905 28.189241
2.5046563 3.8184161 28.143036
6.4244642 4.0683799 28.137138
10.44354 7.207448 28.169601
1.6706774 7.3058586 28.167187
10.353892 7.6087275 28.192234
1.3434893 9.1716433 28.177971
9.9731207 9.6407032 28.131672
9.815217 9.7507648 28.173595
2.3819473 10.12661 28.129425
5.7849917 0.75247812 28.22867
8.4111004 1.0192907 28.238995
4.0594091 1.5657095 28.260775
4.5207162 1.7033918 28.201363
7.6435814 3.6993089 28.262436
8.0019932 3.7069814 28.21163
8.3268299 3.8291016 28.208168
5.376359 4.1486959 28.266371
3.286468 5.452045 28.290871
0.60914266 5.631115 28.240852
10.907941 5.7717457 28.282444
8.2914619 6.3231378 28.2656
9.6459064 6.7907271 28.229038
10.555737 7.7821646 28.243984
1.0441186 8.4081001 28.257664
10.443203 8.7333374 28.297327
9.1739683 10.132913 28.245956
5.2060857 0.72708005 28.303135
0.62180912 1.2432584 28.30904
3.2320065 1.3481569 28.372313
3.8898401 1.5260625 28.310085
4.380115 1.6849215 28.361197
6.4269738 1.7667915 28.373154
2.7317693 3.8228192 28.395061
8.3403988 3.8425894 28.321352
10.761919 6.5625105 28.3354
0.74582165 7.4128523 28.371803
0.91551173 8.2854843 28.32081
1.0066028 8.5959387 28.328056
10.1723 8.7476177 28.308319
4.646246 10.280678 28.359238
10.378286 1.0381171 28.477732
2.5161285 1.1100899 28.416309
6.4853835 1.6475173 28.454071
6.2291937 1.7731905 28.470572
0.40860835 2.4087594 28.42482
6.6350422 3.9677148 28.419548
4.6791024 4.1733694 28.404839
11.353039 4.3861456 28.448013
11.315496 4.503499 28.432346
10.847067 7.3749323 28.462402
10.326153 9.4787378 28.442493
5.7259417 10.273204 28.413015
9.6805325 0.94276989 28.525537
8.6144228 1.0494694 28.513615
10.817577 1.2499175 28.504007
8.8607521 3.2861156 28.5793
8.6511641 3.5944066 28.590744
5.5237064 3.8923712 28.54261
6.782629 3.819468 28.535233
11.487664 4.1637206 28.592144
0.083083414 4.2313385 28.559528
11.367752 4.4681954 28.51091
8.1317186 5.2269306 28.506214
0.47199115 5.7191324 28.51907
10.897641 7.3908005 28.535824
0.72273707 1.2820377 28.69257
0.65109134 1.4148324 28.66584
11.151537 3.0730197 28.697657
11.222052 3.2063694 28.629156
2.5982647 3.3466704 28.61874
8.7024784 3.7704568 28.617413
11.36041 3.7408786 28.677143
2.9445007 3.873724 28.604406
6.5161581 3.9151115 28.680746
11.452224 4.3841105 28.625942
1.705559 6.7292156 28.643372
0.58114183 6.8736267 28.608383
10.950106 7.5689487 28.611126
10.55839 9.118391 28.604889
6.762414 10.272969 28.645191
8.7046785 10.212563 28.646402
4.5438428 1.1903869 28.767342
0.72949874 1.3732672 28.797636
2.8355498 1.3832881 28.707588
6.2480764 1.4656701 28.750374
5.3678498 2.0719938 28.716595
8.3150263 3.6462789 28.715324
2.8328893 3.7994564 28.712898
2.8357511 3.8028393 28.745262
4.4743481 3.8429198 28.756107
3.3074291 4.1564255 28.709206
5.6270399 4.1274667 28.79158
11.450098 4.4591994 28.72139
7.9514322 5.5758662 28.757433
1.7313685 6.6873031 28.711979
9.5250053 8.2803688 28.773415
4.8632965 10.269592 28.758419
6.2627215 10.267385 28.771862
4.2129188 1.0328994 28.891087
9.4920588 1.0421028 28.839951
7.8266487 1.1950777 28.837269
7.1316023 1.2909564 28.837393
6.6212683 1.348084 28.801447
4.5363207 2.1093512 28.874252
0.45474443 2.9569035 28.853876
6.7084274 3.6825883 28.827698
3.5522656 4.0457659 28.818687
5.8495226 4.0227623 28.896294
9.8551216 6.3318582 28.893051
11.130192 7.3703108 28.861069
11.155127 7.9365292 28.8857
0.53467268 8.5778208 28.890261
1.519194 8.8218384 28.841843
10.391857 9.6952715 28.839941
5.6019225 10.26407 28.844051
6.0918617 10.263423 28.897251
4.3186235 0.85065413 28.997978
7.2080789 0.84731674 28.952179
4.1667638 1.1740993 28.994068
8.8455229 1.1045891 28.927891
7.8133955 1.2192451 28.962332
5.0346689 1.8607025 28.991779
3.7231255 1.9251838 28.944881
4.3871832 2.0918419 28.90029
2.329263 3.0989327 28.905703
2.5576458 3.0935671 28.963013
4.7652264 3.6223025 28.9804
3.4269824 3.7684562 28.92808
7.7659488 3.9081705 28.905333
8.2247458 3.9100757 28.990047
5.9496727 4.062674 28.980427
7.3254437 4.512023 28.955515
9.3135738 7.4056692 28.900631
5.0326691 10.262775 28.99177
8.7552042 1.1900368 29.081823
9.8609648 1.3348918 29.072739
4.221694 2.2243342 29.073298
0.60218072 2.4949894 29.059895
11.000261 2.771287 29.065376
2.6293113 3.2162197 29.037249
4.8848577 3.6771743 29.056591
7.1267414 4.0446281 29.068169
7.4704399 4.4307127 29.093441
7.7867088 5.5743608 29.051655
11.340002 5.6670547 29.050924
2.9709985 6.0507426 29.091553
11.24948 6.8155227 29.033743
1.2105223 8.9431763 29.016933
2.4393218 10.204037 29.05798
1.7266158 1.5038756 29.176552
2.2623897 1.5460716 29.126511
0.92176545 1.8269134 29.123959
2.8225665 3.8093677 29.121555
0.32537094 4.0977812 29.158358
3.1291335 4.1584039 29.107248
7.2505336 4.2745786 29.115694
11.202755 4.53263 29.199955
7.8642931 5.5308781 29.182919
11.307652 6.9750986 29.110722
9.6251259 8.662817 29.135075
8.0209217 1.268818 29.264175
4.7453279 1.7842301 29.233971
10.604228 1.956638 29.261702
2.4307821 2.4017076 29.224644
4.0725203 2.6403403 29.265793
3.9557343 2.7274683 29.260159
9.1855974 2.8324978 29.200195
3.8247116 3.1147573 29.215321
2.5132203 3.3319893 29.298832
6.9238796 3.7690072 29.242153
4.0479321 4.3548455 29.258034
8.2978983 4.5566158 29.285309
2.7107363 6.028995 29.28203
11.40126 7.9172888 29.223072
9.0608244 8.3424416 29.240931
11.21781 8.7378864 29.266714
1.9596534 10.071791 29.237206
3.0148058 10.241562 29.22015
6.5799079 10.255894 29.274446
8.5395346 10.24122 29.20332
4.3083038 0.93796813 29.370611
10.03851 1.6634053 29.373737
4.2620897 1.7218821 29.328169
2.8072038 2.7852955 29.364552
8.6263657 3.2945888 29.354729
10.987421 3.5073941 29.392681
3.5294316 4.1496868 29.316124
9.265955 6.8564601 29.377169
1.8401401 8.6982203 29.323341
0.29978812 8.8844519 29.376457
1.1230019 9.9109783 29.358942
9.9754391 10.018332 29.369743
2.0290771 10.117582 29.309898
9.4479256 10.162767 29.382538
3.1027846 10.242086 29.313107
6.4749126 0.62757701 29.463013
8.5742531 1.505608 29.431446
9.003212 1.5667185 29.437248
9.405901 2.3347185 29.425049
9.5890694 2.9491355 29.493034
0.46984556 4.0386043 29.424171
4.2485375 4.1454239 29.423504
7.2527609 4.4070935 29.49649
3.8624263 4.5088854 29.465145
0.41695261 5.1575069 29.457821
2.0778382 8.6056509 29.414862
0.90348071 9.7899437 29.439308
7.69067 1.3985724 29.59198
9.2614346 3.0997322 29.561581
9.4060898 3.1466479 29.52261
3.4791117 3.2725053 29.562958
3.4178488 3.3259029 29.563541
8.5626507 3.5099709 29.592852
0.5539462 4.0373507 29.598146
7.68225 4.2330298 29.591305
4.2119946 4.4421349 29.530582
3.2617321 4.5788994 29.578524
8.4202271 4.5655141 29.502647
8.023138 5.7824807 29.554081
9.7279053 5.964633 29.527035
11.13654 8.9359865 29.563004
10.790005 9.0341396 29.585178
10.17288 9.9275894 29.563919
9.4594774 10.192455 29.521444
2.4811935 10.217736 29.546154
5.0637579 10.248784 29.532616
5.9915543 10.245375 29.584539
0.95711124 3.3068695 29.638643
3.7376237 3.6154337 29.674538
7.4762621 3.7171202 29.647236
8.9517288 3.7454443 29.625805
8.5259266 3.864058 29.610188
7.0579081 4.4655819 29.653538
3.1279719 4.8055468 29.646896
3.2576499 4.8125544 29.677582
0.46741152 5.5592613 29.634842
8.6081953 5.8351154 29.685658
0.20568801 8.2448254 29.68487
11.303128 8.3165722 29.675793
11.053307 9.1937857 29.634167
6.3686862 10.24502 29.662819
5.3817329 0.68695968 29.714001
3.8100247 1.4326961 29.741335
9.0489216 2.1220963 29.765696
8.8861752 2.4783084 29.771357
10.193319 2.8784904 29.745934
7.6255083 3.6990564 29.76675
8.4625731 3.9759943 29.724903
8.6757059 4.0791473 29.763165
3.2649469 4.3310199 29.73381
2.0098803 6.2829151 29.782034
2.2497883 6.638679 29.776741
1.7110697 9.957593 29.729515
4.9853249 10.242293 29.799339
7.4006658 10.248038 29.72121
3.494498 2.1695085 29.834593
8.5576363 2.7888482 29.835684
2.7171333 3.081181 29.889786
8.988945 3.6996148 29.818905
3.5489948 3.8273168 29.817551
0.65745175 4.5592318 29.840187
2.9023805 4.6478348 29.886707
8.4854689 4.8487163 29.830576
3.3277316 5.6281781 29.829157
2.1621585 6.4910698 29.826441
11.35938 7.1377759 29.81649
2.6567369 7.6426439 29.802265
11.218739 8.3091755 29.878666
1.0701648 9.6620626 29.86536
10.609095 9.6265907 29.836918
4.2458434 1.17717 29.918232
8.345891 2.4454141 29.935432
1.2527986 3.7847548 29.903046
8.1409712 3.7493761 29.964031
9.6074991 3.7995691 29.994152
2.7704744 4.7559991 29.997921
0.51676691 5.8971891 29.911476
9.7354221 5.9045954 29.948515
9.3789358 6.4327965 29.95154
0.15916161 7.4155154 29.993486
11.169502 8.4162836 29.949953
1.2300348 8.6972866 29.961708
8.5903797 3.5168705 30.048935
1.0791402 4.4245467 30.030321
9.0979681 4.4757414 30.042732
7.9488473 4.9142275 30.076717
8.8510275 5.859818 30.010141
0.26768601 7.9823699 30.045975
1.5389862 8.5859966 30.011072
4.3924608 10.194677 30.087641
6.680851 10.212183 30.055508
7.0672922 10.214441 30.024704
2.9611466 3.1727507 30.19994
7.8616381 3.3008888 30.10001
9.1268396 3.6886492 30.19772
1.7255167 3.9642251 30.142012
7.4952998 4.3976307 30.191881
1.3452352 4.5323443 30.197502
10.294389 4.5082774 30.134428
9.3129292 6.4502277 30.168793
0.69015896 9.2012386 30.185045
7.6550097 10.162855 30.164831
9.2296848 3.7156935 30.210424
7.2982316 4.5797834 30.263716
8.7241802 10.038975 30.296223
3.7193007 10.129906 30.267471
9.6652393 3.8485394 30.314497
9.0241776 5.9378409 30.363903
1.9316134 9.8385258 30.377434
3.4165812 10.078888 30.373379
5.4841609 1.1964773 30.478306
5.8157158 1.1452742 30.479145
3.3747544 3.649322 30.408249
1.9730276 4.8466911 30.414963
1.3908211 5.1968365 30.422832
3.3867569 5.1507015 30.407553
8.0668154 5.1245632 30.424984
8.8334379 5.3077259 30.437513
10.445456 5.7756433 30.469707
8.8432522 7.7614117 30.403147
0.79579657 9.2161074 30.430698
0.91036439 9.3041878 30.413015
2.8233149 9.9744205 30.468847
7.2981191 1.7842159 30.579153
3.625917 2.6798553 30.575813
8.0197287 2.8774371 30.51281
8.0358915 4.123096 30.549498
9.054986 5.9885874 30.537416
0.99212724 6.1657457 30.592991
9.2213125 6.7817106 30.531786
11.264925 7.2311239 30.592749
1.0379038 8.419137 30.576658
1.1430171 8.4147902 30.53113
11.094919 8.5650616 30.572472
2.0725873 9.7978163 30.550083
3.934999 10.036106 30.599157
5.3655415 1.3483834 30.607279
9.0593872 5.7428474 30.6353
10.229421 5.8551674 30.632839
1.8264298 5.9985781 30.611912
9.3487663 6.6329441 30.640869
1.5607052 9.582325 30.652164
4.2730694 2.067265 30.771093
7.7714419 3.0827973 30.771139
8.0916615 4.2685785 30.739014
1.6584753 5.5492148 30.758051
1.915754 6.1348062 30.750284
10.311673 9.3175049 30.743443
1.9578444 9.6826849 30.786682
6.1516747 9.977499 30.726547
7.2975979 2.4821968 30.843639
7.4110689 2.8827026 30.868656
3.8071468 3.2687895 30.819336
8.1465864 4.3642039 30.882332
9.6675024 5.594223 30.820274
9.8492393 5.5919271 30.878071
8.9846487 5.8122568 30.853699
11.114408 7.9120684 30.835693
6.4367342 1.8293024 30.974964
6.5481443 1.8920822 30.984547
4.2024808 3.0029678 30.918665
8.1845846 4.4213018 30.973124
3.956059 5.1762972 30.947393
7.5515728 5.2303705 30.974476
3.1504488 5.6141376 30.920961
9.6573772 5.9553275 30.993694
10.105999 5.9573669 30.986485
9.4525967 6.2005992 30.994516
0.62409461 7.0206475 30.993755
1.1403418 8.0659809 30.933872
6.0492325 1.7384254 31.003523
6.2233176 1.8253785 31.013084
6.8624592 2.7173982 31.044447
8.1181479 4.5920687 31.064091
8.1871471 5.7260351 31.064762
