# .PCD v0.7 - Point Cloud Data file format
VERSION 0.7
FIELDS x y z
SIZE 4 4 4
TYPE F F F
COUNT 1 1 1
WIDTH 1610
HEIGHT 1
VIEWPOINT 0 0 0 1 0 0 0
POINTS 1610
DATA ascii
3.436336 7.7774401 1.1985381
4.1478715 11.192562 1.1981734
3.7979355 5.7436476 1.20925
3.739531 6.2494717 1.2184274
8.8757811 8.2627602 1.2738571
3.4765832 9.6250849 1.2562668
5.6452723 10.878873 1.2175007
3.6574752 8.275507 1.3339847
5.1753101 8.889657 1.397393
6.97682 10.010345 1.3472475
8.9364481 9.6035147 1.4446958
3.5753467 9.745882 1.5763102
6.9747443 10.171392 1.5658745
6.9383554 11.476799 1.507021
7.0998392 9.6439276 1.6177932
5.4874663 10.260015 1.6440012
5.5611062 10.644578 1.6744823
3.9875689 8.5841293 1.7606614
7.2550921 9.1657925 1.7181269
3.6339283 9.8626013 1.731323
6.9076118 10.572923 1.7043245
7.5197921 8.7303991 1.8132067
8.5631943 11.147566 1.8909128
8.0658579 11.424182 1.8409461
3.6713035 8.6234236 1.9113638
6.4669971 9.5552015 1.9552398
5.5538445 11.335186 1.9714394
8.1501827 7.7150097 2.0541763
7.0073004 10.297226 2.0042124
8.6446276 10.245593 2.0095391
8.4444551 10.683582 2.0786178
8.3617783 10.829039 2.0755761
4.6362209 11.614336 2.0359464
7.6449652 8.7777252 2.1081998
6.6275039 9.0814085 2.1142287
5.1741295 9.2557583 2.1431065
6.0028982 9.6532488 2.1232762
5.4590449 10.547474 2.1414022
4.6143532 11.745058 2.1887519
8.8159332 8.5598888 2.2937493
9.3148279 9.7912207 2.2275248
5.4250064 10.329892 2.2084386
3.9119439 10.46026 2.233583
8.4672489 10.604611 2.2237959
7.7218137 8.8060837 2.3553495
8.5124512 8.9361506 2.3884068
8.6187677 10.307153 2.3050144
4.4816074 11.63265 2.3644156
7.6163006 8.0244913 2.4711881
5.1406345 8.2858286 2.4064989
5.3240552 11.51071 2.4215655
3.4427738 8.769927 2.5093174
9.2190294 9.3237572 2.564858
3.3763518 10.505657 2.5667644
5.4550657 8.6229277 2.6001191
7.6363573 8.901577 2.6647174
7.408114 9.1411963 2.6673751
8.6840324 9.2195406 2.616189
9.3146706 9.6178312 2.6265595
8.7414627 9.9173965 2.6080096
3.1297309 10.178967 2.6875739
3.8901818 10.445178 2.6559095
7.7319431 11.556832 2.6163819
5.2041659 9.3943138 2.7497289
9.3208427 9.6008873 2.7186811
9.4440041 9.9978809 2.7585545
8.349431 11.317089 2.7755346
6.4742093 10.446016 2.8978453
8.0105705 11.573555 2.8022499
5.1236691 11.886989 2.8404932
4.5267839 8.7558708 2.9665678
8.7164574 9.3315449 2.9590287
5.2664471 9.536808 2.9138193
3.0106196 9.9162712 2.9481452
3.910955 10.546323 2.9889946
5.4183784 10.607187 2.9234803
3.8593745 8.1712856 3.0174408
3.6032717 8.4886227 3.0166948
8.450716 8.8347301 3.0402501
8.6114292 9.040451 3.0212471
7.2341671 9.4236097 3.0799224
2.9863935 9.94765 3.0739217
3.8546917 10.437154 3.0617285
6.5374317 10.704234 3.0637839
8.0547199 7.6541886 3.1866102
8.8823595 8.5215368 3.1050382
5.9816542 9.4818993 3.1009998
5.2570119 9.508728 3.1015038
4.5624876 11.431704 3.1527257
6.9772606 8.6107063 3.2474244
5.249649 9.4926777 3.214699
6.6607695 10.99876 3.2002294
7.3028173 11.797524 3.2991345
3.1675444 9.2582512 3.3576744
7.9824286 11.367746 3.3001292
7.2709036 11.459429 3.3083014
5.3166509 11.611801 3.3546774
4.8663702 8.0358877 3.4698877
5.8146639 9.0002346 3.4579716
5.938632 10.616043 3.4030201
7.7580686 7.8963313 3.5789168
6.0519643 9.8115873 3.5896597
6.7172699 11.079931 3.5466509
9.2149353 8.9835434 3.6427832
2.9717133 9.760169 3.6714406
2.9172335 9.9514256 3.6495833
3.4084926 10.682329 3.6345363
4.2635746 7.5506053 3.7885256
5.7945924 8.9589891 3.7335734
9.2925758 9.1844616 3.7582154
6.4907336 10.528423 3.76759
3.6035795 10.947906 3.7622144
8.483613 7.9178047 3.8678646
9.4810057 9.716466 3.8524752
9.4411125 10.185659 3.8767762
4.5466666 11.6062 3.8825676
4.6169982 11.652889 3.8319602
4.7824502 7.9515152 3.914067
5.1453886 8.2354584 3.9490876
6.4928741 10.542669 3.9405951
6.679203 11.004829 3.9254925
5.9461384 9.1578369 4.078033
4.2534008 11.415122 4.0659118
7.1630325 11.57747 4.0723753
7.9886026 11.555973 4.0746546
5.220458 8.2874002 4.111074
2.8652551 9.9468174 4.1505909
5.989841 10.431958 4.100224
5.9442139 10.609407 4.1154027
5.1216769 11.721777 4.1638265
5.1115413 8.1949987 4.2535887
2.9645579 9.6421261 4.2476044
5.9687171 10.520147 4.2590647
5.7551274 10.989908 4.3293514
3.8283157 8.035121 4.4857588
5.6781006 8.7872791 4.4808903
9.3812475 9.2786522 4.4492869
7.1517515 11.528375 4.4321017
8.0110836 7.6619248 4.5626454
3.6386788 8.2787819 4.5122609
9.2669458 8.9082232 4.5898147
9.3106289 9.039566 4.5783319
8.5420589 11.204926 4.5708008
7.8436742 11.670832 4.5923896
7.5068741 11.815951 4.578989
7.4147758 8.1178312 4.6638093
3.5683856 8.351717 4.6864233
8.9702864 8.4717064 4.6081276
6.7609739 11.022845 4.6886663
2.931972 10.191697 4.7285781
9.1789551 8.7216711 4.8088593
3.143321 10.467871 4.8986492
9.1623163 10.65596 4.8701601
5.696691 10.987763 4.8710675
3.7097061 11.08325 4.8910785
6.7311916 10.938098 4.9850121
4.4711614 7.6768136 5.0975513
9.4251194 10.352631 5.0784707
3.4420414 8.461916 5.1969595
9.6450539 10.107399 5.1313286
6.0690517 10.201834 5.1881857
8.5461082 11.224936 5.1702027
9.4097252 9.1771345 5.2147207
7.8311844 11.642291 5.2316008
7.7130036 11.707764 5.2114639
5.0348029 8.0818901 5.3782649
5.6908503 8.7370214 5.3854661
9.2067986 10.652773 5.3638649
6.5749865 10.741029 5.3452644
5.0524101 11.600488 5.3828025
7.5216613 11.697311 5.3186755
8.4069128 7.7008915 5.4763622
8.5577097 7.8860388 5.455349
6.1027956 9.681613 5.4864936
2.8456895 10.197578 5.4498491
9.2868938 10.579099 5.5417233
8.1281328 7.5663705 5.6567264
3.6376441 8.1890039 5.6337099
5.4616346 11.196068 5.6477833
5.2514725 11.415022 5.618371
8.2286634 11.401252 5.6299124
8.3954201 7.6699967 5.7542996
3.9825442 7.7584071 5.7988567
6.037158 9.2071629 5.7237329
9.5193901 9.303627 5.7638044
5.4995136 11.134541 5.7033482
8.5172224 7.8132172 5.8414946
9.5870199 10.275028 5.823698
8.260643 7.4905953 5.9952931
7.6814022 7.8807664 5.9023733
3.3696432 10.882606 5.985971
9.0740414 10.894218 5.9852858
8.9064856 11.012941 5.9092078
8.6311951 7.9415188 6.0020123
7.2025809 8.2187319 6.0790467
9.326376 8.7862482 6.0252504
2.7336035 9.7265205 6.0233984
6.1611819 9.8681974 6.040041
2.6486645 9.9392118 6.0201473
4.643487 11.601883 6.0624394
4.0482316 7.6424747 6.1966276
2.958101 9.1322985 6.1548443
2.6911149 9.789959 6.1863427
6.0649137 10.188414 6.1719542
8.9905262 8.3500862 6.25527
3.0654237 8.8491259 6.253953
6.0422778 9.0824289 6.2016993
3.5932221 11.020789 6.2158833
3.6473484 11.047845 6.2466474
4.9384036 7.9857683 6.3629642
7.4705019 8.0124807 6.4728165
5.7216387 8.6729059 6.4916525
2.5792878 9.9924364 6.4791551
6.3413291 10.029673 6.4964828
9.3209763 10.656858 6.4331007
8.8075905 11.033829 6.4064522
4.140811 11.299822 6.4606528
7.1896772 11.262298 6.4444361
2.6960011 9.6777773 6.5694513
6.0508642 10.18628 6.5772753
9.675786 10.258582 6.5452561
6.4906282 10.431382 6.5557818
3.1844392 10.725994 6.509316
8.8971138 8.1905727 6.6476297
6.2833252 9.7426472 6.6065249
9.7885475 9.7475853 6.6064749
9.3148775 10.686961 6.6749835
9.1340332 10.873781 6.6256189
5.1063151 11.330178 6.6457663
8.9831715 8.2883625 6.7088041
6.1698074 9.6884832 6.7852173
5.8444738 10.6602 6.7441597
9.2951765 10.709962 6.719492
6.1783781 9.7361364 6.85074
5.1186199 11.288499 6.8023911
3.0595632 8.7640228 6.9159069
9.5298071 9.0401764 6.9448042
3.9498489 11.152705 6.9986835
7.7150021 11.533021 6.9145794
2.7806106 9.3442383 7.063931
4.0196919 7.5667486 7.1419191
8.8102913 8.0267811 7.1445408
3.4658546 8.2359581 7.1975708
4.7995043 7.8459082 7.2055411
3.0207362 8.7777014 7.2051306
9.695611 9.3627243 7.2437387
9.9238491 9.9117632 7.2704601
6.0543704 10.1119 7.2062197
4.5491729 7.6689854 7.3010178
8.8263035 8.027174 7.3081822
5.2418671 8.1393604 7.3140645
5.4302549 8.2975979 7.4923296
6.1108775 9.0772533 7.4616456
9.8324928 9.6477938 7.4087753
7.8854365 11.449321 7.4990139
7.7066479 7.7880507 7.5514493
2.9065175 8.9673042 7.5013943
9.9105663 9.8029881 7.5602636
2.6207063 10.183867 7.5359797
3.1918077 8.52285 7.6030993
2.7961841 10.381388 7.6594868
9.9829807 9.9380379 7.7348719
3.5536883 10.961023 7.7405815
4.680479 11.396078 7.755383
4.0074334 7.5003347 7.8375444
4.7750058 7.7899637 7.8359632
5.2156291 11.065247 7.8947325
9.0505123 8.2289562 7.9217348
9.3465185 10.721968 7.9586034
6.2782106 9.8859367 8.0674009
9.3859444 10.687055 8.0789213
9.2588139 10.80567 8.0953445
7.1409354 10.986027 8.03405
6.1158819 8.9362612 8.1552925
6.288341 9.2222824 8.1256237
4.2748184 11.25773 8.1029043
8.2164516 7.3824277 8.2567673
9.9764748 9.8123894 8.2502289
7.3852348 7.9573717 8.3932056
7.0116386 8.2468958 8.378727
6.1891789 9.3401289 8.3730783
5.3389301 10.914098 8.3424282
7.3022194 11.035546 8.3415785
7.9238739 7.5904207 8.4540358
4.6212397 7.6547985 8.4115353
8.7331829 7.7404718 8.4755526
6.2362981 9.5854502 8.4851809
8.9460649 10.913155 8.4245281
4.0756168 7.3687153 8.5908222
3.3374064 8.1963434 8.5245466
9.0605812 8.1263313 8.5404606
6.4340239 8.8098993 8.5206604
3.3363433 10.825331 8.54177
3.4460211 10.876137 8.5129404
4.4472489 7.4633574 8.6320724
3.2844722 8.2416124 8.6177216
2.8309379 8.9240761 8.6442738
9.4059763 10.655769 8.6822824
7.2400584 10.951191 8.6274605
3.8951612 7.5475645 8.7571268
2.8462534 10.439191 8.7968702
9.0968266 10.801773 8.7995319
9.4007654 8.4689646 8.8894424
6.1563263 9.9576178 8.8412762
2.7482722 10.332099 8.8885221
2.9667177 8.5607643 8.9480524
8.9861698 7.9737749 9.0872602
5.7940474 8.5575809 9.0089598
2.8761077 8.742919 9.0691433
6.2811913 9.2764978 9.0850983
6.2537847 9.6697302 9.0791731
6.5879612 10.415202 9.0347214
5.4917774 8.2398281 9.1045008
10.025209 9.5296812 9.1433477
9.709794 10.296153 9.1405087
7.8123837 11.113886 9.1955595
2.6465166 10.140648 9.3249006
7.7773685 11.069761 9.3168344
9.8244467 9.0378361 9.4729481
6.265244 9.9477606 9.4544096
7.3886213 7.768712 9.531353
7.7541404 7.3342886 9.639761
9.1045942 8.0574598 9.63552
3.0114038 10.551212 9.6212082
4.2686706 11.091096 9.6405268
9.5601892 8.5237207 9.7227888
6.3303051 10.037868 9.7893591
6.4994097 10.238909 9.7938328
9.3795671 10.554766 9.7957363
10.171577 9.4958754 9.8818989
9.6377182 10.285469 9.8480949
8.5929775 10.904398 9.8327618
6.724524 8.5711594 9.9226627
6.1990728 9.9239511 9.9140568
4.9034343 10.838273 9.9550524
8.2083035 7.1160612 10.087019
9.2725592 8.1212502 10.031099
5.7368846 8.5630379 10.049109
6.2457142 9.6838474 10.093241
6.2515202 9.8090515 10.077843
5.7812219 10.422707 10.08854
3.1955724 10.572997 10.074168
4.9825072 10.80831 10.070444
5.4234934 8.016468 10.137959
6.2067213 9.3461008 10.121892
3.6718788 10.807421 10.113674
3.857574 10.884492 10.14076
8.7265224 10.814619 10.292437
6.7838979 8.3357363 10.36145
6.3272614 9.1516018 10.358555
5.5049877 10.589643 10.35941
8.7758818 10.779308 10.350101
9.4115086 8.1775808 10.408123
10.100821 9.5146122 10.433178
2.9891603 10.39826 10.481236
6.1310172 10.048789 10.56048
5.4725566 10.587631 10.52417
5.1137085 7.5005965 10.695083
6.1898704 9.7267551 10.603136
7.0224056 10.587512 10.659027
4.615983 6.8371835 10.719169
3.3837864 7.7845716 10.770631
6.2094908 9.3752871 10.708113
5.9249992 10.256563 10.773467
5.6970739 10.478913 10.744653
4.32129 10.920699 10.763145
8.404294 10.943919 10.720428
8.4825096 7.2304559 10.862524
6.0802908 8.9486427 10.886208
5.1755404 7.4946551 10.957543
2.257087 9.4323425 10.966842
6.2666149 9.6292744 10.934831
2.6477406 10.09968 10.913323
9.5562401 10.359276 10.927797
9.4689512 10.402786 10.913784
3.8613362 7.3050508 11.016397
7.0205464 7.8060503 11.094543
3.1786571 7.9240146 11.045704
2.8304634 10.328372 11.056684
7.8421936 6.7729888 11.138521
8.6162806 7.2992907 11.195564
6.1272736 9.0053425 11.171303
3.156323 10.492973 11.13405
7.5663509 10.806644 11.122137
8.4456005 7.1428638 11.202853
10.056683 8.9328985 11.283653
6.232213 9.3988895 11.253011
5.2856464 7.4103456 11.35771
6.2219729 9.4364185 11.47591
7.0949044 10.657053 11.475336
2.6568732 8.4857931 11.514901
3.6307061 10.846607 11.583669
4.8967829 10.829925 11.512586
8.7305355 10.88628 11.500385
8.7770872 7.3792648 11.646759
9.229394 7.7767048 11.678008
2.9085746 8.0797911 11.645462
9.5493402 8.0920143 11.627953
10.013666 8.7800369 11.624319
10.092213 8.8830566 11.675412
6.2383509 9.3663769 11.630722
7.6500907 10.868618 11.693392
7.6477752 6.8217154 11.844947
6.1958957 9.2867212 11.872465
4.1222353 11.018067 11.866486
5.7450762 7.902205 11.915336
9.6115513 8.1031485 11.941347
2.9069586 10.438353 11.914495
3.171905 10.623553 11.971447
7.908886 6.6540642 12.081672
3.9222622 7.0889349 12.098758
5.1924934 7.0835958 12.057169
8.6074648 7.173367 12.004146
6.66644 7.9346266 12.021997
5.3104868 10.723588 12.041225
7.7684698 10.939126 12.146798
4.0360422 6.9563746 12.274389
6.4011874 8.546648 12.282665
4.7859297 10.938848 12.272221
3.2298815 7.6415129 12.351175
6.1944766 9.1998434 12.337986
6.4724588 10.237412 12.378275
3.8792272 11.095863 12.334563
3.937222 11.091737 12.324433
9.5332775 7.8917933 12.451415
6.0387712 8.3227482 12.442881
6.1953988 9.3624992 12.457784
2.8423581 10.411764 12.446983
9.0939054 10.784686 12.496459
8.3553047 6.8429904 12.584668
3.6905127 11.009209 12.532166
4.2198529 11.056587 12.54055
2.1641183 8.9115515 12.67701
5.8235779 10.429514 12.64572
7.5502253 10.939056 12.609265
4.6377769 6.6390839 12.782996
10.064959 9.9129601 12.728456
9.7676363 10.309341 12.731444
6.9871292 10.738858 12.745558
3.5044322 10.897316 12.710499
8.2620707 11.082242 12.717188
7.5789719 6.7586327 12.849437
6.1958303 8.7531147 12.871658
10.309078 8.8975353 12.846626
1.9964048 9.2305422 12.892938
3.3471372 10.79053 12.892963
5.0997691 10.884469 12.800222
8.2355251 6.6658845 12.911692
4.9168386 6.7690363 12.950017
5.4663763 7.2075839 12.992287
5.8112197 7.6766615 12.968409
2.0544472 9.0045042 12.936589
10.235905 9.6262951 12.914509
4.2965112 11.095368 12.98003
7.9310741 11.058653 12.936723
2.2596862 8.6611786 13.084684
10.243124 8.7511835 13.026093
4.8182096 6.6908851 13.139826
5.8810434 7.7650571 13.148499
2.328058 9.8272953 13.174039
7.1423588 7.0436649 13.200933
6.3318009 8.2451935 13.238599
6.2456675 8.878355 13.22156
8.7381907 11.043057 13.265015
3.5722342 7.1330609 13.359577
6.5177908 7.8090992 13.38898
5.0716209 10.942105 13.334201
3.9654179 11.151566 13.370657
4.1811552 6.5763426 13.417662
6.2557507 8.558712 13.423573
7.0834022 10.840855 13.480323
3.6922066 11.024773 13.426977
7.5881324 11.031794 13.472088
7.7411237 11.071325 13.458794
5.0029378 6.7392139 13.541498
4.3331537 11.132269 13.521671
3.9734864 6.7007179 13.681431
9.3930979 7.5094891 13.683803
6.3283691 10.042147 13.653683
2.8253894 10.375937 13.661345
5.8676682 10.382242 13.623573
9.0961456 7.2312651 13.774963
2.9414864 7.5943604 13.767015
9.1315956 10.728392 13.784633
7.521472 6.6570711 13.874969
6.2123098 9.4281654 13.852891
7.869277 11.121605 13.859328
3.8978715 6.7155733 13.903538
6.1918888 8.3415632 13.972731
10.218594 9.6620388 13.910225
2.3496344 9.8695803 13.928632
2.4614024 10.07045 13.972815
2.8319187 10.365713 13.952568
3.2748592 10.691039 13.954708
8.2068186 6.3625255 14.067275
6.713099 7.2944503 14.097853
9.1604376 7.2181139 14.093584
9.3299828 7.3723192 14.064907
3.0856121 7.4049969 14.063085
6.5989704 7.5155182 14.033554
2.297123 8.3548098 14.012482
4.4736738 11.149594 14.009665
2.1018937 8.6366034 14.119352
9.3153248 10.581114 14.120188
7.2208452 10.952195 14.117065
8.9316311 6.9819908 14.213434
9.2506943 7.2729769 14.204885
2.9440107 10.431602 14.239971
9.3578758 10.546818 14.251371
4.1985679 6.3522692 14.308577
9.8021193 10.217113 14.307392
2.9609976 10.440201 14.310776
3.5402231 6.9120398 14.431267
5.3583913 10.949019 14.478595
9.2068815 7.1535654 14.5352
6.1749272 8.1315727 14.561113
6.277545 8.8986683 14.545326
6.2605405 8.7717085 14.628073
6.1587462 8.9954357 14.636101
6.1831446 9.1548281 14.63804
9.6228418 10.33484 14.614165
7.6680255 11.151769 14.62663
4.9845238 6.5640678 14.729078
8.9610977 6.8967423 14.803133
9.8330956 7.6561756 14.819664
10.332422 9.4676962 14.808977
8.3178129 11.141232 14.867681
6.1544876 7.9701972 14.957503
2.8461695 7.4110432 15.081319
2.447681 7.864646 15.054286
2.150522 8.3330078 15.054436
6.2248144 8.545476 15.064676
6.2025957 8.7080193 15.073832
10.533521 8.7073593 15.014506
2.3157892 9.8158321 15.008646
2.7282383 10.258179 15.095991
4.7874441 11.174347 15.062834
7.7480736 11.17212 15.012579
6.7062173 7.1092091 15.186604
3.4973752 10.908637 15.157654
6.2029958 8.7184296 15.255877
2.2398193 9.6831884 15.204419
10.189629 9.7230959 15.279515
5.3521948 11.016167 15.27029
4.962121 11.13603 15.250571
3.8548102 6.539412 15.328113
3.1155632 7.1587534 15.342915
5.9930134 7.5146861 15.397043
6.2892504 8.0286446 15.343953
6.2613621 8.843626 15.360039
6.1249499 9.9205217 15.337065
2.9058661 10.434988 15.376326
4.2041378 6.3610454 15.440772
9.01964 6.6794395 15.496834
6.1052275 7.7056236 15.466027
3.183985 6.8887038 15.509012
2.012145 8.4289551 15.547752
8.9048157 6.5220642 15.62129
1.7615271 10.162776 15.624002
5.4073715 11.025695 15.649353
7.0824924 6.6545563 15.707996
3.4571409 6.830327 15.759726
9.421277 6.9120336 15.783483
6.2901158 8.0090885 15.770866
6.1181126 9.8975544 15.724693
1.9910861 10.231302 15.752193
1.1599799 10.469547 15.78797
1.1803826 10.552521 15.738798
5.5768785 6.7643585 15.836328
2.6341958 7.2776337 15.834721
1.9745351 9.2017641 15.827829
2.201519 10.773679 15.833626
4.5462914 6.3570828 15.939066
3.8655996 6.4667759 15.966431
2.3496127 7.710134 15.90593
10.140076 7.7630787 15.921368
10.165224 7.9217343 15.901381
5.9893136 10.245161 15.924862
9.7670612 10.236182 15.987293
1.59692 10.743838 15.973557
2.4360955 10.714898 15.900237
1.7293489 10.931229 15.967337
1.606275 11.092035 15.901909
6.9333172 11.014328 15.982784
4.9357333 11.179551 15.991343
2.0031815 11.286096 15.93145
1.6721011 11.334554 15.922592
3.2291512 6.9506683 16.00481
2.0086401 8.2842522 16.039646
1.0046217 9.9547405 16.089531
5.9994111 10.221327 16.024075
0.86640614 10.424133 16.074532
9.0892668 10.86281 16.099207
2.3506219 11.432517 16.038404
4.6251411 6.3163505 16.19521
3.4250402 6.4291105 16.128155
5.9271536 7.2948318 16.136318
2.500253 7.508625 16.114796
2.0079813 9.2516947 16.168213
1.2750611 9.7042427 16.110086
2.6767743 10.224531 16.159864
5.4993458 11.030396 16.12579
7.3400335 11.140253 16.163849
2.4111061 11.223822 16.158743
2.3698378 11.525558 16.197653
3.1453578 6.5755467 16.257023
6.0606298 7.5239224 16.296341
6.3206244 7.8587799 16.213341
1.7457585 8.698945 16.220171
2.2459824 9.713131 16.223682
9.3022785 10.662312 16.241295
3.6854749 6.535058 16.376116
5.8654656 7.1761222 16.355785
10.283013 7.9883037 16.394131
6.2660933 8.4025469 16.351864
1.734202 8.6953888 16.314852
6.3289962 9.5605917 16.328722
8.4531336 11.199835 16.374077
8.1073103 11.24061 16.365698
9.9786873 7.4679813 16.431644
6.3241405 9.3359766 16.407635
2.3855336 9.5462933 16.423283
2.1883168 9.6063328 16.404385
2.5197778 10.07313 16.444988
6.9082956 10.941273 16.425835
8.8444128 11.197451 16.445133
1.0317084 11.353319 16.402184
3.6550689 6.1339283 16.557493
8.1540909 6.1543303 16.516323
2.4970009 7.3978829 16.549553
6.3859243 7.53509 16.542398
10.33679 7.8775315 16.571522
1.365217 10.005915 16.589714
6.7051988 10.531161 16.534096
7.8498454 11.249058 16.51947
7.347991 6.1770525 16.643349
6.255826 6.7460585 16.693096
2.4007487 7.535881 16.637096
2.2233992 7.6147771 16.670851
6.3878951 7.609406 16.681709
2.2170408 9.6791134 16.601114
10.190828 9.7759876 16.664879
1.3289754 10.087916 16.687159
9.4560871 10.522343 16.65023
1.0225172 10.709484 16.689655
3.9492779 6.2487998 16.762939
6.7993426 6.3446331 16.744087
6.0195117 6.5674381 16.733782
2.7007058 6.770267 16.780033
6.1010895 6.9547205 16.740578
6.30936 7.0187764 16.736071
1.9970701 8.1755581 16.776318
1.9556315 8.219677 16.700275
6.3138781 8.2329559 16.728539
1.8943963 8.3453779 16.744972
6.3097286 8.3020887 16.790852
10.586672 8.3823547 16.778046
5.6479602 10.530684 16.780468
4.7507176 11.180464 16.737816
8.8854265 11.255512 16.74057
1.1073503 11.30023 16.742622
6.5797291 5.9572668 16.893488
6.4677396 6.2703643 16.812531
9.3519821 6.8846192 16.804121
6.4567227 7.2927895 16.814194
10.161904 7.6513724 16.894949
6.0514898 7.7226944 16.874496
2.0770969 7.8651857 16.865965
10.499792 8.1954746 16.809204
10.637733 8.4414005 16.870125
6.0289745 9.5074062 16.854439
2.1827576 9.6262798 16.864624
1.055825 10.910816 16.810715
3.2595134 11.245125 16.894623
6.2508173 5.9583292 16.927677
7.2330375 5.9880714 16.916616
1.8114829 8.8855133 16.969692
1.7439874 9.4244347 16.911598
9.9269819 6.9481478 17.06753
9.729949 7.124208 17.011683
1.8808463 8.3039627 17.003311
1.7928609 8.4915943 17.042612
1.8379911 8.9296141 17.093468
6.0057983 9.4586105 17.045963
1.2881408 10.275733 17.00103
1.0657655 10.79899 17.015745
2.8398008 7.0155735 17.15535
9.7178202 7.0948868 17.13504
9.9461517 7.2593613 17.140335
6.0952682 9.1318455 17.151918
1.5410255 9.8386745 17.14777
5.9952083 9.9831963 17.188477
6.2345076 10.204496 17.141434
7.1536384 10.291417 17.167036
7.5593514 10.717928 17.159136
4.6612854 10.84357 17.135557
9.6697178 6.5684395 17.294289
1.8677418 8.2679968 17.241846
5.2106686 10.705555 17.201761
7.4972777 10.909628 17.289219
3.8634212 5.9109302 17.383083
0.5417828 10.248598 17.338118
9.8457489 10.442623 17.331791
8.1355572 5.9292226 17.496227
2.2236223 7.3860369 17.457104
10.02777 7.30969 17.484932
2.1104798 7.6055927 17.434763
9.591568 10.974354 17.488569
9.1968441 6.6214085 17.583698
10.004742 6.9489336 17.586308
10.348881 7.5837975 17.58956
10.52071 8.0722084 17.58289
1.9899228 9.9729891 17.549339
0.55526483 10.147894 17.545515
9.8639336 10.596632 17.581902
9.9211388 10.513165 17.560789
9.5991011 10.975932 17.505379
0.83927089 11.484085 17.504341
8.8992214 6.3555164 17.688772
2.5897744 6.6653423 17.649481
2.4712899 7.2098308 17.699711
10.707608 8.446044 17.627968
1.6564205 8.5196171 17.614695
3.4024925 11.296421 17.679539
5.586009 11.278255 17.687796
3.7206459 5.914917 17.725903
2.5965948 6.6148787 17.78425
10.068772 7.0353785 17.706398
1.4565623 9.2471876 17.788876
2.2581906 10.076115 17.744215
1.5785245 10.308795 17.714306
7.2806778 11.344059 17.715302
3.9815021 5.9780502 17.835678
8.9136553 5.9502606 17.891777
3.6001158 6.2836637 17.844019
9.1522293 6.5204048 17.866392
10.722136 8.8918104 17.885368
1.5700068 9.2468052 17.816748
10.586967 9.2240963 17.81292
6.2602339 5.2776904 17.903561
3.0947859 6.1441593 17.950226
1.9319566 7.9210763 17.940424
8.8249111 11.369983 17.928463
4.7485108 11.508422 17.987869
3.5184717 5.9263434 18.024294
2.72612 6.4208784 18.028763
2.6257305 6.500937 18.038565
9.3864622 6.6679401 18.054131
10.721254 8.8974495 18.092024
0.87778187 11.169663 18.06179
7.5331888 5.4207277 18.159832
3.8063805 6.0564203 18.121153
10.039461 7.2471504 18.130447
1.6806242 8.7292395 18.120056
2.1246364 9.5167122 18.16119
10.374498 10.026539 18.104641
3.0910258 11.135077 18.159714
4.5075264 11.566046 18.164158
8.1817589 11.536043 18.139328
8.9089336 6.2357855 18.293512
9.9508686 6.6522789 18.286575
9.8296852 10.712435 18.285671
6.0496941 11.615659 18.295635
7.7384539 5.4794192 18.329544
4.3688507 5.6483531 18.332333
8.4342012 5.8444014 18.302294
1.4871111 9.2990141 18.346979
0.48915288 10.163216 18.384949
3.0158961 11.044381 18.354836
6.9711943 5.2344828 18.419781
10.073065 7.2754784 18.498552
3.5989888 11.408605 18.434387
4.3016663 11.572709 18.465784
5.8116179 11.685012 18.422985
4.5434489 5.513701 18.516235
4.0725021 5.7363868 18.567308
9.6516523 10.830385 18.5952
3.0585876 11.049953 18.56278
5.5111318 5.150929 18.668869
8.1112862 5.5735731 18.68615
10.050007 6.7403669 18.66744
9.9211445 7.0796709 18.608833
1.8424078 8.0319405 18.625658
5.5854392 5.1061878 18.788509
8.3388033 5.6778345 18.718754
8.7656527 6.0151453 18.723524
9.6594048 6.7702622 18.755322
2.4727249 7.1708922 18.785521
10.11097 7.3407154 18.702869
1.8025415 8.0957413 18.714592
1.6623693 8.2974157 18.77553
1.7942708 9.2402802 18.702141
1.7456647 9.6989555 18.797106
10.426197 9.7215099 18.792974
6.1807499 11.714691 18.786381
7.0229826 5.1221786 18.864136
10.591992 8.0084343 18.849377
10.251686 9.9545527 18.87771
2.2856219 10.109874 18.869549
10.055123 10.305729 18.868498
4.3303738 11.552979 18.82901
6.0081544 5.0491452 18.916508
6.3362608 5.0391989 18.959084
2.3742676 6.7159042 18.939949
2.8780808 10.83178 18.904686
3.1788216 11.072337 18.914906
3.5920904 11.389046 18.90748
2.5196955 6.3879123 19.013041
1.8983586 7.7853413 19.075991
10.472818 7.8486533 19.028282
10.758207 8.3383369 19.027187
1.6059339 9.5145893 19.029699
2.0446966 9.5178108 19.078148
2.2004056 9.8358421 19.056873
10.277468 9.8006573 19.020351
2.0313663 10.472206 19.010384
0.97944784 10.852137 19.060083
1.5334631 10.972571 19.026459
9.0664225 11.211204 19.026091
3.0371075 5.9586558 19.113522
1.950613 7.6223969 19.14698
2.8730159 10.76457 19.129778
9.0760231 11.179879 19.123409
5.2683368 11.73849 19.107227
4.3590775 5.4212837 19.236629
2.2903066 7.4333172 19.252388
1.5370563 9.22328 19.285997
2.8375745 10.6668 19.291206
0.89435959 11.131757 19.28196
5.6999302 11.752388 19.252424
2.8288989 6.0085039 19.367737
9.2719526 6.27845 19.356991
1.6249704 9.3062477 19.385769
1.6758125 9.9469624 19.365499
2.5566874 10.392841 19.324041
3.0023367 10.788052 19.370115
3.0715771 10.869572 19.327211
5.8968706 11.761477 19.358564
3.4963713 5.699574 19.465197
10.329873 9.4975471 19.494806
2.1433377 9.5625877 19.438122
0.91709793 10.911581 19.458195
4.3289614 11.540106 19.482483
6.1475911 11.768715 19.430792
6.2850165 4.9442568 19.530273
4.3442626 5.4066496 19.509407
10.084061 6.5056028 19.518974
9.7611427 6.8144026 19.597925
2.0008521 11.067414 19.571917
7.7836981 11.6469 19.542854
7.8251591 11.633905 19.595768
5.3590436 4.9944177 19.644825
10.044214 6.4277411 19.608738
2.6102984 6.9022651 19.657322
0.1868329 9.9388771 19.647844
1.6724899 10.66031 19.669125
1.3318278 10.968754 19.647169
7.9865746 11.578202 19.691977
10.305924 9.5343714 19.751648
0.45517907 9.6641998 19.754578
1.7720978 10.131987 19.703699
2.951417 10.60829 19.753159
2.1456501 10.967603 19.705784
7.2762365 5.0154595 19.819401
2.6593957 6.0820589 19.889627
10.073204 6.471323 19.804316
10.350619 7.6043358 19.882532
10.59691 8.0812492 19.86212
0.70986408 9.4207697 19.890007
2.7992797 10.465698 19.85928
3.9887943 11.412214 19.820423
7.8513403 11.58903 19.820581
6.69384 4.8965364 19.945385
1.1591331 9.2731991 19.980452
2.2098026 9.6066666 19.994511
1.6848624 9.8579216 19.901428
1.7888128 10.039589 19.941605
0.21039088 10.364292 19.939674
9.5112267 5.8855577 20.068705
9.2849016 6.2443171 20.006451
3.2904088 10.893453 20.087212
8.9069023 11.113854 20.087025
1.1605778 11.208042 20.02453
7.6669164 11.580951 20.096436
7.113698 4.9355421 20.124746
2.7968373 6.6137242 20.128752
0.98068273 9.8174849 20.186567
2.3619049 9.9407558 20.170822
9.9592686 10.17271 20.190117
0.80814266 11.007105 20.164392
1.4487205 11.163725 20.134361
8.889637 11.122697 20.150185
6.7708406 11.590082 20.189024
10.523313 8.3595123 20.244284
1.8230602 9.3036642 20.240389
0.23730375 10.492596 20.253723
6.2940702 11.537777 20.232058
4.3178735 5.3480978 20.345085
10.056311 7.266386 20.348661
0.69919789 9.3910236 20.367924
1.6608068 11.546965 20.316854
9.7253189 6.8505998 20.428705
2.155194 9.4296055 20.498144
1.312951 11.349047 20.418604
8.9308281 5.5856137 20.527338
3.4152884 5.9755054 20.508217
2.5835774 7.0881958 20.558414
1.9316887 10.258155 20.511982
0.29884696 10.626217 20.597057
4.0689311 11.307834 20.584633
6.640399 4.7870684 20.689272
1.7095788 9.991724 20.67131
2.8763027 10.480827 20.63188
0.57876611 9.6957836 20.730909
2.50683 10.163063 20.718697
4.8383584 4.9568939 20.826899
7.6863422 4.9943047 20.850229
9.1158724 6.2036762 20.8839
2.1363659 8.1140766 20.841995
2.1276488 9.1790628 20.859592
2.2753184 9.5801325 20.818035
2.3916979 9.7605095 20.824383
2.4417968 10.104507 20.899771
0.33798277 10.704243 20.837111
1.7008429 11.418086 20.825211
6.1753292 4.6609917 20.986574
10.04574 9.9631367 20.954611
2.7820768 10.384419 20.961214
8.8625212 11.073606 20.993683
4.0231471 11.219484 20.92135
6.487854 4.7193356 21.081457
3.9274778 5.5134158 21.080976
9.59058 10.445862 21.048149
2.1168394 11.068596 21.054462
5.1429882 11.32135 21.012604
8.0360136 5.191186 21.152184
9.6093245 6.8956275 21.160477
2.0263474 8.5944338 21.104969
10.256735 8.5890493 21.122253
2.2046237 9.3845921 21.112574
2.6869822 11.220857 21.186176
0.67907649 11.415632 21.16991
10.006752 10.098656 21.21652
7.4384112 11.228743 21.202518
2.1999671 11.77007 21.211155
10.078758 8.0384207 21.374229
2.1217802 9.0453997 21.396833
2.5153041 10.132107 21.331118
9.901866 10.144428 21.386213
2.9634326 10.524247 21.36017
7.6511021 11.187751 21.377529
5.4769144 4.7589836 21.430862
4.5758963 5.0716934 21.407028
8.7127829 5.619916 21.402355
1.1878284 11.656324 21.480555
8.0991411 5.2185183 21.527124
8.3338928 5.3716912 21.525883
8.6533604 5.5776701 21.504112
9.5834923 6.8618574 21.549025
9.9223738 7.583292 21.532112
1.6464059 10.104659 21.534887
0.87566632 10.494726 21.507557
3.0456533 10.558756 21.549742
3.8863535 11.007715 21.51623
3.9410279 11.013968 21.537016
2.257256 11.231779 21.519375
2.3396661 9.6357574 21.643322
4.3213372 11.05334 21.699806
2.3422885 11.915291 21.680723
4.2142019 5.3199162 21.799461
3.3148918 6.239594 21.737667
9.7237988 7.058918 21.731266
2.7756851 10.152864 21.758715
4.4396572 11.072828 21.718512
1.528214 11.949187 21.781279
3.8196328 5.5814734 21.833563
3.0567091 11.002996 21.805923
0.91952872 11.468394 21.83
2.1727843 12.008673 21.807711
1.5117457 12.193247 21.865646
6.312181 4.7197552 21.977543
3.5746861 5.8651123 21.952675
8.8191519 10.801732 21.967964
0.83339959 11.08806 21.968119
2.2895772 12.050993 21.995037
1.2509971 9.6429462 22.022087
8.1614456 10.905877 22.083998
5.9141769 4.7168951 22.155273
6.6683826 4.7281532 22.197361
2.3951015 9.4308014 22.180628
1.0143046 10.645378 22.135004
3.1353748 11.018863 22.193766
5.902801 11.047269 22.140287
0.90748858 11.301468 22.185556
17.987106 3.9831591 22.282135
18.213026 4.0678692 22.262127
18.782064 4.4653101 22.247099
9.8904543 7.6922598 22.245575
1.6017153 9.6215105 22.297421
1.0988711 11.732378 22.298176
18.820026 4.0480042 22.383333
5.2149849 4.8418465 22.390358
2.6596375 9.9842796 22.388624
3.8506792 10.771498 22.380604
2.607085 11.260212 22.33695
18.578392 3.4537849 22.481796
18.464371 3.7969284 22.479992
6.2681584 4.6459384 22.434687
18.919209 4.7935748 22.445784
18.982422 4.8513331 22.4902
9.4402285 6.6439304 22.45974
2.4828372 8.0893135 22.446413
0.58273602 10.473944 22.491295
9.2782955 10.464964 22.477652
7.9723992 10.902031 22.434155
2.6166997 12.108339 22.498333
18.935545 3.8551886 22.528399
6.1603508 4.7260065 22.53756
8.8231106 5.7187867 22.528511
2.505461 8.0661354 22.594498
10.134642 9.0723543 22.59996
9.3383884 10.38615 22.572302
8.9426746 10.585705 22.540007
2.6538539 11.226697 22.551952
2.2191482 12.11627 22.561989
19.264309 4.386354 22.68667
6.3407092 4.7199697 22.640778
3.7023008 5.6786418 22.693024
8.9337587 5.8771615 22.665228
9.788826 7.3006434 22.630787
2.3494198 8.9091072 22.669294
2.9170611 10.2626 22.608009
18.430492 3.4716477 22.795389
9.9712667 7.7929115 22.737289
10.196135 8.4448576 22.762917
2.5654416 9.766818 22.715542
2.5368836 10.934218 22.707682
0.97508758 11.361755 22.779459
2.9439042 11.89956 22.731903
19.221758 4.5673242 22.832035
4.7695608 4.9687319 22.851931
8.8589497 5.757875 22.815403
2.7829292 7.1397243 22.809021
2.7521572 7.2560453 22.817215
2.5042076 9.5709734 22.807369
2.8922007 10.358102 22.841707
7.5417929 10.880918 22.825249
1.4353921 12.37113 22.816032
5.8610649 4.7269073 22.939548
6.0671816 4.7233477 22.930983
4.2777753 5.2731414 22.918144
3.7082598 5.668901 22.988056
9.5068092 6.7058415 22.913906
2.6057434 10.043222 22.970993
2.9238751 12.11756 22.941107
19.387827 3.5475087 23.03216
8.8376551 5.7017174 23.083811
1.8224442 9.7991438 23.060675
2.7048202 11.900463 23.083496
7.3129168 4.8331394 23.116669
2.949604 6.7384653 23.164158
1.7593524 9.8401699 23.175518
9.5480442 9.8992424 23.192642
9.7079487 9.8648567 23.110912
4.5855227 10.713299 23.189747
1.3871202 12.382549 23.199364
19.151838 4.5272627 23.279417
1.852633 9.7813387 23.232304
4.173595 10.567577 23.255266
3.7518358 5.6508784 23.37726
2.4521089 9.118434 23.395895
8.3689098 10.529196 23.313509
19.487795 3.7309768 23.47937
6.1976089 4.6437387 23.474125
1.5481364 9.9718208 23.426064
3.763216 10.429718 23.418804
1.7744678 10.723881 23.416716
19.624645 3.9362857 23.586281
8.8940115 10.27681 23.559647
0.79746455 10.636031 23.540518
6.0325508 10.83308 23.553492
2.9345822 12.392752 23.564011
19.061363 4.3010764 23.657026
4.0877151 5.4585767 23.676632
19.536217 5.4306107 23.663086
9.5686426 6.7949514 23.648294
2.8913462 9.8953485 23.646683
4.8286991 10.736059 23.648159
5.5625954 10.801525 23.647091
6.8683453 10.814722 23.696453
3.0133822 12.35907 23.616245
9.594265 6.8360734 23.741098
1.4008813 12.573014 23.722342
18.317915 3.140856 23.857958
19.432045 3.5487788 23.876682
18.835665 3.766458 23.895966
7.1710081 4.8156071 23.845036
2.8666413 9.9182663 23.823675
1.9424876 10.046137 23.877247
3.7058897 10.501286 23.865566
7.5564089 10.955592 23.844395
19.093143 3.3647137 23.942333
17.899549 3.5319014 23.951849
17.975201 3.704391 23.942144
18.295523 3.7058952 23.961815
4.9048204 10.998001 23.965866
6.494359 11.177151 23.922319
1.5213342 12.600451 23.926685
19.46067 3.7117381 24.013386
10.187626 8.062788 24.050484
10.41419 8.8095303 24.085884
2.8194969 9.9556522 24.024343
3.65961 10.803032 24.041859
4.0756998 10.900015 24.022135
4.5644445 11.102943 24.030964
5.0526762 11.137295 24.008066
2.7593424 7.7369881 24.171402
5.9037337 11.324784 24.122211
17.8134 3.5880024 24.280396
10.400217 9.3113899 24.256245
2.8663864 10.419767 24.282866
6.5914679 11.36306 24.246019
3.5460629 11.868069 24.284868
2.2246258 12.729548 24.224558
18.692745 3.5913579 24.321278
19.451519 4.8256226 24.380344
7.7294884 4.916707 24.313982
18.542847 6.1998754 24.388742
17.7649 6.2319946 24.394276
10.360313 8.2569857 24.349434
2.6206696 8.3786736 24.312006
4.3485479 11.265533 24.351192
3.4808431 11.958529 24.34046
3.1682546 12.358638 24.383131
18.050232 4.1961498 24.4013
3.9017174 5.65522 24.489719
9.2625694 6.302968 24.437841
18.490974 6.3057442 24.442587
17.692558 6.4914207 24.454334
17.664927 7.0456266 24.498558
3.3671308 12.120116 24.463266
19.373459 4.5365343 24.57996
18.444473 5.6795082 24.553799
18.350496 6.4531937 24.543741
1.0144937 10.845188 24.566267
4.0462275 11.303798 24.531254
3.4165425 12.063832 24.503086
1.4530519 12.459574 24.536152
18.281996 7.0264611 24.658184
2.436307 10.030106 24.641403
3.239589 10.389475 24.666006
3.1858029 6.4425092 24.730593
17.193449 7.7145257 24.762939
10.46348 9.5777693 24.786251
2.5771778 10.31463 24.754128
3.7125993 11.356171 24.735405
3.1064961 12.591805 24.705807
6.5114417 4.7249804 24.886478
17.902027 4.929595 24.861746
4.1523337 5.4129286 24.863262
17.792351 6.2032247 24.846292
19.011593 6.7134342 24.8741
18.274389 6.8581424 24.871838
16.369089 7.4749956 24.881695
2.7566199 7.7387176 24.832117
10.391189 7.991405 24.807762
10.649309 9.0461311 24.89115
2.5156765 9.8190966 24.847832
8.9064293 10.980769 24.819555
3.8009653 11.21757 24.863764
5.9106512 11.549158 24.872967
0.99432051 11.861672 24.81884
18.745262 4.1707916 24.983372
3.1362476 6.6470213 24.906532
2.9812527 7.0474143 24.957617
16.543917 7.7258329 24.905302
16.67635 8.1226006 24.971169
10.579974 9.2829294 24.927731
2.4666846 9.3332529 24.916361
10.119579 10.287451 24.930813
10.0012 10.358217 24.951418
1.1222801 12.086437 24.996981
5.4037209 4.8624582 25.04447
2.9843907 6.9457293 25.097149
17.433968 8.0041065 25.053499
1.0758721 11.91152 25.090637
3.543076 12.031087 25.081158
3.4354351 6.0301986 25.16909
9.5652437 6.3209286 25.166883
15.932011 8.4907284 25.195444
1.5936217 10.250236 25.16717
9.4281178 10.755297 25.193216
8.6055794 11.137835 25.130165
1.1099563 12.056091 25.111094
1.4559357 12.240999 25.161615
1.7003946 12.407221 25.164219
19.460091 6.245419 25.205988
16.947723 8.4800434 25.219492
10.360716 10.124619 25.252361
6.1144648 11.654409 25.238312
1.1122206 11.834369 25.235523
5.796299 4.7900438 25.309401
5.467227 4.8341856 25.3382
5.1097107 4.9300432 25.307606
18.96063 5.2029214 25.338566
9.7214632 6.4381161 25.382765
16.696411 7.0768142 25.351479
16.751476 8.6972752 25.301323
15.720341 8.9186449 25.317692
15.030464 9.2114067 25.394846
1.4379059 12.198043 25.361557
3.5581868 12.166842 25.313313
17.545212 6.0430708 25.429806
17.343037 6.2508416 25.487637
2.8832662 7.0034962 25.488819
16.044382 7.9584546 25.456223
16.124758 8.4747372 25.467443
16.947617 8.4078951 25.488815
16.261238 8.6369572 25.461884
1.931802 9.8724279 25.437439
2.1248372 9.8375692 25.451559
7.7579341 11.384401 25.496027
5.5279846 11.782838 25.402605
6.6643009 4.6843624 25.52832
3.7902374 5.6545 25.594288
15.698218 6.9371524 25.551434
18.636364 7.248745 25.530807
15.29625 7.7282238 25.500477
10.576658 8.0903263 25.523521
17.501751 8.3951607 25.590466
14.648523 8.7351713 25.567715
16.10515 8.847621 25.564735
10.757987 8.913043 25.593405
16.181068 8.9129114 25.555567
16.270185 8.9217777 25.528299
14.646027 9.1446495 25.588182
6.09659 4.7166848 25.607988
8.1806402 4.9878287 25.697838
9.0110474 5.1651168 25.635345
18.736292 5.8328037 25.636024
9.680975 6.2705641 25.655468
18.58622 6.3082581 25.663246
16.005638 6.6416831 25.667257
10.561696 8.0133591 25.629854
15.407787 8.7200079 25.669594
10.498829 9.7305708 25.625038
2.488699 10.106978 25.690922
16.640804 6.0742736 25.769457
17.156473 8.7594404 25.728415
15.736201 9.1861706 25.733885
16.410975 9.3477612 25.798346
2.4058244 9.6436539 25.727764
2.2044528 9.7662439 25.766527
14.821537 9.8561087 25.732712
2.5700998 10.473854 25.77949
7.0240006 4.5072026 25.825016
18.414772 5.1464396 25.831594
18.073706 5.3588476 25.830055
19.132603 5.6657915 25.85638
18.870144 6.6865706 25.818314
18.710793 7.1651239 25.888824
15.372438 7.2597656 25.831974
10.424236 7.3410625 25.885296
2.3692091 8.7427635 25.831995
14.922354 9.3236694 25.889896
15.475224 9.4294462 25.808615
8.8311186 11.120075 25.856339
6.4428816 11.705074 25.885071
4.590436 5.107542 25.910957
16.982166 5.7821488 25.914925
16.33917 6.3323636 25.918636
15.954717 6.6723595 25.916718
15.4319 7.1959162 25.96435
17.19993 8.8627281 25.964781
15.814663 9.7769394 25.984098
3.3096356 9.8553782 25.93231
15.962079 9.8796186 25.93417
2.0814764 12.443322 25.99802
7.2711158 4.4822903 26.05195
8.8798523 5.3988199 26.081882
3.0768447 5.8854337 26.085575
3.5438898 5.8043232 26.008268
18.840113 6.0382199 26.036182
16.957254 6.6652842 26.02021
17.01989 6.6668568 26.069342
16.348705 7.1766453 26.001003
15.75794 7.7975492 26.049305
10.617367 8.2239103 26.024046
13.905492 9.3932514 26.041473
1.7455516 9.7917957 26.063276
9.5185757 10.75503 26.011953
5.3348536 11.884341 26.022076
9.0159025 5.4757071 26.156218
18.547703 6.2474289 26.196571
17.95034 7.0201817 26.140989
10.63277 8.2196293 26.198997
14.137903 8.6455288 26.145195
17.1576 8.9071245 26.186844
2.8989201 9.5779877 26.157423
2.5237882 10.026053 26.154364
4.1935287 11.132286 26.127243
7.5031815 11.489082 26.123226
1.4446191 11.919916 26.139589
1.4554096 12.02398 26.115053
8.1096544 4.5756054 26.244219
5.978663 4.6903415 26.25811
8.942174 5.3954425 26.219069
15.842917 6.7718859 26.238934
17.860939 6.861743 26.216343
10.544371 7.6965246 26.245897
15.310899 8.2426147 26.271774
16.660398 9.4842052 26.203257
16.411467 9.6661873 26.228651
13.922804 9.8422623 26.265633
1.3941294 10.607867 26.240812
2.6501279 10.60885 26.268028
7.3520494 11.540624 26.286633
6.7084417 4.6248136 26.38723
7.9641204 4.7702179 26.377249
18.408625 7.0674939 26.333441
14.093314 8.5275383 26.330973
2.3357205 8.7051115 26.357676
10.734401 8.7075748 26.362814
13.389894 8.8140545 26.339397
4.1109595 11.847919 26.380619
6.3373561 4.6309156 26.455877
16.136566 6.5615301 26.460421
18.268488 6.9321361 26.488632
10.562122 7.6714597 26.486156
15.93241 7.6429663 26.447319
15.720809 10.294302 26.460844
15.275195 10.51467 26.437567
8.6185532 11.205394 26.469694
7.2968264 11.56394 26.420025
7.9415359 4.5060906 26.509296
8.8209171 5.0030069 26.529121
9.070467 5.4406495 26.527306
3.5625196 5.6927338 26.581829
17.046865 6.200923 26.584106
13.866655 8.2607765 26.529621
13.611199 8.4019785 26.503386
13.795169 10.135976 26.562071
9.7177 10.638871 26.583065
4.0213108 11.799763 26.515411
6.5778313 11.710619 26.598286
5.7114487 11.870868 26.59409
2.264194 12.447262 26.539257
17.809422 6.3180866 26.636824
2.5140233 7.459445 26.636211
12.688152 8.7923832 26.699364
1.9568741 9.6481934 26.639637
3.7776449 12.430758 26.622719
7.0096722 4.5709186 26.773499
2.6938248 6.5738072 26.75038
10.429701 7.197607 26.702339
15.462179 7.1849833 26.736588
15.15597 7.3681927 26.706345
10.711933 8.1702909 26.777615
10.758688 9.0598946 26.787226
13.395773 9.9865417 26.798883
16.01635 10.185988 26.70229
2.8648281 10.890543 26.736835
2.8916693 10.914369 26.791533
3.0919008 11.122958 26.789579
1.5639929 11.760607 26.713295
3.4089789 12.497182 26.788124
3.0996799 6.1491842 26.802057
17.702398 6.9204545 26.877796
15.083613 7.7381644 26.899246
14.166689 8.0263987 26.862984
16.111576 8.2852421 26.88483
15.054716 8.596487 26.828022
3.4680796 9.6181479 26.818153
1.6049826 10.305383 26.853493
6.3774052 11.751537 26.889244
3.3197505 5.894999 26.981129
17.531057 7.7537222 26.960314
12.415627 8.3211269 26.992027
1.7357893 10.042013 26.969896
14.609764 10.654624 26.976786
2.9965572 11.03019 26.934664
4.6179113 11.971413 26.960974
7.6139212 4.4839053 27.003223
4.6785698 5.0218477 27.002254
9.1709042 5.4636292 27.051682
9.4322147 5.6896877 27.038918
2.4866171 7.4969969 27.041008
17.507626 7.5284057 27.032036
2.4507406 9.1506805 27.087374
2.4544091 9.4377661 27.054497
12.911046 9.740427 27.082558
16.198887 9.9390926 27.060333
4.3279867 10.083982 27.06004
1.6472204 11.715879 27.080799
8.604454 4.8248911 27.184626
3.4371667 5.4884028 27.190283
3.5333085 5.433949 27.117722
15.513041 7.4450378 27.146654
17.397923 7.5024142 27.135656
13.945652 7.828464 27.159611
11.948586 8.5083275 27.158958
3.3632472 9.4374399 27.156786
10.288713 10.255839 27.16988
4.3368406 11.973681 27.123001
6.3385725 4.6662035 27.285728
5.3024826 4.8716021 27.285543
3.6606064 5.6311302 27.215347
11.971773 8.0787106 27.288528
17.09613 8.1453381 27.242802
10.804062 8.2224789 27.279606
15.886216 9.301692 27.270054
12.725821 9.7197599 27.218613
15.884434 10.161891 27.271788
15.281034 10.436489 27.296675
9.0069113 10.987219 27.272156
8.2473497 11.304858 27.289169
4.7170095 12.02843 27.234123
2.1625357 12.267374 27.208843
2.7445929 12.552681 27.202419
10.507252 7.1050687 27.359806
15.935457 7.3344555 27.364433
16.319946 7.4302144 27.377796
16.76054 7.4903774 27.302612
15.062709 7.8746934 27.347214
11.489229 8.674612 27.365223
12.054802 9.2379198 27.35899
15.730493 9.3124151 27.329102
3.5249863 9.4596272 27.334656
12.569144 9.7439251 27.350019
12.719301 9.9197159 27.380341
14.199001 10.594722 27.392107
4.3006029 10.620365 27.392649
7.7470298 11.478824 27.326033
7.8108974 4.460947 27.448444
6.2786279 4.6892314 27.416801
16.532026 9.0416718 27.465557
12.080051 9.4006481 27.467937
15.934046 9.9950581 27.430708
3.0214391 10.34061 27.485439
2.9219003 10.55975 27.468365
4.1784887 10.566935 27.409672
4.4708767 11.428648 27.413931
7.6676912 11.507513 27.495224
6.9165487 11.676727 27.439047
3.9801779 11.996464 27.469919
3.7997148 12.456903 27.44495
6.607305 4.6171474 27.509815
8.7955189 5.098464 27.599026
4.2124176 5.197381 27.579321
2.5914903 7.1804318 27.551365
13.30964 7.2444181 27.586548
11.464737 7.8915892 27.591658
11.641188 7.9063482 27.502007
16.609632 8.0295229 27.537624
1.9945617 9.6277485 27.55722
16.109859 9.7280951 27.593607
12.977398 10.065226 27.500675
3.1509416 10.19645 27.594868
13.137362 10.140946 27.520527
3.2475939 11.065456 27.555666
3.217308 11.363653 27.514606
4.5187635 5.1974273 27.622967
4.0647712 5.393857 27.662241
2.6317961 7.0700803 27.646484
2.5799532 9.2053928 27.650192
11.996469 9.5206575 27.615662
8.9300032 10.972547 27.693939
3.5755291 11.69984 27.681778
6.8186169 11.751817 27.674732
3.8128619 11.840239 27.674221
4.0520825 12.055923 27.634758
6.8816409 4.5609155 27.706751
4.5485468 5.2260408 27.756983
2.6151252 7.0925694 27.751228
15.918705 8.4995546 27.756926
2.5121684 8.8156519 27.705997
11.369509 9.1093216 27.779972
2.5481083 9.4352846 27.770351
10.655123 9.6892452 27.72319
13.032431 10.128719 27.707285
3.4265056 11.576962 27.797001
6.2274289 11.930372 27.728312
4.0910654 12.535401 27.797575
8.2459145 4.852025 27.85146
8.4476099 4.9006252 27.844542
11.585846 7.2106032 27.872602
11.042259 7.7386036 27.88195
10.808307 9.3991385 27.837904
16.054476 9.4189348 27.826599
10.794569 9.5155735 27.897217
15.260296 10.202854 27.883776
14.555864 10.339081 27.805571
1.8178122 11.779078 27.863022
6.4040079 11.896398 27.866701
1.9501824 12.077816 27.897524
4.0062943 12.106031 27.841299
6.8407497 4.5564165 27.921391
7.6324177 4.7323446 27.921961
5.3133268 5.012177 27.974464
4.5860119 5.2942867 27.985968
10.853685 8.0492687 27.921246
15.080016 8.2022934 27.929447
2.1589921 9.474988 27.994068
14.839207 10.234008 27.983532
7.9586926 11.358504 27.945307
4.0327621 12.270972 27.923178
7.38764 4.7179184 28.035696
12.676339 10.082943 28.04612
8.0528116 11.308659 28.066467
3.7064226 11.944172 28.054092
6.3062763 11.945242 28.04731
4.9294505 12.103209 28.015568
4.2523613 12.423611 28.066294
3.4509928 12.641397 28.06926
6.7034979 4.8344727 28.139378
3.0309315 6.0213203 28.150169
15.122671 8.4285555 28.147644
10.988144 9.2734661 28.138008
5.0421991 12.117731 28.190735
7.4092746 4.505198 28.263472
6.4097986 4.6718502 28.257538
10.772535 7.1208649 28.265768
1.7884007 11.650287 28.287891
6.8468218 11.813484 28.246931
6.4452868 11.927586 28.239164
12.093574 6.7354851 28.381815
2.3717883 8.5420904 28.31263
15.322829 9.087101 28.340614
2.5663137 9.5485344 28.327118
9.2493668 10.78267 28.319618
8.5693579 11.067981 28.325714
8.6851301 11.021244 28.303999
8.7051344 11.011763 28.316053
8.0895329 11.273693 28.308325
5.6511269 12.127591 28.36005
7.2642589 4.5940919 28.471888
5.9212117 4.9961615 28.419571
9.2613134 5.413693 28.465872
9.4027529 5.5243945 28.483828
4.1391468 5.681982 28.45956
12.063418 6.6568556 28.483194
12.713647 6.9291067 28.468258
10.812396 7.1778393 28.412052
15.231776 9.0581951 28.409521
14.622608 9.889884 28.477985
6.5179377 4.9488049 28.534889
1.6144469 10.828474 28.504168
4.1289086 12.468678 28.535126
7.9995337 4.9327078 28.685486
11.470747 6.6031127 28.665779
2.8536735 6.7432256 28.663963
14.858362 8.8984222 28.695875
2.1111536 9.5476742 28.622944
1.973622 9.6142893 28.681253
10.915152 9.7815752 28.686798
8.9960022 10.856112 28.696562
9.1377306 5.286159 28.752502
4.6421719 5.5423512 28.729588
11.30395 6.5519371 28.79855
2.9490628 6.7038207 28.766186
13.720578 7.5217137 28.770895
2.3404295 8.6802902 28.704918
12.447934 10.221676 28.783737
6.6361556 5.0126762 28.819475
8.5017281 5.0262189 28.848225
5.5309796 5.2542572 28.859501
14.419125 9.286541 28.890045
12.123107 10.151367 28.863811
10.083491 10.345481 28.892818
7.8248525 11.342066 28.865963
5.8811197 5.2297125 28.983673
9.608428 5.6359644 28.994795
13.735433 7.7715464 28.969936
14.136102 8.2988234 28.999252
14.278481 9.4108343 28.91592
3.1820116 12.810555 28.997341
11.55373 6.3915157 29.056545
2.3418627 8.1897831 29.006744
7.8455696 11.321212 29.016537
3.9459593 12.863665 29.071352
9.6571598 5.6662283 29.111595
13.077091 7.2659354 29.103882
11.115623 9.6401863 29.15287
9.4821939 10.587577 29.189974
4.7246633 12.460464 29.119436
11.213352 6.3251495 29.254129
2.3649929 7.7566376 29.258728
2.3426056 8.0188465 29.251345
13.985476 8.4426994 29.264774
11.271537 9.7946596 29.291784
8.6134262 5.0711951 29.334932
9.4881134 5.5249481 29.377319
14.050347 8.6838751 29.329695
8.3694363 11.050281 29.349531
2.3389904 12.330825 29.317104
9.8326283 5.8306408 29.42993
11.301672 9.8892536 29.440884
8.6227875 5.166163 29.595232
11.856415 6.6162176 29.571053
3.0818355 7.0197043 29.612564
13.556116 8.6529703 29.684647
9.1901627 5.349637 29.771423
9.9192791 5.9219413 29.799255
4.6137295 6.206521 29.72463
10.269725 6.2338514 29.740622
2.3456991 8.5993299 29.777754
2.251924 9.5785885 29.798111
7.3364124 11.433715 29.754528
2.7450321 12.398598 29.758503
4.4750686 12.577488 29.785948
