# .PCD v0.7 - Point Cloud Data file format
VERSION 0.7
FIELDS x y z
SIZE 4 4 4
TYPE F F F
COUNT 1 1 1
WIDTH 315
HEIGHT 1
VIEWPOINT 0 0 0 1 0 0 0
POINTS 315
DATA ascii
0.02248163 -0.14516057 -0.0082668401
-0.20526183 -0.052832134 -0.013789
-0.16094999 -0.046744894 -0.0093689645
0.017470455 -0.023177484 -0.001495619
-0.011167906 0.067421995 -0.0021303946
0.073720396 0.061987229 -0.0024740836
-0.10385478 0.18259545 -0.011658563
-0.073969029 0.16813743 -0.0076422356
0.070019215 0.1027802 -0.0044632917
0.1325743 0.1484573 -0.00010374468
-0.10816903 0.21248405 -0.011838729
-0.13513464 -0.33565572 0.086300202
0.16644187 -0.34089574 0.086351924
-0.15448336 -0.26702806 0.086361609
0.18506117 -0.26200122 0.086764231
0.20364735 -0.25854784 0.086834893
-0.16514252 -0.15754712 0.089146785
0.040182509 -0.14820966 0.0020551477
0.1368615 -0.17273793 0.091591686
0.20594288 -0.1592291 0.093819655
-0.14398827 -0.036649972 0.014726926
-0.067102268 -0.020143606 0.020256512
0.04429286 -0.025755256 0.036801692
0.1487218 -0.020740068 0.015507446
0.20749295 -0.040409744 0.011881001
-0.02807763 0.03300298 0.041787423
0.047467493 0.051945806 0.029967984
0.127993 0.009799296 0.024728738
-0.03975952 0.13088357 0.028182935
0.075619861 0.12840089 0.018278319
0.11621223 0.16003133 0.018645136
-0.1093229 0.20182054 0.0055818814
0.16760026 0.20660934 0.0030328985
-0.16486812 -0.41922855 0.11893887
0.16323355 -0.40643087 0.11647885
-0.2006596 -0.32088095 0.10256516
-0.14421338 -0.34427947 0.13003501
0.16107976 -0.34156662 0.1382947
0.20880997 -0.34313592 0.13292068
-0.21031471 -0.22637053 0.16149391
-0.14015031 -0.26359984 0.15935175
-0.092743382 -0.22250393 0.1866616
0.14010137 -0.23913933 0.16725686
0.22158457 -0.23936094 0.18303216
-0.15822607 -0.1432025 0.15861602
-0.095856488 -0.19651033 0.17784128
0.16063729 -0.15108992 0.1625461
0.22567375 -0.18630415 0.15525478
0.024606204 -0.0057000127 0.17433651
-0.0023993261 0.0057927268 0.12592426
0.02692288 0.025093382 0.16102527
-0.1091885 -0.31148234 0.27054536
0.15086226 -0.30639583 0.26481345
-0.2033062 -0.25379404 0.24435616
-0.14932957 -0.28225183 0.23405737
-0.084442332 -0.27979159 0.25572622
0.11401083 -0.23275502 0.24971296
0.21766227 -0.26611316 0.21327424
-0.20519823 -0.18775705 0.22707516
-0.15115839 -0.14943619 0.25436589
-0.08143957 -0.18033104 0.2266182
0.15184706 -0.13168301 0.22349231
0.21654171 -0.151052 0.23523313
0.038482629 -0.003118359 0.24411367
0.020110413 0.030736454 0.25196844
-0.1247008 -0.33200043 0.34529418
-0.077292182 -0.32113945 0.37884989
0.14693089 -0.33133134 0.33922899
0.21793459 -0.32144308 0.36866069
-0.18042856 -0.25950789 0.38334215
-0.07212875 -0.24595146 0.3565464
0.11526852 -0.22842549 0.33475059
0.23751099 -0.25799066 0.34063095
-0.13767554 -0.16190602 0.35619017
-0.089785635 -0.17818475 0.3716993
0.14897218 -0.15315552 0.3477743
0.2075379 -0.16854745 0.38077751
0.015510644 0.028830126 0.36361408
-0.1444051 -0.34086728 0.43390435
-0.073311627 -0.35048839 0.46083355
0.14061168 -0.33235505 0.4625949
0.2281305 -0.33593741 0.4755016
-0.1569946 -0.22381587 0.47512159
-0.066253297 -0.24743266 0.46788099
0.078061961 -0.21576007 0.48552036
0.15406699 -0.23006511 0.45668161
0.22548579 -0.21910839 0.44853863
-0.20074473 -0.15070167 0.48370475
-0.16558576 -0.13778277 0.47479948
-0.039108958 -0.17011829 0.48371622
0.053853396 -0.14108607 0.48692486
0.16871381 -0.16527198 0.45163023
0.24686627 -0.12882376 0.48670387
-0.21222848 -0.042685971 0.49431419
-0.14057457 -0.02949807 0.48470131
-0.064557642 -0.066595577 0.48427948
0.053065665 -0.042132657 0.48442847
0.21811531 -0.043641664 0.48442072
-0.20799509 0.0066331429 0.49393672
-0.14232937 0.061436437 0.48171768
-0.028413979 0.036760222 0.47741604
0.035480864 0.037392687 0.46676582
0.17192544 0.059958365 0.48266667
0.23696882 0.051618885 0.48197231
-0.2018587 0.11447394 0.46858001
-0.15529816 0.15551341 0.48359218
-0.026887223 0.1565447 0.47820577
0.03353969 0.14195889 0.47599199
0.1451748 0.1385338 0.48128584
0.22855668 0.14466864 0.48068047
-0.031820383 0.21318705 0.48948875
0.02602106 0.23881298 0.47570938
-0.13335516 -0.36170119 0.55705476
-0.052155349 -0.33990049 0.56828171
0.15826951 -0.35095316 0.54231632
0.24232344 -0.32396039 0.55722642
-0.13645476 -0.24909233 0.54166955
-0.034907244 -0.22275041 0.53781641
0.053912636 -0.22046024 0.51088679
0.15556607 -0.24644761 0.53469616
0.23529665 -0.24100356 0.54072505
-0.20595321 -0.12483555 0.52316934
-0.14824514 -0.1544241 0.54770219
-0.043623876 -0.15108059 0.53831416
0.05732128 -0.12919131 0.53790921
0.1357841 -0.14733648 0.53706384
0.22833678 -0.15196358 0.54867023
-0.2198433 -0.030994449 0.51123017
-0.13176692 -0.04532801 0.53838217
-0.053353298 -0.046806183 0.52498406
0.043512285 -0.044491373 0.55705059
0.16582188 -0.043363258 0.52633053
0.23387463 -0.056826159 0.53405011
-0.23703435 0.069370903 0.52112377
-0.13468789 0.050438873 0.54301727
-0.054822672 0.058321819 0.52524716
0.046591189 0.045007374 0.5487439
0.15706612 0.06273558 0.53087723
0.23811917 0.044894252 0.5177238
0.303891 0.083454631 0.5773291
-0.22853246 0.12964675 0.53754139
-0.13290876 0.13855192 0.54469043
-0.057950791 0.15789741 0.55525297
0.048344746 0.15419491 0.55296296
0.16465558 0.15533976 0.54717088
0.24382299 0.13491665 0.51124066
-0.043110352 0.23863864 0.56401962
0.032498304 0.27100748 0.54907781
0.11831868 0.21624738 0.53433901
-0.13488007 -0.31552806 0.6187039
-0.067619696 -0.32419187 0.61392862
0.15963523 -0.34924549 0.61456132
0.22666968 -0.32512358 0.61168426
-0.13110952 -0.2516104 0.65177119
-0.042947073 -0.24969213 0.64461559
0.12896748 -0.23188914 0.63921899
0.22898977 -0.23967092 0.63294816
-0.26107672 -0.14418569 0.64456433
-0.12842695 -0.15100327 0.6530242
-0.036630213 -0.15139906 0.66989303
0.036757175 -0.12815 0.63551706
0.11290441 -0.15758651 0.67087597
0.24795401 -0.13336334 0.62566561
0.3178907 -0.13668558 0.64795732
-0.26435655 -0.043987844 0.65145504
-0.13594908 -0.039817315 0.64276791
0.055978589 -0.055292252 0.66126913
0.19672486 -0.02359017 0.69417495
0.23493628 -0.036832593 0.64300293
0.32413 -0.050634306 0.65516442
-0.2469469 0.073526293 0.63377482
-0.13115869 0.046465352 0.65436071
0.045320179 0.049346779 0.65011877
0.21985339 0.044236965 0.65420228
0.31453797 0.03924156 0.62831604
-0.26681465 0.14084052 0.6512925
-0.1290417 0.13031651 0.65686518
0.043722264 0.16762871 0.60523283
0.19020665 0.17950559 0.62157482
0.2618815 0.15374212 0.65314829
0.3214891 0.18296388 0.65032315
-0.14840116 0.26620546 0.67572182
-0.043005541 0.25921559 0.64988011
0.038312219 0.2687996 0.64749914
0.13786966 0.24869643 0.64796579
0.23784238 0.26476994 0.67270803
-0.10769956 -0.24648586 0.70523918
-0.085803412 -0.21974726 0.70982426
0.19811006 -0.24827296 0.73034471
0.22548695 -0.25776365 0.70991951
-0.12355818 -0.14489181 0.72899252
-0.092362583 -0.15454391 0.75508547
0.18068576 -0.19728944 0.71955192
0.22664538 -0.14857085 0.72396195
-0.14792927 -0.083265886 0.78949165
-0.078494087 -0.040598612 0.70474291
0.075241067 -0.065485932 0.70631832
0.14181712 -0.037383474 0.71546322
0.24149683 -0.062120732 0.77314883
-0.026054438 0.066486694 0.75568599
0.04555263 0.051538575 0.73237878
0.14649984 0.055719916 0.73126149
-0.11357192 0.19551782 0.73123491
-0.054575682 0.13858575 0.77835953
0.057015747 0.14110677 0.77861524
0.1624743 0.15128167 0.76513004
0.20987391 0.19487777 0.78205615
-0.14773586 0.25956109 0.74946016
-0.055652667 0.27050063 0.75886393
0.050838914 0.2756438 0.74514937
0.16006596 0.2625322 0.75306255
0.22181211 0.26339605 0.75795436
-0.13660592 -0.11472644 0.8449738
-0.14976195 -0.061205141 0.84043407
-0.088134676 -0.075042367 0.84726369
0.24423186 -0.042836092 0.83226234
-0.12250664 0.0445338 0.86712408
-0.081068233 0.052944154 0.84059268
0.053577546 0.045761976 0.82846963
0.15174739 0.069284752 0.8387785
0.23943503 0.042924512 0.85623425
-0.1188802 0.14720003 0.84223795
0.19096793 0.13725619 0.86629373
0.25276268 0.10600571 0.89589864
-0.20123141 0.26833412 0.84066486
-0.14140765 0.25112545 0.8621347
-0.057001755 0.26587251 0.83798635
0.057982638 0.27172798 0.86025405
0.1597809 0.25704449 0.85234541
0.23249023 0.258091 0.85392803
-0.14904593 -0.037045706 0.930417
-0.085403301 -0.026772665 0.93655556
0.26182336 -0.0084636789 0.91038597
-0.14607409 0.055582058 0.93873447
-0.081829526 0.047617566 0.96572751
0.062426351 0.0037729042 0.91971236
0.1620664 0.041662179 0.95091814
0.21210484 0.05382454 0.95863765
0.3042303 0.09002775 0.92974204
-0.12576273 0.13016836 0.97800577
-0.083590195 0.12048542 0.98533702
0.19190867 0.16755484 0.97088224
0.25262421 0.13245919 0.95316464
-0.14178547 0.26076335 0.95317972
-0.044786818 0.26003364 0.95291698
0.039915714 0.2622439 0.95061499
0.1484807 0.2527374 0.95762473
0.23576991 0.27008489 0.95368767
-0.056893904 -0.020289589 1.0602206
0.034887616 -0.019104552 1.0509065
0.13432372 -0.012494999 1.0485065
-0.14903373 0.043159533 1.0476809
-0.07518661 0.043577652 1.0355978
0.17873672 0.076861657 1.0332962
0.24227481 0.064204961 1.0429139
-0.13310388 0.14819244 1.0533351
-0.08495073 0.129802 1.0272059
0.19072148 0.16444325 1.0429471
0.27174601 0.14506382 1.0456072
-0.12938793 0.25152621 1.0241574
-0.048762672 0.25883517 1.0472325
0.029444844 0.25465778 1.0390052
0.14696379 0.2474619 1.0430763
0.22096078 0.28350738 1.0130194
0.082252271 -0.015400361 1.1162782
0.14050969 -0.010762173 1.1193748
-0.1406576 0.059614465 1.1826917
-0.071668036 0.023972403 1.1685817
0.052574147 0.011078383 1.1667354
0.17141888 0.037309464 1.1394707
0.22198968 0.045995139 1.1244185
-0.16116244 0.16034617 1.1364368
-0.089680299 0.16185895 1.117209
0.17655233 0.15541473 1.1225863
0.236553 0.1530049 1.1339513
-0.1049731 0.2075424 1.1605194
-0.045832809 0.23535466 1.1398635
0.04546544 0.25497103 1.1380361
0.13447835 0.22675294 1.1551942
-0.12006311 0.071792759 1.2250925
-0.040941812 0.059702795 1.2412875
0.054312602 0.055374201 1.2472322
0.16137585 0.04184857 1.2441561
0.21455716 0.073548444 1.2209035
-0.13267717 0.12511127 1.2276517
-0.076208644 0.14465322 1.2611111
0.15472403 0.16168438 1.2572638
0.2212393 0.1327468 1.231003
-0.03811175 0.21509977 1.2513583
0.046828963 0.23352771 1.2478777
0.12159308 0.21244296 1.2472926
0.056011721 -0.0069886479 1.3806789
-0.019944489 0.081803858 1.3652267
0.054571528 0.029942423 1.3501219
-0.0072183642 0.14230718 1.3306007
0.067597732 0.14533825 1.3487756
-0.0029703367 0.24490249 1.3836781
0.016297545 0.24108386 1.3826654
0.038348701 -0.0039300462 1.4686085
-0.040687732 0.05414049 1.4460335
0.080950685 0.010118229 1.440349
0.1197964 0.064560309 1.4291912
-0.034366522 0.16615137 1.4441872
0.049462851 0.18148506 1.4500096
0.12234496 0.11844762 1.4507759
-0.013727564 0.21675695 1.4351759
0.033287387 0.21334928 1.4633613
-0.0054929801 -0.0042293509 1.5028927
0.045250565 -0.0069257123 1.5305204
-0.023627467 0.013672156 1.5327305
0.045408249 0.048274964 1.5580781
0.12180296 0.040532313 1.5148435
-0.022314178 0.15512466 1.550398
0.037234284 0.16850965 1.5464482
0.10515633 0.1316258 1.5313674
