# .PCD v0.7 - Point Cloud Data file format
VERSION 0.7
FIELDS x y z
SIZE 4 4 4
TYPE F F F
COUNT 1 1 1
WIDTH 1556
HEIGHT 1
VIEWPOINT 0 0 0 1 0 0 0
POINTS 1556
DATA ascii
-9.0494289 0.17624998 7.2457075
-3.3872387 -0.048477538 7.3366814
-3.8024042 3.1509285 7.3242159
-5.7710953 3.2519679 7.3277998
-24.450069 9.8863182 7.3835239
-8.2354212 -2.3663394 7.4441381
-22.46195 15.14032 7.4947801
-4.9206247 3.7956352 7.5388651
-25.119495 14.0947 7.5769682
-4.2635937 -0.88212067 7.6495495
-9.4025841 -0.66783142 7.6778321
-23.574928 8.4869232 7.7518702
-6.7703056 -1.9480751 7.8395042
-4.0927777 -0.66626227 7.8911982
-23.220474 8.4389114 7.8629279
-22.823568 15.117702 7.8088446
-9.2247982 -1.0872432 7.9012094
-20.719917 13.860682 7.9601645
-8.6905584 -1.4828001 8.0228128
-24.491789 14.569339 8.0753145
-21.275612 15.314152 8.0999689
-20.745544 14.299387 8.1474342
-21.075708 15.335116 8.2889442
-7.4269085 -2.0094028 8.3548241
-2.7571383 2.4029238 8.4283142
-3.0290153 3.2845783 8.412797
-24.291588 10.36654 8.4433451
-20.113054 11.502851 8.4906158
-20.771347 14.851509 8.4052401
-2.6953635 2.5509884 8.5500145
-6.4043846 -1.559338 8.6980629
-7.7809072 -1.9989805 8.7709408
-3.4473362 4.5805411 8.7602329
-20.062958 11.609076 8.7598562
-24.641842 11.468301 8.8801861
-6.400373 -1.4837552 8.936842
-8.244523 1.6914099 9.0427704
-19.969257 10.281382 9.0744696
-24.606834 12.167831 9.0365849
-23.288826 14.918516 9.0038643
-24.492664 11.371141 9.1772871
-24.463974 13.675152 9.1943645
-21.04841 15.199473 9.1849604
-2.3268869 1.1730038 9.2184973
-5.3058076 3.8639491 9.2012844
-2.3121314 3.2773275 9.3257141
-24.388994 13.463676 9.3689108
-20.222153 9.7340832 9.4096279
-21.516823 15.11871 9.4909077
-8.4628115 1.1354882 9.5425968
-24.335499 13.195482 9.513237
-2.158699 3.3443713 9.6641302
-20.417519 14.881711 9.6377382
-20.862638 8.5792751 9.7749634
-20.306484 14.704222 9.9072371
-22.876469 14.931877 9.9225082
-20.346386 15.080883 10.006638
-19.972046 9.7610254 10.153337
-24.096989 13.995477 10.135355
-22.169506 15.07294 10.23041
-6.2658691 -1.0019813 10.346663
-24.122925 12.052193 10.37507
-5.5390024 4.0159283 10.40718
-19.619331 11.876959 10.490696
-23.367928 14.484147 10.479153
-3.8747354 4.9684558 10.593197
-7.5453482 2.9842744 10.697529
-21.925457 8.3149033 10.606062
-24.0641 11.544859 10.629873
-19.761948 12.914049 10.652042
-21.539948 15.083965 10.672932
-6.6740208 -0.99396169 10.792797
-2.1863456 4.7740321 10.727688
-19.607727 10.009184 10.953354
-1.5952878 3.087157 11.083135
-22.853088 9.1229897 11.215933
-3.0046103 5.646265 11.32297
-4.6683588 4.7969885 11.485534
-22.537035 14.67902 11.443173
-4.3062763 5.0095696 11.544554
-19.334015 12.5152 11.692278
-5.5530534 -0.32378855 11.726681
-7.1865821 3.0358548 11.862511
-1.2700731 4.1583686 11.870626
-22.708027 9.2763119 11.841206
-23.369671 10.877974 11.819371
-7.4084935 -0.26744622 11.990109
-1.869781 1.80355 11.992873
-22.69306 9.3631296 11.993701
-4.5311375 0.16613452 12.1392
-22.994097 10.228422 12.152257
-19.018211 10.549521 12.188688
-2.1122608 1.6105455 12.262486
-21.621557 8.5429153 12.311894
-23.048437 10.496561 12.319143
-3.8909318 5.5375605 12.598101
-23.365803 11.976231 12.538802
-5.2007084 4.8407106 12.634856
-20.045429 8.8489943 12.740642
-22.555508 9.6512108 12.765516
-2.3026426 1.4901569 12.856052
-4.0866146 5.4981527 12.828082
-23.22788 11.39896 12.89122
-1.959625 6.6635809 12.916059
-6.5920992 0.19080338 13.05657
-1.3614902 2.3436856 13.008978
-0.80811721 3.1485081 13.028564
-6.0490165 4.5039434 13.056153
-1.1033027 5.5168734 13.012127
-23.140841 12.417349 13.150773
-4.8152657 0.46156704 13.217847
-20.681278 8.6942253 13.210656
-19.274418 9.8941603 13.280005
-22.916075 10.946159 13.274781
-18.690296 12.209608 13.29638
-1.5280144 2.2227325 13.329374
-7.0794539 2.3354762 13.344154
-6.5526943 3.412385 13.389672
-7.1730213 1.7225602 13.582136
-6.751092 2.8681068 13.582496
-19.755983 9.0658836 13.591185
-19.469784 9.5067368 13.596062
-23.081017 11.740602 13.59132
-18.743992 12.875046 13.512934
-18.756908 10.52334 13.677574
-23.05258 11.842345 13.652586
-6.7545762 2.685889 13.767565
-22.912449 12.636473 13.852062
-0.4248485 4.1770334 13.914814
-19.278566 15.285038 14.051809
-1.8452517 1.9852875 14.176523
-0.28539166 4.9623437 14.324758
-18.24037 11.832272 14.30452
-18.890932 15.237366 14.388363
-1.3081533 2.5021985 14.477893
-21.96261 9.7154455 14.547388
-18.355387 12.954784 14.619081
-0.076464199 4.0379915 14.763309
-0.56016284 6.6245909 14.777637
-18.332413 13.425964 14.944105
-5.5899525 2.0569267 15.265917
0.029116735 6.135272 15.244652
-2.2092228 7.2271132 15.341747
-17.961224 11.198338 15.313159
-21.055601 9.1772337 15.611134
-21.393507 9.4051561 15.622248
-18.070633 13.499634 15.694212
-3.3302398 1.8127437 15.715631
-19.649723 9.1511755 15.777582
-5.6661234 3.2466593 15.837688
0.31694376 5.8795099 15.865479
-1.1705391 2.7112916 16.039572
0.42923254 4.6655245 16.024046
-2.8808367 2.0601528 16.101557
0.3538475 4.138113 16.115036
-0.63475537 8.0141211 16.171038
-19.310459 9.2141857 16.147598
-1.093771 2.794136 16.25621
-18.064882 14.81941 16.437788
-4.9483738 3.1768384 16.592957
-1.9496536 7.7114167 16.537178
-2.4698865 2.3456473 16.618107
-18.851986 9.5984879 16.723907
-21.978868 11.456388 16.739109
-2.5750556 2.4394388 16.964851
-4.4839911 2.9896827 16.974037
0.083990484 7.0498466 16.962645
-17.831472 14.624501 16.969355
-5.0903149 3.8076034 17.134205
-0.20212501 7.4022393 17.158697
-20.083584 15.311687 17.173819
-4.054141 2.6553476 17.315464
-17.651278 14.446673 17.358221
-17.96015 10.576625 17.58997
-2.228848 8.0798588 17.697388
-0.063951239 7.0855207 18.035791
-16.968628 12.320912 18.033936
-5.3162546 4.3563676 18.111532
-16.974537 11.336343 18.105278
-21.683716 12.255867 18.165724
-0.19070591 7.2228351 18.247341
-18.81535 9.2107639 18.242031
-19.892527 9.4900703 18.246384
-18.033312 9.7126408 18.263304
-5.5250797 3.8693283 18.345306
-3.312233 7.7597909 18.312893
-20.521242 9.6615562 18.328699
-17.214933 14.267074 18.451159
-3.2093115 2.543534 18.57127
-17.088148 14.208233 18.741554
-19.385548 9.1029282 18.849136
-17.717218 9.395299 18.817467
-4.6677299 7.2450228 18.963667
-20.874786 10.68748 18.941772
-21.366749 12.842674 18.993685
-4.9174547 2.9971731 19.065571
-5.4894543 5.4323449 19.085735
-20.697052 10.361672 19.09803
-16.880169 13.882055 19.016008
-2.0914464 2.8382239 19.180475
-5.1716928 6.905704 19.13448
-20.274359 9.4616117 19.166634
-2.811759 2.6884255 19.214897
0.0090302229 4.59621 19.263447
0.15537038 4.7709455 19.2885
-0.59918326 7.6210051 19.223087
-16.720444 13.837553 19.328459
-20.20438 9.4366741 19.484482
-5.5966053 6.2105389 19.567184
-5.5667515 6.7695937 19.540558
-2.6764052 8.6711798 19.553516
-1.5874603 3.0914173 19.645149
-5.6655359 6.2937746 19.709
-15.762338 10.64242 19.838314
-16.219845 9.8265228 19.992273
-0.20345624 6.5179863 20.120859
-16.672184 15.04493 20.134975
-18.499636 15.180683 20.126005
-5.9813929 5.4258213 20.237957
-0.34479424 6.9086981 20.290306
-20.243557 9.8297863 20.243183
-18.291576 8.1484737 20.314312
-16.232576 14.162748 20.399534
-6.2592378 4.5637274 20.436121
-15.602795 11.46601 20.49799
-17.936331 15.005198 20.519794
-6.1581249 5.4018064 20.640474
-18.707075 15.016422 20.619423
-6.4254799 3.8798814 20.774391
-0.63437021 7.4431782 20.713867
-19.951513 9.3748474 20.702927
-6.4772401 4.4487257 20.887615
-20.60598 13.141822 20.847279
-20.406569 14.053612 20.883669
-5.2466164 2.6769087 20.934111
-0.82089472 4.2870436 21.019379
-0.20791526 5.6688657 21.013002
-5.8378992 7.2555404 21.03336
-17.02483 7.7583194 21.002338
-17.603748 14.796471 21.059864
-0.77974772 4.3636851 21.103004
-17.392155 7.6213145 21.11499
-15.302288 9.4469109 21.194878
-20.616558 11.654594 21.163477
-1.2868483 3.8608375 21.220369
-1.7738807 8.6251268 21.286093
-15.23292 11.371162 21.225588
-15.519974 13.239547 21.363136
-0.49853671 6.6441708 21.493874
-6.6414409 4.9144006 21.518888
-4.201911 8.71457 21.514044
-20.39909 11.691895 21.661224
-15.372184 14.289124 21.615404
-15.254866 12.542265 21.706676
-1.4105444 3.9240313 21.843494
-0.38609576 5.8439956 21.823826
-18.857349 7.5875244 21.944712
-20.318872 11.417304 21.95224
-20.10903 13.160572 22.018787
-16.106388 7.3822794 22.233353
-15.895821 7.5537381 22.254269
-20.026226 9.9952002 22.290895
-20.021427 12.409453 22.394144
-5.676652 2.5713148 22.479073
-2.6643558 9.176837 22.448383
-1.3956033 8.1852722 22.531799
-0.47545037 5.2772779 22.686911
-18.330101 13.995262 22.692785
-5.5806112 2.5536113 22.859098
-4.0904274 2.7783277 22.840614
-1.1842403 4.5459657 22.885738
-6.1713552 7.8495269 22.861597
-17.408203 14.223881 22.803005
-3.8599117 2.8213878 22.925837
-0.60706556 5.2430797 23.006666
-18.644182 7.4932661 23.143772
-6.0649014 2.6980658 23.20857
-5.6942945 8.4203873 23.223068
-7.4268446 5.4916162 23.384041
-18.611988 7.555563 23.472244
-4.0317016 9.6674852 23.41568
-14.647915 7.4531102 23.510771
-5.0963187 9.0743818 23.547159
-7.5198212 3.934103 23.683304
-0.73250788 5.3142362 23.600254
-19.481609 12.416939 23.669603
-5.349246 8.9856873 23.80389
-18.644211 13.207204 23.853485
-5.9217939 8.5691586 23.93292
-3.4651356 3.0060294 24.075941
-2.2414212 3.7822423 24.092751
-17.872837 6.3782234 24.056671
-13.556803 12.415702 24.090427
-13.61575 7.7127523 24.202318
-3.6414533 9.7429981 24.218678
-13.381707 11.334689 24.291117
-0.80679166 5.575491 24.398556
-18.211575 7.0361371 24.360327
-13.026077 8.4183149 24.388659
-6.1548357 8.569479 24.341385
-17.7225 6.1651974 24.443399
-13.055983 8.6272774 24.429184
-15.650991 13.529481 24.454618
-2.2479351 8.7058659 24.592581
-3.8246043 9.8526287 24.506252
-2.6817493 3.4914274 24.625294
-12.95479 8.6936398 24.673803
-19.519594 9.4591713 24.601357
-3.3757594 9.5108128 24.724617
-13.902714 13.251324 24.794594
-15.39531 13.419402 24.723507
-13.026127 11.849555 24.81315
-8.2824402 5.8209887 25.156658
-14.437877 6.0707107 25.107021
-12.782484 11.057987 25.122509
-19.116756 10.173126 25.252384
-7.5827217 7.8406754 25.312765
-12.559343 9.9528236 25.389774
-3.9326444 3.0515337 25.485817
-8.4228201 4.8752294 25.465042
-18.125683 7.0847406 25.48283
-2.1241021 8.5479031 25.456209
-19.224361 9.0400972 25.445856
-1.4577074 7.323822 25.558563
-8.4180393 4.1249142 25.656803
-13.43704 6.4927092 25.604939
-1.8734491 8.3504047 25.66165
-12.341198 10.668741 25.726934
-15.723703 13.136839 25.717838
-8.6177549 5.1671209 25.865103
-13.509251 6.2234406 25.811211
-19.03783 9.1931114 25.83036
-3.0185556 9.1607227 25.883598
-8.6801252 6.5871229 25.969826
-12.131838 9.3009167 25.963717
-6.9726715 8.690733 26.026592
-18.948647 9.2418842 26.018429
-8.3381443 7.6148901 26.161516
-2.5032129 4.2728095 26.283794
-11.872116 7.8695822 26.268673
-11.954851 9.5680819 26.224014
-4.0243459 9.860589 26.228302
-12.595346 12.659913 26.258749
-7.2255583 2.7444196 26.385704
-17.347431 5.8285527 26.363194
-4.6080871 10.27079 26.377722
-8.855689 4.9104371 26.483414
-8.8533983 5.4856439 26.472729
-17.750706 6.5719299 26.519627
-1.3253483 6.1365108 26.614084
-11.706012 11.565671 26.658501
-14.059044 4.6657839 26.742275
-8.6556273 7.2354403 26.703133
-18.715942 8.7890911 26.74255
-8.5926943 3.9054921 26.962254
-14.501953 4.1737161 26.967789
-17.192249 5.6368861 26.928503
-11.403769 11.323709 27.073523
-18.398518 9.5519028 27.175026
-11.331915 9.6236935 27.14436
-6.1926818 2.8355262 27.272064
-2.6920793 4.4141417 27.272701
-6.3963881 9.3526087 27.231083
-15.005665 12.579882 27.256084
-5.9124665 2.8812563 27.338596
-18.361219 7.7897382 27.368921
-11.569344 12.195415 27.409702
-7.5385103 2.7200732 27.559488
-10.977192 11.201952 27.731327
-9.2258053 6.0068207 27.974442
-8.5801563 6.9975033 27.987867
-2.23947 8.293396 27.926142
-12.287639 4.6705933 28.058434
-7.1007304 8.4411707 28.098465
-2.7491684 8.6907806 28.052214
-5.6757946 10.502912 28.160378
-17.778603 10.632614 28.184196
-14.866327 3.2355292 28.260921
-10.724236 10.311903 28.2313
-10.913458 7.1293702 28.343342
-7.8790255 7.6096897 28.335844
-3.0804601 8.8599148 28.374098
-6.448 9.3033447 28.397984
-5.7713261 10.445894 28.338444
-7.2668486 2.6294947 28.419029
-13.798815 2.8327365 28.444328
-10.765986 11.807468 28.517378
-12.904328 3.3971343 28.657694
-11.781446 4.3195109 28.649387
-2.5760117 5.0108542 28.672461
-9.4197998 4.7828302 28.760468
-9.4117279 4.974288 28.727409
-17.4741 6.3683777 28.750637
-17.919653 8.5518093 28.717756
-10.401546 11.258603 28.785007
-14.59428 12.05691 28.747305
-9.4352245 4.9151306 28.822388
-9.4400587 5.1755724 28.841248
-10.911068 5.4372711 28.837322
-9.048398 6.3110533 28.895092
-13.113363 2.9064512 28.902441
-5.0312252 3.0564008 28.900053
-7.4495945 7.8905182 28.935369
-2.1395307 5.626615 29.036968
-4.382062 9.6178322 29.034563
-2.166842 5.6286693 29.136795
-5.9211283 10.663533 29.117208
-8.1579409 2.8930087 29.258722
-10.647193 6.1249113 29.201874
-17.446384 10.001248 29.257936
-15.826534 11.496252 29.240158
-11.219745 3.8215086 29.390999
-8.8758898 6.3336802 29.506157
-4.1500645 3.3904347 29.624889
-9.9481783 10.593453 29.643534
-16.074423 11.186399 29.607624
-12.276289 2.5405903 29.752159
-10.598737 4.4348965 29.793575
-9.8560572 11.410064 29.779541
-4.574883 3.2525473 29.824379
-3.3366032 4.4998136 29.864067
-7.935751 7.5923643 29.832127
-17.208261 10.016588 29.842192
-15.082843 2.4135094 29.90443
-8.1325817 2.7023141 29.908092
-6.8216071 2.6977365 30.05468
-16.430725 4.3001318 30.087753
-10.078915 7.4635992 30.028061
-9.5345545 5.5228543 30.146912
-2.3746841 5.8944521 30.334457
-17.238161 6.1210423 30.385733
-17.44335 7.8230314 30.325249
-6.6044903 10.206141 30.310385
-9.6926556 4.2560043 30.431362
-8.7522259 6.5976777 30.528553
-2.9082854 8.2466946 30.534851
-16.060026 3.457108 30.645851
-10.32133 3.5643206 30.637203
-2.5893712 6.2824683 30.674194
-8.8322048 6.5071011 30.607935
-15.70644 10.65403 30.693571
-9.7317314 7.6010737 30.729383
-10.452937 2.6845713 30.827549
-10.436832 11.131706 30.806776
-9.3731422 9.598793 30.917597
-14.710012 10.870404 30.999306
-15.973156 10.25636 31.037777
-2.770503 6.6128554 31.14183
-16.803314 9.0707922 31.191296
-9.8660669 4.9248466 31.290487
-9.4890499 5.7444763 31.217157
-2.803365 6.6631413 31.233395
-9.3439751 8.5057392 31.295656
-9.3413248 8.748786 31.231091
-7.3809695 9.4296637 31.248434
-14.894068 10.631886 31.278629
-13.857277 1.1749688 31.305649
-3.2162414 5.0929699 31.406786
-2.796953 6.4464102 31.443333
-12.605249 0.94163275 31.546429
-15.955352 3.4950278 31.599495
-8.3153505 8.7545357 31.592178
-6.5290151 10.666189 31.542955
-17.092854 6.9118376 31.649418
-15.050316 10.267513 31.65431
-10.89427 10.803732 31.795296
-15.189039 1.6652741 31.829845
-6.3398328 10.555462 31.807339
-12.840002 0.75188655 31.933052
-10.829591 1.8982955 31.942831
-9.602293 3.0016308 31.928951
-7.6967678 9.8315487 31.937639
-7.3903327 10.246562 32.044853
-6.0780044 10.408228 32.087757
-13.89917 0.91178942 32.162365
-12.60985 0.62283653 32.276821
-8.899107 2.5618737 32.216949
-16.626841 7.8164005 32.201916
-15.990314 9.2360287 32.377342
-8.4972401 9.4121456 32.448956
-7.8220129 2.335814 32.517139
-9.6624174 4.2905216 32.505466
-3.9655604 9.2319984 32.574047
-8.1992931 10.715512 32.569168
-11.29636 1.2530638 32.639671
-8.3174314 2.2162623 32.799736
-13.680983 10.270121 32.738785
-13.157364 0.60341215 32.821423
-5.5763273 3.1073921 32.829769
-15.056721 9.4575291 32.941708
-6.0847158 10.351994 32.933895
-5.1572237 3.3486509 33.054268
-4.7208233 3.5681248 33.078442
-15.76092 9.0010395 33.07169
-8.5862694 2.2534211 33.156986
-6.8785076 2.5289674 33.181011
-14.297949 9.7625208 33.184723
-9.5119658 10.787301 33.185856
-7.214293 2.42697 33.261799
-16.372566 7.3566313 33.221054
-3.2002039 7.5409451 33.267632
-5.8766208 3.0463192 33.407047
-9.5157413 3.4197235 33.405907
-2.8313446 6.579484 33.480549
-13.363891 10.147853 33.459377
-13.151525 0.43845588 33.504959
-6.3157072 2.8513629 33.553524
-3.8991377 6.394958 33.537209
-9.5283918 2.8978214 33.667244
-3.9166119 5.3158312 33.651131
-16.583027 6.0989323 33.656067
-3.3939009 8.42869 33.606152
-6.662714 2.7026544 33.704704
-15.787443 3.6305327 33.740154
-3.786983 5.308219 33.773258
-3.7286625 5.526721 33.778831
-2.6369514 6.0893521 33.764511
-2.4256263 6.0157185 33.797905
-5.2607565 9.8995314 33.783127
-8.4717016 10.774992 33.792419
-10.605112 1.1466143 33.821735
-12.103907 10.325708 33.888107
-7.6702175 10.846228 33.807274
-8.1794605 10.725757 33.982933
-7.2428856 10.859282 33.915012
-10.893394 0.95191991 34.012287
-15.888247 8.0495472 34.080097
-3.8165512 5.5052729 34.19883
-5.9834156 10.235312 34.199947
-6.1279669 2.9932036 34.221207
-4.151979 5.5842042 34.297768
-2.5837326 6.629138 34.252563
-4.6765223 3.7876077 34.388992
-15.892402 4.065454 34.385529
-15.991845 4.3255706 34.385429
-2.6977484 6.1885095 34.325008
-3.1140046 5.516799 34.573685
-16.185329 6.4134517 34.575954
-16.084412 6.7904291 34.549847
-4.0121379 5.3604512 34.693256
-3.6052022 6.0511942 34.691948
-3.4580941 5.3210645 34.82893
-3.6921506 5.6975594 34.88847
-3.9208055 5.7300358 34.866039
-3.3002093 6.7696733 34.845203
-3.1071823 7.0108109 34.83197
-14.634186 0.80442059 34.952217
-3.5056553 6.0484772 34.912346
-3.5552578 6.6953497 34.978817
-3.712615 7.0195508 34.953415
-3.8676305 6.027143 35.024788
-15.62619 3.5668917 35.110737
-4.4918714 5.9006906 35.145172
-3.965492 5.9690046 35.109241
-3.9565132 9.1859274 35.164326
-4.5108027 5.78302 35.261711
-3.8224421 5.8994613 35.278534
-3.5336032 5.9104652 35.268864
-4.4205379 6.0668845 35.27396
-3.9168284 6.0327744 35.264427
-4.3235235 6.2161093 35.217159
-3.6498685 6.6438165 35.286198
-3.6343129 5.7238574 35.399639
-13.348425 0.82081968 35.477383
-16.143227 5.4103427 35.487724
-3.2957509 5.6123505 35.525814
-6.4877315 10.428708 35.558712
-9.3206758 1.6017802 35.604542
-11.257734 1.0866581 35.747589
-4.2006011 5.4186568 35.740341
-4.3571172 5.5326934 35.737503
-3.0233045 5.9830651 35.757782
-3.6322715 6.7986355 35.787987
-4.0773888 9.0885487 35.74139
-4.2304659 5.4262061 35.816948
-11.28815 1.1164551 35.989449
-3.8131056 4.4699497 35.936398
-4.7733092 4.565711 35.996964
-4.2618008 5.2152042 35.977905
-6.9210892 1.6768019 36.0438
-6.4326444 2.0392323 36.0438
-4.2832618 4.5500932 36.076183
-3.9926655 5.1091938 36.023792
-2.9536138 6.2923174 36.016083
-8.2992363 1.771754 36.212128
-6.6172261 2.2494278 36.231552
-4.5505939 6.1791992 36.29353
-3.0603859 6.1621757 36.231941
-4.4918175 6.2511263 36.203308
-3.6291432 7.150671 36.253628
-4.2438607 4.3319559 36.489223
-4.9891644 4.6903343 36.422867
-3.6381385 5.2649984 36.448662
-4.1311426 7.1796637 36.484589
-3.6899412 7.1669626 36.419819
-4.0581989 5.3737102 36.535854
-4.6821494 5.7344356 36.59996
-3.0764015 6.948925 36.569847
-3.7551041 7.0234032 36.640446
-6.3912988 2.2452202 36.767838
-3.3084993 5.7470589 36.725357
-4.1196594 6.9753394 36.732918
-4.1321745 8.3706312 36.767155
-4.1556416 5.2891016 36.856575
-3.4369764 6.4951224 36.813206
-14.801064 1.729676 36.941475
-6.6587062 2.1083233 36.92688
-4.4662485 4.5872087 36.924686
-11.629932 9.2786484 36.901237
-10.34726 9.4689503 36.966736
-15.426868 3.5658321 37.018227
-5.0873146 4.7541313 37.067673
-3.128526 6.2338462 37.067085
-13.029027 8.7689991 37.008167
-3.4058611 6.6513348 37.113174
-9.9576855 9.5920734 37.170403
-8.8781033 1.3194535 37.216286
-4.2299447 4.5358076 37.256069
-13.314137 8.476203 37.289024
-9.0397148 1.2754569 37.347557
-7.7548246 1.3590457 37.380291
-4.8989158 5.7266216 37.353466
-14.930457 7.3321214 37.340847
-13.490383 0.9768483 37.482452
-8.2283831 1.6699107 37.463928
-6.7890625 2.6611252 37.431
-5.0902128 3.83374 37.422699
-4.167275 5.1998587 37.42094
-9.3229942 9.8015118 37.426308
-4.8922963 2.4159479 37.594307
-4.5921893 4.6992626 37.581089
-10.219843 9.4501572 37.540237
-6.2741637 10.22847 37.585327
-5.0705409 3.3926551 37.615505
-3.9919307 5.0501237 37.650646
-13.903172 7.892704 37.63443
-11.861533 8.9742241 37.625229
-10.509199 9.3234844 37.691261
-8.467329 10.10109 37.623497
-7.9866447 1.788419 37.77507
-5.6409464 2.829931 37.917404
-5.984374 3.229949 37.933388
-4.5113387 5.48209 37.914799
-3.6115696 6.5808272 37.967072
-3.7720671 7.0332985 37.989082
-14.404955 7.3918486 37.933678
-14.242096 7.5167427 37.907883
-6.9811592 10.438835 37.937408
-12.663085 1.1192895 38.046356
-10.365209 1.3562739 38.011665
-5.6484504 3.0016303 38.091267
-5.8710947 3.1301737 38.01886
-5.1229677 3.3430085 38.042587
-8.0681925 1.8286827 38.195438
-4.154357 4.4387703 38.133446
-4.7734332 5.2270103 38.18919
-4.6108389 6.679667 38.120193
-8.7969828 9.9128761 38.172386
-4.7524343 2.1533527 38.203186
-5.5451317 2.9419813 38.237835
-5.1094093 3.5150323 38.256943
-10.024744 1.3461347 38.35973
-4.0761294 1.9566386 38.335182
-4.9694633 3.702903 38.323483
-4.9715443 4.9066539 38.311966
-4.4121666 7.0425072 38.387192
-4.6839614 8.3188782 38.364929
-4.9027758 3.1653838 38.427628
-6.169188 4.0766973 38.428341
-5.2632732 4.199491 38.425728
-6.0024309 4.3833942 38.466682
-5.046186 6.0275235 38.427952
-4.3747282 6.7110748 38.489708
-7.7406249 10.282797 38.41531
-7.6412649 1.7097641 38.574814
-9.5519772 0.64498049 38.646004
-10.045652 1.3278072 38.601177
-4.636807 2.6892195 38.601448
-6.00735 2.9269998 38.692936
-5.7012048 3.0320926 38.660591
-5.8960609 3.157707 38.691711
-4.8279552 3.8166766 38.669838
-4.9132862 4.4525146 38.601364
-4.4195366 5.238492 38.628181
-5.2015843 5.8253775 38.672958
-14.121984 7.1877918 38.686325
-10.201841 0.60837853 38.726875
-14.487808 1.0804737 38.782013
-14.980732 2.110497 38.734715
-5.2639532 4.5287352 38.79491
-4.8701277 5.0431061 38.741802
-4.6539826 7.4252758 38.770107
-5.6834059 10.093016 38.784912
-7.4655638 0.77664059 38.848557
-15.210336 1.6574978 38.875393
-15.175425 2.013387 38.809189
-6.4614315 2.8209741 38.838802
-3.8016956 5.4710526 38.877895
-3.4512513 7.974659 38.835762
-11.552744 8.5487423 38.807556
-4.0927658 8.6736193 38.890717
-4.5848951 9.1763763 38.844669
-9.5339603 10.904069 38.871796
-6.0986371 1.7680421 38.926407
-15.600289 3.052423 38.974319
-3.20818 7.7876534 38.97538
-4.0716724 9.1173697 38.920345
-10.542271 1.1292884 39.086357
-5.2346692 5.9011621 39.03231
-4.0627947 7.8211546 39.045906
-10.510757 8.9297953 39.026081
-8.6522808 1.6673875 39.121803
-4.8286128 2.178277 39.128361
-7.1379709 2.4625998 39.171413
-5.6420517 2.9979372 39.179817
-4.7480249 6.7863846 39.16016
-4.1048307 6.8308306 39.193283
-4.6815186 7.478653 39.197643
-5.2467213 7.7972527 39.162907
-11.059741 9.6153727 39.188576
-14.52352 0.030964717 39.285011
-7.8647394 2.0373411 39.263718
-14.958887 4.4984417 39.298576
-3.8163385 5.773787 39.286713
-4.4264603 5.9187746 39.233765
-4.5285597 6.2582884 39.286789
-4.438518 6.4956231 39.269535
-3.5399456 7.5122614 39.246696
-11.74288 0.21107298 39.327026
-5.7934179 1.8498256 39.328178
-15.738158 3.4009318 39.32658
-5.8302922 4.9843822 39.379246
-3.7836902 5.1270027 39.394444
-12.547384 9.3762999 39.375774
-14.667875 0.46685407 39.420898
-14.382786 1.2104303 39.448544
-6.9247518 1.6668495 39.428951
-7.147181 2.4969735 39.458435
-15.022829 3.0206549 39.499676
-6.3195324 3.3890855 39.462193
-15.022326 4.3418813 39.489483
-14.760544 4.9436712 39.44416
-5.2211695 6.0760236 39.489845
-5.1653104 6.1756787 39.498634
-7.3975234 10.767092 39.462437
-4.711524 1.5236814 39.556046
-5.578196 2.8731656 39.591423
-5.9040694 4.9251366 39.586277
-14.425514 5.8178225 39.525131
-15.094782 1.7495599 39.610535
-6.4461823 1.734871 39.619301
-4.6142364 4.5120354 39.649891
-13.346889 7.0600328 39.610405
-13.688894 8.6234474 39.602863
-5.744729 1.181434 39.790501
-6.2530656 1.7670193 39.735207
-3.9145036 2.8801863 39.719128
-5.1252408 6.3200798 39.725143
-4.4373174 7.358716 39.72493
-14.334431 7.9522262 39.767258
-14.435697 8.1224117 39.752674
-6.3653851 1.01539 39.800743
-5.4619055 3.1158094 39.867283
-3.8917055 3.1310389 39.808807
-6.3520846 3.4078803 39.80452
-4.6997423 7.0207648 39.843712
-10.637496 0.36741528 39.910286
-5.9225483 1.8152254 39.935844
-15.279501 2.4399056 39.909622
-5.7710648 3.0724204 39.908092
-6.5995736 3.5507648 39.960503
-6.9435711 1.7370871 40.014561
-5.8628335 3.1254036 40.022625
-6.2245035 3.3342185 40.00721
-4.9134784 4.1480689 40.01778
-4.983047 6.6843023 40.081341
-13.411791 0.27849728 40.187607
-6.908855 1.6075203 40.156586
-4.6698475 4.6562505 40.123413
-5.1545596 6.1202183 40.132687
-13.200323 9.4417248 40.196819
-9.880949 0.75251436 40.216881
-5.0600348 3.0419531 40.249153
-15.668055 5.093091 40.279449
-5.0992351 6.1355929 40.230991
-4.599947 7.296896 40.250931
-14.280567 0.24021441 40.378078
-5.5592279 1.2672007 40.321785
-14.79104 1.3577844 40.352127
-3.891583 2.5680387 40.303238
-3.8328757 8.5884523 40.38459
-5.1135545 10.053085 40.38932
-5.6983385 10.322963 40.363674
-4.2098112 7.5679541 40.400963
-11.304848 10.058141 40.468018
-10.932863 0.36939663 40.511513
-7.1177936 2.3872981 40.569046
-6.0156479 4.2625523 40.527924
-3.6562431 6.5169692 40.531349
-3.6188588 6.6232214 40.5429
-7.3345618 10.682425 40.589737
-9.3606586 1.2962575 40.645313
-5.8908038 3.2173812 40.665489
-5.7252307 3.3639605 40.618217
-15.730362 4.1376119 40.662025
-11.634495 0.3078188 40.792858
-5.5637727 1.2858355 40.756058
-8.1983643 1.6434872 40.717346
-15.345537 7.9106779 40.755245
-11.599057 9.9076109 40.785931
-5.3359489 10.18155 40.758339
-9.2218533 0.67532235 40.884537
-4.0717363 7.1896725 40.85128
-14.34477 0.55053866 40.943977
-3.8791745 2.0043442 40.964924
-4.8451514 7.1566596 40.963894
-4.4914637 9.5412912 40.97723
-4.5467672 6.8887753 41.064705
-3.8297408 2.4406586 41.253548
-11.194559 10.019258 41.264957
-9.346508 0.705823 41.389626
-14.408633 0.98495084 41.381702
-15.308962 7.481256 41.325558
-3.7628903 3.1729431 41.402542
-15.342235 6.9128971 41.451672
-5.9960337 10.286189 41.425728
-3.8075452 2.1741741 41.787857
-15.637468 5.128262 41.74308
-3.4544704 6.4739804 41.914162
-5.4743209 1.4276711 42.043442
-15.574914 5.4489608 42.062012
-5.9568224 10.211586 42.005939
-6.3596268 10.319822 42.010925
-15.122367 3.316457 42.139648
-15.431322 6.2475514 42.122765
-10.447114 10.224684 42.141621
-6.2370954 1.1451747 42.207764
-14.599423 8.8351002 42.290573
-3.9903724 8.0376749 42.352386
-12.274537 9.9625568 42.323284
-15.14694 7.8092194 42.457527
-5.3214359 10.023219 42.404316
-13.856859 0.69295591 42.791386
-6.0418653 1.2397838 42.746468
-3.5393066 4.7514958 42.789551
-9.7493143 10.406535 42.853191
-15.381501 6.4496026 42.950596
-15.214748 7.3870573 42.913124
-11.13554 10.173485 42.939728
-7.325489 0.93604147 43.159904
-6.2439184 1.2139313 43.108238
-12.212437 0.58082592 43.350853
-12.855675 0.66635144 43.511482
-9.7207394 10.493442 43.524673
-3.5309451 3.9027824 43.606064
-5.2728758 9.9846001 43.792526
-11.622737 10.138558 43.870667
-6.4412403 10.365578 43.811928
-13.020328 9.7056246 43.99157
-15.090273 7.3207335 44.053703
-5.1886969 9.9725609 44.00222
-8.2660418 0.77207774 44.20105
-8.6557665 0.67181194 44.320747
-4.4036198 1.7679582 44.394676
-3.5823832 2.4779575 44.380924
-14.919996 7.9563112 44.325867
-15.144762 4.2719207 44.409252
-3.3421297 5.0058017 44.412964
-14.31863 8.84377 44.47356
-8.490942 10.673448 44.477131
-8.2797842 0.76014167 44.592033
-11.372751 10.272991 44.610962
-9.0171804 10.665267 44.658657
-3.5296075 2.5157106 44.7747
-14.73863 3.3883715 44.767052
-5.0733056 9.9895191 44.719883
-14.768922 3.5243416 44.897362
-15.140582 4.399116 44.839241
-3.1488488 6.4409308 44.837467
-15.297598 5.5747881 45.066174
-13.273293 0.90526503 45.11385
-3.494046 2.3384657 45.190166
-15.163957 6.2125044 45.109886
-4.7754884 9.8733406 45.181511
-5.9915767 1.4380064 45.254333
-3.3013616 7.1838303 45.225426
-3.1060193 6.3092766 45.349613
-9.4255695 10.680532 45.321255
-15.278568 4.8694596 45.420006
-3.1702969 5.4426517 45.477898
-3.0338058 6.6042027 45.870655
-10.494464 10.484227 45.843185
-6.9621706 1.0723398 45.973053
-14.901913 4.0638633 45.95789
-14.892485 7.0282221 46.036411
-13.545395 9.2055607 46.096825
-4.6791315 9.7519855 46.076748
-4.4089646 9.2717638 46.136311
-3.8425703 8.366931 46.209602
-4.690908 9.7830324 46.244801
-7.6975498 10.954262 46.215157
-8.6402664 10.82618 46.398766
-6.6938233 2.3323328 46.426113
-5.7302475 10.317544 46.590275
-13.466789 9.3145351 46.748886
-15.047796 5.7355156 46.8778
-5.9156499 10.390896 46.81216
-12.721117 0.87195778 46.9939
-13.345646 9.4244108 46.912445
-10.684361 0.68325216 47.097733
-5.3849244 1.5716444 47.016724
-15.219133 4.6863708 47.018028
-6.4593244 10.621769 47.037846
-14.796042 6.7454214 47.165733
-8.4419947 10.842071 47.13448
-3.2327595 2.3132138 47.296837
-6.0158501 1.3750508 47.38451
-20.990625 6.5482264 47.391476
-4.4906611 1.7576904 47.414902
-7.1484632 10.910395 47.432175
-13.629089 0.91354525 47.558018
-23.135708 7.4859982 47.614483
-14.62469 8.0048885 47.671894
-6.7482686 10.727448 47.61644
-8.4516144 10.805902 47.612022
-21.550871 4.9450064 47.706478
-21.317234 5.7406602 47.87516
-13.90007 9.017765 47.994793
-4.4841819 1.7364094 48.001228
-3.0186384 3.9240561 48.096329
-20.881001 4.469295 48.082783
-20.469036 5.9185371 48.077587
-15.059566 5.1912894 48.172894
-20.80632 6.0003438 48.19096
-24.115112 7.190774 48.178375
-11.201691 0.7043255 48.294846
-15.010246 4.2687445 48.346714
-19.596004 4.8076305 48.367966
-4.3410416 9.8731346 48.369469
-3.100584 2.0828803 48.487221
-14.794755 3.8667858 48.42598
-20.294186 7.3385 48.427853
-7.4320784 0.8595565 48.585285
-2.889282 4.0308833 48.538864
-13.66771 9.2530918 48.576832
-18.367107 5.405086 48.651253
-11.490307 10.266647 48.665726
-22.724949 8.3763657 48.702801
-14.249605 2.8356183 48.85038
-15.116579 4.1710587 48.81768
-18.551121 4.6520057 48.976799
-22.343052 5.4347234 48.981544
-2.8995128 6.7811127 48.909309
-12.97257 9.6947947 48.947716
-7.3908539 10.866493 48.923672
-13.753267 1.5613258 49.070713
-14.901302 3.6249394 49.02438
-18.434654 4.5759869 49.084816
-15.242337 5.172049 49.098564
-23.94738 9.346221 49.029663
-14.703798 3.9308279 49.127567
-18.869228 4.1647725 49.127792
-2.8534904 6.772337 49.125633
-2.9953344 7.0947552 49.153778
-10.731755 0.66946095 49.260864
-21.059732 4.7982011 49.214119
-21.034084 7.5704737 49.275276
-10.398315 10.371414 49.294106
-11.457128 1.0248864 49.305416
-14.049181 1.6333221 49.325592
-18.807159 3.9315681 49.310112
-21.168854 4.6219063 49.386505
-17.67445 5.574605 49.369217
-24.221865 9.0998325 49.357758
-23.051231 9.2754526 49.363632
-6.6653857 10.836282 49.388443
-13.443345 0.87916523 49.458496
-6.2139478 1.2000684 49.470432
-15.307916 4.8245435 49.426117
-14.9946 7.5519676 49.465179
-13.727577 1.0037259 49.549717
-22.292606 3.9359593 49.58297
-22.387596 4.0019569 49.558002
-2.9219995 7.098083 49.539215
-8.536252 0.57908922 49.665909
-17.298006 5.5183778 49.657246
-9.3052473 10.501575 49.68998
-11.493538 0.70650136 49.785362
-11.926227 1.5353336 49.708332
-2.954977 7.2597222 49.74968
-20.383821 7.4984641 49.794395
-24.906067 7.7082744 49.739464
-9.1622992 10.516086 49.783348
-8.2890348 10.653 49.785
-13.622361 1.0380812 49.851151
-13.70075 3.0373435 49.891464
-15.187712 6.9149332 49.852299
-9.9241629 10.3948 49.829666
-0.72035187 14.408016 49.877075
-15.268509 6.5447097 49.947922
-11.929883 10.091612 49.995251
-9.1286678 10.503031 49.999344
-12.211145 1.851254 50.080349
-18.225414 7.1803794 50.067383
-24.41737 9.6434145 50.05407
-8.2727718 10.634076 50.038036
-11.328125 0.7010076 50.134205
-12.830914 0.8510989 50.163807
-6.7718234 0.96761882 50.192619
-3.5364218 8.9294548 50.185299
-14.63764 2.7485268 50.273499
-2.136755 4.5559139 50.296825
-15.390547 5.314487 50.24115
-2.8244016 7.3078885 50.286209
-6.4375992 1.0653642 50.319183
-22.877834 5.0006509 50.330677
-15.362732 5.9931622 50.332603
-17.435131 6.6051035 50.303543
-17.967037 7.2370954 50.369862
-3.8372223 9.7704449 50.347107
-1.3679458 15.967052 50.312782
-11.334045 0.70343381 50.449265
-6.852921 0.92803574 50.487553
-14.198696 3.3679214 50.435104
-5.5006533 1.3481451 50.555882
-12.032853 1.6861583 50.552269
-17.121595 6.4789858 50.507412
-1.0007771 14.899357 50.559319
-2.1694641 16.236252 50.560738
-7.2922106 0.80531865 50.654404
-12.317924 1.018399 50.603493
-16.725967 6.1763687 50.661339
-19.924046 7.818634 50.644051
-13.138699 9.7829475 50.674252
-1.2316682 12.973509 50.68293
-2.2691193 13.41679 50.696472
0.26631951 14.635732 50.631577
-8.7720623 0.60241234 50.717743
-19.73229 3.209631 50.702942
-3.0688105 8.2270594 50.726879
-6.7225599 10.797338 50.739349
-1.7475665 15.073418 50.735031
-14.942845 3.8561766 50.861198
0.34165266 13.842421 50.831772
-15.502419 5.0863256 50.958054
-1.8434658 5.6071978 50.9594
-1.9156651 14.711568 50.964249
0.60494035 15.079504 50.945419
-11.17299 10.114608 51.026295
-0.45958966 11.37175 51.054863
-0.34620214 14.594645 51.017147
-1.1449953 14.83952 51.094872
-0.44412899 15.528421 51.098534
-10.896593 0.68879491 51.120659
-9.7355995 0.64493048 51.146461
-14.944752 4.6264496 51.197712
-3.1320052 8.7211857 51.17704
-10.185264 10.248498 51.116039
-1.7990712 12.319917 51.141373
0.58737046 13.520678 51.155117
-1.9491826 5.99299 51.2416
-20.51668 7.8138962 51.246704
-22.832577 10.925347 51.260548
-0.57116163 11.087222 51.201599
-1.1548221 14.775608 51.230968
-14.663877 4.515964 51.34903
-22.781796 5.9419155 51.361565
-24.656059 7.6569076 51.337376
-7.0856838 10.717833 51.319859
-13.927906 1.5512409 51.40485
-4.7326145 1.5260845 51.475468
-18.267483 2.8165274 51.477249
-17.309261 7.7512546 51.477489
-20.353142 7.9579573 51.497093
0.11837637 14.654795 51.434891
-7.0847092 0.85017592 51.514839
-14.546998 2.2647872 51.513512
-12.299325 2.2118924 51.576736
-21.898657 6.832468 51.564388
-20.516087 7.8432941 51.530914
-19.832016 8.2029171 51.538883
-3.7368288 10.481243 51.592945
-3.2419972 13.239096 51.533974
0.91610038 13.599495 51.50024
-2.2730966 13.813693 51.517281
0.38884005 14.170029 51.580318
-1.6532292 15.17136 51.51936
-13.460572 9.62887 51.653751
0.08313261 11.11764 51.639988
-23.213943 11.592944 51.605949
-23.970379 12.316527 51.673889
-2.0532684 12.965866 51.668945
-2.2932107 13.529106 51.626469
-2.5201652 14.037908 51.626541
-5.9743381 1.151013 51.762936
-2.7905545 2.726222 51.751549
-17.3841 7.9398518 51.75071
-3.0091894 8.2178822 51.732826
-14.852574 9.2600031 51.748005
-1.9265766 10.879957 51.735535
-1.7446481 14.276535 51.717018
-2.7517643 14.873957 51.774582
-5.8879685 17.279234 51.796642
-3.3569541 2.2625685 51.816704
-19.914284 7.9164062 51.837521
-1.0455841 9.9248867 51.807331
-1.2730238 10.039736 51.839355
-3.1606627 12.515095 51.812729
-3.1688154 14.663975 51.885044
-11.442561 1.2306504 51.905163
-12.686838 2.3647439 51.917725
-17.342077 2.576282 51.940422
-14.142065 3.187757 51.921082
-1.3044345 9.7989807 51.941647
-3.5534275 10.114184 51.945515
-2.6451964 13.225957 51.984367
-5.7864385 17.61315 51.921925
-12.574368 2.2825661 52.083134
-18.822746 2.7335923 52.036209
-13.799226 2.7767851 52.020145
-17.277559 8.1438484 52.073364
-21.874041 10.29841 52.085751
-7.5986786 10.576269 52.040878
-4.8202062 10.770893 52.092892
-22.7463 11.620319 52.097786
-3.094558 11.865504 52.095856
-4.9893184 17.866783 52.038223
-13.189869 2.6217902 52.137604
-20.95554 5.4925838 52.100639
-24.891991 9.1978407 52.147327
-14.229204 9.3926411 52.158962
-11.964232 9.9097204 52.167957
-6.3479114 10.688901 52.167267
-2.3941548 15.167865 52.158859
-20.075607 7.440124 52.204353
-23.250984 8.1614904 52.29459
-2.467458 9.9891987 52.254868
-4.8536077 10.685632 52.230026
-4.6827178 10.676121 52.252029
0.91012859 11.852268 52.288193
-2.9509771 12.866508 52.254559
-4.024271 12.929022 52.299221
-3.2371359 13.608795 52.230385
-3.4415154 14.534353 52.215229
-4.2097173 15.222787 52.256531
-10.259733 10.097647 52.353188
-9.7456741 10.194289 52.303932
-24.479712 12.096659 52.357414
-6.2646976 1.0857369 52.439594
-4.1857729 1.6504149 52.461403
-1.8138151 6.3891673 52.422661
-22.9953 8.6669693 52.455223
-6.7942662 10.513054 52.471062
-3.0190864 10.533326 52.463394
-3.6901085 15.323857 52.45821
-7.1550703 0.85761201 52.549698
-2.1256754 3.3592508 52.59623
-17.529671 8.5182047 52.550751
-22.344095 9.6936264 52.503002
0.94916034 12.114544 52.575115
-2.6003642 14.236933 52.584843
-13.685617 2.2749076 52.642822
-21.362278 6.3910303 52.634079
-21.272787 6.3701658 52.650452
-15.738726 8.0823612 52.62326
-24.16647 8.6017962 52.619633
-9.0726919 10.157507 52.611904
-7.1459255 10.417236 52.647644
-2.2246387 14.134686 52.638699
-4.5412049 14.840921 52.628071
-6.3896837 17.863098 52.661285
-4.1162152 15.386488 52.711185
-0.012136385 15.344358 52.728485
-0.0026374012 15.650681 52.784065
-0.99917537 17.627823 52.771049
-7.2343287 10.302639 52.87112
0.91695583 10.927498 52.888584
-7.1107087 16.105455 52.853493
-11.989117 1.2230737 52.926437
-1.4564095 7.0052824 52.965664
0.62433863 9.6771212 52.940525
-3.7239015 14.389772 52.979675
-6.7421551 1.1666771 53.024094
-5.1779804 1.5489938 53.031357
0.7918129 9.9891653 53.000008
-4.7259994 10.161674 53.085487
-7.8733945 0.80227202 53.180874
-0.80710715 5.2038603 53.134262
-20.571924 6.1290073 53.130653
-11.395553 9.5196152 53.176743
-21.911001 11.100769 53.178696
-21.832859 11.213753 53.166855
0.93499571 12.768301 53.110779
-3.7415483 12.940938 53.174774
-4.9818316 15.467832 53.257462
-13.558351 1.7944617 53.335812
-18.820847 3.7987528 53.302246
-16.653679 7.835515 53.390327
-1.2253305 14.14902 53.351841
-1.8243029 14.717586 53.313644
-17.196997 2.3900423 53.434559
-4.4582405 9.9326916 53.467491
-2.5435061 13.982639 53.461143
-5.5331602 15.084265 53.406471
-3.5618739 15.075999 53.480644
-4.7053618 18.406706 53.474995
-6.8911247 1.0030198 53.575531
-14.191029 1.9149202 53.549065
-17.178925 7.5422368 53.553703
-14.05267 8.7428894 53.513763
-8.075573 9.8918362 53.539192
-1.6514283 13.762354 53.507286
-24.702343 10.856661 53.696777
0.91515326 12.982141 53.623684
-2.3098395 13.883898 53.622414
-12.821577 1.6760783 53.780411
-14.185891 1.883163 53.749195
-14.547859 1.9800243 53.704754
-17.668118 7.1605835 53.736275
-12.051022 9.098877 53.792389
-4.0365882 11.367247 53.714905
-1.8406119 13.736772 53.760315
-3.1114819 14.026573 53.781891
-5.177351 15.345984 53.722267
-2.0733132 17.583794 53.707428
-21.983177 12.0087 53.885376
-2.7316086 13.931845 53.804901
-4.1873198 15.128551 53.818668
-0.88768029 15.666542 53.894199
-9.2899094 17.822563 53.849869
-7.8831158 18.089449 53.892349
-0.66779238 5.8077536 53.901455
-16.689411 7.1579962 53.924175
-24.095942 14.353916 53.926102
-11.171846 1.1126546 54.001663
-3.3197391 2.3620112 54.078491
0.83130741 8.4847689 54.065231
-23.574738 10.339163 54.051186
-24.886015 11.883706 54.014435
-0.45963821 13.583532 54.036396
-0.90169883 14.654429 54.027397
-7.4084392 15.039126 54.015549
-9.8790131 15.304008 54.079838
-5.6906996 15.437466 54.049179
-8.6414499 15.595277 54.02784
-9.5997066 15.798185 54.045063
-1.0741358 16.029392 54.027817
-9.7321854 17.801643 54.001446
-7.2324743 18.227505 54.04866
-13.618284 8.442976 54.177261
-23.948643 10.497135 54.120224
-10.051226 15.602213 54.187386
-12.845125 2.1131792 54.263878
0.84805882 10.021283 54.281292
0.160312 13.809093 54.215553
-0.030900329 14.061731 54.20443
-3.9518449 14.943644 54.291641
-4.2997518 15.046209 54.213097
-1.1427917 15.071131 54.233429
-3.3566921 16.179699 54.237713
-3.1438925 16.512608 54.299854
-11.826332 1.6947811 54.380127
-2.051147 3.317951 54.344543
-3.0401278 13.809301 54.343052
-1.1090772 14.580366 54.301643
-2.5992532 14.609184 54.363281
-4.8631506 15.143497 54.336021
-1.4907501 15.341745 54.342953
-10.119159 15.593274 54.361279
-2.1341927 15.60412 54.30946
-10.476109 16.480368 54.347599
-18.024372 6.0380583 54.454624
0.82246286 8.6274529 54.444534
-22.728266 11.773239 54.487473
-22.596966 11.830509 54.40004
-3.0037394 13.629361 54.478981
-24.536606 13.814468 54.430035
-5.6441617 15.286419 54.477139
-8.8494072 18.109909 54.418133
-16.809179 3.0710306 54.564201
-0.67281252 4.8953266 54.531181
-7.2020655 9.3458214 54.568413
-23.962805 11.067716 54.582489
-0.13183513 13.546535 54.513969
-3.9104018 14.01466 54.501015
-6.0595093 14.49293 54.580391
-2.2197731 14.469198 54.551128
-6.2891951 14.566229 54.50824
-10.906921 17.684872 54.56139
-10.897701 8.8236141 54.67733
-1.0151691 13.988103 54.602348
-1.2214481 14.157574 54.646038
-14.814203 17.994621 54.635902
-14.038881 18.580563 54.673744
-10.884451 1.1335108 54.74337
-17.391706 5.9921145 54.75827
0.83327287 9.870369 54.713974
-3.6335835 10.307346 54.796326
0.35476065 12.211164 54.789471
-3.1522918 13.766638 54.761314
-4.9538903 14.181991 54.775444
-9.9109402 16.373203 54.717892
-7.5456748 18.010197 54.779129
-7.9612341 1.0551622 54.872787
-11.241982 1.2777267 54.834644
-10.566829 1.2108216 54.857651
-6.2222691 1.4931622 54.86375
-13.798508 1.9840715 54.813053
-12.253228 2.18611 54.807823
0.46885613 7.4371533 54.877819
-6.9085007 9.1164579 54.887817
-22.575525 12.514718 54.826393
-0.11210404 12.862658 54.855789
-4.2159882 13.986865 54.86055
-4.4505243 14.912425 54.826946
-11.354247 17.75252 54.860851
-13.921348 18.589556 54.848137
-8.0412216 1.0596104 54.973267
-6.4674673 1.2785769 54.950859
-4.542304 1.884923 54.987938
-17.84042 5.1922936 54.954254
-6.5868025 9.0559959 54.911396
-8.7243576 9.1803684 54.938675
0.83978581 10.813303 54.976692
-3.0573294 12.582483 54.905563
-8.2295065 18.006279 54.981956
-7.948041 1.3812438 55.063141
-12.732533 1.844775 55.006416
-15.239222 2.3704388 55.060234
0.07636112 12.295299 55.064701
-24.634922 12.602611 55.071976
-6.6414814 14.492243 55.075188
-2.9559309 14.511089 55.021584
-12.293891 17.50309 55.013603
-0.61550367 12.677077 55.102631
-1.5413606 13.272082 55.196381
-24.505428 14.188347 55.104111
-4.127316 14.735743 55.195808
-12.784416 17.761101 55.155495
-8.9705505 1.2026508 55.247696
-11.614489 2.0878191 55.262997
-16.985941 4.5679631 55.214634
0.79822135 8.5334549 55.233276
-11.364786 16.31979 55.281181
-14.424646 17.933249 55.295296
-9.1100197 1.2219841 55.360954
-5.7467308 1.5009191 55.333794
-0.33231518 5.4398441 55.354675
-5.8536716 8.7472553 55.338219
-5.6944208 8.771328 55.305264
-23.419203 11.878635 55.330906
-5.8909769 14.22859 55.398739
-9.4577522 14.870122 55.300755
-10.201506 15.892578 55.376633
-5.4821439 1.5015954 55.461422
-16.333954 6.1608963 55.429329
-6.1244798 8.6979523 55.408981
-3.1149926 11.048953 55.410206
0.33842528 11.212625 55.414272
-2.884249 11.825341 55.491463
-2.6097314 13.120343 55.426479
-5.0147238 14.015226 55.433113
-6.0044789 14.242073 55.44574
-3.0307574 14.39916 55.491749
-7.6425781 15.484318 55.448277
-13.613254 16.190201 55.408619
-6.3861938 1.6010894 55.577801
-2.1732526 3.3613048 55.568348
-1.7524203 13.236955 55.502613
-9.1095438 16.009598 55.562782
-9.5092888 16.101833 55.565639
-12.542358 1.8741021 55.605019
-3.2005773 2.9809289 55.64735
-4.541955 8.4647465 55.694775
-1.3295307 12.072667 55.643585
-1.9152864 12.57699 55.610947
-2.5555754 13.373177 55.686821
-3.4492381 13.59124 55.650097
-6.2503295 15.101786 55.661034
-8.6549969 15.8513 55.636398
-13.114702 16.396175 55.625145
-9.3638439 17.728771 55.662201
-14.623299 18.261354 55.624229
-15.419632 3.6415038 55.740479
-16.346579 5.8651981 55.785225
-24.420225 13.227776 55.794106
-1.9287069 14.070674 55.753613
-3.1847 14.37751 55.700661
-10.842675 15.079435 55.711548
-13.903407 17.116291 55.732426
-14.604389 3.221482 55.881134
-15.524558 3.9733524 55.857975
-7.7488036 14.531936 55.867596
-9.9267187 14.83677 55.818718
-13.014171 15.883492 55.897343
-14.05448 16.631096 55.805073
-8.9048138 17.380543 55.889755
-12.176524 1.8218262 55.953651
-4.613893 2.5571592 55.935112
-1.5331273 4.4261732 55.979546
-11.634575 7.9578176 55.921692
0.36004493 9.8711987 55.926929
-1.8311988 14.007206 55.901836
-3.4954801 14.387944 55.925621
-12.246379 16.347281 55.948334
-2.207624 3.792625 56.090477
0.49049026 9.0391569 56.085266
-5.5344958 13.969806 56.037899
-2.3935251 14.107497 56.012939
-11.262008 15.721416 56.010155
-13.838881 16.489962 56.042641
-12.710432 2.047663 56.18306
-3.8044453 13.54359 56.123779
-23.478033 14.793268 56.186539
-14.150282 17.789473 56.135368
-7.7050114 2.1354458 56.252819
-12.77424 7.3001747 56.214653
-15.257426 18.343777 56.242397
-7.0960464 8.2555428 56.381123
-2.8500738 14.12141 56.348553
-3.5623965 14.287554 56.347145
-7.7889218 2.0705574 56.471428
-12.681665 2.373682 56.43763
-6.4094033 2.3023331 56.44635
-12.392827 7.0618997 56.479534
0.33273181 7.6800203 56.423012
-14.931376 16.817228 56.417477
-6.5669427 2.2159653 56.564297
-7.0095415 8.1251421 56.56665
-0.97674721 10.216695 56.596073
-24.092684 16.232792 56.598221
-12.931741 16.400391 56.592392
-14.793921 16.837643 56.57814
-13.52858 16.88604 56.513573
-13.970223 18.737095 56.599083
-6.7872543 2.0952051 56.611
-4.9678926 3.2535009 56.617943
-13.09477 3.4097404 56.682106
-4.5097146 3.5834146 56.691406
-13.255785 4.0444379 56.682152
-10.388094 7.7213335 56.64753
-4.7516646 13.874593 56.62714
-4.1852441 13.995963 56.615517
-5.4425459 14.640028 56.656273
-17.650023 16.443874 56.623093
-18.34848 17.168751 56.697758
-23.350029 17.480642 56.68829
-23.544466 18.553663 56.698174
-15.101299 18.639427 56.625252
-24.825703 18.748314 56.672314
-10.83245 7.3735642 56.741833
-4.5542002 8.1706934 56.704163
-14.493435 15.63873 56.766556
-15.37686 18.115986 56.733299
-7.6604338 2.1247299 56.80711
-0.49373272 7.9897637 56.826035
-5.513001 14.483089 56.856182
-13.716806 15.445257 56.812832
-19.702984 17.466284 56.84235
-13.1838 18.277649 56.875088
-27.019388 18.812746 56.838345
-26.606174 19.12133 56.854027
-15.195951 19.546017 56.835236
-10.714216 2.4902096 56.980217
-2.4393857 4.3567801 56.996552
-0.38083017 6.6544371 56.923481
-1.9503103 9.8907623 56.96196
-11.151974 14.808332 56.958557
-19.221916 17.555496 56.927128
-17.212589 17.51503 56.943893
-25.705835 18.144918 56.993023
-28.723663 19.02833 56.998554
-23.668785 19.14731 56.982433
-26.111923 19.241833 56.980686
-28.688997 19.58745 56.987362
-6.6012201 6.90767 57.011536
-9.5514374 8.2085752 57.093422
-1.4311368 9.1752806 57.094917
-12.985495 15.212328 57.040825
-8.6906796 15.297987 57.0121
-8.3911524 15.226673 57.01796
-24.170637 15.706958 57.048332
-13.447034 16.604078 57.071079
-17.455683 17.539049 57.063358
-19.144558 17.632757 57.024242
-14.435591 17.814121 57.042511
-26.772503 18.343008 57.090714
-15.380211 18.597673 57.054108
-26.704739 18.652943 57.043884
-16.181435 18.632669 57.025658
-25.745876 18.932737 57.067905
-12.581983 4.671258 57.184494
-3.2600327 8.8943119 57.172768
-14.255575 15.484624 57.125507
-25.636896 18.027666 57.147755
-22.632427 18.440948 57.175713
-27.618437 18.55419 57.161858
-27.29151 18.630558 57.19342
-29.558002 19.406492 57.169647
-26.798706 19.458406 57.159222
-26.779659 19.538776 57.191841
-10.454929 2.709574 57.276051
-1.882568 8.9541082 57.298588
-2.0917237 9.3172035 57.201008
-12.855289 15.128437 57.235687
-13.7307 16.619585 57.254658
-22.467287 17.481426 57.258301
-25.465261 17.944805 57.200851
-25.550182 18.533306 57.285107
-26.662157 18.671114 57.276428
-27.886751 18.8636 57.225838
-25.670969 18.801523 57.213341
-25.930969 18.911308 57.219276
-25.435999 19.045916 57.269737
-26.163591 19.105049 57.279358
-27.631516 19.31356 57.231888
-25.463087 19.33012 57.23098
-31.409946 20.052252 57.222317
-32.754456 20.153414 57.240608
-11.338179 2.8915081 57.338173
-6.0303736 3.6675868 57.391884
-4.3837905 8.0378075 57.372505
-15.341027 15.66228 57.397873
-15.512635 15.706558 57.382038
-24.662071 16.0242 57.344093
-26.90357 18.407198 57.363655
-27.75556 18.602945 57.354668
-27.848743 19.155821 57.333183
-25.542828 19.240044 57.39753
-30.860218 19.462814 57.35759
-33.606178 20.75325 57.384499
-7.4199443 2.8968043 57.46545
-7.1320715 5.7805805 57.46273
-1.539296 6.9097128 57.464558
-22.978592 17.161842 57.445705
-23.968626 17.791557 57.468212
-23.565252 17.706436 57.492859
-27.590925 18.495047 57.461624
-27.140984 18.580984 57.413105
-26.267242 19.166115 57.467239
-31.944809 20.477116 57.420486
-32.543129 20.620052 57.451763
-7.5643568 3.0030775 57.539944
-6.948946 5.222599 57.565041
-1.7586536 5.610384 57.580894
-3.8566818 7.998806 57.570229
-23.799595 16.98284 57.561974
-23.926483 17.524605 57.576103
-25.62586 18.151619 57.580345
-26.247467 18.691998 57.538376
-26.464909 18.964146 57.526096
-27.165461 19.010214 57.50544
-27.976074 19.106012 57.556709
-26.268068 19.151712 57.540184
-24.824898 19.221096 57.550701
-7.2238216 6.0777888 57.68111
