# .PCD v0.7 - Point Cloud Data file format
VERSION 0.7
FIELDS x y z
SIZE 4 4 4
TYPE F F F
COUNT 1 1 1
WIDTH 1546
HEIGHT 1
VIEWPOINT 0 0 0 1 0 0 0
POINTS 1546
DATA ascii
-15.077676 7.6171942 4.146678
-12.631323 -9.5949059 4.237946
-7.5243549 1.7838068 4.2600756
-11.599982 -7.1569862 4.3911858
11.328701 8.5298805 4.3806567
20.018829 -6.8215008 4.4958425
-22.033989 -6.0377679 4.4095345
27.764931 -3.6898646 4.4706373
8.975894 4.5210018 4.5039039
-9.7481766 6.4357147 4.5530257
21.089413 -6.5387025 4.6666589
27.448896 -4.418993 4.615654
-9.5865974 -3.103266 4.6685615
12.684772 1.2269924 4.6743617
11.081037 7.022294 4.6812239
16.867243 -3.2476752 4.9904089
12.543431 2.5620108 4.9955893
11.928779 8.5570526 5.01438
-20.829542 -7.9676561 5.1780434
-20.293779 4.6617551 5.1220074
8.8546009 4.8824592 5.1168013
-8.0158596 9.2146978 5.1281576
-14.026928 5.6335244 5.2538815
-9.3049536 6.1690278 5.2706046
21.365376 -5.1801233 5.3855157
-10.670852 -4.9588714 5.3215547
-21.885166 -4.7476649 5.3314872
-10.389294 5.3541579 5.3809834
-15.823783 -9.8187132 5.427424
-20.30776 -3.118175 5.4693794
26.728212 1.8050735 5.4914923
24.984482 6.1382623 5.4374676
8.5466776 9.4009714 5.4499288
-9.7355394 -2.9949932 5.5788107
-19.047295 1.8896866 5.5013161
-7.5544891 3.3599176 5.5728436
-15.357591 4.4368491 5.5007205
22.119431 7.3745465 5.5136652
-9.4389486 2.8905256 5.650188
-10.740498 6.4020715 5.6731024
-17.900141 8.5490408 5.6296105
-21.772982 -6.837688 5.7679963
10.123594 2.7985218 5.7148719
-12.027816 6.5640917 5.7727714
-17.385185 9.387475 5.73281
24.881519 -2.0659056 5.9416518
13.546143 2.383209 5.9777026
-21.164835 3.3273284 5.9826107
20.018515 6.8987265 5.931015
22.696224 5.4644427 6.0838985
-9.4889336 9.7203989 6.0999365
8.755167 10.531656 6.0605803
13.378565 3.734122 6.2771678
13.07806 8.6340618 6.2187204
-13.828098 -8.0705538 6.3783379
12.54063 6.566628 6.3980455
-19.976437 -3.6376345 6.4364767
9.8851604 6.9968867 6.4215946
-20.024883 -9.5937166 6.5960569
-14.858101 -9.498291 6.5523729
-20.737226 -7.3865352 6.5615773
-18.178877 -9.9388981 6.6868091
-22.463833 -5.6155891 6.6540565
-19.182287 -8.7551107 6.8497581
-11.167176 -8.7787094 6.8688898
-11.727938 -6.5879183 6.8578815
-19.07542 -5.6308694 6.8299675
10.385117 6.0194149 6.9336796
16.750063 9.2278023 6.9951248
21.760605 -4.8664742 7.0739031
-6.5718751 6.1496315 7.1695919
-8.2195225 9.4356499 7.1619587
18.966213 -2.2965381 7.2421112
-16.952431 1.616873 7.2762632
-22.184465 -3.3857236 7.3395033
14.751805 3.2522414 7.3829932
13.467803 15.095396 7.314302
16.46958 0.66242409 7.4700003
-8.1900425 1.7057986 7.4925117
15.943526 9.0682678 7.4864368
-17.672949 -6.1124353 7.547245
-12.278183 -2.3099458 7.5032954
-12.914849 -9.8832941 7.6879997
19.76993 -2.0628104 7.6236243
19.7778 -1.9550719 7.6720462
14.015016 7.536099 7.6366029
16.700869 -4.781682 7.7660627
22.146694 -1.1081955 7.759429
23.095673 -0.62015808 7.743125
-6.7585559 7.4522123 7.7176332
-10.256464 10.632714 7.8511057
-9.8393373 -2.5367181 7.9948444
-21.740669 -1.0243561 7.9027328
22.670349 0.92727816 7.9436798
-14.961507 -4.6949201 8.0906515
20.277817 4.7319331 8.090601
22.736578 -6.0329399 8.1524239
21.1724 5.4641523 8.1742105
-11.826306 -5.9230995 8.2258186
19.902979 0.37694994 8.3111162
17.090881 8.9355354 8.4767818
8.2314167 10.852244 8.4530296
17.099848 14.47118 8.4085541
-13.830498 -5.4884191 8.5869999
-16.217167 -2.1345825 8.5244856
-13.899715 -1.9985111 8.5165215
-15.326773 4.1769142 8.5107307
-10.506781 -7.2332397 8.8543749
-12.572142 2.6957078 8.8765259
-11.846801 6.1412983 8.8158817
-18.174824 8.1897898 8.8209896
-19.075998 -2.7453847 8.9709578
13.501699 9.7538643 9.0800886
-11.25887 11.550398 9.0765133
-20.805807 -8.043107 9.2919779
25.915506 1.7480032 9.2361288
-15.047814 -4.566546 9.3868046
14.834669 -0.22328246 9.3959913
19.046949 13.481936 9.5384617
-14.558172 -9.8255739 9.6765499
13.581509 1.5968448 9.7664099
19.685682 12.980021 9.8706799
24.079931 6.4630041 10.097216
-21.591532 -1.9714551 10.186522
-12.048364 0.19776952 10.142101
15.837706 2.0976138 10.179313
-12.628476 5.3338957 10.187514
-10.137739 11.257614 10.1674
20.449839 12.328019 10.124935
-14.426942 -2.1833634 10.226737
-15.293412 0.35564321 10.272402
16.104675 3.4255466 10.270752
14.801661 4.2147665 10.220739
12.618422 6.9835215 10.215794
7.2512321 6.4303079 10.323048
18.097645 5.4138613 10.521383
-13.240359 12.077307 10.614113
21.068834 -3.9194975 10.774468
19.573315 13.425755 10.750324
-17.5424 -8.3101072 10.976707
-16.896446 10.426802 11.126882
8.1459255 11.222956 11.174166
-20.005775 -6.0460367 11.455709
9.2889681 13.033525 11.458631
21.632101 11.804181 11.56388
-9.082243 -3.7565656 11.852694
-11.514339 -7.1864357 11.98459
-19.362421 -7.0655961 11.932331
-9.018383 10.306871 12.122368
-6.0916233 1.1732236 12.294777
-6.2732935 -0.13330144 12.329567
19.092812 13.668854 12.548258
24.339813 6.0589504 12.934029
10.872665 0.65591419 13.122524
-14.16021 11.157439 13.235169
-14.226344 11.142012 13.323782
-18.368793 -7.1585188 13.480474
-9.1934052 -4.4245863 13.442113
8.3812923 5.9090877 13.437596
18.466305 13.876344 13.504422
-18.993504 7.1771107 13.627789
-6.2404137 0.17173615 13.743574
-19.611389 6.2056789 13.942352
-14.048662 11.361681 13.99484
-12.205301 -7.2462378 14.058643
23.656662 -0.19394219 14.325953
9.7981443 13.096861 14.368744
24.155952 2.1008203 14.492548
-7.4215994 8.6218815 14.458632
19.849924 12.192901 14.776377
-9.4998007 -5.1962528 14.856768
13.979496 15.31359 15.071285
-19.89226 -4.6873441 15.163921
-16.66449 -7.2696719 15.229778
9.9007998 13.338809 15.267282
21.759371 -1.9507644 15.339014
-15.972721 10.694147 15.457014
-12.519964 11.758427 15.634758
23.979763 2.1148314 15.875
24.109932 4.2130575 15.90417
8.3698788 11.63738 16.050274
8.6950054 12.374539 16.092695
-6.28687 7.0043378 16.16629
19.33007 12.047822 16.103626
8.4139328 5.1031189 16.285795
-20.978991 -2.4923739 16.359262
-20.990568 0.073376372 16.364672
23.622189 1.0727212 16.357508
-18.925879 -6.0973754 16.867586
12.363832 15.058259 17.07646
13.858095 -2.7185545 17.172703
8.9359808 2.7908931 17.291946
-18.457603 -6.3941636 17.307688
18.01935 -3.6064916 17.43918
12.604365 -2.0074844 17.586842
9.9544411 13.907203 17.939381
-19.330179 -5.259563 18.163773
-5.9655361 6.3578844 18.177717
15.871625 -3.3651094 18.483044
9.6316853 0.98182118 18.674555
-20.567883 -0.55676198 19.083591
-19.778873 3.7956784 19.26269
-7.5530334 10.16478 19.212683
-9.875001 11.811492 19.243416
-7.8523922 -3.9285462 19.357353
-6.3785844 8.4843378 19.450949
17.15192 14.44808 19.585613
9.2708225 1.2730771 19.613661
-6.1119709 0.16212842 19.760851
22.783913 6.3114181 19.826275
-7.6063576 10.361313 19.806313
-18.574543 -5.8680735 20.130239
-12.897245 -7.5216331 20.271057
23.410307 2.6014249 20.461811
18.449066 12.628801 20.492167
-14.957699 -7.1534071 20.557543
17.995987 -3.5777757 20.564203
-9.529067 -6.0925217 20.699932
-20.300957 1.1072843 20.872345
-16.4827 -6.7770133 21.027954
-18.494316 -5.7622695 21.095604
19.16151 11.625694 21.051323
18.55427 12.448623 21.080194
-15.555147 11.698925 21.146862
22.392715 -0.71817768 21.233292
-5.8835869 7.0169258 21.716215
-5.8799186 6.917531 21.87373
-12.274459 -7.3049631 22.050838
10.26717 14.690786 22.098471
-16.495794 -6.6808243 22.131615
22.21484 6.9200416 22.170082
-10.265396 -6.4769793 22.394194
-17.101326 10.536565 22.485752
-9.8875113 -6.3600235 22.578115
-5.9736567 0.28381532 22.519272
-18.462999 7.2235451 22.539536
16.73254 14.614923 22.563622
-14.067793 -7.0806856 22.695435
-8.437645 -5.2793355 22.689676
22.8974 2.5279491 22.920162
-18.95435 -4.7648859 23.195244
-17.455505 9.786974 23.143726
17.704536 13.465222 23.248682
-19.559736 -4.0737481 23.302206
-19.315592 4.6161327 23.449381
-5.843194 5.0863123 23.444851
22.650248 3.3895345 23.590485
-13.295115 12.695207 23.50667
-13.966515 12.729197 23.601833
-18.833462 -4.8736267 23.804142
-9.9434834 11.693897 24.188646
16.292656 -4.7789812 24.22822
-7.8381734 10.330445 24.414593
-8.3895445 11.0716 24.491261
-19.846867 -2.8917575 24.707134
19.615406 -3.2541041 24.849968
22.743286 1.8005362 24.813643
21.950741 6.158534 25.060581
-18.747328 -4.9074712 25.227087
-5.7995119 4.2952371 25.323143
8.2262239 1.9361188 25.427637
16.118382 -5.216723 25.718977
14.413408 -4.3964462 25.755573
-14.929823 -7.5377684 26.055899
9.7853737 -0.78818524 26.008638
14.120291 -4.298831 26.249973
17.528601 -4.9856172 26.520384
-19.772116 -0.80406511 26.963745
21.656849 -1.7911845 27.064075
17.658415 -4.9519095 27.519268
-5.7566009 -0.12376773 27.521048
-19.113514 -3.9061007 27.80266
-6.5420055 -2.2184606 27.949139
22.077225 2.8813987 27.950756
11.146143 13.235119 28.197674
6.9335427 7.0895491 28.327526
8.7591143 -0.1423925 28.407137
-19.712667 0.7717346 28.555653
-19.093708 -3.6983156 28.683025
13.108324 -4.1658211 29.067055
16.986708 -5.186934 29.115311
-17.223103 8.4065027 29.139441
9.0068007 12.112055 29.197041
20.694019 7.1978297 29.256058
-18.623135 -4.8768587 29.393873
18.63728 -4.5072412 29.421051
18.857409 9.4816113 29.48208
-9.3945036 -6.3375359 29.576691
-7.8282175 9.3620405 29.522013
-5.6812954 2.0522385 29.640034
21.601467 3.8432145 30.050373
-5.6378393 4.8093052 30.105778
-8.0239048 9.3850203 30.201084
-5.62222 5.1068177 30.312481
6.8521671 7.550602 30.313927
7.3420458 8.6774435 30.639
-5.5948663 5.159903 30.700968
6.9395971 7.7498159 30.738598
-7.4070244 8.3615704 30.753056
-6.6587543 -3.0720708 30.895405
7.0756598 4.6365647 30.835293
-11.249289 10.239517 30.874359
21.658237 -1.5357583 31.125523
9.012373 11.230554 31.162056
-14.471867 -7.4915047 31.29578
14.270159 -5.0991421 31.454851
-8.5535421 -6.0611129 31.663452
19.512358 -4.1310215 31.750778
-6.3882227 -2.7711124 31.701401
-5.6243567 5.042254 31.770376
19.411669 8.3182888 31.765985
6.7969851 7.3487406 31.838501
-9.9752674 -7.0858092 32.45565
-18.749777 3.8930535 32.507607
-18.846386 -4.534852 32.656429
-8.9045782 -6.4294753 32.702461
-6.6399565 6.6605878 32.744884
-14.206678 -7.7096834 32.817726
13.287217 -5.1384311 32.96452
-5.4383817 3.3533859 33.042995
21.105131 5.1191163 33.133656
18.659235 9.0977945 33.201305
17.854446 10.136231 33.392578
-11.97545 -8.5705061 33.698082
10.096743 -3.4542649 33.726265
12.038547 12.248605 34.078178
-11.305236 -8.2695198 34.242023
-12.7132 9.8197708 34.358078
9.68577 11.039533 34.48513
7.4643922 0.42214417 34.67725
-19.267195 -2.5776472 35.078186
-18.578537 -4.8823357 35.126919
10.778762 -4.7392578 35.139687
21.639572 -1.1999635 35.372658
-13.691159 -8.1117096 35.436508
17.9638 -4.754427 35.445911
-5.2810521 1.4166186 35.404495
-10.461954 9.4060879 35.467709
20.964159 4.7507758 35.500828
11.119111 11.611283 35.683712
-19.265295 -2.3700864 35.751457
-19.365953 0.08426106 35.700951
-17.809528 5.9378457 35.800442
-14.345982 -7.8485012 35.91394
10.079795 -4.2365365 36.191959
-15.772697 -7.239666 36.410606
8.8453274 -2.6699333 36.448292
-15.468278 -7.4165344 37.02652
19.11805 -4.4397135 37.556381
-9.4511166 9.2649651 37.565586
-14.28862 -7.9892364 37.681084
-19.247232 -2.1460311 37.628525
16.133425 10.980177 37.877132
17.669971 9.4144983 38.016975
-11.848486 9.7530136 38.046329
-5.1010094 -1.0336895 38.120174
-5.1566954 -0.58074814 38.122066
-13.069541 10.010102 38.591995
18.359211 -5.0453715 38.720951
-19.174221 1.912218 38.872139
-5.4848633 -2.5187197 39.060425
-17.218239 7.066999 39.029026
-5.1752601 0.27649105 39.258354
-8.925168 9.1299572 39.453537
12.008532 -6.3865509 39.684368
-5.7450695 -3.2231379 39.69696
18.341242 8.1492262 39.701473
-7.2711749 -6.7518067 40.680401
11.418368 11.036951 40.711163
8.2175951 -3.1423542 40.89584
21.101221 1.4789001 40.88916
-18.861702 2.382082 40.952209
6.9881749 8.0176649 40.941875
-5.5040193 -3.0712225 41.391361
19.701578 -4.726995 41.442856
19.303255 -5.0611706 41.542557
7.0936146 -1.8474935 41.58736
-17.229029 6.5440283 41.53791
-5.6296282 5.2439198 41.606293
20.942547 1.9808005 41.787617
6.8927317 -1.104142 41.904415
6.0074697 6.1436982 42.454754
14.385923 10.709164 42.456974
-8.5467453 -7.8247528 42.585712
20.569897 3.7202075 42.570709
9.0555058 9.6592722 42.578957
-8.3421698 -7.7070098 42.602745
16.226324 -7.2778273 42.869713
-17.396992 -7.1785111 42.993111
19.953899 -4.3606286 43.036224
6.9389606 -2.1166685 43.470844
5.4763389 5.1344352 43.409885
-5.8031292 5.6963787 43.729492
-17.903254 -6.4703288 44.23209
19.811756 4.6340189 44.331768
14.977453 -8.1200771 44.57233
10.809362 -7.1229768 44.737007
10.263836 9.9332724 44.767197
20.780384 1.6079677 44.80217
20.818092 1.3097639 45.012115
8.0172625 8.7941732 45.060768
-18.526812 2.4062915 45.228348
-7.2518339 7.4090028 45.254482
20.462458 -3.5245497 45.491837
5.2954583 4.8658304 45.543156
-19.223913 0.37132886 45.696632
-4.8964605 -0.40179324 45.758533
5.9700642 0.92980707 45.75631
17.433924 -7.1912146 45.843414
17.571915 -7.1358843 45.894806
-18.027395 -6.3751602 45.890762
6.1257505 0.18029261 45.957493
9.3742447 9.3304501 45.948189
5.2018933 4.7046561 46.11145
20.635273 1.7477822 46.379253
-16.888422 6.3039236 46.630283
16.84827 8.4266329 46.79995
-8.8444939 8.4017725 47.111
-13.035416 8.9726324 47.357025
-7.5539079 7.8116198 47.42852
-4.6415596 3.2457314 47.520237
5.0244246 4.4283853 47.897961
-4.7133851 -1.3027359 48.223251
-4.6452236 0.59803116 48.248909
20.695124 -3.3746545 48.415779
8.7883444 -6.2491336 48.577618
-7.4708323 -8.0345354 48.637909
-18.863152 -5.2366943 48.623711
-7.372323 -7.991302 48.742947
18.448685 -6.9086022 49.054619
20.908073 -3.0156293 49.367565
14.002792 9.1635227 49.363792
8.7550335 -6.4771948 49.410507
18.912235 4.5337381 49.531349
-17.458569 4.2164254 49.600853
10.783842 -8.2914228 49.768803
16.555422 7.9746652 49.895573
-16.721645 5.9832397 49.927814
-9.2397728 7.5138092 50.043747
-18.501387 1.4579767 50.14069
16.561623 7.8916197 50.159504
-18.090677 -6.3997679 50.248314
13.771256 -9.3026352 50.374157
13.706699 -9.2515497 50.304489
-19.011248 -2.4818375 50.379219
5.9884033 4.6735916 50.378929
8.1131687 7.2400298 50.39072
-18.989857 -2.6238706 50.923855
-5.8020577 5.0570459 50.926476
6.6356826 5.2138882 51.152145
20.840782 -3.4371891 51.21611
-12.669358 7.3439407 51.294014
-4.3544607 0.7400192 51.34647
-11.045794 7.0906935 51.489063
20.981272 -2.734884 51.542942
16.284365 -9.1204023 51.674801
9.0381517 -7.6375933 51.777275
-4.4029074 3.4203024 51.970322
-4.3653321 0.65698731 52.187393
-9.4746618 -9.9490004 52.368298
19.077131 -7.9337826 52.519657
-13.57901 6.7675433 52.58992
20.737335 -1.3070661 52.634743
-18.546749 0.74756056 52.612881
8.8084106 -7.7340741 52.752342
-18.195614 -6.8164387 52.777229
12.934492 7.7673182 53.030586
8.5751982 -7.6903343 53.359924
-4.3397408 -3.0888054 53.394081
-17.234354 3.6131194 53.41848
5.1067924 2.0855458 53.781464
14.71466 7.2996922 53.760181
-19.101881 -2.9204993 53.813866
-4.3425341 -2.4546831 53.843357
5.2509823 0.091908216 53.889004
8.2648516 6.1269579 54.077415
-7.7142582 -9.4341669 54.254326
5.6859875 -2.2987952 54.262993
5.3199306 2.3688257 54.266281
-17.725544 2.4104927 54.288235
17.836828 4.7989697 54.236961
9.5815449 6.6398606 54.283546
-18.926382 -5.6125298 54.347191
-19.030209 -4.2373414 54.612999
8.8513412 6.2367907 54.790714
-4.9718246 -5.7157879 54.825508
-14.405561 6.0994978 54.838104
7.175971 5.4467649 54.995239
-19.233891 -1.539627 55.13205
-12.955505 6.6840668 55.252335
-10.510268 6.607482 55.253044
5.5403919 -2.647953 55.578201
8.0098248 -8.0681381 56.008629
6.1035304 -5.7251768 56.007336
16.264797 6.4904394 56.138634
-8.1016359 5.9945755 56.552612
9.1072617 6.0740976 56.649963
11.399338 -10.67061 56.917496
18.229437 -9.7980881 56.921677
-11.815952 -11.537458 57.221024
-18.950447 -4.9424195 57.25098
-4.9486375 3.3013794 57.331039
7.7318006 5.3420949 57.390331
5.6894722 -4.5912023 57.472343
-5.9538274 -7.9431539 57.622452
-4.029284 1.3049823 57.786282
-16.919739 3.7544026 58.069836
17.087149 -10.643539 58.146027
-11.875732 -11.830041 58.339092
5.8740525 -6.0532336 58.567474
-6.7056799 -9.5203295 58.801682
-5.6666451 -8.0181408 58.800236
-17.26387 -8.760932 58.946133
12.099516 -11.465397 59.017426
18.290783 2.8544068 59.117496
-19.09581 -3.6582155 59.665001
17.209124 4.1887136 59.795555
-13.989126 5.7218523 59.81353
-12.728486 -12.056823 59.986847
9.4156389 -10.704884 59.907604
-19.083384 -3.923038 59.917213
7.851018 5.0713234 60.049633
6.4464364 4.0854163 60.279366
-16.722559 3.8857865 60.437771
-18.96188 -5.3014088 60.529541
-13.217971 -12.031894 60.78532
17.050737 4.1546173 60.760151
12.230391 6.3198833 60.832832
-12.239058 6.3618498 60.938339
7.849967 -9.5499926 61.329208
13.03788 -12.184072 61.527695
6.1818819 3.6287327 61.5849
19.000145 -9.5727472 61.723976
7.6039515 -9.4652891 61.988861
4.6853333 -3.2613609 62.218941
19.68264 -0.28095621 62.284966
8.0883236 4.947629 62.342659
7.6168532 -9.6161289 62.456448
-19.262564 -2.5620172 62.491856
20.188379 -1.3276881 62.408611
-14.475327 5.26653 62.586803
-17.778093 1.0498524 62.787132
17.851713 -10.794056 63.075157
-9.5677443 -12.033567 63.550346
-19.05518 -4.9703951 63.64724
-3.6778889 -3.2827365 64.308929
20.394072 -3.2859952 64.399651
13.423395 -12.648954 64.549507
-15.363766 -11.945534 64.523827
-3.6862941 -1.5769788 64.547798
-13.767682 -12.303921 65.0625
-5.9312401 4.0759134 65.154068
6.9753666 4.7121663 65.122383
18.78326 -9.6447353 65.298439
-18.948919 -6.5767879 65.607903
4.2836099 -4.6365051 65.698364
-6.2100863 4.3200846 66.604218
-5.9184055 -10.216235 66.788902
20.126534 -2.4508967 66.860092
20.298418 -6.3912482 66.998291
20.398706 -6.0017676 66.979996
-3.5669708 -2.322731 67.039871
-15.602149 -12.16947 67.365707
4.3734746 -6.9484215 67.397575
4.4473314 -7.2092872 67.66954
3.2240701 0.038724691 67.672928
-5.7460423 -10.151526 68.016861
-18.590117 -8.2980766 68.422333
-19.071016 -5.9435754 68.450493
-5.6544123 -10.101382 68.591858
11.955057 6.0201788 68.566154
3.3650818 -2.4837923 68.627014
-7.7384243 -11.570275 68.783188
18.746067 -9.3314638 68.749825
11.542643 -12.769691 68.8508
-4.0013919 1.9682757 68.811043
3.3094504 -2.7842224 69.234558
19.178616 -8.3410645 69.663818
-19.277874 -2.5584562 69.786774
2.9466293 -0.067112267 70.082985
-18.921757 -1.9851122 70.628723
-16.926506 2.1953483 70.631752
-19.048145 -2.2092464 70.753784
-4.2145047 2.2350738 70.797401
-19.239475 -3.9193308 70.840942
11.493782 6.0047007 70.85936
5.8753328 4.3806896 71.095558
6.4257555 -10.750847 71.395081
3.0283098 -2.4958751 71.357666
5.727016 -9.9211569 71.415085
19.692509 -1.5421846 71.585426
-3.6787767 1.6711897 71.60218
-5.3678136 3.3717175 71.746834
4.5607905 2.7304697 71.96627
-9.887517 5.2769728 71.950897
-11.641308 5.5644641 72.33567
-16.170488 3.388217 72.482986
17.137978 -11.544613 72.500061
-5.750134 -10.853032 72.648674
17.798157 -10.631673 72.662399
-7.9796 4.8361187 72.740982
3.754297 -7.6399822 72.900597
14.265127 5.0404353 73.396317
-2.8537979 -4.7318735 73.421883
19.270638 -7.6354556 73.732903
-2.8740146 -3.4297659 73.72541
-2.8735778 -3.337131 73.786293
-9.2833052 4.9894767 73.869431
4.709816 -9.2054148 73.910774
-11.414528 -13.135113 74.34243
-15.310288 3.8764405 74.341721
11.729864 -13.357759 74.627701
6.2403655 4.5378866 74.720329
-7.7264013 -12.140994 74.981201
3.4141722 -7.7576246 74.945572
-7.1670084 4.4827309 75.104889
-14.145182 4.2937274 75.329254
6.6175008 -11.679998 75.420586
-13.38735 4.6122084 75.568741
15.281684 -12.288092 75.787239
-13.175993 4.6720443 75.883675
-19.018311 -4.7763872 76.074226
16.824858 2.3340459 76.030174
-5.9010954 3.5434654 76.222588
-17.81682 -0.35964763 76.391182
19.343256 -2.7462006 76.597229
9.4474716 6.1958618 76.677765
-2.8394341 0.38784698 76.73201
-3.4535928 -7.8756828 76.903717
-14.653879 -12.741636 77.134361
-15.755735 -12.123278 77.325897
-2.4692812 -5.9536347 77.41304
-5.1206112 -10.922561 77.676331
-18.105972 -0.94442272 77.632469
-2.5567675 -3.5181797 77.770714
-14.416313 4.1208243 77.83255
14.894205 -12.405823 77.979736
5.7518091 -11.549708 77.910713
-11.883116 -13.092188 78.044464
9.9503384 6.4613156 78.112434
-5.2619853 3.1162522 78.204849
-7.6097355 4.7377625 78.215775
6.7643781 5.2713828 78.269432
-4.9452529 -10.727034 78.336433
-10.546921 -13.498324 78.404015
-10.544434 5.3310089 78.665421
-13.036501 4.8642378 78.748672
10.913762 -13.532461 78.891472
14.811809 4.8754873 78.800934
3.9546614 3.7434306 79.658051
-18.800766 -5.0485806 79.799057
16.458029 3.5451081 79.776939
-18.04583 -1.028357 79.860123
2.4841225 -7.4969893 80.007202
19.064188 -6.5166979 80.151718
1.8331765 -5.0963702 80.100166
-4.9162712 -10.942771 80.221031
-4.1472235 -9.5384684 80.323334
-15.314435 -12.177729 80.490654
-14.257337 -12.649044 80.73394
1.8470308 -6.1810789 80.713097
-6.6124978 -11.931279 80.855148
2.9001424 -8.6566963 80.945648
-3.5181975 -8.4048824 81.153488
18.317892 -8.3378992 81.130142
1.3016411 -2.3509183 81.287674
-16.880842 1.6170313 81.468262
-14.399067 -12.628009 81.575546
-15.687269 3.5765615 81.504967
1.2824067 -2.7390041 81.626999
1.5240901 1.1420302 81.601997
6.2986841 4.8662586 81.744911
-10.966131 5.5848455 81.890335
0.99634808 -0.02624315 81.956894
-19.918665 -7.7086802 82.129402
-15.399154 -12.049348 82.432266
-12.147563 5.1646905 82.761185
9.8965158 5.801815 82.868599
2.3308215 -7.9731851 82.915504
-22.502129 -7.5995712 82.967415
-13.649853 4.4038882 82.928421
-1.9245691 -4.7162442 83.091652
-7.6606503 -12.769735 83.549187
4.176919 3.7544532 83.715317
-23.477858 -5.1355877 83.824249
-3.4331629 -8.3863907 84.186424
-14.464678 3.9640908 84.305969
0.60953712 -0.35782248 84.489929
-1.8986907 -5.5070801 84.534409
-22.991404 -5.3843932 84.529327
-24.660124 -6.6452665 84.700485
-17.856369 -0.8060931 84.71151
-11.480725 5.2727461 84.770218
10.681834 -13.731206 84.942635
-13.745392 4.2430668 84.959404
1.7709465 -7.3737907 85.143524
-25.313644 -6.2628169 85.228455
-1.8503256 -2.8864305 85.266579
-10.149485 5.2037096 85.2509
-24.118851 -4.2035093 85.406227
9.3527718 5.6469483 85.424019
-22.923061 -2.0230851 85.638893
2.4253716 2.6960571 85.855019
18.092274 -3.2419949 86.238914
1.0633947 1.5891434 86.210434
-11.792458 -13.514516 86.42688
-8.0766201 -13.530149 86.44841
-25.33073 -4.3995094 86.464203
0.10066337 -0.54966998 86.48362
0.54300559 1.3412403 86.472664
-16.068142 2.7566206 86.497597
-8.3192921 -13.665154 86.534264
4.8342009 -11.949287 86.53054
-24.203533 -8.3022814 86.650276
-26.514652 -4.643723 86.670372
4.2953067 4.9960165 86.978203
0.31834874 -6.3150015 87.063583
-5.6462998 4.8579946 87.042915
-12.284849 -13.339825 87.18618
-1.6445491 -3.6814017 87.177086
13.185787 4.5333605 87.288376
-11.288166 5.4766636 87.242599
-25.925379 -6.5374022 87.370895
-18.105705 -6.0924087 87.308167
18.226631 -5.1792688 87.342583
-17.866119 -7.2445292 87.78006
-1.7945143 -9.4665041 87.879807
-23.875031 -7.8579159 87.805588
10.919222 -13.661889 87.976456
16.152464 -11.669255 87.973854
-1.2613517 -9.7764139 87.965111
-18.329403 -4.0782223 87.902969
17.910503 -3.0329618 88.02108
15.689762 -12.295135 88.108627
-3.255218 -9.9766769 88.16066
-25.397165 -7.904511 88.137253
-21.139803 -10.913199 88.237732
-17.784063 -7.2298012 88.292778
-23.067076 -9.6043329 88.695084
-1.8914186 -11.004904 88.754669
-13.382233 4.4955025 88.76281
5.7657309 6.2248449 88.723656
-24.566067 -3.4451752 88.894829
-9.5319958 -14.195784 89.09201
14.215154 4.0394559 89.14563
-9.4120369 -14.280313 89.525459
16.95495 -0.92139798 89.541
-12.141027 -13.431936 89.7714
-2.4460428 -12.414549 89.756317
-19.878853 -9.0874662 89.716515
-17.114258 -9.0653181 89.721115
-17.524336 -8.2116718 89.747398
-0.17200936 -13.30317 90.063072
-26.315937 -5.9913912 90.047211
11.607811 -13.570156 90.287308
-22.250324 -9.9793262 90.253639
-13.394925 4.4111667 90.249023
-5.8519945 6.7046466 90.229446
-25.200996 -1.6920168 90.390274
-17.578272 -0.99151838 90.381714
-16.034685 -10.381815 90.593597
17.709732 -6.0671492 90.591064
17.387629 -2.1224461 90.566162
5.2261901 7.3594065 90.514374
-26.756046 -2.584296 90.624779
-1.8626328 -13.920678 90.72921
8.2376595 -13.909481 91.083679
-6.7870545 -13.894289 91.215591
10.644459 -13.664251 91.554916
-21.820971 -5.9902911 91.571777
-22.150463 -10.230506 91.677719
-16.180113 2.340071 91.980835
8.8744144 -13.823217 92.053703
-14.962193 -11.332219 92.033806
17.396702 -7.068892 92.160103
-6.2840118 -14.295082 92.317863
-16.746693 -9.3456049 92.64119
-23.150917 -9.2547235 92.830688
16.421463 -0.74161327 92.875336
-16.272751 -9.8533936 92.957542
0.27931601 -14.452866 93.077286
-6.2969093 8.1360292 93.158455
-25.794483 -2.1131372 93.276611
2.7575092 8.1877327 93.329544
-16.15078 2.6624641 93.833611
-15.189564 -11.00229 93.944527
-8.7357216 7.7797947 93.910553
-7.748805 -14.301471 94.026993
9.6434736 7.1161194 94.017059
6.9034262 7.8635602 94.000298
-6.5899668 8.1809883 94.084747
-17.75363 -2.3363719 94.191025
-15.000472 3.7493432 94.112083
2.3004971 -14.751888 94.523895
13.585047 4.0079403 94.541855
-22.192478 0.15975471 94.694397
9.5308762 7.3267403 94.762436
-1.9848707 -14.768616 95.009026
-27.013575 -3.1409826 95.105606
-17.505787 -1.925581 95.271896
-2.8156667 8.4248343 95.496223
-10.242999 -13.901502 95.523895
-10.478668 -13.847708 95.532349
-11.453594 -13.584352 95.549728
-20.738537 -1.2160623 95.564827
16.19739 -0.82923651 95.568726
16.842913 -6.2520065 95.757408
-11.277965 -13.681841 95.836212
-22.064754 -8.1964426 95.851944
-25.789675 -4.4366369 95.887543
0.68602115 -14.927485 95.931259
-18.895178 -5.3889804 96.054733
-25.209015 -2.3882785 96.020897
-13.517572 4.8731828 96.064087
10.416136 6.880981 96.09549
-25.785694 -3.6095347 96.103767
-20.315948 -4.3647699 96.369804
-17.618933 -3.9150829 96.344597
11.711301 5.7928858 96.354691
-25.297577 -4.5117598 96.503937
-3.4592669 8.5710926 96.515167
-24.236563 -7.9632726 96.648918
-24.235495 -7.819541 96.675217
-19.664507 -8.4219818 96.737617
16.411081 -7.4337091 96.792702
-4.3334498 -14.96978 96.864662
-23.283157 -8.2089767 96.82531
-22.455229 -7.2895918 96.963699
-17.615034 -4.0197496 97.037079
-1.8572285 -14.996046 97.153732
-21.625633 -7.2133694 97.169388
16.470379 -5.9723945 97.277084
-20.587843 -1.1955603 97.291786
-12.695319 -13.483963 97.311821
-18.835682 -5.7956972 97.325516
-27.453905 -4.0031486 97.31678
-22.605278 0.66372371 97.331009
-13.145541 -13.008291 97.411774
4.062603 8.4936905 97.479927
11.928571 -13.974813 97.653122
12.205639 -11.746174 97.79747
14.768543 -7.0616751 97.733559
13.630453 -13.843784 97.848236
6.5997458 -14.734632 97.954575
-14.857286 3.1804738 98.145935
0.27277482 -15.961337 98.229378
-10.425311 7.5979629 98.231476
-13.924508 -12.050414 98.39296
-19.916498 -8.3099451 98.329689
10.899811 -6.1682143 98.300308
10.686474 -4.6748161 98.378799
6.4641552 3.8453033 98.399109
10.441476 8.5816698 98.330696
14.688303 -12.827489 98.454376
-14.696974 -11.236057 98.485237
18.482075 -6.1894112 98.495224
-4.5838556 8.5121174 98.430641
-22.014816 -9.1566887 98.520126
16.50769 -3.5396993 98.54422
9.2233896 -2.538003 98.541351
7.7018313 7.847312 98.528381
5.1423655 -10.477421 98.670982
-0.93783408 5.6263919 98.646484
10.850081 -14.228145 98.759979
-2.6174414 -13.136497 98.78801
7.1937151 -7.0131531 98.787598
7.9013977 -5.2441664 98.747147
16.259628 -5.1315804 98.790489
3.639585 2.4142811 98.790802
1.2776423 8.4706831 98.778564
-10.039017 -15.091182 98.86499
-4.431706 -13.507128 98.822212
-0.19789562 -12.096186 98.818993
12.420698 4.8953276 98.816368
-12.752924 5.1704226 98.837845
4.5637197 0.53103614 98.92421
-20.781731 1.1073714 98.948952
1.2332612 2.061429 98.980179
2.127794 2.1783776 98.930031
-7.4637141 6.8334489 98.958267
-6.8592539 -16.172716 99.08622
-16.751337 -6.8102608 99.01899
-26.967316 -1.911299 99.008438
-2.1943023 3.3114855 99.066063
-4.517684 5.2305727 99.026131
2.220772 -15.122906 99.187622
-6.6011786 -11.649122 99.193565
-3.4745393 -10.981394 99.138763
18.224384 -0.13315189 99.164856
-15.088162 6.0267482 99.153351
-10.025653 -12.404894 99.250076
4.5637727 -5.4284062 99.204849
-3.7808826 2.9087071 99.238579
-10.443008 4.0721641 99.295647
-11.65629 4.3520761 99.273201
-10.897353 4.8399329 99.244911
-10.924158 -11.162611 99.333801
13.079908 7.3401055 99.381355
-22.042059 -9.0913544 99.497978
0.14953095 -7.7030654 99.426239
-17.495937 -3.5637076 99.441521
-7.492075 1.0838113 99.497589
4.6108685 10.279271 99.413071
-7.1243081 -9.030611 99.518478
-11.152971 -8.7417126 99.502655
-4.9419808 -8.3544207 99.585831
-12.232171 -7.0062475 99.535713
-0.92886138 -6.9575877 99.59388
-11.076064 -6.292264 99.578979
-12.022538 -2.5220597 99.574471
-2.6573467 -0.26342821 99.52504
-9.9694958 -0.016569376 99.558525
-13.5941 0.059975624 99.517349
-8.4346514 0.51889777 99.530113
-6.8105283 -6.7133994 99.680939
16.074381 4.06182 99.630219
-8.351408 7.8803291 99.659492
-6.4477992 -5.4448595 99.714226
-11.284119 8.4022541 99.79744
-2.7526841 -16.799145 99.87265
-18.742376 -5.7725191 99.813759
-27.214214 -1.6208608 99.822998
-15.223394 2.3479199 99.920761
-16.652689 -6.0625925 100.08348
-26.917528 -4.6440578 100.05036
-2.6617515 10.023777 100.04863
-20.568907 1.5717441 100.14507
4.941164 8.3522043 100.15344
-7.9497943 -14.526209 100.22128
-16.87793 -3.1552327 100.23494
-27.275549 -1.6459417 100.28524
15.875759 -7.3720617 100.33291
-14.893467 2.5948856 100.34064
4.2810445 10.16958 100.47961
-16.258581 -6.885973 100.64334
-6.1002588 -14.926593 100.7752
-22.675112 -8.7855148 100.76913
-9.951375 -14.020634 100.92731
-14.842687 -10.434142 100.93431
-15.878382 -0.18395579 100.96588
-4.4404402 -15.080248 101.01981
9.2356777 8.9044037 101.00868
-1.6268171 -16.932402 101.13442
6.2578187 -14.906837 101.18509
-18.829552 -3.515475 101.10062
-3.7651381 -16.700415 101.20496
5.1266418 -16.603479 101.28389
-16.107409 -6.986928 101.24422
16.064835 -2.9652562 101.26642
6.2969284 -16.296415 101.34569
-27.331738 -2.2567356 101.30951
-18.367685 1.0721327 101.30994
3.8815012 8.3081093 101.38009
-9.4621439 8.7387123 101.37984
18.190258 -7.1708436 101.58597
-15.382223 1.2203685 101.52708
18.076012 0.29997492 101.65623
13.480436 3.5803833 101.67857
-21.039595 3.4534655 101.78931
4.9613047 8.2727919 101.79356
13.947302 -11.884645 101.86906
0.4416005 8.3043995 102.08585
14.629457 2.1675026 102.11595
-9.9936409 7.2205229 102.13614
-5.2125683 9.7312088 102.13675
0.77104539 -15.069726 102.22115
18.1772 -0.45906681 102.21203
-13.722178 -11.110373 102.3913
-9.3170519 7.3637938 102.36282
17.46911 -9.573245 102.49374
-18.764507 0.085485697 102.47739
8.2275915 7.4742398 102.59959
16.140675 -4.634182 102.71754
-18.752514 1.0333112 102.77759
-24.005974 -8.7299671 102.99557
0.78449905 -17.013269 103.0335
9.7081442 -14.173086 103.00617
-18.977716 -4.7031403 103.09348
-17.908943 0.44738066 103.06194
11.333843 8.0451012 103.06664
15.447834 -8.0860405 103.11272
-4.5053129 8.2689285 103.2498
2.8436213 -15.06992 103.33581
-15.814859 -11.628013 103.33607
-18.023487 -0.23276436 103.32063
-15.157768 0.71383208 103.31233
-13.89181 2.9325783 103.35272
-25.895206 -6.8622484 103.44022
-18.85977 -4.3465376 103.48116
10.444526 6.5887685 103.48772
6.1118598 -16.421124 103.51585
-8.2203941 -15.770626 103.57139
10.862772 -13.954227 103.54848
18.187529 -0.80387205 103.54742
-1.0453218 -16.969963 103.77476
3.2867172 -16.830662 103.82552
-15.17325 0.25203955 103.85539
-21.900932 4.5375462 103.8549
-7.034338 -14.511591 104.12352
-25.183083 -7.3361902 104.10929
-20.737379 -7.3193655 104.16019
-17.807352 -7.0506101 104.15689
12.324967 7.6303134 104.23901
-18.094006 -2.3538442 104.32282
-10.80026 -13.297352 104.44305
14.164442 -10.899099 104.44762
-1.7933923 9.7959538 104.45694
8.188859 8.8184414 104.59685
-6.3866496 -16.238453 104.66483
-13.942104 -10.438023 104.65019
-15.867002 -5.2606411 104.68807
-15.668123 -5.9320555 104.78463
-12.759626 -11.443822 104.87627
-21.758936 4.955492 104.8073
-5.5189142 -16.46064 104.94353
18.653639 -5.305707 104.93305
18.112768 -0.61505598 104.9158
-3.1560268 8.1726322 105.0349
-3.3215139 9.6228504 105.00648
-17.924723 -1.3706967 105.12929
-17.290001 -0.21481892 105.27528
-13.873652 5.2584987 105.29665
9.6961803 8.3066845 105.21286
7.2774363 8.9820213 105.45028
-9.0949249 -13.926468 105.57328
-15.674331 -11.405106 105.50715
-21.255898 -7.4795499 105.55399
-12.995958 -11.078302 105.6292
-2.8002465 -16.814152 105.70063
1.9028819 8.0984631 105.78859
-2.6253924 8.1317701 105.73882
-17.855625 -1.7847346 105.85527
-17.9673 0.25715646 105.98724
-15.680394 -4.9329658 106.03415
-17.528154 -1.9611876 106.08977
17.266615 -10.59527 106.27947
18.64707 -4.4701509 106.22149
5.7660456 -16.432095 106.45415
18.123016 -1.2752845 106.60783
-19.067375 -5.2861605 106.76031
-17.454279 -2.4247913 106.7883
17.245005 2.5104952 106.76473
-18.438517 3.2528536 106.99738
4.0353155 9.3065939 107.0797
2.2807262 -16.752953 107.21825
15.525655 -12.028614 107.45462
-14.776405 -11.903196 107.63556
-12.415319 6.4802222 107.71532
-15.030419 -11.628066 107.96841
-16.669628 -0.5095942 107.99785
3.0179393 -21.356369 108.18822
0.55152434 -18.671509 108.17049
-4.0383239 -16.396612 108.13606
-21.300732 -6.990407 108.29623
-17.648531 -3.8534765 108.3847
-1.7417718 -21.014975 108.43448
17.813351 0.76269388 108.42825
0.523238 -20.530312 108.79131
-2.2175519 -16.503719 108.71602
-25.251987 -5.9196696 108.72527
-17.856091 3.1931891 108.78938
10.987448 -15.096642 108.85979
4.9376936 -22.026302 108.96107
10.750423 7.6579866 108.92929
-21.339422 -6.8864894 109.00679
-1.851508 -20.30044 109.17126
11.280529 -15.037066 109.16714
-16.322308 -10.023995 109.13812
-19.606094 -5.2803512 109.18208
-26.614803 3.4294469 109.27528
15.90447 4.0743518 109.23554
1.4870645 -21.511454 109.31543
6.0572958 -20.255657 109.35527
12.633793 -14.566154 109.39246
-25.162521 -5.7950029 109.39808
9.4646883 -20.427307 109.45935
-0.063460834 -17.659584 109.42479
-1.7341425 -17.484959 109.52554
-2.4913883 -16.256897 109.67664
-0.70424211 -19.945024 109.71093
5.4607 8.7963696 109.75787
-0.75572896 -21.766964 109.86838
-1.0004454 -20.947861 109.80589
11.118677 -20.492764 110.06232
-26.852695 2.6669891 110.03519
-0.35461724 -20.358232 110.11337
12.628939 -14.573112 110.18285
-1.8348261 9.0237312 110.22922
7.5073643 -21.337294 110.65677
-0.01136465 -20.909069 110.60031
-4.7637224 8.7184095 110.60765
15.535356 -17.541498 110.77222
8.4704237 -15.66248 110.87526
-18.447063 -3.8508074 110.85962
2.2387567 9.0053129 110.87334
-0.87275565 -22.94762 110.97942
12.969566 -14.277702 110.96893
18.37948 -4.7392507 110.9792
-26.479074 4.2486877 110.9798
-2.1345992 -22.427299 111.05761
18.180454 -3.2128451 111.02812
5.4366846 8.6062794 111.15979
9.2259073 -21.509926 111.22679
-15.631464 -10.644377 111.32817
-24.120279 -6.0828366 111.32402
18.850136 -14.213541 111.42907
-23.573259 7.3793283 111.49686
18.956766 -14.551447 111.5309
-14.415633 3.5050211 111.57085
-2.0481839 -16.645287 111.63454
-24.383108 -5.8548083 111.63468
11.403221 -22.585207 111.77544
-1.4417536 -22.168842 111.73367
-0.68275034 -16.740936 111.71642
4.7715945 -16.596268 111.75337
16.481152 -13.525774 111.78938
1.6467314 -20.833612 111.97789
-1.284077 -16.732887 111.91428
21.510569 -10.502228 111.95228
23.93557 -8.9602165 111.99416
19.531967 -16.963444 112.1624
-4.0274792 -19.928175 112.29021
9.9427385 -19.992863 112.25159
23.0473 -13.506025 112.38013
21.033218 -9.8821869 112.39492
19.77474 -16.983875 112.43439
-15.652143 2.0105641 112.48839
18.190754 -3.8375535 112.60023
-16.199959 -0.61290652 112.62222
17.061449 2.7694881 112.6787
25.425785 -11.547833 112.76697
11.450746 -15.427187 112.8297
-23.948549 -5.4959507 112.88937
9.3718119 -18.147335 112.98368
8.1228971 -16.967812 112.92228
18.160137 -9.6164465 112.98854
-26.840172 3.5920165 112.99959
18.233374 -5.127224 113.02911
-16.705076 0.58466762 113.00861
19.007107 -18.273994 113.1523
20.985746 -16.223877 113.17041
-24.196621 7.4233174 113.10703
7.8000875 7.9004378 113.15433
12.272116 -22.791222 113.29176
16.458643 -11.700329 113.29025
11.408583 -23.133459 113.4173
-6.4465256 -15.757648 113.47568
22.303986 -6.2755136 113.4973
26.068329 -4.0621052 113.45538
17.818245 0.97979474 113.41566
3.6577852 -23.205563 113.72231
-26.834475 -0.9822256 113.7165
-8.0082178 -15.129271 113.85616
-27.382565 2.5282269 113.86061
13.754842 -13.221663 113.97421
-13.632944 4.1626949 113.97093
-15.697227 1.2159584 114.13273
-13.850937 3.9030123 114.16129
16.116655 -21.406731 114.20175
24.430923 -13.714664 114.2819
16.509251 -11.661566 114.2627
27.83569 -9.3421545 114.2951
-20.822737 8.5093336 114.28058
-14.175747 -11.446325 114.32224
-15.646132 -9.9674911 114.41155
-17.002441 4.5930915 114.49693
-17.524035 5.8492718 114.40425
14.900468 -11.208357 114.59011
0.44794646 8.862956 114.67742
29.680838 -7.2187843 114.77519
7.4192877 -16.698566 114.87924
11.274707 -14.044252 114.83357
-16.782673 3.790463 114.81291
-21.993948 8.7511063 114.9267
9.6218147 -20.007702 115.02586
0.25356275 -19.966534 115.08351
-15.821298 0.45019138 115.0221
7.3537803 -16.134491 115.17618
28.262154 -2.4055617 115.18369
15.215775 -10.108813 115.26447
28.748619 -9.7256489 115.29491
17.96401 0.47277427 115.25679
17.992821 -6.7171354 115.33807
18.276999 -3.4684508 115.3214
3.0837555 8.7274837 115.33934
10.760387 -15.255634 115.48999
-17.682383 -2.1060727 115.48148
-26.586418 -1.4005277 115.55839
18.02306 -0.06475389 115.54987
-1.8647673 -18.185112 115.60193
-9.4443731 -14.693146 115.64268
18.339767 -4.3579655 115.69479
-23.389885 8.358922 115.68167
30.447876 -5.163466 115.88783
4.1707063 -17.644827 115.93404
25.733948 -1.5520157 115.9231
7.5435495 -22.051928 116.00908
13.693454 -11.622979 116.01042
4.1204185 -16.844948 116.24704
-6.3845024 -16.032742 116.2203
25.366978 -14.029879 116.38414
18.100868 -0.44318819 116.3857
22.847637 -3.2516999 116.57651
18.154581 -0.95953345 116.61494
5.7595682 -21.95384 116.7049
-24.562912 -3.1480184 116.71675
-16.476332 -6.4132795 116.81409
6.4356947 8.4705877 116.89624
-17.508493 -1.4166119 116.90954
0.076410383 -16.952991 117.16791
14.332918 -13.317531 117.16282
-14.945968 2.7093964 117.19251
-11.438787 6.3576813 117.15556
0.60812151 -16.956451 117.2822
-9.0355921 -15.026798 117.29933
-1.1629093 9.1051435 117.28568
17.784241 0.89088297 117.31261
-8.7066774 -15.176617 117.41472
6.5030622 -16.768879 117.60735
-15.601836 -10.520273 117.61652
18.181408 -0.80282974 117.61562
-7.749527 7.2304335 117.62685
-16.621946 1.0184234 117.7679
-25.845854 6.9815831 117.83697
-8.9835072 6.9199963 117.81374
13.857548 -21.846411 117.94017
-17.009569 0.33620912 117.95626
19.690226 -18.472458 118.05979
-11.789339 -13.669932 118.00482
-17.607304 -1.2991771 118.06104
-26.747009 0.6780926 118.16326
-20.369698 -3.0370681 118.34919
18.390686 -4.6964016 118.46539
-21.041576 -3.0988796 118.45634
-27.086538 3.6468489 118.63507
6.2463312 -22.663303 118.75603
-16.759447 -5.3791323 118.73251
-26.891602 2.0613666 118.7844
6.6673989 -17.490055 118.84797
-26.734169 0.76803172 118.85941
7.091835 -17.384205 118.92487
17.841515 0.25836474 118.91895
-12.643721 -13.058179 119.11937
7.0292311 -22.478746 119.24484
18.5467 -4.1532249 119.2963
12.850695 6.0984173 119.23312
21.501286 -3.7737021 119.45763
21.968632 -3.422035 119.467
22.724377 -2.888576 119.49472
15.678278 -12.001906 119.71532
-26.337564 0.50164205 119.73724
31.923241 -7.9427276 119.84708
20.812281 -4.395329 119.82579
14.936727 -9.5317135 119.92415
-15.629099 0.62737584 120.07861
17.6619 -8.3870888 120.17377
18.345638 -2.0943797 120.12023
23.344034 -15.240192 120.29894
-16.734062 -6.094615 120.38231
-11.369416 -14.280363 120.47001
-16.669857 -6.5904703 120.41206
-14.959238 2.7417164 120.45975
11.297873 -15.06843 120.51165
-8.3364611 6.995378 120.55118
32.002632 -8.4826479 120.68496
-13.498301 4.1872663 120.67339
-3.6127822 -16.809286 120.76677
23.877377 -0.81456667 120.7809
-6.8644943 7.4592419 120.72257
23.530874 -1.6465642 120.82266
-8.76618 -15.317892 120.90401
11.003204 -15.163896 120.9556
-6.3174515 -16.115896 121.01125
-7.0981331 -15.862046 121.02098
18.55225 -3.1712728 121.06588
18.139027 -17.380238 121.25034
-3.6424122 8.4364634 121.29437
-1.2829049 8.9200058 121.23629
21.758247 -15.187284 121.4327
-25.800768 0.60802662 121.40524
31.836485 -3.4393411 121.72016
-19.714779 -2.5108666 121.75803
-11.108871 -14.576616 121.80862
10.876278 -17.763981 121.90123
17.641632 -8.8338032 121.97852
-16.636339 -7.965755 121.90279
-15.976741 4.0653787 121.92137
-16.634029 -0.14666937 122.14544
12.630129 -17.94059 122.21068
-3.6979873 -16.685537 122.33051
13.995562 -12.748201 122.4431
23.833897 -12.6741 122.41433
-25.605904 7.6660419 122.58892
-22.044926 9.9179077 122.62537
-3.0797434 -16.632198 122.74974
14.295694 -16.355452 122.86571
15.231053 -16.071476 122.85033
0.87291116 -16.767357 122.90715
22.169937 -13.176912 122.91989
-15.522596 1.9397837 123.02348
-7.6114473 -15.803467 123.19028
-26.067776 0.40284547 123.12386
-10.37512 6.5023513 123.17214
22.945366 -0.68596315 123.2312
23.384171 -4.8052235 123.39952
6.0264912 -16.622593 123.49656
18.171944 -13.736936 123.4137
-6.0606732 -16.284424 123.6889
3.2852027 -16.715319 123.75281
20.492838 -8.9854851 123.74805
22.719179 -7.9492607 123.8546
12.074942 6.4575262 123.85028
-16.840544 -8.8342876 123.93067
19.998415 -11.472347 124.15178
-17.115492 -2.311533 124.18788
28.246399 1.4407665 124.17749
15.379366 -11.900152 124.29041
-22.654339 9.5685139 124.24414
-15.414112 -11.218422 124.38703
12.621004 -14.416821 124.54257
-21.267672 9.6834955 124.565
-17.515121 -4.8223991 124.63966
1.4869316 8.3062325 124.66471
-3.0802312 -16.490967 124.72608
17.381674 1.2455065 124.79244
-3.4019797 8.2719631 124.72186
-13.887423 -12.567343 124.93829
24.006557 -10.404011 124.94502
-2.831049 8.3697548 125.2791
-7.9278417 7.7225714 125.32991
-22.642389 9.368041 125.43318
-5.7976475 8.3365841 125.52371
-15.628849 0.20275807 125.68744
-19.370497 -3.6014276 125.79689
19.934523 -5.4274478 125.83316
-15.657 -0.8643015 126.15569
28.766035 1.3599364 126.14241
-16.384785 -1.8378259 126.20014
30.747337 -0.11603618 126.25153
-4.5983486 -16.458897 126.35244
31.18185 -7.4241529 126.34712
-2.9893305 -16.919235 126.5312
18.439621 -3.6212897 126.50323
3.4124687 -16.376198 126.69922
9.8807354 7.8722816 126.60744
-10.867867 7.094492 126.76501
-7.3738608 8.1369886 126.85094
-3.399076 -16.930719 127.00803
-22.528694 9.1760235 127.07132
25.962854 1.6867117 127.24493
-14.900639 1.8675659 127.33965
17.46221 0.83340538 127.48143
-21.401634 9.1933231 127.45248
-8.5199709 -15.461031 127.59532
29.058926 0.74133891 127.77207
-15.384833 -11.6034 127.87929
17.305208 -10.350616 128.18735
-15.882832 3.8744841 128.10364
21.748024 -11.114761 128.23239
-18.107285 -2.8741205 128.23183
10.501065 -15.270059 128.38184
17.865658 -7.3918056 128.65771
17.86552 -1.2772908 128.7547
18.486074 -8.2611599 128.93146
-17.608826 -8.1299257 128.94778
18.98741 -2.048461 128.92676
-15.748159 6.3387361 129.0766
9.9093342 -15.277255 129.19562
2.1177368 -16.432627 129.23807
-15.710165 4.3875113 129.4192
18.675451 -9.3136005 129.53012
17.882492 -7.6058044 129.58949
18.111403 -2.563859 129.59512
-16.455023 7.164844 129.71333
30.743362 -2.7090511 129.84238
-15.05682 5.0298672 129.90642
-12.362153 7.1832652 129.96895
-7.8937082 8.5339622 129.96048
2.1431184 8.9647007 130.00989
-19.835545 9.0616293 130.0768
-16.814613 -3.9658198 130.19666
-18.480141 -4.3478069 130.28606
-18.982798 9.0860815 130.21182
-0.20054665 -16.711115 130.37241
17.671503 -0.0054708719 130.36346
8.3167686 -15.458178 130.43185
21.293301 0.87348557 130.49666
-16.658974 3.8869567 130.40877
10.212169 -15.103118 130.59734
-18.210411 -1.027181 130.55469
-19.963303 9.0211239 130.51245
-17.952503 -7.6469212 130.61584
15.331992 -11.85985 130.83992
-22.920019 8.227025 130.88
0.2127398 9.0493717 130.83261
26.700897 -10.154604 130.93639
25.504204 1.9859288 130.992
-18.119802 -0.25283062 131.0062
6.4006071 -15.8892 131.1246
18.281799 -2.7374949 131.13809
-14.500621 -1.7606803 131.18381
-25.162617 5.3025031 131.10454
29.488005 -1.2777774 131.28177
-2.0396278 -16.805403 131.38901
21.03384 -11.521973 131.30537
6.9442601 -15.755703 131.45287
-11.445443 7.8276219 131.45349
-9.4467974 8.374876 131.46898
-21.145039 8.852376 131.46715
-18.766621 -3.7525711 131.57109
17.634048 0.82305717 131.57954
4.1762075 9.1154327 131.51172
27.165466 -9.2945595 131.65402
-18.675783 -4.6726289 131.60092
-3.9461148 -16.892704 131.71643
6.3540487 -15.957783 131.75009
18.62254 -1.2418041 131.72899
-20.591084 -5.2495737 131.93893
-17.855101 8.3880968 131.93166
-8.4917583 8.7594681 132.17389
-18.803905 -4.1435962 132.23523
17.669245 0.82123679 132.39378
15.669675 -11.491596 132.41754
-21.961197 -4.5939608 132.48573
11.302107 -14.767076 132.55396
-2.6067195 9.2173834 132.52757
-3.3535626 9.234539 132.60114
-18.448456 -7.1773739 132.70023
-23.551071 -2.9805341 132.75352
-19.311613 8.6857691 132.73798
-25.79314 1.0721362 133.01874
-11.16173 -14.898235 133.17888
-18.373671 8.648324 133.12515
-9.047822 -15.774385 133.24823
5.7903628 9.220397 133.21852
-14.58579 -3.1710784 133.39905
18.11688 -5.8396502 133.4501
2.2923987 9.2627926 133.56456
15.946709 -6.2150397 133.63361
24.94239 1.68906 133.606
9.3990717 -15.231137 133.82962
-18.6996 -7.2432637 134.0674
1.594689 9.2979546 134.05779
-13.724547 -13.309772 134.21695
-17.571903 2.8619752 134.22665
9.7708025 8.1949854 134.20432
-15.383711 -11.956534 134.32809
-13.380083 7.2539716 134.3596
28.159767 -5.6857524 134.48981
-13.648458 -0.39334637 134.59618
18.826958 0.49262857 134.51274
25.482994 1.2609538 134.53809
-3.2778959 -16.885845 134.62126
8.5597172 -15.575644 134.70486
-16.658819 -10.938341 134.78415
17.321907 -10.082462 134.79193
-0.017926373 -16.751673 134.86295
-18.631884 -8.5061913 134.83821
-16.207373 -11.317064 134.93268
-16.823895 4.3965559 134.99141
-2.6260822 -16.836226 135.06223
-12.758368 -14.259446 135.02692
-0.77586752 -16.774084 135.10867
7.0824552 -16.063362 135.18819
-9.0519438 -15.711292 135.12021
16.088531 -2.6042573 135.18642
13.464775 -13.188886 135.22513
-14.23326 -13.062907 135.3615
17.952829 -7.5690026 135.33951
-18.860376 -7.076436 135.30072
-20.136452 -6.1833243 135.33237
17.982182 0.13766371 135.47899
26.143442 0.66020453 135.56067
-18.966354 -6.5651612 135.77353
19.323755 0.94301915 135.79742
-14.77375 5.7567458 135.74979
-18.913193 -7.1086068 135.85268
-20.086954 8.1164494 135.82124
17.743689 -9.1778336 135.96268
24.351955 1.2703128 136.01768
-23.38085 -4.0562406 136.14032
-13.925219 -3.6465535 136.10785
13.386167 6.6234217 136.12564
15.397915 -11.689875 136.22269
-13.510321 0.023631513 136.46487
-22.460606 6.8905854 136.66078
10.679928 8.131566 136.81358
8.4619293 8.7327356 136.85138
-14.471466 5.3335557 136.97726
2.1598589 -16.499191 137.08345
-16.444937 -6.3832383 137.01003
19.843407 1.350795 137.16687
14.709751 -3.0523036 137.49196
-16.941719 4.6027002 137.43459
14.426953 -12.678273 137.55215
-18.536711 7.7074437 137.53966
-22.898039 -4.6740937 137.69901
27.32716 -4.0161824 137.63324
17.258413 3.6649244 137.62006
14.474553 5.9206386 137.60736
-17.917778 7.6547756 137.73351
6.2966533 -16.312387 137.84927
-14.374988 -13.575475 137.85135
-13.528696 1.111096 137.83237
-18.853775 -6.4669857 137.99203
-13.560177 1.7110257 137.98537
10.015145 -15.420521 138.00493
21.524021 1.8295376 138.01897
-24.64292 -0.64676523 138.19002
-13.566936 1.7241806 138.13852
18.508528 -11.5184 138.38379
-4.3852248 9.657259 138.31967
-15.58082 -6.3010597 138.45206
-13.908373 -4.6423383 138.44397
-15.399866 5.9659138 138.43895
25.108463 0.19823816 138.78967
13.728109 -3.8834271 138.89423
21.226994 -11.457516 138.96342
22.188211 -11.029146 138.97823
-15.360424 -6.2724643 138.94426
-0.34034923 9.6793976 138.98497
-17.989861 1.2111642 139.17674
-22.903427 -4.8266883 139.20299
16.92005 4.1569963 139.22641
-14.754051 -5.9200521 139.362
1.1233112 -16.310261 139.42928
20.395695 2.0707421 139.55437
-23.340157 -4.4634881 139.65971
-14.062065 -14.222616 139.79088
-24.160259 2.7118666 139.70547
14.255301 6.3021626 139.97658
5.1859932 -16.060425 140.18788
11.300781 -14.973259 140.18942
-14.086955 4.5880423 140.14142
2.5479708 9.6343126 140.18399
-12.947898 -14.728489 140.2368
15.110889 -10.957306 140.25102
26.069027 -5.0305166 140.31082
-18.753769 -4.5548053 140.36639
-9.1611366 9.2071934 140.48056
-18.586254 -7.9034662 140.52209
14.025764 -6.4947872 140.52869
-13.745258 4.1145411 140.50562
24.749401 -8.2252674 140.63516
-14.257275 4.6447515 140.62318
16.569328 -6.0776167 140.89583
