# .PCD v0.7 - Point Cloud Data file format
VERSION 0.7
FIELDS x y z
SIZE 4 4 4
TYPE F F F
COUNT 1 1 1
WIDTH 1612
HEIGHT 1
VIEWPOINT 0 0 0 1 0 0 0
POINTS 1612
DATA ascii
14.98636 4.217433 15.60948
12.048452 5.1184506 15.679165
8.2841835 3.8408399 15.734644
11.632345 3.5763474 15.846647
14.723715 5.0746236 15.842027
13.653215 5.4174099 15.842775
6.4787259 1.1741209 15.964754
14.289705 1.718878 15.953106
13.218416 2.0396905 15.930045
4.75811 3.1420474 15.985173
4.6568141 3.9034262 15.988022
4.9981794 4.2939625 15.930548
7.5878792 4.8141403 15.938925
6.8826714 5.257309 15.992567
12.400278 5.4165192 15.95174
6.7900276 1.3687954 16.07283
7.0058556 1.5540342 16.017448
4.6190977 3.5278168 16.00136
11.683958 3.719635 16.034689
8.1046801 4.0736842 16.038479
12.034104 4.8470778 16.052999
6.0733333 4.9093394 16.061733
14.010221 5.3821273 16.006802
4.6514587 3.7219369 16.16095
15.154408 4.7466774 16.159508
6.289094 4.9827056 16.100904
14.482775 5.1680231 16.108273
13.037565 5.3651319 16.119669
12.665108 2.1910353 16.213861
8.3121729 3.4506314 16.20759
9.3924236 10.164188 16.295385
8.0200024 10.824549 16.294868
8.4397621 10.843191 16.282154
12.732157 2.104373 16.391352
15.061883 4.6973438 16.349869
15.037384 4.7110305 16.35449
7.4349089 10.321188 16.324825
10.779457 10.392175 16.319126
10.500516 10.78408 16.34293
8.3552771 11.094726 16.317945
7.4873142 11.135004 16.348528
7.4815073 11.313246 16.363886
4.9083104 2.1328526 16.406214
15.0843 2.2681971 16.487125
11.973476 2.6503525 16.404642
8.0912542 3.805759 16.444719
7.9923067 4.0555601 16.439501
6.2200394 5.6569691 16.473448
5.8470578 8.4823761 16.469364
11.16484 8.8756514 16.47983
11.99239 8.8683138 16.466099
12.062317 9.3329744 16.491776
8.6922722 9.6458874 16.475239
8.5270691 9.70749 16.465635
9.1382866 11.818864 16.407066
7.4923868 11.912354 16.415745
4.644033 2.6818495 16.573494
5.6293783 4.3795743 16.554104
5.5858674 4.6712556 16.547016
6.0780835 4.702476 16.577438
6.53334 4.7172728 16.556049
12.443996 5.7082715 16.594339
12.278415 6.3197384 16.543459
13.296463 6.3573303 16.577631
12.188721 6.7106156 16.529551
5.997117 7.3564191 16.501869
6.9163156 7.4525113 16.575375
11.616923 7.4047565 16.590239
10.729203 9.3463583 16.555174
9.2305756 9.4773579 16.538534
11.144397 9.4860134 16.53293
9.0205584 9.5333824 16.512693
10.851983 11.011848 16.530054
6.6822901 11.574444 16.575203
9.6018715 12.097783 16.528782
4.8709259 1.9444323 16.626854
11.873229 3.4799943 16.689026
7.9384384 4.0305362 16.635149
14.84487 4.6530676 16.617554
6.9188995 4.9458213 16.653225
12.556818 5.1024528 16.63966
13.140934 5.2645807 16.614157
12.829164 7.8267593 16.65077
7.1412449 7.9536777 16.666866
5.3836079 9.3518229 16.602945
11.257844 9.3995724 16.667284
5.6851382 9.4441528 16.619074
6.2745752 11.24901 16.641565
10.265435 11.954972 16.615837
10.263586 12.030502 16.662451
7.2620139 12.390395 16.658218
7.1197648 1.3760045 16.703157
14.328449 1.486497 16.702471
4.8160396 1.9467351 16.744297
8.1463766 2.7442634 16.716597
8.08992 3.313015 16.716053
12.270723 4.1491718 16.786362
5.3757977 4.6134396 16.700893
12.502971 4.8732538 16.716665
12.601164 5.0898561 16.728321
7.2795124 5.4730158 16.760235
5.464695 8.3983345 16.703611
5.9794092 9.3766623 16.744377
12.381526 10.234179 16.750059
10.271312 12.187943 16.763819
7.0423555 12.438564 16.774391
7.4301119 12.55381 16.709124
4.2955532 2.3462796 16.812042
12.690844 4.3051805 16.885433
6.6755195 4.4821076 16.839163
12.743698 4.5970697 16.845495
5.1104727 4.6432247 16.893311
14.104862 5.0167561 16.835228
5.3211641 5.5843668 16.848696
11.551518 5.7576571 16.858906
5.4048867 6.427155 16.807032
12.834671 9.600934 16.845398
6.0001307 11.760499 16.84119
12.321174 2.2206082 16.97588
12.689468 3.5054944 16.933435
7.275342 4.1148767 16.943502
12.335669 4.2094622 16.963438
13.66569 4.7740474 16.954725
10.665745 7.7030883 16.974113
9.1569452 12.809845 16.9247
6.1665401 0.64260542 17.099812
5.4299355 0.96290898 17.053434
4.2982421 1.9797108 17.044405
7.1263247 3.2541447 17.082445
12.963159 4.1022911 17.053091
14.830776 4.2731228 17.074919
5.0803299 5.9232368 17.081871
7.710422 6.0139027 17.054207
5.1669464 6.6380305 17.032324
10.881014 6.8421755 17.091476
10.374412 8.4851723 17.003935
9.9896383 8.8507719 17.086958
10.096561 8.8855772 17.059353
12.800983 9.1951294 17.053417
12.900383 9.7827187 17.071634
8.6209784 10.442064 17.034081
7.383244 13.244259 17.090368
7.9976125 1.8765025 17.180304
4.0746508 2.1011522 17.174881
15.450788 2.2370663 17.166004
5.8086877 3.8716109 17.133324
4.7666693 3.938139 17.156647
5.9759779 3.961247 17.193512
11.989818 3.9918013 17.183022
6.0132999 4.0777936 17.159798
7.7257948 5.7054486 17.105444
11.181704 5.9058647 17.181242
7.8172736 6.5356131 17.158653
12.921671 8.7580919 17.140522
7.7065516 9.0642691 17.112085
7.3953342 9.2204971 17.175859
8.5823755 9.9285564 17.141708
12.395779 2.5534325 17.219677
4.3627911 2.6237311 17.299803
4.6058645 3.1347203 17.254219
4.9267673 3.2169657 17.224792
12.373166 3.3272123 17.20437
5.7005811 3.6647253 17.227398
15.590553 3.8074729 17.245785
13.288357 4.7274675 17.232285
7.8800831 5.9904795 17.283533
7.8277664 6.1118336 17.201469
10.971966 6.1525145 17.28797
10.847153 6.5945964 17.235588
12.861567 9.1102486 17.225735
8.9066439 9.4563732 17.273142
11.511878 11.85529 17.246458
11.421152 11.90194 17.211002
5.8983784 12.571714 17.229538
10.392008 12.966067 17.219704
7.0033417 1.0481181 17.323977
12.306294 2.3534045 17.37434
15.747154 3.6733751 17.305277
14.906825 4.4926987 17.398363
4.6590252 5.7768216 17.376125
7.9118433 6.2278776 17.302423
10.725287 6.69487 17.333466
10.568378 7.223125 17.301342
4.8420501 7.5038877 17.35141
13.163881 8.6888638 17.362715
10.244794 8.8568344 17.354546
13.015849 9.033062 17.39131
8.6206055 9.2510548 17.362263
13.014257 9.9879074 17.390383
12.938591 10.116684 17.355509
12.6733 10.764415 17.376183
11.642657 11.883533 17.395824
8.3657303 13.351468 17.324345
8.826787 13.372536 17.384726
8.0309553 13.442558 17.330427
5.1038375 0.97847712 17.439278
11.730053 3.8487139 17.476357
11.403409 4.6108899 17.490509
11.278237 4.908061 17.497412
7.98037 5.0032911 17.442305
4.541254 5.5070586 17.423265
8.0123539 5.6999927 17.472847
4.7042694 6.6827273 17.455421
9.6660862 8.5584488 17.468815
10.497913 8.8486414 17.405125
12.929445 10.484205 17.462769
4.8963995 10.911641 17.442842
5.3809457 11.64791 17.408615
5.6752291 12.663956 17.4865
5.9131737 13.23007 17.468018
4.6016459 1.233295 17.561712
14.372282 1.2415879 17.531334
4.3804822 2.5892084 17.51012
4.3788009 2.8657537 17.525459
10.386833 7.2485943 17.515907
8.0695143 7.4847159 17.531948
13.707636 8.0462599 17.596231
7.6838121 8.9880877 17.505033
8.8529911 9.6504555 17.529926
4.9735589 11.202386 17.548412
11.669556 11.970913 17.501427
10.676573 13.284323 17.504089
6.3910933 13.593552 17.548725
6.4562016 13.628936 17.558363
7.4711952 13.638115 17.583218
12.476149 1.8534747 17.680302
11.541698 4.135983 17.67499
14.941476 5.6171012 17.644449
4.3444376 5.7959714 17.698893
10.628817 6.3458014 17.603321
4.5245662 6.9465485 17.629862
13.728951 8.1231079 17.66095
7.7873507 9.0891771 17.65683
13.052843 10.396652 17.688036
4.7506876 11.004299 17.6541
11.924987 11.88529 17.657349
8.6851797 13.741231 17.681202
6.6037946 0.66455358 17.777569
15.825514 2.3208055 17.782831
16.049921 3.0961385 17.736509
4.2637253 3.7655258 17.746531
15.026617 5.468997 17.725126
10.739026 5.8846917 17.771086
4.5390644 8.2092447 17.782671
8.6244192 8.8037138 17.769354
4.8471227 11.294949 17.739506
11.030769 13.298014 17.787403
10.117763 13.62114 17.703148
6.6706009 13.810149 17.793633
5.7502584 0.5266611 17.804575
4.9535246 0.89451581 17.861807
7.7782593 1.5061846 17.823175
15.838792 3.6051555 17.877562
4.1698184 3.8057854 17.891571
15.053245 5.5434837 17.822046
7.8284431 8.8982048 17.842896
13.119039 10.059801 17.829231
13.02765 10.900599 17.859613
13.258079 1.3677278 17.908897
11.541965 3.900763 17.952602
15.588251 4.1587524 17.92057
15.320445 4.8785968 17.942301
15.317644 4.9681058 17.995098
4.2341933 5.8402152 17.906868
4.2016721 5.9423904 17.981256
13.953586 8.2374449 17.986853
12.999367 11.014353 17.907543
15.12977 1.4124925 18.052032
3.997669 2.4479325 18.090719
8.047576 2.7742362 18.079826
15.268097 5.1522512 18.015253
15.228258 5.3867493 18.075539
15.076034 5.8027563 18.040421
4.2799897 7.0788779 18.023031
8.3276949 7.7600613 18.089823
9.3002701 8.7794838 18.004494
13.653101 9.0702477 18.096556
4.7397623 11.563033 18.025921
4.9267116 12.27005 18.095257
11.503376 12.939925 18.001705
5.6866889 13.789347 18.097977
10.298504 13.879262 18.031691
3.9599099 3.0072017 18.160219
3.9898598 4.6239004 18.175564
4.0358353 5.1690245 18.171261
13.713141 8.955286 18.125439
13.649689 9.1568499 18.173996
13.241484 10.362452 18.123825
13.279375 10.50465 18.184336
9.7892838 13.92933 18.181374
6.299336 14.027963 18.198927
7.2748203 14.126589 18.185923
13.980156 1.0827783 18.251184
14.209778 1.059108 18.233551
13.372676 1.2978836 18.24173
11.933006 2.9849019 18.223307
3.9645464 4.2064805 18.228607
10.76746 5.4154096 18.269361
10.377232 6.3997321 18.22814
8.3681183 6.6648054 18.27055
4.1724396 7.2387967 18.262236
8.3878975 7.6610055 18.272793
8.5838737 8.4182968 18.294029
4.2891717 8.9417734 18.267509
4.980547 12.719411 18.208567
9.3151913 13.745544 18.202553
9.9534798 14.007307 18.263313
14.062341 1.0403864 18.362305
13.008905 1.6877912 18.379765
8.170558 3.8306527 18.313185
8.2165012 4.1566925 18.301861
15.659913 4.7280474 18.392862
3.909436 4.8667746 18.358604
10.41419 6.1911345 18.354889
14.80616 6.7596192 18.355015
8.4081764 6.9955873 18.381493
5.1417179 13.222664 18.300348
7.9482412 2.7605095 18.416813
8.2583628 4.5137339 18.426571
15.573734 4.9650426 18.40575
15.542358 5.0879917 18.433918
14.879121 6.6693678 18.418171
4.1691647 7.9976149 18.423145
9.8026237 8.268033 18.446087
13.306326 10.819885 18.474968
11.824404 13.068035 18.403364
5.2729187 13.525721 18.420597
12.860071 1.9218993 18.599859
4.3427162 2.3037195 18.574453
15.791389 3.0455518 18.573713
15.868501 3.2638867 18.594051
8.1093569 4.0300078 18.560518
11.325998 4.2068329 18.511112
8.3958035 5.4856386 18.590561
4.0525184 10.250389 18.588013
4.5473323 11.855671 18.512257
12.147745 12.780183 18.590651
11.738288 13.293215 18.503233
11.729234 13.349573 18.573259
9.4102726 14.050068 18.571978
12.312363 2.5503092 18.614305
7.8588333 2.8691649 18.686668
4.2308536 3.11026 18.606922
15.691697 3.8696446 18.678616
3.9710457 7.0678082 18.613411
14.23448 8.2995739 18.623074
4.2757902 11.02146 18.665552
12.630052 11.859858 18.666174
11.275183 13.833466 18.630835
8.7482338 14.086351 18.640781
6.8750663 14.33362 18.675079
5.3829513 1.0959625 18.713272
7.2347927 1.4325421 18.75359
4.5891209 1.9041439 18.759115
12.522063 2.3789215 18.778465
12.30224 2.642344 18.726931
8.2026529 4.6395583 18.75206
8.7582941 7.8491201 18.78034
8.3780098 8.5569372 18.753109
4.3850164 11.752909 18.79772
12.363908 12.5065 18.77388
12.209251 12.87079 18.798203
10.689507 14.187091 18.700315
14.765912 0.79946351 18.891262
5.5729189 0.83250403 18.82777
14.709467 0.82765198 18.818151
13.357489 1.6223446 18.836861
4.2187285 4.0542688 18.848625
3.9984853 8.5762882 18.872776
12.476074 12.331253 18.838303
12.005877 13.246758 18.854485
12.653679 2.2942443 18.914444
7.8424397 3.3788397 18.947842
15.284334 5.0850887 18.94636
14.977236 6.7638593 18.967062
12.998282 11.584824 18.981737
4.4772453 12.476858 18.920439
9.8629293 14.396034 18.965525
12.803039 2.1997504 19.07106
7.6223106 2.5345106 19.020464
10.609039 5.6515241 19.048561
4.0228109 5.7706356 19.012604
3.9219742 6.3751907 19.002571
14.736198 7.6770849 19.043852
8.3197155 8.0729685 19.074066
8.3052759 8.1041555 19.053295
12.422892 12.670894 19.05563
6.1614742 14.242467 19.03046
7.0188379 1.4805304 19.127607
15.393077 3.4909649 19.164911
11.44876 4.2238936 19.158733
10.677486 5.5793972 19.176733
4.0317521 6.3230915 19.165096
8.575284 7.1312671 19.117313
4.6931458 13.088113 19.17749
8.364089 14.272361 19.123934
8.7415781 14.285625 19.182613
6.8432608 1.3535417 19.24869
5.6082001 1.4286419 19.289139
7.5176086 2.6626327 19.272583
7.7454653 3.374985 19.288387
15.233235 3.8201716 19.294415
11.585097 4.0130587 19.200521
8.1630726 5.1119633 19.28253
4.1100988 6.1110611 19.23735
14.813976 6.5732803 19.245619
3.919785 7.3237486 19.232464
8.5058508 7.8927512 19.272675
8.3468609 7.901269 19.258732
6.3748655 14.250115 19.243748
7.6165566 14.533035 19.262737
7.0170603 1.722893 19.397438
4.8027587 2.5877802 19.336088
11.084598 4.9366341 19.362789
4.0630593 7.0332232 19.391554
4.0351324 7.1762018 19.380966
4.7520957 13.594731 19.369698
7.1159873 14.548874 19.364511
14.61974 1.1810901 19.486977
4.7182713 3.420979 19.426342
4.3631754 5.4763865 19.467419
14.739103 5.8783598 19.499773
9.2577095 7.5070505 19.480644
14.325207 8.2568836 19.450745
3.7967639 9.3352137 19.416574
3.8006544 9.6971273 19.440331
13.416376 11.079354 19.472637
5.0638123 2.441859 19.548592
4.7924328 3.363096 19.506308
14.8801 4.9533806 19.509851
4.372087 5.6097841 19.519119
14.642155 6.2622676 19.549139
3.7804825 9.7114296 19.566793
13.416522 11.116547 19.540081
3.9787385 11.526943 19.564154
6.5158544 14.347786 19.527706
5.563426 14.538824 19.528318
8.3819113 14.519577 19.569775
6.6327801 1.4020872 19.615181
15.039797 3.2615056 19.602686
14.916317 3.7993629 19.657694
14.922895 3.8906512 19.64226
11.597351 4.3167667 19.660809
11.435818 4.5527906 19.648037
11.336697 4.7164698 19.663376
11.228934 4.8797154 19.661974
8.2693071 6.1193314 19.622448
14.447788 6.8168721 19.691055
14.189025 8.4669132 19.604193
13.96286 9.3521442 19.672436
5.1619029 13.941073 19.608976
10.395529 14.483496 19.698502
10.636303 14.601364 19.604221
5.3034706 2.4722679 19.780521
11.976471 3.8531594 19.775621
11.482256 4.5611024 19.745361
4.2065849 7.6496038 19.76553
13.592309 10.49011 19.780968
10.211494 14.4329 19.795145
5.4754314 14.54881 19.760624
12.130171 3.7066958 19.861988
11.149752 5.1390147 19.832165
8.2341642 6.3842235 19.888233
10.304346 6.5949726 19.877439
10.061134 7.0396895 19.810635
8.9595385 7.405098 19.813452
13.91893 9.1449032 19.817772
13.729719 9.9856205 19.804422
13.618109 10.503901 19.823528
13.47747 10.762376 19.844847
8.4245386 14.568159 19.838661
10.678745 14.735128 19.814198
5.0567074 4.0469661 19.901773
10.29554 6.6256089 19.90576
9.0776072 7.3415422 19.981478
8.1279736 7.6489391 19.978453
9.9274597 7.6184349 19.951275
3.9373472 10.487877 19.93231
12.235538 13.141636 19.955437
6.6454668 1.7795837 20.012476
6.7620306 2.0585482 20.011183
6.9594498 2.5895782 20.08539
4.4991355 6.8773041 20.048021
4.5101814 6.8643775 20.062527
8.058732 7.9639812 20.010252
13.893826 8.2951612 20.059912
13.989389 8.3940611 20.003988
13.687374 9.2814808 20.085043
13.318536 11.070645 20.057924
13.183102 11.481625 20.060093
6.5449252 1.8066695 20.189957
14.220001 1.9768765 20.187246
5.3621254 4.0476227 20.171768
11.628748 4.7309666 20.1998
4.5438771 6.8842087 20.122803
8.361659 7.5272799 20.100334
4.0952597 10.080496 20.129559
4.3554883 11.763205 20.199589
12.901156 11.955788 20.135906
11.745956 14.06146 20.143538
5.7132645 3.123775 20.283331
7.5107851 4.4456267 20.274277
14.132141 5.0461168 20.213037
11.2707 5.3150539 20.220421
14.089272 5.4655714 20.23085
4.1286554 9.4844093 20.213974
13.390255 10.330416 20.293835
7.451848 14.66106 20.254435
9.3924332 14.659206 20.266674
5.6018248 14.708806 20.252447
6.3013964 1.6142256 20.336529
6.1020813 1.7528185 20.363808
13.19769 2.8650804 20.362904
5.8106041 3.0079999 20.351299
12.478221 3.7062376 20.326881
14.048124 4.2286825 20.328184
11.761711 4.6356878 20.313738
4.8737917 6.2658024 20.316185
13.951927 6.259644 20.310638
7.9670329 6.4357409 20.32279
8.9407616 7.5223784 20.316057
13.447999 10.01474 20.351501
4.1987205 10.505632 20.300751
13.125181 10.983361 20.331154
12.856915 11.508723 20.365852
9.2453384 14.6724 20.354523
12.983018 3.2096822 20.434853
12.323439 4.090251 20.437397
13.850926 4.1573634 20.491796
13.840792 4.8084364 20.461712
7.5528021 5.0592136 20.436924
9.3320074 7.2692676 20.404106
8.1019535 7.3116202 20.474144
8.7112942 7.5098028 20.408087
7.8171539 7.6638851 20.473331
13.403891 9.505619 20.442041
13.302135 9.8741665 20.467293
4.3049259 10.350275 20.448029
12.96322 11.057266 20.495499
4.2935143 11.32123 20.468716
12.662882 12.477837 20.440393
7.1652942 14.698152 20.456697
5.8843317 3.7403502 20.56036
11.602007 5.2088394 20.536869
8.6691189 7.8774834 20.599335
4.4417052 9.6061621 20.576782
13.423795 9.6963501 20.567713
12.695234 12.448417 20.511143
12.755086 3.7691445 20.616512
6.9331322 3.8870721 20.63183
5.8257952 4.3217216 20.653112
12.185968 4.5842848 20.608536
12.244068 4.5380712 20.632553
13.660118 4.6164074 20.617935
5.6154976 4.9792609 20.63765
10.984261 6.1757307 20.623278
13.52718 8.5997934 20.683281
4.3916078 8.8207226 20.626844
13.349911 9.9154253 20.600266
4.5058079 10.56016 20.68943
12.987167 10.617888 20.637083
11.328296 14.596366 20.639498
6.1312852 3.4959817 20.736443
7.1122322 4.8979807 20.72835
12.091398 4.9360242 20.731491
11.309422 5.9570813 20.777798
7.6562748 7.7105956 20.776535
7.4935985 7.8146796 20.797333
13.232608 8.0521898 20.776335
12.727304 12.177997 20.795574
7.8602605 14.662785 20.756037
12.635262 4.3643126 20.811407
7.7390914 6.7929049 20.821556
5.0151091 7.9485292 20.818943
13.449284 8.1098804 20.800518
4.5394402 8.6288261 20.843481
12.658118 12.008726 20.860493
6.2833791 14.683358 20.875174
13.245107 4.2973337 20.972567
13.213777 4.5428958 20.986729
12.554459 4.6774087 20.909454
5.5749116 6.3119183 20.934879
13.035339 7.5324192 20.929527
9.0543938 7.6938267 20.942585
4.7076921 8.112771 20.986586
12.989552 9.2047567 20.939249
13.181286 4.1715012 21.012302
6.6389861 4.8739552 21.033361
5.805881 6.041297 21.090725
7.2212639 6.1365156 21.024094
13.041885 6.5451798 21.054766
13.091415 6.644258 21.004847
12.862873 7.2972269 21.088886
9.9016237 7.6580706 21.043156
9.6320305 7.7510304 21.046871
8.924593 7.9067655 21.045071
4.8726869 9.539731 21.080568
4.3373976 10.986421 21.07283
4.7698531 11.4259 21.0889
4.6084523 12.510817 21.016939
8.5690641 14.632585 21.004086
7.4723496 14.713354 21.087788
11.572693 6.2406573 21.109432
12.780397 7.4695501 21.12756
4.9387422 8.0103092 21.178518
13.206236 8.7489786 21.148037
4.6023912 9.1749973 21.10071
4.9978924 9.4044075 21.14678
12.588379 10.073144 21.188339
12.534586 12.798394 21.137104
6.7768211 14.678873 21.191608
7.3171425 14.728968 21.129477
6.2932463 5.393322 21.269272
12.83333 5.5086174 21.283226
6.5762644 6.4655628 21.274761
11.578714 6.4171982 21.201782
11.943163 6.635273 21.294188
12.703434 6.8064671 21.27223
7.2037868 6.9923649 21.278921
6.8673315 7.6566939 21.217522
12.395928 10.736183 21.248888
12.265962 10.848302 21.267904
4.6195116 12.892349 21.292545
6.2034121 5.4934616 21.323906
12.463691 5.8959274 21.31675
6.3106661 5.96175 21.336012
12.387428 6.2446604 21.363926
12.006234 6.8136005 21.336758
10.829344 7.7587194 21.321194
9.4860687 8.1182041 21.366484
8.3302937 8.3140392 21.381241
5.4696631 8.6886492 21.338058
4.6242871 13.099078 21.321239
12.59248 6.4260702 21.404943
12.881809 9.0961628 21.446327
12.706839 10.485044 21.440331
4.5922127 10.528801 21.491287
5.1365438 10.633556 21.466827
12.030891 10.789755 21.449514
4.5919981 12.970182 21.458492
6.5075073 14.638092 21.429386
9.6648312 14.795826 21.478643
5.924942 7.0384126 21.551115
12.337974 7.0554771 21.511415
6.4271064 7.9059405 21.575949
5.7887144 8.6600294 21.596188
12.706974 8.9546337 21.589066
4.7787113 9.4906445 21.521671
12.073732 10.215316 21.567928
12.668935 10.437874 21.518099
11.848057 14.146935 21.53599
5.875217 7.5371895 21.692295
5.5832577 7.9132023 21.667608
12.595449 9.1575508 21.676842
12.034125 9.92593 21.614958
4.6615629 13.520741 21.634197
4.9243488 14.047053 21.615808
10.456093 8.2081823 21.726631
9.2432823 8.4388905 21.750166
9.6500673 8.5767326 21.795189
9.9958153 8.529274 21.722078
12.132745 8.285038 21.895018
6.5201988 8.6748486 21.814901
11.663933 8.8124838 21.847134
5.2693329 9.1288328 21.825064
5.7783384 9.6141596 21.844311
4.904705 10.175032 21.818995
11.589859 10.354857 21.856283
11.542618 10.806957 21.890511
4.6970515 13.579691 21.847111
8.0483694 8.5621061 21.909348
9.4588575 8.5309067 21.906746
7.2436652 8.7965527 21.964809
11.14022 9.0737333 21.981855
11.994761 13.630503 21.955479
11.747046 14.196611 21.949753
5.937613 8.7957344 22.04587
6.7602367 8.9516964 22.036503
7.4434981 8.9429646 22.075682
5.4848428 9.4211168 22.041332
11.072982 10.00516 22.061852
4.6046162 11.927918 22.05357
9.0404577 14.740335 22.081947
8.8106461 8.5208035 22.171238
6.564888 9.2053156 22.120546
6.1725211 9.4689713 22.131065
5.9764891 9.9604549 22.165575
12.044132 9.9545021 22.113049
11.789709 10.668772 22.160023
7.541121 14.653736 22.104483
10.361988 9.4331217 22.254557
5.8878689 9.6046581 22.211813
6.2517214 9.9722919 22.257256
6.5962329 14.454363 22.213579
7.6623945 8.8169441 22.38723
11.920992 11.185652 22.365116
4.9295454 11.307077 22.338699
11.966766 13.624704 22.352261
8.4926891 14.688826 22.338865
8.6384754 8.4996395 22.421463
4.6321688 13.233946 22.434935
6.8170586 9.4786253 22.561518
6.1731482 10.07024 22.543385
11.328123 10.666874 22.558907
4.5810399 11.91183 22.514669
6.9756899 14.442191 22.510344
7.1027384 14.455328 22.520966
7.436173 8.8955383 22.621109
10.011486 9.2859497 22.627329
11.133187 10.459631 22.687401
10.014805 14.691823 22.610151
6.2527227 14.357012 22.721718
8.9620838 14.562793 22.715813
4.4884486 11.916189 22.856661
4.5706034 13.310675 22.821793
6.5551367 9.5137091 22.947279
4.4567218 13.295544 22.990522
4.519249 13.54631 22.96682
4.4543352 8.6874943 23.059757
4.4366279 8.957737 23.046192
4.4537039 11.953468 23.083927
11.024643 14.475506 23.004887
9.7669935 14.597008 23.087395
6.2832747 14.710493 23.062651
4.8286705 8.9242687 23.101864
5.0938978 9.0260715 23.145845
12.065893 12.101774 23.141146
12.157158 12.411176 23.181089
11.523973 14.103861 23.158424
5.7423592 14.767718 23.180752
4.0114202 8.5600176 23.260775
7.564199 8.7391386 23.213305
4.5808878 8.8550482 23.273123
4.0299816 8.9790249 23.20837
5.347621 9.2610216 23.225529
4.1604214 9.5332823 23.282846
4.7686405 9.8426895 23.227938
6.6336079 15.046644 23.299925
5.0480008 8.2795038 23.308605
8.1246481 8.6305952 23.303991
10.192438 9.459198 23.326111
4.8904114 9.8875675 23.383574
12.140976 12.535258 23.386343
11.726973 13.895668 23.367781
7.4140558 8.767621 23.43335
6.2632933 9.397851 23.423046
7.8365154 15.248014 23.441542
3.6769962 8.6232243 23.568729
6.9834223 8.876133 23.585159
10.419355 9.6239853 23.573757
4.7299719 10.155148 23.576916
5.2128601 10.467729 23.572376
4.0290585 13.046384 23.587385
10.241826 14.594687 23.581936
4.7299342 7.8424768 23.656378
8.5995092 8.6655674 23.677622
5.0562625 8.7636003 23.651581
10.226688 9.4451418 23.662987
11.313154 10.529181 23.63003
11.934029 13.58872 23.62899
11.106346 14.398457 23.690042
4.5534945 7.7055268 23.784012
3.502471 8.6735554 23.743481
12.082796 13.013506 23.79319
8.5427265 8.6409788 23.834854
5.7689714 9.2648449 23.885838
4.1507092 12.123706 23.880095
11.770882 13.847505 23.871231
7.9326982 15.488307 23.84868
3.6998544 8.0626612 23.912106
7.8268633 8.7025518 23.925486
8.9994345 8.7635078 23.99173
9.8291492 9.0402098 23.94521
9.9335527 9.1358309 23.955853
6.095274 9.4028835 23.952217
5.2547703 10.05477 23.908861
3.9439158 12.898333 23.980949
11.142516 14.485549 23.930967
5.3355455 15.077042 23.979713
5.2736597 7.7537022 24.070467
5.5051303 7.8909607 24.034248
5.5589232 8.63451 24.091503
4.8863888 10.814058 24.071993
4.2696071 11.809917 24.064909
5.7740312 15.315395 24.04904
4.6877689 7.4849954 24.137495
3.1068518 9.0765905 24.131187
6.9355078 15.501143 24.113773
5.2367134 7.5790606 24.299942
5.9859428 9.0987453 24.254845
3.1086981 9.3827667 24.252651
5.3536463 9.5769501 24.280996
4.0923152 10.842903 24.293022
11.974813 12.72568 24.243803
11.592043 14.450584 24.296051
5.5158405 15.287864 24.248711
9.062727 15.603033 24.205688
4.6303086 7.3382449 24.382692
11.875391 13.93743 24.344761
8.0564566 8.7751303 24.429823
5.5004244 15.384686 24.470533
5.9079895 7.8086262 24.571043
4.7568903 8.0117426 24.51038
5.9288149 8.7074175 24.593521
5.5211973 9.7072411 24.531242
4.4788575 10.956278 24.528831
8.8006248 15.74943 24.592342
4.7302465 10.690023 24.642872
4.102066 11.119407 24.622595
4.7590089 15.059818 24.64263
8.7684879 15.777933 24.654947
4.596632 8.0672989 24.762394
5.8807039 8.1585741 24.744793
9.4246035 9.0673923 24.71167
3.0438428 9.7385406 24.78484
7.5778894 15.826765 24.75407
4.4000816 7.4249525 24.845356
3.0383825 9.7453489 24.820793
5.50071 9.9375896 24.848339
3.1551797 10.23947 24.858746
4.6853914 10.624306 24.854137
4.8802738 11.024179 24.894779
4.6270118 15.037941 24.834465
5.6170859 7.864944 24.932178
7.751564 8.8839169 24.953468
5.2090311 9.4143734 24.904213
5.4372201 9.7263393 24.955208
6.1668973 7.5308328 25.082897
8.8807964 8.9773693 25.017815
4.7758684 10.476129 25.042135
4.8450346 10.402097 25.048285
4.1263943 11.390922 25.022417
11.902378 12.843776 25.031803
6.5179639 8.176899 25.149614
5.5587139 9.610342 25.182194
10.640826 9.9551525 25.150461
4.8302135 10.389381 25.146418
3.9873581 11.585799 25.112108
11.907391 12.89397 25.191536
9.5249548 15.977632 25.166172
6.2206182 8.5411577 25.250904
8.118103 8.9501972 25.279762
10.093227 9.5259914 25.247665
4.4191198 11.420816 25.254292
3.8344233 11.823698 25.233063
11.915043 13.704941 25.240852
4.0117755 8.1800213 25.303862
4.7080317 8.2244473 25.357765
10.123306 9.5747566 25.3528
3.6690264 13.906206 25.325703
9.7746763 15.938533 25.35387
6.6384869 8.0099783 25.422737
4.6593275 8.687952 25.400455
2.9705722 9.5330181 25.440918
10.170673 9.6466475 25.496876
3.0660264 10.45284 25.432535
3.6957037 12.069748 25.438925
6.1235218 7.1715741 25.512466
6.0627894 9.3093414 25.587025
3.0643303 9.4392347 25.555061
4.3713646 10.719195 25.570324
4.3057156 10.862803 25.502377
6.6015239 15.807738 25.565729
4.930161 7.8621249 25.637964
9.0422134 9.1314764 25.678541
3.0878425 9.4471779 25.657551
5.432272 9.6031332 25.603962
3.0836236 11.016383 25.69949
3.9137206 11.799103 25.603878
11.622305 11.902795 25.629923
3.6196427 12.427279 25.621046
3.6374009 13.95435 25.614313
11.862996 14.399997 25.659477
5.4929957 15.639103 25.676603
10.578541 15.774465 25.613136
6.06991 8.9368896 25.753391
5.5103269 10.681405 25.741001
3.7987633 11.700565 25.787279
3.4884119 13.663105 25.737541
5.950954 15.725914 25.720148
5.0742421 7.0078154 25.82769
9.067234 9.1607552 25.888577
9.9650736 9.5157185 25.817654
2.9780698 10.682175 25.888348
4.0896688 11.09012 25.839134
4.2192092 11.944864 25.809841
3.5526979 13.848831 25.819065
4.9907045 7.8786354 25.948238
3.2922471 9.2703152 25.971193
11.452517 15.056026 25.998007
6.7359896 7.7900085 26.05267
3.466135 13.522502 26.060488
3.5711763 14.003715 26.076878
10.985937 15.638126 26.042702
8.6609211 16.10306 26.022266
6.8129854 7.8433805 26.119558
6.0427413 8.6852579 26.181265
6.1377268 8.6520538 26.110447
6.6245551 8.7730818 26.164454
5.5714831 8.8135014 26.119043
5.6824551 9.1115408 26.196747
6.0411682 9.2159004 26.149464
5.2269511 9.3744459 26.178715
5.6248088 9.4570723 26.182161
5.1314945 11.679859 26.146753
11.011019 10.608372 26.234753
3.2657135 11.822412 26.24987
4.7549644 12.049753 26.284128
11.326453 15.19554 26.220013
6.3214679 15.835348 26.254238
5.4196219 6.7862992 26.375441
6.9138622 6.8596215 26.383968
6.83114 7.5351415 26.338552
6.9811916 9.0170164 26.310989
8.115262 9.0384216 26.338123
8.2461014 9.0595551 26.339155
5.1688647 9.2475576 26.33707
5.717566 10.504992 26.358162
11.246403 11.043788 26.333038
3.7808685 11.542427 26.367828
5.0165353 11.93667 26.310387
4.8498888 12.041752 26.338753
7.0709591 7.0740557 26.456284
5.3347855 7.549839 26.447651
5.424098 9.2667618 26.468658
2.8024178 10.652083 26.412991
4.7530007 15.372806 26.418949
4.6756563 7.4544744 26.595888
6.9979 7.7130523 26.533894
4.9850211 9.6167679 26.509674
10.528835 9.9890957 26.591553
3.6427886 11.78939 26.515574
5.9900918 6.9905849 26.619226
7.1557965 8.085495 26.607731
4.4573569 8.919692 26.682243
6.4371672 8.9388008 26.617249
5.3316574 9.0870361 26.680012
8.8555088 9.170167 26.654037
5.4586868 9.2452879 26.643559
13.87669 9.2682743 26.609612
14.061304 9.4378538 26.627499
11.457986 11.362489 26.68144
9.6710854 16.13508 26.654423
4.5321674 8.1055107 26.767824
6.5471306 8.2350159 26.710533
6.2990718 8.3647881 26.726303
6.7002068 9.0182819 26.767624
10.269244 9.7967167 26.77869
13.737177 10.741665 26.769079
4.0673571 15.101879 26.757809
6.7287111 15.950813 26.783972
6.872592 8.9699364 26.80302
5.166976 9.5888729 26.809362
13.391397 9.6178465 26.82362
13.43714 9.9318752 26.818962
10.849378 10.004755 26.842329
13.305174 10.533428 26.861752
13.375669 10.718452 26.884815
2.8083332 12.098009 26.839365
3.467149 12.341002 26.828487
4.1119761 12.830418 26.886959
3.4032063 13.077323 26.831415
4.7732768 7.534112 26.952053
14.614725 9.0978775 26.971008
13.179113 9.6348963 26.915941
4.3800607 10.339958 26.974251
3.8295226 12.253195 26.943987
3.2770176 12.790435 26.929462
3.6765337 13.042402 26.914806
3.8000467 13.004127 26.929216
4.7189226 15.393026 26.961346
11.014161 15.456692 26.976944
5.082386 15.549623 26.960949
7.3100872 16.045719 26.979502
5.1187277 7.1012816 27.055067
4.7005577 8.0065889 27.016998
5.8449306 8.9824915 27.056593
13.02103 9.4519367 27.093222
11.043171 10.691625 27.033503
2.6710649 11.85125 27.023273
2.6418991 12.303464 27.077948
3.5319004 12.958921 27.002438
11.586359 14.629663 27.024086
4.4437203 15.274929 27.009308
7.5989881 7.2537069 27.19051
7.2187772 8.2550917 27.17638
8.3785505 9.1344643 27.138626
8.9000845 9.2210722 27.112484
13.090311 9.2696857 27.186089
4.9582295 9.5827055 27.152821
4.9150143 9.6224442 27.13324
5.5597548 10.276496 27.103519
12.684554 10.997689 27.198833
3.0259612 13.128472 27.170649
6.9638863 6.443717 27.214981
6.8882408 6.7631493 27.237522
6.296298 8.8261223 27.294041
5.400785 9.2637224 27.224403
3.6710038 9.4270802 27.250647
11.114919 10.860801 27.202808
4.5194092 11.787246 27.283895
3.1809893 13.540241 27.297913
3.6939211 15.065868 27.297043
10.598264 15.918868 27.250107
7.3650923 8.057806 27.370035
13.85767 8.494092 27.395149
13.846739 9.0102749 27.35754
5.78583 9.3378077 27.397196
5.4812336 9.4463158 27.398342
12.874952 9.7727013 27.336418
5.6098003 10.761034 27.324253
12.311098 11.154242 27.36998
3.8545792 11.420509 27.390572
5.4565973 11.804298 27.321644
5.1466742 12.146423 27.368828
5.1696572 7.9527578 27.491367
13.32251 9.1797905 27.453316
13.135082 9.5940762 27.401808
10.76489 10.084997 27.484657
2.40786 12.035981 27.41806
10.994143 15.444075 27.425064
6.0743818 15.813334 27.42432
8.2858028 16.218307 27.47711
5.2129688 7.8413234 27.576042
6.3291759 8.9815655 27.574736
9.050312 9.3657112 27.536644
11.373287 11.399023 27.517817
2.5707531 13.265776 27.546007
3.2673521 13.833757 27.561737
3.618897 15.095675 27.595701
7.289484 16.088554 27.550219
8.692996 16.271378 27.501955
7.5759802 7.6628604 27.614403
7.0994349 8.1857147 27.681171
14.875262 8.7397242 27.680285
9.2475185 9.4540386 27.667356
9.7342653 9.4418192 27.621681
9.837142 9.6564054 27.674652
3.3047421 9.8621836 27.647692
15.052505 9.8582554 27.638271
12.085302 10.964391 27.665825
11.453186 11.566931 27.644846
5.4355206 11.707355 27.64995
11.863317 11.958438 27.688362
11.560115 14.260851 27.605001
4.0294971 15.191826 27.635361
6.8596544 6.0203056 27.721106
5.5875978 6.8302841 27.707161
8.0637131 7.0029297 27.744307
5.2300091 7.3867068 27.767065
7.1608939 7.6094027 27.75317
5.6642175 8.2912159 27.770828
13.63987 8.4783592 27.784311
13.315897 9.0120926 27.772644
7.6666384 9.1978102 27.75762
7.9366546 9.1643124 27.761404
4.1892734 10.362743 27.789013
11.74991 11.353761 27.730633
2.7909431 13.874551 27.713123
6.4835873 15.900562 27.700336
6.0683632 6.4848785 27.804001
7.3072453 6.5042877 27.845675
8.0546913 7.0620136 27.817652
5.359972 7.4715796 27.860176
5.5835214 8.1067677 27.831141
6.8899913 8.2502098 27.884674
13.925635 8.3283491 27.834024
4.6238446 9.8083296 27.809406
12.993033 9.9409113 27.834454
11.253468 11.236567 27.899792
11.48074 11.938327 27.804592
2.1750493 12.836157 27.86058
11.590526 13.979772 27.849367
11.243731 15.062462 27.811691
7.7341056 7.1429758 27.901876
6.0387907 8.2674456 27.938166
15.097162 8.875968 27.93087
7.6627302 9.2639465 27.968508
12.749472 9.7398472 27.985996
3.6428919 9.8192616 27.986372
11.696796 10.917721 27.945589
6.152545 6.4847498 28.052122
5.5208917 7.3456974 28.063841
5.6319752 7.6193085 28.065525
14.622579 8.4976044 28.051891
13.681966 8.9911346 28.057652
7.1622162 9.2874069 28.047001
15.276309 9.6095514 28.062889
11.041466 10.633021 28.019136
5.5234213 10.909267 28.001534
11.426448 13.057552 28.011244
11.353804 13.158379 28.020781
11.256462 13.542493 28.026344
11.505198 13.69318 28.039532
11.465922 13.743165 28.03727
11.170231 14.080638 28.031225
11.30051 14.737139 28.081959
3.6645818 15.151137 28.070305
6.5664597 6.1341739 28.118521
12.421303 9.1659164 28.105816
15.30605 9.2407732 28.134279
5.9511948 9.3945808 28.175388
5.0576115 10.069187 28.162937
12.44538 10.274347 28.180725
13.722614 12.059211 28.130169
11.570827 12.759862 28.106377
11.457659 13.484907 28.1024
11.961737 13.531532 28.186081
10.992908 13.674702 28.189972
2.471463 13.798552 28.162268
2.48313 13.80652 28.148605
7.1658859 16.025713 28.159695
9.263588 16.254631 28.161827
5.9310074 6.9219408 28.20739
6.5100813 7.4447751 28.236235
9.0320301 9.4259462 28.274168
5.1589766 9.662838 28.262287
4.6627936 9.7744122 28.234236
12.229515 10.045219 28.244688
10.287996 10.140972 28.253033
15.285112 10.225645 28.21911
4.1956782 10.686864 28.20896
5.0525141 10.828591 28.229177
5.4526896 10.826027 28.277676
2.2371659 11.259806 28.284939
2.6122851 14.072027 28.221762
11.69252 14.334579 28.223406
11.316846 14.644645 28.255779
7.3443475 16.065918 28.203522
7.8759832 16.191965 28.24498
8.1977234 6.0571079 28.380623
13.882147 8.3660603 28.330881
8.7111616 9.5700178 28.393187
9.8670311 9.5795784 28.328777
12.242555 9.541481 28.308935
4.7984276 9.9544382 28.376003
12.288494 10.29224 28.373875
5.3201895 10.679839 28.360449
13.350211 12.602394 28.397141
11.323851 14.82127 28.34515
8.251008 6.6353202 28.409096
13.627726 9.0723877 28.489058
11.111028 11.052441 28.458603
2.7387428 14.47433 28.480074
7.0661469 6.1568365 28.558208
6.6420493 6.4743562 28.555115
7.2029839 7.9304571 28.582741
14.134558 9.7236137 28.585487
12.357234 9.84692 28.552206
9.6609135 9.9267292 28.595657
12.16218 10.256563 28.599644
4.0626688 10.301074 28.53018
2.8142648 10.545444 28.523149
10.80278 11.519133 28.549824
10.757668 11.792197 28.5033
11.481344 12.016872 28.533043
11.552847 13.105899 28.505074
2.5803335 14.097713 28.559444
2.8511817 14.632336 28.535507
6.0313458 15.739273 28.523022
6.9119968 15.93473 28.577213
8.6241808 5.9583206 28.664032
8.6053562 6.224463 28.673405
8.7438478 9.6655197 28.622416
9.2259712 9.8191833 28.658623
12.297027 9.8480911 28.62874
4.1192245 9.9525709 28.676247
10.45804 12.154541 28.674681
2.6813409 14.40311 28.648254
8.1087513 16.220867 28.636532
10.078732 16.398117 28.648684
8.3911772 5.7061524 28.706144
6.524209 7.5500994 28.776106
14.812832 8.7211838 28.720894
9.9222746 9.9501905 28.793594
11.875877 10.209124 28.755651
11.980968 10.280299 28.70005
14.178419 11.61165 28.757847
11.421156 12.8464 28.752266
2.1248577 13.01276 28.755623
2.532057 14.076937 28.707285
11.979218 14.719425 28.744198
7.1975923 9.583643 28.828638
9.8833847 9.6839495 28.876804
8.6388435 9.7176533 28.812601
9.8722706 9.7382441 28.866405
11.826409 9.9467402 28.858368
9.5134945 10.012815 28.868053
12.295986 10.22039 28.899078
2.5598218 10.835445 28.829908
8.9917469 16.337389 28.852858
12.1511 8.9976215 28.943781
12.449718 9.0990534 28.983334
14.824036 9.0473223 28.937044
7.3558488 9.6314411 28.954239
12.826281 10.334907 28.935135
13.100018 10.395702 28.946308
12.826464 10.925444 28.905405
2.2611885 11.598166 28.90309
4.1322289 15.207047 28.971786
8.031661 6.3307924 29.070747
13.632478 9.0755272 29.005487
13.219297 10.277504 29.029554
3.236706 10.446368 29.051191
11.017174 10.980704 29.040211
13.065731 10.942253 29.055412
14.372516 10.936185 29.070978
10.627561 11.391466 29.009159
12.909019 13.254331 29.015202
12.793316 13.532113 29.084385
2.3416374 13.86797 29.015917
8.4064331 5.4380827 29.153656
6.5816364 7.2069263 29.13834
13.810183 9.4013262 29.164406
14.57186 9.5749922 29.184359
9.9030485 9.8120384 29.18075
14.524624 10.127232 29.17108
14.588664 10.41445 29.106848
2.7635369 10.665172 29.14393
13.411064 10.81693 29.109484
12.753955 10.984428 29.125597
13.005125 10.980055 29.193672
2.2073119 13.473654 29.175325
2.222887 13.521908 29.13842
12.329188 14.610813 29.156862
12.466507 8.7409229 29.205124
14.704361 9.2179632 29.242439
13.788721 9.5194092 29.277264
8.1206341 9.7493181 29.21011
11.656093 10.320931 29.235985
14.175493 10.876369 29.283653
11.941864 15.198038 29.295656
7.3165197 15.965973 29.221825
9.6968822 16.432291 29.28363
7.5325227 5.5067964 29.318686
11.440685 10.004565 29.381165
10.211061 10.514845 29.326166
2.552506 11.068697 29.375624
10.973076 12.261403 29.310093
2.1119418 13.177284 29.39996
11.434872 15.695998 29.331949
7.467164 15.981438 29.390266
11.761459 9.7890024 29.425385
13.510032 9.8316879 29.49073
3.7288907 10.581402 29.470776
11.04798 11.058501 29.429617
10.378855 11.695923 29.430742
13.427279 12.592857 29.421787
2.5273914 13.933519 29.413603
2.9469266 14.313631 29.475376
3.6788554 14.885707 29.407423
7.8975596 16.076916 29.469398
8.5936108 5.4151282 29.568495
7.1901851 5.5234847 29.572594
6.5530095 6.9403839 29.549089
7.237987 9.9433908 29.552261
4.9363914 10.165718 29.536627
12.354906 10.301543 29.593733
10.889243 10.998184 29.516102
2.4560862 11.698897 29.504892
13.592442 12.261745 29.576206
2.3541663 13.400951 29.526903
7.59513 6.3960352 29.64884
12.802683 8.6590843 29.602573
14.288992 9.9676781 29.620928
5.7752242 10.179453 29.679064
13.853052 10.695865 29.676849
2.0476069 12.273295 29.662167
12.647593 14.19282 29.61478
11.89013 15.394114 29.606594
11.534923 15.747278 29.650805
8.2966957 16.152035 29.640879
8.6684208 5.5722141 29.797592
6.5386581 6.8210354 29.783672
11.61364 9.3949308 29.797047
11.955368 10.350727 29.741905
2.5515699 11.723747 29.755482
13.405758 12.347538 29.756138
12.840581 13.746723 29.797058
3.3168693 14.422752 29.724571
12.346933 14.830528 29.775944
4.8783717 15.24509 29.702885
8.2149706 16.113874 29.778051
13.029064 8.7047558 29.897753
11.487185 9.6740627 29.833008
7.8461499 10.041524 29.876083
8.5982752 10.366701 29.892492
11.536643 10.661998 29.886955
11.361506 10.720123 29.869606
11.621885 11.015984 29.856014
8.039485 5.1833081 29.979906
8.1160774 5.420783 29.911427
7.2085114 6.9492269 29.940638
11.869718 9.1975136 29.95944
13.969022 10.201929 29.967722
5.8647704 10.359701 29.947365
9.3953753 10.652732 29.903791
2.8014686 13.326678 29.967445
12.891459 13.64201 29.919302
5.9720335 15.5032 29.935001
8.9934149 5.5620217 30.056719
12.341761 9.1006441 30.034187
13.998089 9.6230583 30.066948
13.974803 9.8039446 30.051437
6.7525821 7.2849894 30.166861
13.676148 9.2088575 30.154247
10.945643 9.4888334 30.105438
5.9665031 10.497103 30.193338
12.376144 10.433296 30.197075
5.6674423 10.557898 30.191843
12.827222 11.130075 30.152153
13.245547 11.181571 30.143415
3.0810037 11.362115 30.161921
2.7339811 12.439268 30.144508
12.940009 13.373396 30.155893
9.7455444 16.294142 30.159296
8.7542782 5.4186878 30.283936
6.9626317 5.657712 30.283401
12.877387 9.4863672 30.276632
5.9479418 10.547164 30.274809
11.041734 10.67391 30.210739
5.1850634 10.748081 30.24251
3.0590143 12.141133 30.285561
12.919085 12.577307 30.23353
4.8359852 14.867729 30.252583
6.3010116 15.453442 30.221901
9.6800623 16.227201 30.246302
10.017686 16.226671 30.296562
8.9230671 5.8420424 30.329859
7.0414867 6.2136192 30.352962
12.047467 8.8540354 30.354345
10.859192 9.417758 30.301888
6.9649224 10.364159 30.341644
6.7736807 10.402126 30.331196
8.2781906 10.527387 30.36525
5.5344815 10.709152 30.326921
5.3853965 10.854124 30.397366
11.367237 11.075225 30.379444
11.315117 11.104065 30.380659
12.825603 12.420408 30.367695
3.1771362 13.156617 30.395145
3.7240083 13.916949 30.334957
4.9758987 14.841383 30.386108
12.159286 10.70872 30.42827
12.679304 13.053843 30.496912
12.752177 13.514421 30.402435
5.0339341 14.847321 30.415512
11.940687 15.111967 30.499411
7.4136114 15.602005 30.488426
7.8896837 15.737757 30.470476
7.9561133 5.2257018 30.58411
12.238914 11.186539 30.527479
4.7743516 11.309637 30.525364
9.525629 11.315283 30.590269
7.949851 15.722103 30.519699
7.3165531 5.7427082 30.687477
7.2193184 5.8338737 30.606449
13.118754 10.792119 30.627754
11.968051 11.029362 30.62434
5.0935516 11.248556 30.603191
6.7458858 11.39025 30.633024
11.283216 12.464283 30.692568
3.651243 12.675729 30.661617
12.390607 14.047976 30.696823
12.467808 14.079773 30.686356
12.485848 14.277649 30.65102
7.428021 5.3747263 30.772537
5.936872 10.381407 30.795324
7.0488482 10.5805 30.765556
13.1357 10.7351 30.748074
8.5377655 10.945284 30.754103
9.0675793 11.235612 30.763271
10.981436 15.635315 30.725277
7.3508821 6.8570337 30.877794
12.511942 9.7955914 30.868385
13.211039 10.277803 30.886333
12.387379 10.343321 30.88656
11.538239 10.596281 30.859333
12.481641 11.005447 30.888231
8.7497025 6.0908165 30.957237
8.3292799 11.143061 30.986338
9.1422653 11.45083 30.907085
11.41755 12.748076 30.924553
11.981105 13.93678 30.992706
5.1062841 14.385943 30.924934
7.25599 6.7358723 31.069424
11.676065 9.3356209 31.045603
10.85896 9.5853882 31.040291
7.9931908 10.920914 31.011421
5.5279326 11.120882 31.031715
8.2561035 11.190411 31.036144
6.1389551 11.388242 31.01284
6.0092964 11.831185 31.010904
5.9829836 14.662165 31.057741
9.9983149 15.508938 31.086788
7.5487671 6.6799717 31.151182
12.99383 9.7885761 31.173748
12.633008 10.843711 31.10433
11.067915 11.041437 31.134064
8.0254574 11.179267 31.118572
5.9068108 12.006474 31.149849
11.683188 12.145143 31.130276
9.9468164 12.377993 31.171814
11.747532 13.007376 31.187313
11.935715 13.685118 31.195663
5.9346895 14.566258 31.165625
9.4927111 15.319736 31.168644
7.4123826 6.4432449 31.241776
11.789778 9.0028763 31.201283
10.496603 9.9861555 31.237886
6.6140046 10.471668 31.210228
9.123353 11.093456 31.251116
7.0732193 11.476669 31.232962
6.6299777 11.706522 31.28072
5.0729704 12.194898 31.27277
11.168575 14.95567 31.266714
12.57118 9.431179 31.316113
8.9416103 11.121588 31.358185
5.5961447 12.005591 31.329033
11.649743 13.180542 31.364059
10.549545 13.350891 31.388311
4.6867466 13.47558 31.382751
8.9113197 15.060156 31.387981
12.707698 10.274125 31.41394
5.8319321 11.158631 31.407291
6.0074854 11.927666 31.455605
5.8602524 12.018806 31.474491
9.3344727 12.520914 31.467533
4.9377136 13.673676 31.485481
11.070429 14.484484 31.464203
10.419218 14.762492 31.498455
12.042251 9.0965128 31.516485
11.637695 9.6110973 31.5329
11.906984 9.887002 31.542427
10.458593 11.037184 31.588306
8.5831213 11.222244 31.569691
6.2226124 11.579199 31.542622
4.9942083 12.707592 31.5214
11.159101 13.314653 31.505955
10.292332 13.771928 31.515354
10.380934 13.9374 31.513817
10.371008 14.307996 31.578465
9.8134899 14.809958 31.51195
11.871902 9.1014023 31.618505
10.545301 9.2498255 31.690628
12.169156 9.3536243 31.615471
8.2163944 11.020098 31.60677
10.919493 11.079288 31.612938
5.6962233 12.548604 31.687592
9.0268097 12.759897 31.68771
5.9868932 14.34383 31.651205
9.3415289 14.76303 31.615292
11.030802 9.2211123 31.755411
12.051496 9.614809 31.79476
12.298416 10.558025 31.754555
12.382471 10.538221 31.722919
12.149626 10.62569 31.777874
10.798073 11.122277 31.796812
8.9660187 13.420465 31.787403
9.6605244 13.481137 31.73702
7.3257213 14.640276 31.796665
7.8543286 14.786181 31.700287
12.286107 10.126369 31.814054
12.301935 10.194244 31.801596
11.350065 10.690223 31.868464
7.5439353 10.825311 31.830307
7.6835942 10.933311 31.893318
8.2548447 11.711135 31.820295
5.9621096 14.021918 31.825441
9.3241253 14.412207 31.881046
12.034232 10.128076 31.912327
11.988391 10.579055 31.901463
10.473324 10.963363 31.955212
8.7375631 12.025564 31.922081
8.9785385 12.596527 31.923901
8.2196083 12.77499 31.995434
5.8313684 14.154495 31.955132
9.4589653 14.298826 31.927301
6.2436485 14.363113 31.924149
7.7989078 11.368779 32.069729
8.7143793 13.515812 32.062054
11.213713 9.9530678 32.147018
9.8983564 10.449162 32.195438
11.47098 10.893027 32.189137
6.2953749 11.298753 32.115055
5.5291438 13.106386 32.170242
8.1466017 13.152004 32.110836
7.8717833 14.086407 32.188374
7.8983135 14.421604 32.183258
6.2216339 11.510165 32.206062
8.4529591 12.277279 32.216988
5.5109444 12.722647 32.289082
5.7982435 14.164312 32.231438
6.7739191 14.586939 32.216248
8.1753063 13.755462 32.388329
7.618926 13.953514 32.398228
7.6263742 10.591181 32.407028
7.8982749 13.898462 32.494301
7.8862896 10.678848 32.548244
5.886549 11.504646 32.568512
5.1428938 12.95727 32.507782
7.4872041 14.190314 32.540253
6.1006699 14.273533 32.538231
10.812611 9.4059753 32.688946
9.7218361 11.163555 32.622856
5.5041084 12.391354 32.601242
8.2558126 13.099741 32.632717
7.9863205 13.578702 32.691006
5.4788036 13.776324 32.605186
5.7829194 13.873961 32.612194
6.03125 14.024805 32.668888
9.1694527 10.748447 32.709908
8.0901432 12.097421 32.774979
6.1766567 13.859884 32.725662
7.5040951 13.865469 32.79562
7.4314194 10.042486 32.824371
7.651618 10.23996 32.858212
6.9298182 10.427122 32.885765
5.6490955 11.766764 32.884338
8.1411715 12.096084 32.896931
5.6438103 13.805508 32.815189
7.0414882 10.079632 32.937016
8.1315508 12.264996 32.951172
8.4325123 11.313011 33.099121
8.1618261 12.28902 33.073475
8.0682001 13.220026 33.076984
7.9988937 13.348596 33.056973
7.6268654 14.143156 33.028481
10.840693 9.7596655 33.141502
7.2549677 10.036972 33.119534
7.4651685 10.077289 33.156799
7.7624087 10.368989 33.191505
9.6392488 10.839884 33.153225
8.223381 12.135368 33.100849
10.047269 9.2990999 33.266808
5.4677238 11.738527 33.294254
7.5179801 13.755066 33.20768
6.3459535 13.989849 33.237789
7.2273779 13.926903 33.248222
7.7648306 10.318114 33.387131
9.9042397 11.214344 33.333229
5.4932976 11.335359 33.362228
10.424921 8.9399014 33.407478
8.8835068 9.6917953 33.446163
6.7060184 10.089251 33.43457
5.297328 11.219199 33.403019
8.8394203 9.4733229 33.588028
7.2594919 9.5861444 33.597443
9.1410675 10.971657 33.510239
5.6655169 13.28409 33.514828
8.1282377 10.114635 33.675488
9.0661411 10.873053 33.695862
10.594667 10.890594 33.686207
10.56514 9.455617 33.705681
6.5539703 9.5898809 33.75985
8.722929 9.7790775 33.752872
6.8736768 9.9863634 33.754677
7.6473551 10.200758 33.793583
5.2149076 12.081458 33.75909
9.76367 9.2438707 33.890545
9.5296173 9.3225889 33.891575
9.2640629 9.7383785 33.861465
8.9024849 10.824892 33.880081
7.2874117 13.69105 33.895443
10.3675 9.3471642 33.989418
8.6253128 10.735552 33.989735
8.5401535 11.766579 33.922832
5.1277456 11.85187 33.984467
6.9657564 9.5639801 34.050419
6.1848278 10.016712 34.008747
9.9682617 10.104737 34.001057
4.8688087 11.545523 34.069149
6.2095408 9.9833937 34.135384
5.3574815 10.321734 34.159943
8.8985786 10.038352 34.202469
9.1592779 10.274935 34.216869
9.6574326 10.2507 34.27755
9.6609831 10.324936 34.276203
5.5351706 10.472305 34.240513
8.4808836 11.055943 34.225498
8.7141447 12.24507 34.250061
5.6385002 13.352612 34.204052
6.2562313 9.9278421 34.313896
8.8150187 10.567027 34.393623
9.3755808 10.636668 34.376663
4.9717097 11.705351 34.351894
5.3306751 13.063051 34.360271
7.5109367 10.128801 34.471474
5.5467238 10.422427 34.408058
10.109696 10.41806 34.482269
9.5921402 10.739434 34.428925
7.6766706 13.325974 34.423088
7.2737823 9.8650055 34.546516
9.8710995 10.326532 34.564411
5.0685883 10.814655 34.531059
4.905664 11.98282 34.508282
7.7330627 13.359354 34.529434
7.4465013 13.527102 34.568203
5.6940861 9.5261316 34.689472
6.4349766 9.691988 34.644135
8.5048389 11.864401 34.684597
8.3417845 12.62253 34.718925
7.7850456 13.373562 34.779289
7.5305781 13.591479 34.752617
5.6413569 9.6686182 34.818966
6.2743645 8.729228 34.934948
5.8367519 10.035023 34.995426
6.3075428 8.9774265 35.072449
7.1361766 9.664444 35.035789
5.0200157 13.312661 35.025162
5.0834541 10.707187 35.155796
7.9564304 13.263546 35.123676
