# .PCD v0.7 - Point Cloud Data file format
VERSION 0.7
FIELDS x y z
SIZE 4 4 4
TYPE F F F
COUNT 1 1 1
WIDTH 1550
HEIGHT 1
VIEWPOINT 0 0 0 1 0 0 0
POINTS 1550
DATA ascii
27.065712 1.5351915 8.289341
-10.717871 -2.9183664 8.3504038
26.982986 1.8580816 8.3289728
26.781277 2.5488577 8.4029026
26.873251 1.7491426 8.5338278
0.83437878 4.2074127 8.6237698
-1.557973 -9.8331766 8.7900581
1.4631835 3.5028756 8.8384399
19.372362 -10.599365 9.0550117
17.882401 -8.7096996 9.0372143
-8.1834927 3.9331589 9.2096891
0.96744704 4.1324363 9.2606754
-3.0335059 6.2958975 9.2332668
-6.3751402 -12.791307 9.9806166
-1.4549617 5.9896269 10.074798
25.036346 3.9280124 10.100355
0.180251 4.6414604 10.334598
-4.4052391 6.1557751 10.57745
-3.8487103 6.0980201 10.642535
-3.6747103 -11.978566 10.852222
18.104809 5.5588756 10.826918
18.483412 -9.7547741 11.083209
-10.39826 -5.6982918 11.021827
15.25411 -1.2787459 11.089756
-7.9658432 3.6836209 11.106575
1.024087 3.7897816 11.224094
-2.9159894 -11.314127 11.328243
17.609476 5.0347567 11.495335
23.343472 -12.191246 11.631847
24.845692 -10.643484 11.612643
15.360224 -0.029315889 11.653398
-0.83191615 5.2625375 11.690517
-9.8364296 1.1467344 11.74229
0.79944068 -6.0945373 11.889174
15.414562 0.64329803 11.825189
26.159565 2.4288011 11.871066
-7.5369129 -10.849924 12.090243
-10.097576 -0.49250522 12.176254
-6.2398148 -12.021286 12.375878
-0.0020852573 -8.074995 12.318077
-7.0163317 -11.270099 12.558613
-6.6816278 4.6680489 12.966648
1.5316157 2.1839051 13.084878
23.846413 -11.386596 13.135792
-10.547071 -4.3154035 13.115308
1.5630528 1.7195561 13.253289
19.857714 5.7212143 13.248001
15.69032 -4.9675837 13.402151
27.014061 0.43656197 13.637047
-5.3426256 5.7177339 13.858027
27.485218 -3.3341975 13.932869
26.883636 1.2106862 13.926353
-7.5120783 3.6703923 13.920615
16.478127 3.6826501 13.95976
-7.0279322 4.191864 13.995495
2.0623055 -3.4625442 14.160767
1.9537687 -0.9351508 14.249973
27.070498 0.039361112 14.218534
14.959589 -1.8893821 14.473413
15.604181 2.3878181 14.570326
15.621078 2.5859807 14.662796
20.69483 5.5884876 14.803239
20.912886 5.5865402 14.823712
-8.9881372 -7.7354803 15.198349
15.114582 -0.70978284 15.163389
26.89007 1.0656048 15.12634
15.456095 1.4905342 15.635281
-2.2389417 5.4422221 15.888183
-9.0836153 1.7602849 15.958275
-10.623872 -6.217659 16.482941
25.062138 2.9257894 16.439083
2.1983488 -1.4995145 16.570978
14.950073 -1.1189274 16.646872
15.323108 1.092669 16.658066
0.94206715 -7.506947 16.806574
26.634197 1.1215879 16.961948
26.307552 -7.909235 17.202547
1.5350214 1.9639628 17.311913
22.776077 5.3334064 17.343454
14.946028 -4.6737633 17.67375
2.2874668 -1.6254047 17.626339
1.5102607 1.9824128 17.758606
15.085986 -6.1284213 18.094379
-6.6379461 4.2203908 18.104568
-6.1263638 4.760397 18.294449
24.640228 -10.042356 18.857443
1.5516386 -7.1602597 18.834093
26.573708 -8.3717403 19.415571
15.037214 -0.42920154 19.570469
-9.983757 -3.4992828 19.650181
24.122433 3.6329803 19.690578
-3.355612 5.2428703 19.654892
25.795271 -9.0615177 19.755825
-3.6330628 5.2338219 19.8535
14.572764 -2.2502377 20.033844
-4.2264814 -12.294117 20.209709
-9.2065067 -8.6436939 20.374088
17.822161 -10.322969 20.441879
-2.2104974 -11.062689 20.620625
0.13475555 3.9930968 20.668911
-4.7782736 5.1897702 20.809607
-2.3162019 -11.147751 21.047379
15.262345 -7.1828952 21.112375
18.196838 -10.469555 21.237745
-9.5058231 -8.4193954 21.589941
16.447468 3.2784622 21.500887
-2.8555861 4.9840326 21.777729
26.185249 -8.7914581 22.069386
26.998285 -8.0566454 22.057875
23.13896 4.4779835 22.024384
-9.830822 -3.316658 22.299765
-9.1177816 0.76970863 22.297592
27.771423 -7.0389175 22.371998
2.4076939 -5.234333 22.323978
-8.739501 -9.1142006 22.443359
-7.5508204 2.6389325 22.430981
15.851023 2.7364831 22.470783
2.1466765 -6.3758769 22.598984
1.8708171 -7.3122649 22.832634
2.1378858 -6.4594646 22.944633
-10.001575 -7.8528447 23.216843
27.126911 -4.0790129 23.213028
2.5076127 -5.093235 23.52651
21.661034 5.0166202 23.52475
26.635704 -8.3668594 23.68038
1.1175382 -9.1610575 24.033485
27.560944 -5.8418322 24.09218
0.52104104 4.0429049 24.020939
17.693478 4.5712004 24.002911
2.5640578 -5.1570773 24.426701
-8.2491322 1.482028 24.474333
24.711784 -10.155743 24.64275
14.648641 0.46505442 24.771181
-8.5858431 -9.3238688 24.929176
15.140182 -7.3968735 24.96513
-6.2439928 -11.367102 25.093838
-8.1150017 1.6215361 25.004875
21.970123 5.1281233 25.03993
-5.9268565 -11.644401 25.175161
18.27429 4.6441488 25.525776
21.387152 -12.346481 25.753435
2.5720696 -5.4938154 25.774433
15.784725 -9.3198147 25.83473
22.898743 4.279078 25.973318
2.5243089 -5.6865931 26.007784
27.304226 -4.4114223 26.004307
-6.6141629 3.3568811 26.151056
21.534962 5.1362343 26.183149
27.803038 -6.5436153 26.348078
23.568779 3.5237834 26.366268
27.363592 -4.6049218 26.423201
24.797417 -10.139746 26.575552
-8.6368065 -9.2388096 26.574903
14.425196 0.55240482 26.779791
27.594912 -5.5322771 26.96793
23.661366 3.4844477 26.958294
22.517586 4.6792912 27.051104
25.423475 -9.5594168 27.147837
-4.8740578 -12.577525 27.247948
21.839478 -12.536527 27.235018
-7.7557602 2.2527571 27.391651
-0.68920761 4.4523368 27.348541
1.3066345 -9.7214718 27.440365
26.941103 -2.5699127 27.568743
25.468643 -9.4564152 27.756136
2.8186331 -0.78672612 28.400789
14.228208 -2.3571584 28.68646
27.707479 -5.7468028 28.718016
2.8663123 -0.65662527 28.877647
14.17679 -2.1500747 29.230848
2.3604338 1.2324376 29.298931
15.1015 1.9883983 29.288837
25.38908 1.8729739 29.418495
2.9554634 -3.0245435 29.657303
1.9396418 2.0896676 29.687912
27.315237 -7.0596929 29.778744
27.796104 -5.9449244 29.912611
21.178219 4.723525 29.917381
21.926754 -12.641459 30.013205
-4.4669752 -12.52375 30.158339
24.931803 -9.9424763 30.183939
-7.432004 -10.466663 30.245117
25.267962 1.9742935 30.242619
24.695387 2.4254928 30.274555
26.700367 -0.70856822 30.336617
20.962749 4.6446524 30.389376
-0.1914404 4.1780858 30.546263
25.909565 -8.7156858 30.687037
-0.78745538 -11.026589 30.800621
2.0243659 1.930366 30.868383
15.239004 2.2837868 30.861458
16.028591 -10.557454 30.981993
27.180767 -2.8467116 30.954548
-9.7245483 -7.578249 31.052359
14.015538 -2.4869242 31.102802
21.491722 -12.572426 31.239651
-2.6209345 -11.649216 31.360863
-3.6800189 4.4327621 31.694969
-5.2654991 -12.373803 31.916321
27.42141 -4.0746636 32.247231
1.9344724 2.1275582 32.282776
27.48793 -4.4238577 32.447487
17.36421 -11.076152 32.578747
3.1815238 -0.57762998 32.561638
15.424232 -10.385161 32.666595
27.493046 -4.5244184 32.81633
-8.5260859 -9.1674547 33.094696
3.2315426 -4.5986528 33.029762
23.71265 2.6462257 33.136349
14.556528 0.93163472 33.338116
26.214979 0.86090201 33.400822
14.446873 0.71446085 33.553841
-3.1446669 -12.108166 33.750538
3.3071339 -3.0364165 33.809334
-10.335594 -4.4013443 34.390347
3.349427 -4.3223448 34.506119
26.502941 -8.0891085 34.659782
-10.407257 -6.7792802 34.633846
-8.0300694 -9.8552809 34.875671
14.699346 -9.0071936 35.116539
23.361553 2.5223312 35.145245
19.993326 -12.363579 35.569088
-10.706246 -5.9502945 35.58791
26.761009 -1.7212486 35.597862
2.2095184 1.6092057 35.506035
-3.2814021 -12.43774 35.68652
23.694801 2.1872911 35.871162
25.618317 -9.2582712 36.046776
-4.6757722 3.5924668 36.100468
3.0964413 -6.8407855 36.333622
1.6844885 2.6820335 36.794052
-2.7436981 -12.541948 36.832443
-5.8799148 -11.912664 36.840736
-1.8800449 3.5246682 37.239967
0.40746921 -11.390696 37.338833
-0.42922825 -11.706226 37.450947
-8.1073837 -9.8399277 37.454742
27.679279 -5.5871243 37.418312
2.9870219 -8.007308 37.546005
14.957158 1.7946024 37.690659
24.789604 -10.368048 37.797302
25.37199 -9.618371 37.701939
17.62781 3.438622 37.704899
-2.7308705 3.4862144 37.887733
20.2122 3.4781013 38.088959
17.594193 3.3984752 38.101494
16.912203 -11.555798 38.341209
-6.7982521 -11.157568 38.492676
26.042913 -8.7399654 38.475197
3.1175811 -8.0436058 38.452568
26.874809 -7.64153 38.549747
13.435625 -5.3934693 38.584015
-4.8618445 2.9887037 38.953255
13.921732 -8.2053146 39.084564
22.095078 2.8952932 39.018074
22.533962 -12.333818 39.261223
15.553151 -10.969458 39.554089
-9.6744022 -7.7989836 39.531334
3.8147774 -2.4392254 40.030899
3.4021115 -0.74397182 40.036156
1.5462725 -11.007677 40.221481
22.007938 2.9660861 40.375969
27.51808 -5.1896591 40.430771
3.7235508 -1.3939471 40.759232
-8.9937162 0.31393105 40.797791
26.145212 -8.6317883 41.048702
-9.3503151 -8.2429991 41.03664
27.007397 -3.3094897 41.050709
13.782432 -0.55880123 41.183411
14.137602 -9.8127089 41.236019
22.823082 -12.173891 41.324516
1.8086878 -10.935258 41.315865
24.949152 0.97660869 41.660885
22.536716 -12.44253 41.926445
15.325019 2.5857952 41.96484
13.076124 -3.3446877 42.333099
13.071037 -2.8786504 42.328243
-9.6057835 -2.2169905 42.531109
26.917452 -3.0604367 42.71209
3.0948851 -9.6915493 42.939903
27.222136 -4.212512 42.915287
-9.6897221 -2.5515442 42.911324
14.145748 0.15998828 43.055386
-3.1110415 3.4873309 43.04911
15.176105 -10.997084 43.279846
-10.154666 -4.3238602 43.490986
3.8363204 -7.0483227 43.702332
-2.9026585 -13.254522 43.850391
-2.8284259 -13.251899 43.961464
27.211061 -4.2240596 43.918003
13.18792 -7.0007639 44.159439
-9.912466 -3.4501631 44.124771
-9.1698828 -0.13742231 44.120895
21.959673 2.951014 44.187599
-6.35357 -11.822342 44.287903
13.686649 -8.7616568 44.373173
-1.5587369 3.4485652 44.377075
21.528826 -13.32343 44.470051
15.974485 -11.512454 44.587929
-3.6222992 -13.339104 44.687241
-5.7119656 -12.364892 44.788231
18.450787 -12.849801 44.916012
27.403315 -4.9982939 44.940193
24.074833 1.6491162 44.93779
24.82243 -10.800632 45.462086
12.943242 -2.2707362 45.623032
22.461996 -12.705648 45.891228
-7.1601887 -11.286137 45.920677
-0.55872649 -12.515917 46.062122
-8.4937601 0.64307427 46.226669
-10.327202 -7.1981726 46.597061
13.610278 -0.91620862 46.694336
3.3625917 -0.66968679 46.762459
3.2995493 -9.958602 46.825256
-10.050423 -3.1059768 46.856689
-10.084637 -7.6378541 46.905563
4.3339171 -6.048646 47.081913
13.068482 -7.668993 47.17823
22.041698 2.8663473 47.232677
-1.3691391 -13.521379 47.41584
22.976894 -13.254765 47.570839
-5.832972 2.355705 47.510788
17.860596 -13.231495 47.821037
14.11566 0.17801172 47.880821
-8.8990936 0.4015623 47.87735
2.5991735 0.97144336 48.065258
15.977545 -11.898916 48.13887
-10.087811 -7.931109 48.144634
3.8430769 -1.6485665 48.188393
27.39217 -3.8033948 48.294003
-4.2570176 3.2542992 48.283981
4.2447581 -2.4858129 48.369682
25.433697 0.79194891 48.327835
17.299229 3.358577 48.374092
13.540779 -1.0209863 48.430523
-1.9481297 -14.468767 48.590508
13.181911 -8.4981213 48.524715
14.047073 -10.705126 48.654625
3.3953836 -0.69215065 48.70311
1.6879101 2.8385108 48.884712
12.625998 -6.4767036 48.932091
24.652758 1.3402297 48.990891
25.768188 -11.81932 49.216961
3.9816506 -8.5252743 49.286659
18.550617 -14.37108 49.403881
2.8740916 0.42487651 49.443024
1.4679575 -12.14381 49.688923
3.4387121 -10.341791 49.650501
15.537826 -12.110466 49.848206
27.033705 -9.9061184 49.933842
3.5109334 -0.90260291 50.083401
-2.3774481 3.5823302 50.165878
22.351267 -14.128168 50.365162
4.1794548 -8.2190056 50.426895
25.97023 0.47330326 50.559425
14.808247 1.7041335 50.611408
-10.158061 -2.5885291 50.904961
14.73787 1.5628912 50.909031
-9.544631 -10.604156 51.07309
13.390781 -1.2746762 51.032654
15.801196 -12.571944 51.142578
-9.0294971 0.38952589 51.370583
22.639982 -14.040823 51.506737
24.501633 -13.110667 51.636681
19.40472 3.6057584 51.649101
3.8780427 -9.5445747 51.801888
25.7652 0.64406401 51.916779
1.8350455 2.6774499 52.002819
14.601206 -11.822447 52.154949
27.364908 -2.7685502 52.187054
4.8423452 -5.1658874 52.222176
-9.710495 -0.42853159 52.261307
27.068609 -1.4421571 52.647816
13.198112 -1.5636692 52.70594
0.60990757 2.992969 52.763847
23.951286 -13.396731 52.810753
-4.2891383 -15.073515 53.071037
28.005243 -6.334106 53.246441
27.968534 -6.087811 53.315239
19.150684 -15.009083 53.547714
25.781378 0.63374436 53.563152
-2.6306682 3.6510572 53.522758
-10.762844 -6.7356777 53.725578
27.021778 -0.94423956 53.936729
2.2313836 1.8882172 53.936302
27.893648 -5.8903551 54.294041
-9.0932169 -11.106811 54.323746
-6.8032312 -13.462387 54.409592
-7.9546723 1.04777 54.461063
25.478973 -12.330589 54.609985
-9.890481 -0.61273181 54.603279
0.64305413 -13.785205 54.733208
5.0460649 -6.3247018 54.842903
-10.259882 -2.3912826 54.846184
0.1723429 3.031168 55.063179
13.304408 -1.0226121 55.173599
22.669073 -14.42644 55.320747
26.413364 -10.506371 55.328308
25.579863 0.72825539 55.322033
-0.19434103 -14.379321 55.697495
23.077381 -14.170546 55.635391
5.0170298 -3.2241719 55.657494
-10.259716 -7.8312731 55.816528
-1.9240634 3.5597796 55.854122
1.1396247 -13.636662 55.938496
27.274475 -7.9622164 56.197029
27.245359 -2.0944557 56.1241
-2.2500138 3.6371439 56.119839
25.589769 -12.072772 56.207844
3.1983237 0.31220198 56.396774
15.856418 2.703033 56.461861
13.786509 0.2710005 56.623146
12.873649 -9.8570023 56.816532
-1.8412991 -15.148427 56.996964
27.647804 -5.0733714 56.96978
5.4154015 -3.599699 57.055428
1.8552955 -13.001277 57.171238
23.312927 -14.194271 57.409321
11.631512 -5.2449188 57.436771
22.061438 2.7932134 57.500275
0.56068039 -14.238164 57.621666
-3.0089719 3.9324656 57.887833
5.2314634 -2.8062215 57.954082
14.112969 1.7476628 58.09087
-10.324415 -6.9529662 58.115547
26.992081 -1.1642891 58.100536
15.420479 2.7145483 58.277748
1.9231367 2.6600895 58.403107
4.6011972 -1.1905073 58.542828
25.865656 0.69479603 58.513786
15.727402 2.8117862 58.556519
-5.2100558 -15.07011 58.751549
4.5555911 -10.14698 58.744743
3.9535275 -10.928549 58.839996
-3.3437927 3.831918 58.836494
1.3051635 2.8633094 58.981354
2.8560016 -12.372869 59.073757
17.351059 3.3470864 59.176018
-9.782341 -0.8640275 59.342716
-5.1137104 -15.219331 59.412212
-10.148237 -3.3764737 59.573193
-1.3969213 -15.480349 59.718735
13.756713 -12.009389 59.781578
19.223055 -15.674974 59.826588
11.280621 -6.8194933 59.835159
5.9140639 -4.9574151 59.801071
27.57238 -4.9597802 59.830677
-1.9918166 3.9755516 59.98241
20.690165 -16.068016 60.025501
11.226358 -3.8350296 60.035309
19.758919 4.2505751 60.138466
15.114036 -13.988498 60.24818
15.61384 -14.41993 60.433292
-0.29552668 -15.174999 60.506088
27.04977 -2.5106199 60.506149
21.45166 3.4188437 60.56356
20.553484 -16.147923 60.722523
25.668627 0.89314651 60.76281
0.14756283 -15.057451 60.979023
-6.8232656 -14.187335 60.995903
12.037296 -1.3234646 60.919067
24.866287 -13.513487 61.021446
-8.0194941 1.2605109 61.037365
-6.1467633 2.4602945 61.067841
14.930344 -14.184979 61.370304
6.0050893 -7.4355736 61.303658
4.9302297 -10.558598 61.444763
12.177736 -10.597805 61.492783
13.589218 2.1375198 61.427437
-8.6797295 -12.004915 61.570396
3.6226664 -12.273808 61.603661
3.0698209 2.6321254 61.725422
10.868507 -6.5728588 61.927921
0.77542222 -15.017347 62.126709
26.199419 -11.160092 62.656036
23.275778 -14.856327 62.76836
-3.5980744 4.0513616 62.759583
12.728004 0.82452613 62.844536
11.86586 -10.693893 62.9828
10.870849 -3.465229 62.93166
15.469005 3.2719009 62.910046
13.292959 -12.620995 63.068043
25.536009 1.0518743 63.061901
23.431549 2.4032726 63.194248
10.60331 -6.6107588 63.394196
12.169518 -0.1277262 63.387444
-0.31415224 4.0423312 63.434456
11.625198 -1.242862 63.645981
-9.5063324 -0.63403654 63.676067
11.960224 -0.51298046 63.605972
-2.5878389 -16.459412 63.952324
4.0852947 1.554981 64.091476
13.290746 2.0674548 64.030273
-8.4054127 -13.053044 64.140457
26.816895 -1.5590216 64.185585
24.973454 1.4481729 64.188675
19.295029 4.7197046 64.254051
4.661273 0.56673551 64.435234
-5.6153045 -15.502399 64.574661
22.917934 -15.359308 64.680504
-0.75600708 -16.207039 65.06604
6.7255116 -4.700592 65.393677
27.452063 -4.2209306 65.394051
-3.9785442 -16.836275 65.64975
10.158733 -6.1301413 65.604889
-9.8685732 -9.7614269 65.758362
-9.3987713 -0.072402239 65.753769
1.2886245 3.6264274 65.960571
2.8230016 -15.056066 66.080208
10.324409 -8.6627598 66.234406
26.161739 0.6734398 66.308304
21.720585 3.5360589 66.495804
25.286228 -13.875066 66.845085
10.088379 -7.565424 66.903564
12.945979 1.9882692 67.046371
5.5252976 -11.810575 67.136322
-2.7293108 4.7566543 67.193039
7.1454511 -6.7595558 67.209351
5.1639428 -12.402332 67.413528
5.952589 -1.2325827 67.489227
21.009933 3.975821 67.413712
3.1122358 -15.247142 67.629326
-3.4171023 -17.227589 67.801674
14.54539 3.2643204 67.909241
-2.5746737 -17.047485 68.071327
-6.094677 -15.47922 68.008415
3.8885152 -14.391531 68.065498
-10.388232 -4.4721456 68.040771
6.9020824 -3.4100876 68.087669
12.960242 2.2120104 68.13076
15.370833 3.5866792 68.145981
6.9288111 -3.5318041 68.209396
10.36173 -2.5487609 68.205803
-9.5968695 -10.277015 68.445259
17.976927 4.5790019 68.414543
7.145421 -5.0597954 68.502441
19.103584 -16.945839 68.747894
2.9201775 -15.492496 68.725731
13.795312 -15.308756 68.755783
-8.5375776 -13.021591 68.853065
11.732468 0.10185927 68.843826
-5.4570141 -15.975336 68.903793
-9.5476704 -0.50738329 68.960678
12.653687 1.810194 68.994652
18.662994 -16.857916 69.093124
12.905559 -14.272088 69.038788
12.907816 2.276324 69.00811
3.5946879 -15.008692 69.103203
9.9394102 -4.5574341 69.189301
11.101531 -0.92519814 69.630714
26.787117 -9.3850708 69.778816
12.663118 1.9685555 69.768814
1.8192025 3.6436703 69.727776
0.47099522 -16.515997 69.929123
27.436449 -6.2168503 69.995949
-10.175034 -3.9180396 70.073242
25.287354 -13.784889 70.23922
-5.4863906 -15.959373 70.365715
13.08285 2.8392072 70.343697
15.329683 3.7064567 70.303978
7.5336504 -6.7338009 70.403625
-6.6009083 2.1675835 70.656448
24.052639 -14.872999 70.73497
26.809189 -1.1218581 70.922569
13.621908 3.1572452 70.963364
19.680157 -17.178501 71.064636
17.241247 -16.886662 71.022003
13.683099 -15.640594 71.089523
9.6418114 -8.4601278 71.088387
27.337183 -4.9357309 71.040916
-0.23176433 -16.904358 71.139099
0.47355986 -16.673136 71.14946
1.3857853 -16.336977 71.170815
-9.6202192 -0.6691218 71.318863
-9.4858055 -9.7930002 71.470909
26.667343 -0.48346278 71.417953
9.6841192 -4.8111653 71.555511
9.7044163 -4.5997386 71.657097
-6.6178088 -15.144682 71.714455
14.904543 3.6686168 71.828857
14.137995 -16.051598 71.933685
11.811584 -13.549015 72.126755
-8.3637304 -13.277788 72.271675
-3.1586456 4.3766446 72.474838
20.014507 -17.317402 72.501793
24.740978 -14.386015 72.51342
29.500322 -14.135868 72.637024
9.4717522 -8.6764193 72.691483
27.221189 -4.9181671 72.717911
10.261705 -2.1831887 72.812988
26.595909 -0.37902901 72.816788
10.419537 -1.8356886 73.126205
-3.7570021 3.9735105 73.167854
16.32777 4.2637467 73.170494
-9.5926914 -1.1588799 73.280319
3.0641634 3.4691272 73.316345
11.219848 -0.22899091 73.439888
-4.8710871 -16.324207 73.588654
-9.56357 -8.7605448 73.656525
9.2537346 -6.6691608 73.605713
27.061928 -4.084506 73.60955
-8.7855663 -11.845561 73.717293
25.642508 -12.53911 73.802071
7.4640656 -3.8165653 73.800407
-5.7200451 2.7745538 73.877998
-2.9186602 4.569572 73.947891
27.066002 -6.7664776 74.196251
28.802023 -17.195654 74.299049
26.417795 -9.9246206 74.361992
-9.5576344 -1.2027937 74.335312
9.9136705 -2.6463935 74.608597
22.940968 2.7840044 74.697388
32.540009 -10.940718 74.836418
32.454834 -8.5474129 75.059959
4.8499422 2.5681884 75.043335
1.9965492 -16.843122 75.145813
32.531895 -15.284797 75.191078
9.1673203 -8.47719 75.103714
-0.75335753 5.1453385 75.27195
18.790371 -17.374378 75.420319
26.548948 -9.7478056 75.407005
32.643848 -8.5120468 75.420097
2.3034673 4.105772 75.532837
17.59553 5.1197171 75.590454
25.495701 -13.222336 75.643814
5.6984901 1.0320766 75.679703
-9.6637554 -7.9395456 75.798309
22.060074 -16.207397 75.834007
27.080334 -6.4221377 75.854424
31.843792 -11.198562 75.918411
16.219694 4.7166128 76.034843
31.331945 -17.635735 76.101944
-8.8121595 -12.20462 76.253738
2.0872326 4.3060551 76.336716
32.346611 -13.567201 76.541481
10.390949 0.62586993 76.59948
12.53751 3.4196277 76.572563
-6.9221301 -14.840652 76.677849
7.0952697 7.6975975 76.653976
11.452323 7.6199579 76.688515
9.2679539 -2.0988221 76.713509
12.517414 7.0365829 76.786911
17.850546 7.0229912 76.717033
8.9914074 7.778491 76.740326
23.61454 2.6379542 76.833023
-3.4427495 6.2157245 76.885132
4.6244326 6.2782106 76.891426
16.357071 6.2611408 76.840668
-0.10481668 6.4025159 76.808136
26.98436 -6.6841402 76.925865
9.0632305 0.043363929 76.981827
9.6021452 9.2856817 76.912766
22.315582 4.4252095 77.053528
6.9973946 2.3000388 77.135559
-6.8132477 3.5859222 77.12468
5.7732 4.3820143 77.14473
-9.0952673 -11.545284 77.283058
5.1609597 3.8565876 77.219177
-0.72315133 -17.522459 77.303406
17.319126 -17.555458 77.320923
-10.007931 -6.0909743 77.36982
10.462536 4.5413008 77.337189
-2.7685835 -17.509634 77.489868
-8.0056152 1.9186816 77.403404
10.673237 3.4600422 77.443771
23.694662 3.9818976 77.480965
1.9038129 8.606967 77.475403
31.568647 -17.825577 77.597717
23.428291 -15.220117 77.526497
33.390411 -9.3541784 77.619431
3.7745097 9.0924072 77.620781
-10.015122 -5.9787226 77.841003
26.870111 -2.4092486 77.883423
-10.573424 -10.74584 77.994263
7.8892326 -10.592045 77.958832
25.278008 -15.159441 78.077812
34.511539 -10.185909 78.013031
8.5796127 4.547502 78.099907
-5.1635985 -17.223581 78.157845
1.1353619 -17.579237 78.270294
23.616659 -15.743172 78.282005
5.5850101 -15.327883 78.248619
23.901375 -14.873978 78.270973
-9.6672535 -13.289135 78.259521
8.9272194 -5.1436596 78.296165
8.8529263 0.033198118 78.25058
-4.9199095 5.2258277 78.248268
-6.522707 -15.472032 78.371727
34.476841 -13.165954 78.324738
17.280718 7.9454575 78.306267
17.269989 -17.690985 78.502899
-3.657856 -17.022665 78.626823
33.970249 -16.044708 78.602692
15.297922 -17.530445 78.725487
-11.393596 -7.5348673 78.726318
16.587349 8.1495333 78.706215
0.7445063 8.2224274 78.781425
14.888928 -17.474022 79.067833
7.8954253 -12.826151 79.036263
-11.671701 -5.7188301 79.098633
-3.1696486 6.5315213 79.067413
-1.6316006 7.4811659 79.122086
11.109179 -15.548031 79.350113
32.013336 -16.43486 79.416977
8.1434689 -7.8484735 79.445282
1.3831832 8.4038601 79.448273
0.84166902 -17.643063 79.94928
8.9428988 -8.3278894 79.906891
-5.5615168 -16.994835 80.399727
33.348961 -13.652174 80.36425
8.1593857 -8.145566 80.336838
35.665703 -14.584293 80.455818
-8.4302101 -14.788055 80.69162
8.0512524 -11.98899 80.680153
27.22002 -0.30133766 80.64679
22.56583 -17.024216 80.756493
26.869312 0.51232767 80.777397
12.161309 -16.794462 81.195801
8.0116024 -14.238218 81.170792
-7.9203777 -15.090105 81.576752
22.794924 -16.758842 81.680939
8.4625931 -12.388708 81.622673
-10.323281 -11.203944 81.69873
36.525368 -12.076882 81.700668
27.672724 -1.2696439 81.722206
4.1585279 9.076314 81.741982
-1.0971801 7.5811605 81.806396
19.178902 -17.726707 81.958763
36.091801 -14.062818 81.979523
2.1465473 8.5839434 81.921295
-7.9230385 -15.045072 82.032364
36.271172 -12.872486 82.012268
26.576328 -12.855282 82.146133
1.2854563 -17.508381 82.229126
-8.4845467 -14.580179 82.457825
-10.532223 -1.1031729 82.456528
32.455128 -13.80357 82.59449
-9.9716072 -11.841453 82.615753
26.425331 1.9879262 82.632248
-1.8138406 -17.497133 82.749657
36.449848 -8.6181307 82.763695
-4.3800063 5.7328806 82.811356
-1.2422533 7.5109587 82.814583
4.8180151 9.1021118 82.869507
34.743179 -16.326935 83.081436
27.118896 -11.631142 83.063087
23.560814 4.1138783 83.01976
28.501745 -18.901175 83.250656
28.508451 -18.516979 83.459923
-3.5004201 -18.181068 83.484512
24.509258 3.4015474 83.442551
2.0978372 -17.385601 83.654327
19.018152 7.2771516 83.61203
17.949734 7.6099062 83.619743
27.233526 0.037483573 83.730057
30.873699 -18.269709 83.980316
18.682781 -17.870033 84.057854
-4.5338154 5.663415 84.12706
1.4977583 -17.440487 84.290512
2.795316 -17.374153 84.398224
7.02948 -16.176277 84.352165
25.633919 -13.984848 84.385956
-1.5326139 -17.480339 84.419235
27.748051 -9.8460913 84.515427
35.918224 -8.0895987 84.521347
-1.1211408 -17.482985 84.688156
31.686171 -14.007793 84.695099
36.649651 -10.362202 84.728302
34.966221 -15.348948 84.855492
23.842672 -15.654679 84.943489
9.0273352 9.0460682 84.981697
26.465712 -12.301729 85.047379
-10.816828 -1.5278542 85.142441
13.753105 8.8772688 85.193474
-10.337337 -10.514505 85.209106
1.0889318 8.1763906 85.276398
3.4361613 -17.394857 85.311462
-2.7471395 6.9757748 85.485802
4.4224968 -17.352783 85.527657
6.5993328 -16.740379 85.571732
-8.3635798 -14.017951 85.632828
-10.701498 -1.1213579 85.688881
10.476816 9.032341 85.648178
-0.75018907 -17.487225 85.708885
31.544432 -13.04829 85.76062
23.609043 4.1801119 85.740448
36.010605 -12.867317 86.087288
35.1726 -14.391646 86.20784
-10.54922 -9.8374367 86.259048
7.0848765 9.0016756 86.323929
-10.73999 -8.8247013 86.547852
28.400539 -6.2552829 86.557266
17.355675 -17.492527 86.693275
28.081268 -7.4858685 87.0644
18.67436 -18.553186 87.125267
-2.246269 -18.238297 87.146744
21.150137 -17.402359 87.153336
-8.5869303 2.4647946 87.249237
-5.469758 4.8805857 87.205238
-0.13922065 -17.482712 87.319633
2.2497892 8.5210581 87.454399
32.910889 -7.3473649 87.574585
1.6049342 8.3249369 87.698914
30.208828 -12.209898 87.837326
-5.5966449 4.6895399 87.829155
26.539616 -11.768206 87.955727
30.496637 -15.646666 88.018051
31.10305 -10.423118 88.061966
-10.889402 -2.7964571 88.00679
35.843666 -8.1937485 88.159042
25.310764 2.6054168 88.199501
1.0632029 8.1656809 88.289757
9.9015617 -17.27548 88.486572
34.779446 -14.166414 88.522751
12.851998 -17.555058 88.613586
31.653225 -9.2451601 88.676956
30.769987 -11.04495 88.729126
18.859352 7.2922764 88.808891
3.013792 -17.634012 88.933235
35.711521 -8.0981522 88.986214
14.998393 8.4934711 88.972755
27.953465 -7.3377647 89.064064
5.7530928 8.9228878 89.079575
-9.831706 0.4597258 89.276024
12.927773 -17.602991 89.316055
-1.1513634 7.4953055 89.349976
0.61299735 8.041811 89.374672
22.88184 -15.824118 89.47319
26.060423 -12.231175 89.445175
33.364624 -7.4999323 89.48642
31.687344 -6.1747236 89.549026
28.173552 -5.6712499 89.627945
2.0723267 8.4984512 89.718407
29.924898 -8.241127 89.871758
22.650814 4.5268645 89.95153
17.202873 -17.398006 90.152321
35.842361 -5.6316981 90.347939
28.000896 -4.8799486 90.353127
31.299843 -10.881102 90.476685
4.3425112 -17.668655 90.53643
29.170321 -10.696014 90.533882
30.566542 -6.9850736 90.529976
31.085743 -11.520866 90.650658
1.6998997 8.3968563 90.677094
-8.8665838 -12.091084 90.763336
3.8734136 8.9200296 90.932556
4.9344978 9.0041838 90.923553
-6.8578472 3.3405228 91.227249
19.644772 6.543539 91.255325
3.2654216 8.7935524 91.234482
18.179985 -18.142502 91.668236
-4.9473519 -16.187212 91.874611
28.995398 -12.765316 91.823013
-8.9460945 -11.712254 91.856812
36.424263 -5.8656149 91.935051
38.512081 -9.7872171 92.063324
27.810989 -4.6679463 92.043167
18.912617 6.8685751 92.001099
-10.564001 -6.9928684 92.117081
-5.663702 4.303371 92.171921
30.008026 -13.86561 92.276352
-0.53390694 7.5747652 92.230263
27.432432 -2.2764976 92.308609
-3.4370916 5.9110518 92.315002
0.43177322 -17.937523 92.466354
-4.7967238 -16.230221 92.543701
-9.8776531 -1.0215023 92.568985
4.3594513 8.9749622 92.822594
20.13829 -17.069286 92.910461
-1.4570905 -17.782618 93.027718
24.197279 -14.340019 93.031448
-9.6393795 -10.302717 93.017197
27.362801 -7.6580992 93.089882
-8.839673 1.4788347 93.043892
3.6825809 -17.72995 93.146103
-4.2530684 -16.459385 93.163353
36.811859 -12.029506 93.292435
26.946667 -9.7220449 93.30999
-4.0040421 -16.502338 93.696518
37.066921 -6.260746 93.659447
18.304653 -17.783943 93.773643
28.298397 -10.272537 93.869949
29.267193 -6.9412036 93.965851
35.317543 -13.322836 94.018356
23.382275 3.5876389 94.035194
37.880241 -7.9962754 94.16423
12.316523 9.0257626 94.239029
-5.7309694 -15.372824 94.330681
29.192688 -12.788773 94.385513
26.644592 -10.094955 94.341721
25.995157 0.99376154 94.394272
3.3561862 8.7427082 94.407753
17.678267 -17.936037 94.695786
29.19817 -6.7819328 94.621742
25.901592 1.160576 94.612175
2.8478408 8.631093 94.694031
1.3840303 -17.402945 94.765823
32.433773 -3.8629959 94.786339
-5.4553947 -15.511692 94.949837
24.740322 -13.031557 94.980286
1.01829 -18.006601 95.065536
-1.7737188 6.5395932 95.277565
13.215716 -17.841354 95.417999
-3.606941 5.4871383 95.526245
8.7373543 8.6702871 95.570801
23.390465 3.3655772 95.738068
37.424728 -9.5326767 95.886353
17.411327 7.30902 95.843254
37.507668 -6.8722382 96.088425
-9.625411 -1.8955321 96.117371
-7.1798449 2.5203717 96.3293
27.827011 -9.8891926 96.464195
32.133293 -3.5143833 96.431152
2.3782415 -17.498789 96.500229
-10.024076 -7.2695875 96.580444
10.54273 8.7750931 96.533104
-6.823307 -13.840594 97.127304
28.799953 -6.4007697 97.109146
26.340157 -1.3707381 97.130211
12.222907 8.73487 97.15831
-6.2040472 -14.733875 97.293968
-0.96500045 -17.375723 97.478172
-7.5855999 -12.509775 97.448059
34.081909 -13.179049 97.536926
1.5340973 -17.282316 97.671028
35.143387 -3.6855829 97.864922
7.2523761 -18.269398 97.985008
37.563519 -6.7478962 98.000099
-9.6696024 -3.3126533 98.184296
14.574424 -17.429697 98.400932
-6.9838786 -13.24345 98.41188
21.213465 4.6084433 98.44693
17.498745 -17.521145 98.600128
-8.7624207 -0.79499245 98.726227
26.393854 -8.8211517 98.918152
-1.3902087 -16.979582 99.09359
20.506914 -16.000147 99.164833
5.8840332 -18.53434 99.205368
16.166206 -18.110821 99.201134
37.221573 -6.0255604 99.369118
-9.6924725 -7.2010427 99.48922
29.125067 -4.5724764 99.486984
26.807785 -4.2942572 99.484634
-8.243865 0.20321947 99.452682
20.361525 5.0571575 99.452591
-2.3065948 5.761961 99.476654
2.5275667 7.9268761 99.778915
7.420217 -18.755077 99.863388
18.552649 -16.868092 99.809898
31.41581 -13.25527 99.898834
30.427301 -12.914095 99.846527
28.639719 -11.838577 99.887375
-6.0379233 -14.558929 99.979294
35.826763 -3.962399 99.977509
4.917398 8.3389921 100.15694
31.70167 -13.26716 100.27138
35.901104 -11.352941 100.2897
27.278606 -7.5580873 100.4385
34.493233 -12.199588 100.51522
26.037569 -9.5483942 100.55048
28.411695 -11.51665 100.67088
-0.13838732 -17.419516 100.78937
27.127089 -10.184164 100.75098
17.136196 7.0547838 100.73091
25.993093 -2.1491165 100.92327
11.152496 8.2593832 100.91376
10.509363 -18.537676 101.09041
-6.0872631 -14.377325 101.02628
27.104786 -8.3158474 101.16045
18.835928 5.8657203 101.22478
3.3658011 -17.946653 101.35734
-8.0280628 -11.545249 101.39101
36.388317 -9.6670971 101.49102
12.040104 -18.318636 101.61154
26.99828 -8.7478867 101.61711
16.882526 7.0539751 101.63832
21.67404 -15.474771 101.75081
10.314487 -18.48917 101.89214
28.940815 -11.86549 101.88904
36.988415 -5.6137228 101.8167
25.357309 -1.3744791 101.89839
26.971237 -8.1723003 102.03624
-9.2704029 -4.008513 102.01695
13.23771 7.9503374 102.07896
-9.3169718 -7.0936575 102.19582
5.8005133 8.0596361 102.44593
14.025612 -17.781076 102.65683
-8.6186037 -2.4078813 102.79945
25.428328 -1.826117 102.81859
-2.0973022 5.3993363 102.92603
-6.3721614 2.0676165 103.14949
24.159048 0.89843273 103.24511
22.067303 3.291132 103.24622
21.574276 3.649961 103.21347
25.667803 -2.597796 103.35117
-4.2108426 3.8366923 103.34227
26.637466 -8.8626719 103.60837
-7.1984959 0.23588678 103.64009
-7.2736588 -12.718116 103.76398
26.722935 -7.6593533 103.77344
33.699242 -1.8841501 104.06727
15.657043 7.0562882 104.06535
10.414675 7.9091187 104.07665
14.50198 -17.486288 104.16734
6.1358638 -18.108528 104.20987
14.483745 -17.335625 104.28731
16.556103 6.7682214 104.32602
9.2829561 7.9070292 104.31453
7.9829426 -18.416698 104.4046
-8.5698099 -9.4706535 104.56387
5.4774356 -17.959764 104.68036
3.4317346 -17.337265 104.71893
26.075592 -4.4593964 104.73957
-4.2615805 3.6734197 104.77489
26.344612 -5.9577036 104.81216
30.99334 -1.3603225 104.89684
26.503679 -7.7808905 104.94254
-8.3302355 -2.8472998 105.03038
14.394634 -17.350391 105.11804
23.781494 -13.206532 105.11869
-8.9807367 -6.623848 105.34573
36.497604 -4.6563926 105.52343
6.8664536 7.7601204 105.56153
29.758629 -1.7107097 105.68891
0.72606593 -17.77832 105.74573
26.566917 -8.7810831 105.71309
28.37962 -10.667873 106.07932
27.486313 -3.8574958 106.01614
14.299043 -18.179193 106.26321
24.190794 -0.97744226 106.23737
10.935915 -18.135588 106.33336
26.846199 -9.0248327 106.39551
27.590769 -3.4296031 106.31061
16.019993 -17.848804 106.48515
26.040226 -5.2659016 106.40855
4.3556061 7.4603682 106.42143
16.36606 -17.733963 106.77156
11.408251 -17.973425 106.89226
-4.7980952 2.3624656 106.80876
24.765781 -2.205905 106.9985
5.076436 7.4532747 106.90991
-0.83797503 -17.259996 107.0713
22.642115 1.3171482 107.12384
25.25741 -10.461657 107.24375
17.704876 -17.317738 107.31248
0.61759591 -17.677551 107.48016
-2.1756926 4.9469862 107.40294
12.318723 -17.666847 107.52197
28.493973 -10.380968 107.60361
26.640116 -8.5799103 107.77894
4.5459208 -17.586494 107.82256
21.862322 -14.791258 107.8847
27.200264 -3.4264362 107.82962
17.844095 5.8397608 107.97025
26.162413 -7.9847679 108.08989
36.629917 -4.8839455 108.01082
14.563438 -18.222013 108.10188
-6.9797392 -12.506804 108.35663
12.686141 7.1956735 108.31431
10.030282 7.4255152 108.31131
25.513096 -8.5476971 108.56013
26.72015 -4.0580378 108.58085
-5.8628025 0.23213466 108.64309
24.393187 -2.0109401 108.85566
19.06452 4.8173256 108.9591
10.720045 7.2780771 108.93003
32.683376 -9.9475241 109.04459
10.317081 7.2912397 109.08247
-7.5241055 -11.770142 109.4519
16.501369 -17.598873 109.5683
8.6852398 -18.667053 109.60288
15.688889 -17.836399 109.66329
3.5585513 -17.209888 109.83973
3.7377832 -17.264568 109.88714
-19.87849 -54.203938 109.92747
-2.08302 -16.52573 109.96758
1.405194 -17.825378 110.03803
34.185768 -8.9856873 110.01207
-18.216059 -55.249737 110.25303
5.0214658 -17.652195 110.34811
-4.0452771 2.389153 110.34795
3.1075022 -17.967699 110.49551
25.185162 -3.7972901 110.55878
25.430552 -8.8703566 110.68612
25.32962 -9.5602112 110.73393
9.6830578 7.2568989 110.79308
-18.772655 -56.615414 110.89608
-18.537645 -53.914207 110.89165
14.272139 6.6316357 110.84263
-8.3304243 -4.3445816 110.98914
29.556534 0.69233286 110.94928
-4.7369094 1.6691892 110.9053
18.560259 -16.824961 111.32266
-18.979 -58.770828 111.56617
20.998226 -15.038301 111.64569
34.403023 -7.9238653 111.67095
25.858158 -5.4796977 111.69968
-7.4810944 -2.2526317 111.65754
27.357151 -0.48218894 111.62697
-5.6917176 0.67387247 111.65212
23.747143 -0.80823278 111.77206
27.118685 -8.8640003 111.85262
23.219276 -13.050284 111.96471
7.3974161 7.2253504 111.91583
-19.476038 -48.464661 112.03991
26.993795 -0.789626 112.08187
-3.5713923 3.0162311 112.12956
-5.5245218 -13.692914 112.2706
26.42939 -1.6235077 112.46597
-19.877613 -47.419884 112.50157
29.705151 1.7276016 112.54555
8.4431438 7.300807 112.56113
-18.392532 -57.291279 112.66291
-7.311902 -11.635091 112.65105
-18.357952 -55.537231 112.72604
-18.506687 -47.476871 112.793
-18.728302 -49.622829 112.90871
35.578625 -5.7192278 112.98322
27.023439 -0.2552914 112.95723
7.9928389 -18.350018 113.04427
22.014759 -14.184681 113.02265
29.192902 -9.6514912 113.05502
13.938877 6.6591606 113.01923
5.2205725 -17.59071 113.36249
29.330528 -9.6562738 113.39371
-16.344452 -62.762169 113.46021
-8.4505253 -7.7964954 113.47672
-19.811085 -43.543186 113.65842
-8.3613901 -8.3542595 113.60948
-6.6232171 -0.65285373 113.62773
-17.912319 -58.052723 113.71642
-20.715178 -46.351032 113.73192
3.098722 -18.145136 113.70342
24.301418 -1.6307636 113.9308
-2.3564663 4.2923703 113.98737
2.1744766 6.3318391 113.97375
-18.094706 -44.896114 114.00043
-17.537222 -58.952053 114.20608
-20.610493 -38.379799 114.2469
4.4133368 -17.323391 114.22237
20.407688 -15.239859 114.26284
10.954187 -17.766981 114.48816
34.928265 -5.4364243 114.51064
-19.142412 -43.840275 114.6084
-16.856203 -43.84697 114.71147
-18.349747 -59.926506 114.81868
-18.524269 -35.954021 114.87027
33.440483 -7.1036673 114.8103
1.1898623 5.9937906 114.85548
-20.382429 -34.611122 114.94376
4.7117434 -17.357141 114.98457
31.046627 -8.698801 115.03288
-22.18425 -33.065998 115.14566
-6.2958555 -0.034715295 115.14112
22.888935 0.75528276 115.16423
27.293562 1.4431521 115.26756
-21.785645 -52.557365 115.30841
-18.26564 -50.102356 115.30106
-17.094801 -36.596306 115.38771
19.176207 -16.066181 115.3759
-6.4441233 -12.300448 115.36205
-18.657925 -58.135887 115.47984
-20.857725 -55.872147 115.46439
-20.397511 -30.642651 115.48932
-17.715576 -48.256859 115.52121
-16.7435 -35.907413 115.64197
-21.857044 -48.344311 115.77316
-15.033663 -42.865814 115.76801
-15.376605 -41.672459 115.72961
-16.584997 -35.812042 115.73596
26.48447 -7.8362765 115.74487
25.736099 -6.1848087 115.7012
24.837196 -6.0565586 115.78178
-19.703756 -56.907249 115.82996
-22.600965 -31.661079 115.88788
-19.10643 -28.790901 115.81679
-15.365653 -40.589619 115.92889
-15.41 -39.371246 116.02235
13.653067 -17.853256 116.08779
15.813856 5.9683914 116.16029
-17.053406 -60.939194 116.38327
-21.909689 -51.282631 116.34197
-17.797466 -49.296448 116.35866
35.533924 -4.7136831 116.453
6.2022638 -17.629602 116.5274
-17.988123 -62.51265 116.75893
-19.198997 -59.303864 116.77766
-22.429092 -43.543499 116.74091
-21.424191 -21.675379 116.78306
-22.018328 -18.520803 116.77397
1.7417891 -17.576866 116.7083
-15.85938 -31.212063 116.85325
-20.893642 -19.049337 116.86668
-8.6041794 -6.3482103 116.84409
21.407221 2.3637874 116.83802
-22.419453 -24.51652 116.95699
-20.453222 -17.573915 116.92632
-23.423309 -34.572693 117.07552
-19.292591 -15.558372 117.05751
-5.9026794 0.71034563 117.0183
-17.244259 -43.656765 117.17639
-4.6912608 -13.98184 117.19786
16.668352 5.7533169 117.13403
13.075317 6.7614517 117.19196
23.247829 -12.493429 117.24275
27.752718 -8.6030102 117.27969
32.499016 -7.6452861 117.2281
1.7350336 6.1796236 117.26392
-22.538143 -26.080332 117.34196
-22.543751 -24.876156 117.33298
3.2995956 -17.97858 117.35745
-21.297104 -54.379784 117.49986
-21.373878 -52.575306 117.49943
1.6151352 6.1774464 117.48114
-23.68737 -36.39077 117.52811
-18.405359 -14.948772 117.54984
-0.35892296 5.5854287 117.58725
-22.277637 -44.497723 117.62204
-16.595778 -22.744463 117.65768
-3.3785627 -14.931297 117.60175
-23.01416 -18.655779 117.77441
17.572035 -16.747839 117.71094
-23.100315 -28.918365 117.89962
-23.011555 -18.95274 117.82404
-23.142727 -16.829597 117.84146
27.416529 -8.4326353 117.87412
24.703541 -5.3370285 117.9043
21.343565 2.6017795 117.95121
-14.303579 -31.242664 118.00948
-23.085596 -19.306446 118.13828
26.589462 1.915478 118.13603
-20.246336 -56.621811 118.23195
-21.474152 -53.779095 118.28374
-2.1048436 -15.839699 118.26064
20.560137 -14.811502 118.29507
23.981056 -11.739006 118.24751
-16.085018 -18.829781 118.32048
-22.435942 -13.598837 118.35181
30.603275 -8.2354145 118.30858
32.337288 2.4979537 118.45644
25.400755 -4.1562834 118.51395
5.69526 7.0814133 118.67682
-23.172752 -23.533607 118.74094
-15.583826 -19.348116 118.81102
23.906797 -11.901566 118.83746
24.915394 -0.62148911 118.89178
-23.292952 -26.640301 118.92532
-23.310808 -25.021357 119.08215
29.325802 -8.7771454 119.04893
-2.8863649 4.2626481 119.08826
28.492437 3.0520995 119.10542
0.87527889 6.2384887 119.28625
4.5396976 7.0217719 119.28636
-23.081894 -44.012077 119.4158
25.728268 -4.8427172 119.4672
-21.759697 -45.081192 119.54947
-23.527277 -23.154076 119.54131
-13.512763 -40.004097 119.71127
-23.664959 -19.570145 119.79008
-18.193256 -11.409456 119.76417
25.359873 -9.3757076 119.78911
-23.87936 -28.235945 119.85644
-8.1763306 -3.3154774 119.82139
33.103836 2.004236 119.80794
-17.146976 -51.724842 119.96809
-13.208175 -32.098999 119.98909
-8.4610271 -4.1216354 119.90845
-23.770353 -21.360233 120.06239
11.970578 -17.026012 120.00334
6.3353219 -17.291222 120.19792
-14.719655 -14.874635 120.1696
-8.7005348 -6.5812287 120.17775
-4.7372432 2.6161225 120.10938
-20.156254 -50.785362 120.28249
-16.170742 -46.683609 120.26732
-1.9979879 -15.778337 120.21114
34.997414 -4.3310127 120.39818
-13.411118 -34.597507 120.41035
-13.27124 -24.051762 120.43102
23.603668 0.72621202 120.44949
11.446607 7.2491102 120.43829
-8.6081476 -4.242033 120.63209
-20.149662 -46.558319 120.72597
25.635702 -3.9877081 120.79715
-13.704378 -37.156799 120.92328
25.450424 0.99559593 120.99767
1.2994707 -17.098494 121.0332
33.83366 1.532815 121.04815
-17.596178 -53.301563 121.16988
-23.276028 -38.646122 121.12018
-23.630438 -37.416592 121.15735
25.120667 -2.1840534 121.17191
-2.0212727 -15.686215 121.23943
-7.1871262 -11.758317 121.24471
24.18512 -3.5088315 121.24004
-14.194109 -13.426181 121.3177
-17.034084 -55.366703 121.65248
-13.459354 -27.023041 121.69379
23.146688 1.7018173 121.62404
-18.76123 -49.796387 121.88791
-20.688866 -42.997391 121.85369
31.11368 3.4488649 121.89597
-18.749165 -49.638977 121.98164
-16.753067 -49.084648 121.90578
-23.774029 -33.894592 121.94407
-23.935053 -24.026846 121.97367
30.158058 -7.9802771 121.96665
33.48624 -6.8764129 122.18945
-19.652222 -43.302284 122.2261
35.217445 -2.5830207 122.2266
13.100065 7.2565289 122.24339
-15.573404 -43.155956 122.36061
-22.224995 -37.164009 122.34631
-5.7620664 -13.374304 122.37988
-22.867088 -12.052523 122.39305
28.510777 3.3198333 122.30389
25.877254 -7.7886066 122.44086
25.908953 -7.1028452 122.42601
33.326336 -6.9973783 122.41039
22.811371 2.2293375 122.4566
17.487453 6.3533468 122.45477
21.185463 -14.51276 122.51541
-14.122311 -11.522047 122.66734
14.053655 -17.553085 122.70427
-14.057954 -30.245949 122.8671
-14.589891 -33.765621 122.96651
-21.69619 -35.968197 123.03525
34.004852 -6.62392 123.06532
1.359808 6.9942083 123.06894
17.412186 -16.459425 123.17762
-18.773643 -9.0154238 123.15147
-7.7471724 -0.54207075 123.16179
-3.4683087 4.6128769 123.1096
-14.642722 -32.183552 123.25821
-22.758577 -11.620217 123.29023
-6.7554884 1.3648536 123.27654
0.26161748 6.6913958 123.29352
-17.592091 -38.720131 123.31836
-14.335686 -29.139421 123.37415
35.005058 -3.6930602 123.32207
24.917585 0.85487556 123.32632
-14.872687 -32.806076 123.43237
14.68676 -17.354174 123.42416
-20.967463 -8.8700562 123.51819
24.203127 -4.9243522 123.52255
23.808817 -2.2600274 123.53522
24.299955 0.62418091 123.5145
29.328358 -8.5792456 123.659
23.812881 -1.989719 123.71218
23.879745 -1.1245793 123.79845
34.692642 -0.96425533 123.71434
-4.6503768 3.5747113 123.7466
-14.213861 -25.981686 123.8434
-19.560743 -8.7725086 123.80619
34.960442 -3.9822922 123.93051
32.364456 2.196336 124.04162
27.976871 2.9730041 124.07605
-16.440081 -36.019875 124.21362
-15.680526 -34.199196 124.22944
-21.040838 -33.063988 124.20423
-23.485603 -12.720237 124.2702
29.700291 -8.6834478 124.2878
13.85633 7.3834763 124.26596
17.601355 -16.408165 124.35668
-21.74095 -9.9144411 124.35241
-16.441771 -34.028919 124.49471
-20.538792 -8.5176783 124.49081
23.848236 -0.71712166 124.4007
-22.530003 -26.274651 124.5869
-22.54108 -26.141022 124.60623
-23.568686 -15.984408 124.94374
-8.3272514 -10.149838 124.97952
26.328146 -7.9771366 125.0681
-16.334517 -28.056969 125.19424
-21.768486 -25.252367 125.28725
11.697521 7.6990385 125.27914
-1.8619024 -15.737355 125.31625
22.665863 -13.710868 125.36317
25.923758 -2.5133579 125.39742
-8.6500397 -1.8269577 125.37531
8.3576746 -17.273478 125.47647
-17.750916 -26.782078 125.56343
2.4885695 -17.414928 125.53564
14.644452 -17.395662 125.5719
-16.775978 -24.297169 125.73517
2.081378 -17.278755 125.78549
-8.4509296 -0.91626084 125.86131
29.897907 -8.8813601 125.90503
-17.634809 -22.899231 126.04214
25.226776 -11.183433 126.09772
23.648582 -0.91759706 126.02234
-22.25144 -10.699987 126.10346
-1.4427487 6.4332461 126.10542
34.794258 -5.1107154 126.43946
23.722515 2.3553038 126.46555
19.227919 6.1858654 126.46844
-1.7114843 6.3636618 126.43091
-9.1345959 -2.8930058 126.57602
22.47784 3.5938346 126.66205
3.2896681 -17.564125 126.81538
-11.434122 -13.966092 126.8681
-18.212702 -7.2787704 126.84882
2.6729136 7.584516 126.84518
24.357689 -12.003105 126.97153
33.064499 -7.4899216 126.9968
-4.9894743 -14.028265 127.17276
11.264053 -16.864357 127.22604
22.20344 -13.959621 127.24837
-9.7175016 -4.8887763 127.25433
-23.041887 -15.63962 127.3144
21.583536 4.6272449 127.38042
18.775255 6.5212941 127.481
-19.651344 -19.932888 127.56928
-16.333391 -19.696556 127.54303
-20.268604 -19.68317 127.68434
-10.950218 -10.545862 127.6804
28.304022 3.1193821 127.62852
13.934253 -17.527658 127.74263
-22.865244 -12.995938 127.71555
25.921547 2.9132094 127.77538
12.764284 7.8292403 127.70299
35.116421 -3.2806077 127.81924
-10.642962 -11.959522 128.17624
27.065269 -8.7329493 128.16299
-22.412565 -10.761725 128.24944
23.065182 -4.5464668 128.2706
26.674843 -3.6392846 128.2215
-13.049457 -17.695559 128.43373
13.637069 -16.910561 128.50673
31.940722 2.0002785 128.53453
13.245434 7.8317828 128.57173
-4.7967281 -14.083134 128.61591
25.273502 -7.8823519 128.67682
26.407679 -7.8049407 128.61087
16.342907 -16.850544 128.73572
1.0625973 -16.983078 128.86185
-0.48156548 -16.235554 128.92053
28.063366 -8.9378586 128.95209
25.829046 -8.3278809 128.96783
26.487886 -7.7013111 128.94809
34.904053 -4.6696477 128.95256
8.4950361 -17.22175 129.0923
-11.211561 -15.380707 129.06224
22.723621 -13.551226 129.02959
-7.5385866 -11.77986 129.08867
-21.567778 -9.6886311 129.06718
30.152573 -9.302968 129.09718
-19.020704 -6.7752361 129.0477
34.960716 -4.3495483 129.38306
14.086912 7.7756424 129.35356
-9.2881269 -8.562438 129.59114
22.942076 -5.5989771 129.56564
-9.7953539 -9.2495365 129.61559
-13.249148 -4.6486573 129.65042
33.780617 0.75575268 129.68486
16.243462 -16.846319 129.78656
23.025318 -13.235506 129.71483
-9.3468475 -1.5310094 129.72549
19.594482 6.3873034 129.70995
0.49968696 -16.671432 129.87088
-9.729291 -8.7936897 129.83513
-18.65065 -6.3773026 129.96965
-6.592761 -12.608967 130.0118
-22.201004 -12.254681 130.0304
13.126586 -16.526585 130.16893
-1.2062752 -15.814425 130.17549
21.591469 -14.189218 130.13797
34.843143 -5.1516786 130.12146
27.007545 -4.0999084 130.16641
25.033352 -11.460946 130.25613
25.038488 -11.459658 130.38789
-18.810427 -18.326817 130.41019
-18.524511 -18.344416 130.51862
-9.221139 -8.8036928 130.51305
-3.7959747 5.7987771 130.59262
23.352842 -6.842514 130.64139
26.413116 -7.8949513 130.70755
20.754002 5.9025254 130.71329
0.15500471 -16.528208 130.84818
23.849989 -7.2424111 130.86177
-18.11661 -5.8872666 130.82762
34.762951 -5.7190809 130.86523
-10.441338 -14.505405 130.92813
28.112085 -9.2035751 130.99237
-6.7704706 3.2772894 130.99039
3.8528531 -16.535614 131.00722
22.016964 5.0251722 131.03648
29.477907 2.6883464 131.16341
8.7131138 7.7350473 131.12083
-16.81049 -18.312346 131.27209
-7.2243514 -12.099173 131.26151
-10.581376 -4.8585081 131.24411
-9.7319393 -13.615063 131.40161
32.913185 1.2780174 131.48209
20.191433 6.2534699 131.53825
-21.679014 -9.9514217 131.65744
32.147472 -8.4321318 131.63336
7.181644 7.6340241 131.82585
16.377563 -16.90192 131.93776
16.464828 -16.85799 131.94923
22.873295 0.39775982 131.97917
-7.8422074 2.5356016 132.10074
14.914911 -17.573811 132.25536
16.710983 -16.748528 132.24615
-17.268471 -5.0966034 132.25981
24.036285 -12.441175 132.37602
-1.6590278 6.7797389 132.38774
27.967884 2.8131194 132.47919
-6.5962973 -12.703997 132.51263
27.625526 -9.3654432 132.62189
34.196533 -6.4980931 132.65608
29.21241 2.5048635 132.66943
18.535742 -15.816508 132.89854
-10.030754 -14.054545 132.86151
-8.1514063 -11.655586 132.81454
34.562695 -6.074018 132.88104
22.726986 0.58793998 132.88783
13.895788 7.9224348 133.04364
15.337863 -17.498299 133.23627
24.683111 -12.072706 133.26619
-10.27204 -1.9321623 133.33305
24.957188 2.5496635 133.33688
-7.9038172 2.7491989 133.30511
-6.9816093 3.5925598 133.33563
2.5685992 -17.558838 133.52071
16.083384 7.6352596 133.53635
25.951504 -6.6243958 133.65837
23.098429 4.4700651 133.68674
-8.4509077 -11.134627 133.72841
22.998672 -6.7552919 133.76878
23.498795 1.3116343 133.71783
33.183338 0.9983024 133.85808
-9.6228371 -1.5252975 133.96208
-7.0473104 3.6702454 133.97273
-1.6155286 -15.88058 134.10114
26.929539 -9.5183039 134.15025
23.963608 -2.6051161 134.19983
-4.3317533 5.8867478 134.146
-7.4122748 -10.789387 134.26466
12.574655 -16.807732 134.39523
-21.146278 -11.667026 134.33221
-8.6432562 -6.3529272 134.3073
-1.5383492 -15.977793 134.4973
25.963665 2.6321406 134.44061
19.316307 6.5982261 134.48795
27.519728 2.6350415 134.54987
9.4270449 7.7376695 134.68463
27.041451 -9.669857 134.74423
24.771603 -4.3486872 134.70886
17.323231 -16.790291 134.81972
