# .PCD v0.7 - Point Cloud Data file format
VERSION 0.7
FIELDS x y z
SIZE 4 4 4
TYPE F F F
COUNT 1 1 1
WIDTH 1613
HEIGHT 1
VIEWPOINT 0 0 0 1 0 0 0
POINTS 1613
DATA ascii
60.454922 31.950275 26.163162
62.639236 31.370722 26.284147
61.466606 31.681841 26.225817
59.599079 32.177353 26.299845
70.560303 29.269054 26.303402
69.457016 29.561773 26.471502
67.933868 29.965906 26.475632
61.006538 31.803923 26.49637
61.271336 31.733662 26.518715
62.615013 31.377129 26.64308
59.129005 32.302074 26.643957
69.293861 29.605078 26.788412
61.476849 31.679119 26.725067
71.097946 29.12639 26.927618
62.800125 31.32803 26.915213
61.663147 31.629688 26.968315
60.779251 31.864212 26.901867
61.954903 31.552277 27.062479
59.962921 32.080811 27.059402
59.423561 32.223919 27.036922
61.793613 31.59507 27.132565
70.978462 29.158094 27.224302
67.437813 30.097559 27.316566
63.232414 31.213373 27.433321
61.226089 31.74567 27.597689
60.83189 31.850243 27.502691
59.040909 32.325447 27.536407
70.593163 29.260334 27.688181
70.326408 29.331118 27.793766
71.427551 29.038933 27.899757
69.719757 29.492085 27.851337
58.98851 32.339348 27.846773
71.176888 29.105446 27.972944
67.866158 29.983925 27.996864
63.294464 31.19688 27.967962
63.037712 31.265003 27.942883
62.454868 31.419647 27.955439
70.601715 29.258064 28.052868
61.454144 31.685169 28.023312
58.991333 32.3386 28.06599
68.147827 29.909174 28.24111
67.803513 30.000534 28.24206
60.565491 31.920937 28.272238
58.919163 32.357746 28.202343
70.707649 29.229965 28.354137
70.815239 29.201414 28.331316
68.858917 29.72049 28.306517
62.337505 31.450771 28.477852
61.423912 31.693172 28.420803
59.995319 32.072212 28.436737
70.845703 29.193356 28.577641
67.57518 30.061115 28.539892
61.48624 31.676628 28.543741
71.093987 29.127487 28.738569
70.227104 29.357496 28.759367
61.478439 31.678686 28.776829
59.079544 32.315212 28.744015
68.858276 29.720678 28.850294
69.156143 29.64163 28.99189
68.556099 29.800831 29.052628
68.378235 29.848009 29.186037
61.509869 31.670349 29.16066
70.186844 29.368132 29.208624
68.268127 29.877216 29.26548
69.824982 29.46413 29.438148
69.998627 29.418056 29.454023
70.839638 29.194946 29.522711
67.879036 29.980453 29.567221
60.692291 31.887289 29.541569
61.480988 31.678032 29.666979
60.11293 32.041008 29.603054
70.90284 29.178205 29.756701
63.276043 31.201754 29.781494
62.082565 31.518421 29.716566
59.001526 32.335884 29.765537
59.111156 32.306793 29.746853
68.772652 29.743393 29.884197
68.904533 29.708401 29.835995
60.757656 31.869944 29.896273
68.673195 29.769777 29.974266
62.37294 31.441364 29.916885
61.434303 31.690399 30.071674
71.83403 28.93108 30.197193
68.171852 29.902775 30.121744
61.051655 31.791937 30.146154
61.226006 31.745693 30.186832
69.326149 29.596485 30.239819
68.077614 29.927759 30.296936
63.055878 31.260172 30.284657
71.160728 29.109739 30.392998
69.296425 29.604376 30.369907
68.109756 29.919231 30.312349
60.600861 31.911524 30.530165
68.79332 29.737869 30.628792
66.715302 30.289228 30.789539
61.390038 31.70216 30.873161
67.596817 30.055347 30.964176
66.823944 30.26041 30.957708
62.232616 31.478622 30.956011
72.267685 28.816036 31.169308
67.401978 30.10705 31.101841
63.037643 31.265017 31.134995
67.937759 29.964909 31.201982
67.573593 30.061527 31.296516
60.777939 31.864569 31.245201
71.350487 29.05941 31.452988
68.918083 29.704756 31.434742
63.164112 31.231449 31.40424
59.294235 32.258255 31.469606
71.499863 29.019764 31.595032
68.601616 29.788746 31.584614
63.06868 31.256788 31.552086
71.125336 29.119133 31.606932
62.646919 31.368649 31.636574
61.926323 31.559841 31.690378
70.115227 29.387173 31.741583
69.487061 29.553844 31.777313
67.641197 30.043612 31.799259
61.125664 31.77228 31.771328
60.834961 31.849415 31.70332
71.007408 29.150434 31.865131
66.831512 30.258442 31.849682
59.284409 32.26086 31.907698
60.018219 32.066154 32.054947
72.846504 28.66246 32.125191
63.893139 31.038019 32.148418
70.861328 29.189169 32.354362
68.422127 29.836334 32.353123
64.596848 30.851307 32.310188
62.749645 31.341419 32.32077
61.844322 31.581625 32.370422
65.763283 30.541822 32.42725
64.71582 30.81975 32.42033
61.078506 31.784819 32.433769
72.909691 28.645706 32.575634
72.261078 28.817795 32.513577
71.112595 29.122509 32.538799
61.760544 31.603861 32.546181
64.505882 30.875463 32.657722
61.444256 31.687792 32.677311
69.90731 29.442297 32.708511
67.168533 30.168993 32.706779
61.768963 31.601645 32.774422
61.159756 31.763275 32.79195
61.362106 31.709587 32.794197
71.07798 29.131702 32.840347
64.44294 30.892176 32.840679
71.888077 28.916771 32.934525
69.735809 29.487843 32.927792
59.373222 32.237263 32.928722
68.518127 29.810925 33.034409
63.749165 31.076212 33.082829
63.899624 31.036304 33.021576
73.023415 28.615555 33.130737
71.614487 28.989384 33.169437
69.233269 29.621181 33.118908
65.065018 30.727081 33.165813
60.401611 31.964367 33.103737
70.838707 29.195225 33.243309
66.554665 30.331837 33.256023
60.42421 31.958366 33.232983
58.430378 32.487419 33.231873
70.474808 29.291759 33.381023
63.112217 31.245182 33.484566
59.906628 32.095703 33.483967
71.419113 29.041229 33.539471
69.43615 29.56735 33.507774
66.015701 30.474863 33.535976
61.194901 31.753887 33.507275
58.4501 32.482224 33.559715
71.22583 29.092506 33.635406
68.194443 29.896812 33.627235
67.171173 30.168308 33.648617
59.378204 32.235962 33.660347
69.291901 29.605637 33.71336
65.740799 30.547825 33.709602
61.907944 31.564705 33.738617
67.988708 29.951408 33.802567
63.256428 31.206921 33.891575
62.844746 31.316147 33.827084
60.997417 31.806324 33.88192
72.766075 28.683842 33.954132
64.102974 30.982391 33.920826
60.713299 31.881699 33.941647
69.897537 29.444969 34.086079
67.10556 30.185726 34.002544
59.64402 32.165401 34.020309
69.111938 29.653412 34.102631
65.106613 30.71612 34.108692
69.689919 29.500051 34.248722
68.691086 29.765064 34.257088
63.652233 31.101982 34.28912
58.780869 32.394428 34.210571
71.041153 29.14152 34.351532
70.679024 29.237617 34.30254
65.768646 30.540447 34.337708
62.670406 31.362413 34.377518
70.264465 29.347582 34.443333
68.364388 29.851728 34.460232
66.504677 30.34515 34.49831
63.212654 31.218542 34.439697
60.143936 32.032764 34.451069
72.144547 28.848734 34.581535
70.789703 29.20821 34.565651
60.524212 31.931866 34.57655
65.212395 30.688004 34.696289
63.385498 31.172689 34.608795
62.108986 31.511379 34.648651
59.788826 32.126987 34.602081
72.684082 28.705568 34.785484
68.8853 29.713518 34.746895
62.39959 31.434275 34.721237
60.310745 31.988504 34.724682
60.55558 31.923544 34.73098
66.966133 30.222713 34.840668
72.946228 28.636005 34.990295
66.040787 30.468216 34.931999
66.349754 30.386236 35.065968
58.675655 32.422363 35.051022
68.851494 29.722452 35.126972
60.617081 31.907236 35.140877
62.739082 31.344212 35.254082
59.605629 32.175613 35.293697
65.70945 30.556103 35.327019
63.951012 31.02265 35.301895
62.583015 31.385628 35.35244
61.511612 31.669905 35.399014
57.547718 32.72163 35.348549
72.325806 28.80061 35.412895
70.240173 29.353989 35.445805
59.991745 32.073174 35.444496
72.313942 28.803751 35.58007
71.517975 29.014944 35.539833
68.429192 29.834511 35.520969
67.5466 30.068684 35.560158
66.607307 30.3179 35.521145
72.835999 28.665232 35.639553
65.294891 30.666111 35.681667
64.580429 30.855682 35.691788
63.515053 31.138363 35.616043
70.19973 29.364723 35.787212
64.625839 30.843634 35.780182
59.573967 32.184044 35.748001
58.459 32.479843 35.726398
71.79734 28.940826 35.865341
70.591721 29.260719 35.896774
67.123032 30.181065 35.807899
66.358322 30.383961 35.861149
60.83638 31.849094 35.800247
59.389442 32.233009 35.840801
63.066162 31.257462 35.918819
62.813667 31.324451 35.950119
61.95293 31.552826 35.926018
59.490398 32.206223 35.926033
58.921463 32.357147 35.948025
69.010422 29.680294 36.062473
68.415138 29.838242 36.081421
65.837746 30.522076 36.048775
62.904922 31.300232 36.032974
60.451473 31.951195 36.096062
59.913982 32.093815 36.070316
59.666981 32.159363 36.00412
72.996796 28.622585 36.153587
70.245049 29.352705 36.114124
70.421616 29.305855 36.140083
69.744781 29.485443 36.138245
69.938736 29.433979 36.162178
68.732628 29.754002 36.177784
63.779518 31.068174 36.166431
60.654861 31.897221 36.186935
59.491314 32.205978 36.145878
69.438446 29.566725 36.219418
68.958313 29.694122 36.279678
70.847168 29.192944 36.336731
68.833557 29.727226 36.372711
66.838593 30.256523 36.395752
66.525955 30.339474 36.352242
65.61969 30.579931 36.317959
71.158745 29.110273 36.44664
66.627213 30.312607 36.479496
69.401047 29.576651 36.51339
65.629097 30.577429 36.584438
61.626217 31.639492 36.527969
59.396294 32.231197 36.533993
67.121124 30.181564 36.620235
64.977295 30.75037 36.648506
58.828842 32.38171 36.698849
68.542213 29.804533 36.794952
67.538437 30.070843 36.706543
67.632034 30.046007 36.749557
63.920029 31.030891 36.746063
63.805984 31.061134 36.822052
72.288841 28.810452 36.948498
68.053589 29.934158 36.996101
66.956711 30.225182 36.903114
62.342663 31.449421 36.990334
61.394482 31.700989 36.92849
60.318764 31.986403 36.93499
67.308075 30.131956 37.025635
65.330818 30.65657 37.009151
59.713745 32.146954 37.082474
68.71228 29.759413 37.160851
64.065826 30.992226 37.15551
60.238026 32.007828 37.106155
64.690338 30.826523 37.276085
60.78001 31.864029 37.211609
59.697571 32.151245 37.278927
72.043823 28.875471 37.334347
63.316463 31.191025 37.304176
62.35862 31.445183 37.337978
60.481873 31.943134 37.381878
71.583267 28.997673 37.464664
69.639465 29.513401 37.453758
69.083977 29.660791 37.486092
66.031609 30.470619 37.480839
59.831711 32.115646 37.466728
71.414215 29.042526 37.578175
63.290611 31.197918 37.528206
60.790878 31.861156 37.523315
71.683334 28.971115 37.602867
67.69162 30.030191 37.629776
66.623695 30.313536 37.602577
61.210171 31.749882 37.639854
58.721741 32.410126 37.613747
65.271385 30.672358 37.786564
65.00853 30.7421 37.798992
62.953289 31.287386 37.74688
61.091179 31.781498 37.779034
60.475636 31.944805 37.793545
58.025574 32.594841 37.787956
70.149406 29.378103 37.844597
64.627342 30.843235 37.869896
62.93375 31.292566 37.943745
65.277214 30.670794 38.087399
64.097954 30.983671 38.045765
65.880692 30.510674 38.129276
59.440712 32.219406 38.193882
71.763733 28.949772 38.263428
68.782021 29.740917 38.202187
61.915741 31.562664 38.250641
69.804916 29.469521 38.329407
68.358551 29.853266 38.300961
62.130676 31.505638 38.31443
58.535881 32.459465 38.372036
66.708389 30.291061 38.461815
65.730164 30.5506 38.401749
61.48127 31.677952 38.406368
59.089767 32.312534 38.458138
58.552086 32.455166 38.401352
72.751305 28.687702 38.540627
72.326439 28.800442 38.537399
71.02195 29.146593 38.502918
69.998497 29.418156 38.510387
68.671204 29.770329 38.542133
66.042496 30.467735 38.502129
65.119286 30.712687 38.510704
70.363144 29.321396 38.648441
66.514221 30.342587 38.64917
59.153088 32.295731 38.644985
67.166901 30.169422 38.713623
65.611946 30.581982 38.740425
64.212784 30.953205 38.702408
62.819511 31.322887 38.75869
62.117939 31.509037 38.736427
60.64843 31.898945 38.710705
59.306988 32.25489 38.716473
71.530067 29.011757 38.903046
70.769012 29.213696 38.928844
67.462303 30.091061 38.936733
63.253014 31.207874 38.990414
62.724403 31.348127 38.965317
61.36578 31.708603 38.936123
69.8843 29.448467 39.085426
60.630432 31.903715 39.031921
66.298294 30.399899 39.199245
63.732315 31.080708 39.164051
69.566895 29.532684 39.200851
64.217781 30.951902 39.278599
61.455788 31.684721 39.242111
60.600147 31.911743 39.267513
68.912018 29.706429 39.342415
67.670952 30.035719 39.352364
62.436153 31.42461 39.363815
60.297909 31.991936 39.369297
72.055481 28.87236 39.442661
71.192139 29.10146 39.420704
64.589294 30.853334 39.544456
60.50206 31.937759 39.597031
70.183975 29.368948 39.668812
65.857887 30.516745 39.653282
64.90564 30.7694 39.608665
60.23912 32.007526 39.610058
71.38179 29.051138 39.730244
69.780495 29.476 39.701622
69.008186 29.680901 39.797565
65.85833 30.51663 39.775478
63.979843 31.015053 39.744774
61.850746 31.579939 39.709038
71.402588 29.045624 39.900681
67.427261 30.10034 39.941444
65.277206 30.670818 39.960388
64.60231 30.849888 39.982777
68.650917 29.77569 40.119648
64.8592 30.781723 40.160221
62.178036 31.493078 40.165264
62.21476 31.483334 40.140026
61.249275 31.739498 40.167046
68.895569 29.710789 40.254242
66.593536 30.321558 40.220451
58.480675 32.474091 40.246395
72.311447 28.804459 40.344276
69.371101 29.584621 40.304058
61.210686 31.749754 40.372509
59.243607 32.271648 40.330231
58.857216 32.374172 40.378292
69.057922 29.667727 40.423153
70.138618 29.380959 40.523159
67.832726 29.992756 40.563393
59.58252 32.181728 40.567989
69.0774 29.66251 40.643856
67.294151 30.135662 40.671776
58.373627 32.502472 40.692574
67.143684 30.175587 40.854763
59.932259 32.088959 40.854408
72.486267 28.758055 40.966827
71.499443 29.019886 40.965416
69.474937 29.55706 40.921043
67.764771 30.010799 40.997322
67.31691 30.129633 40.92001
65.111649 30.71475 40.931316
62.933876 31.292568 40.920139
60.426613 31.957804 40.939117
69.258308 29.614506 41.066956
66.070755 30.4603 41.053253
63.329784 31.187519 41.005188
63.135136 31.239166 41.033676
62.715775 31.350439 41.086868
60.79678 31.859594 41.001194
71.027924 29.145016 41.169113
60.664482 31.894695 41.146492
60.612495 31.908485 41.166985
58.296959 32.522846 41.138676
68.759941 29.746758 41.225826
65.898674 30.505939 41.286755
64.181053 30.96166 41.246964
60.55204 31.924526 41.209595
69.199738 29.630066 41.353691
68.304909 29.867479 41.39257
66.972137 30.221094 41.337074
61.864601 31.576281 41.370388
60.341961 31.980263 41.305077
66.342506 30.388163 41.405415
61.135918 31.769611 41.425041
67.090279 30.189758 41.662361
64.268532 30.938452 41.678123
60.71217 31.882038 41.611465
59.296249 32.257702 41.607613
74.088104 28.333078 41.859406
73.225105 28.562057 41.88419
62.819176 31.323006 41.85347
58.773018 32.396515 41.853626
67.686401 30.031607 41.959091
66.234787 30.416746 41.917015
60.069794 32.052464 41.996296
60.119751 32.039211 41.920486
58.367085 32.504211 41.949158
70.664772 29.241346 42.09626
69.786003 29.474506 42.055485
64.968796 30.752647 42.042862
61.60585 31.644928 42.00877
73.256737 28.553621 42.134346
72.935577 28.638836 42.107063
66.022369 30.47312 42.179356
58.357048 32.506882 42.127777
57.330544 32.779221 42.169994
65.211479 30.688269 42.281036
65.01107 30.74144 42.233208
62.375839 31.440632 42.24419
74.284164 28.280998 42.352203
62.92231 31.295641 42.312153
62.883461 31.30595 42.392132
62.304558 31.459518 42.362453
57.916565 32.623749 42.316338
70.69207 29.234097 42.412449
70.753021 29.217922 42.429981
62.973923 31.281933 42.492775
63.229069 31.214252 42.421928
69.198647 29.630335 42.572117
65.519585 30.606529 42.563862
64.250931 30.94313 42.500122
64.374878 30.910246 42.513809
63.255661 31.20719 42.540745
72.395607 28.782093 42.635063
58.833027 32.380623 42.649857
70.539398 29.274605 42.777061
69.671104 29.50499 42.767303
65.791786 30.534309 42.724133
63.601013 31.115549 42.774033
58.926571 32.355816 42.735912
73.039803 28.611183 42.866699
71.184586 29.103415 42.890759
64.420021 30.898254 42.883762
64.140045 30.972544 42.895004
62.010906 31.537453 42.825264
59.816742 32.119629 42.889629
65.922974 30.49951 42.944672
61.321526 31.720367 42.97694
59.098133 32.310295 42.984612
58.087746 32.578384 42.942013
71.768135 28.948587 43.057213
70.916168 29.174641 43.033073
58.818268 32.384548 43.037106
72.928566 28.64069 43.130432
68.594398 29.790653 43.124851
67.064705 30.196556 43.147278
66.671768 30.300823 43.166481
66.070541 30.460356 43.191738
62.291157 31.4631 43.171322
69.67524 29.503916 43.23489
68.288712 29.871756 43.232635
61.499207 31.673225 43.239895
73.137665 28.585234 43.374046
70.152359 29.377306 43.308304
68.107925 29.919729 43.341637
61.470501 31.68084 43.347809
64.283005 30.934612 43.48893
62.921738 31.295788 43.486073
73.665131 28.445293 43.591576
72.07988 28.86591 43.548172
67.909874 29.97229 43.527046
66.176514 30.432236 43.538284
73.182022 28.573467 43.788086
71.75412 28.952322 43.709198
69.033478 29.674131 43.732071
62.087112 31.517221 43.79525
59.384087 32.234386 43.703156
74.979736 28.096504 43.808167
68.069099 29.930031 43.837975
65.447357 30.62569 43.889107
61.296383 31.727009 43.886463
74.965469 28.100296 43.917992
70.881767 29.183746 43.973351
64.466492 30.885921 43.9324
62.562515 31.391077 43.940506
60.631073 31.903519 43.967354
66.178635 30.431671 44.036831
65.362305 30.648245 44.040585
61.260666 31.736471 44.043541
69.999817 29.417744 44.146446
68.193748 29.896957 44.10434
66.910149 30.237564 44.140938
66.159653 30.436687 44.193848
60.112755 32.041027 44.121838
58.573822 32.449368 44.194401
74.837257 28.134289 44.206261
69.539734 29.539818 44.238132
67.118622 30.182243 44.201752
62.498932 31.40794 44.253716
59.25135 32.269585 44.22242
57.943344 32.616657 44.30949
57.519196 32.729202 44.376656
74.854828 28.129629 44.434082
71.655823 28.978395 44.460228
56.618111 32.968227 44.411934
74.73436 28.161575 44.562298
73.241951 28.557552 44.541325
64.705513 30.822468 44.660019
62.920948 31.295956 44.611282
73.68763 28.439285 44.707787
72.584091 28.732086 44.721428
70.40712 29.309734 44.791542
69.140999 29.645657 44.766594
64.730042 30.815958 44.720921
75.032707 28.082397 44.861073
72.426125 28.773994 44.816048
69.531868 29.541967 44.885674
66.457985 30.357494 44.888855
63.214237 31.21813 44.878197
73.698303 28.436445 44.950668
66.950615 30.226791 44.972565
61.254089 31.738201 44.956158
58.906456 32.361092 44.950043
75.035042 28.081774 45.007866
74.429924 28.242329 45.062263
71.78788 28.943352 45.093849
66.951393 30.226585 45.054657
63.873791 31.043137 45.017715
57.795067 32.655983 45.097565
70.983055 29.156908 45.151798
70.628731 29.250931 45.198467
70.430649 29.303493 45.118629
69.832764 29.462152 45.184246
61.506172 31.671333 45.132507
60.080704 32.049553 45.151077
72.373131 28.788092 45.298973
71.440933 29.035433 45.241329
69.742691 29.48605 45.273819
56.77705 32.926117 45.298252
65.767593 30.540672 45.37384
65.163185 30.701036 45.311043
62.669846 31.362595 45.346169
62.524326 31.401215 45.37817
57.755966 32.666382 45.384472
55.705334 33.210464 45.309544
71.109619 29.123344 45.481476
70.287109 29.341581 45.496365
65.775642 30.538538 45.476891
61.885105 31.570835 45.455818
63.554897 31.127792 45.552235
61.691132 31.622276 45.568691
56.193527 33.08091 45.550659
69.832268 29.462269 45.657055
69.617737 29.519199 45.669903
65.245499 30.679222 45.629398
56.357624 33.037376 45.628513
76.200958 27.772434 45.76305
70.452454 29.297714 45.766312
61.366974 31.708286 45.7537
75.346497 27.999155 45.806168
72.624725 28.72134 45.834309
65.443672 30.626656 45.874813
62.412189 31.430981 45.827446
55.502831 33.264168 45.893051
67.63755 30.04454 45.96188
65.341499 30.653755 45.931435
64.815712 30.793259 45.936218
61.406185 31.697872 45.96603
58.608025 32.440292 45.918404
58.18515 32.552483 45.9547
57.327019 32.78019 45.90274
71.131592 29.117516 46.006817
64.894485 30.772341 46.048218
59.908985 32.095097 46.058788
56.138496 33.095551 46.060406
74.59034 28.199797 46.151691
73.786766 28.413013 46.177376
71.814034 28.936443 46.152519
67.999107 29.948627 46.166176
62.184891 31.491245 46.13472
75.682816 27.909931 46.201553
72.000061 28.887081 46.213329
70.957726 29.163645 46.20195
68.654434 29.774763 46.218472
65.434776 30.628983 46.250267
56.957817 32.878197 46.288956
55.726212 33.204975 46.247269
70.16053 29.375172 46.363121
68.670273 29.770557 46.336365
65.378548 30.643898 46.348404
59.353432 32.242531 46.385479
76.403786 27.718637 46.419689
65.68544 30.562473 46.449677
64.934334 30.761753 46.440456
62.862534 31.311466 46.465622
61.766541 31.602262 46.434082
56.125645 33.098972 46.450829
71.632706 28.98455 46.579933
71.450813 29.032812 46.528973
64.540443 30.866261 46.506126
61.026928 31.798515 46.537601
73.205444 28.567257 46.606697
68.591614 29.791424 46.610901
65.537186 30.60181 46.610134
62.600769 31.380928 46.641705
56.420837 33.020615 46.698013
74.620613 28.191765 46.708206
71.102463 29.12524 46.752716
58.044571 32.589813 46.721767
55.249744 33.331329 46.7006
76.794388 27.615049 46.870255
71.356979 29.057707 46.805187
69.632118 29.515375 46.877533
68.075256 29.928413 46.848129
64.716675 30.8195 46.881413
76.211098 27.769798 46.962177
75.463326 27.968184 46.986694
74.387344 28.25366 46.955051
69.607498 29.5219 46.922638
67.112839 30.183731 46.961525
66.632477 30.311184 46.935314
76.442703 27.70834 47.011707
61.886463 31.570423 47.007973
76.946022 27.574781 47.120285
72.234016 28.825018 47.114803
69.125511 29.649773 47.176884
62.220787 31.48172 47.143642
62.106258 31.512106 47.133595
55.744228 33.200165 47.144699
72.444321 28.76922 47.289402
71.160812 29.109756 47.205379
63.107067 31.246584 47.251194
57.369419 32.768894 47.25267
56.543533 32.988091 47.225052
73.644073 28.450882 47.395504
69.56926 29.532047 47.332363
68.685013 29.766659 47.370449
67.443329 30.096077 47.325935
73.931282 28.374672 47.42765
63.537445 31.132414 47.444954
55.415207 33.287399 47.476112
74.905807 28.116112 47.57975
70.978729 29.158092 47.597702
66.916649 30.235836 47.502075
65.943108 30.494152 47.571869
56.955704 32.878704 47.507278
54.466743 33.539062 47.543591
71.187302 29.102741 47.690018
70.601639 29.258114 47.613419
70.20314 29.363823 47.669609
68.965683 29.692177 47.743183
65.326035 30.657871 47.713085
62.36552 31.443346 47.812775
67.682846 30.032583 47.948135
62.391109 31.436573 47.969128
61.198135 31.753113 47.981621
55.786297 33.188988 47.953159
74.515182 28.219753 48.030319
74.151802 28.316158 48.018524
73.58503 28.466545 48.006252
68.293259 29.870594 48.017876
56.796494 32.920921 48.023613
76.203827 27.771757 48.192642
54.628544 33.496189 48.110588
75.470634 27.96628 48.204765
73.779495 28.414948 48.207748
71.290176 29.075397 48.248108
61.798134 31.59391 48.241928
74.662758 28.180609 48.300842
68.682129 29.767361 48.390095
65.168488 30.699657 48.318222
63.274025 31.202295 48.324715
61.890755 31.569323 48.333252
71.263069 29.082628 48.457752
69.976875 29.423828 48.478104
68.963669 29.692657 48.498169
62.905243 31.300133 48.467476
59.949062 32.084507 48.416138
55.622272 33.232491 48.440601
61.816063 31.589113 48.572475
60.377979 31.970686 48.567787
54.760925 33.461006 48.560188
75.207787 28.036016 48.627869
54.434837 33.547512 48.648342
77.310532 27.4781 48.78054
71.141212 29.114965 48.732914
66.385681 30.376701 48.786907
64.138168 30.973022 48.778454
54.436813 33.546986 48.71743
73.288177 28.545315 48.857033
71.26133 29.083076 48.898247
62.514256 31.403866 48.800537
54.335526 33.573872 48.845997
77.461685 27.438009 48.969017
77.022743 27.554476 48.95409
71.193405 29.101097 48.920586
62.637154 31.371258 48.98111
61.710873 31.617012 48.920959
63.879059 31.041767 49.037483
61.80381 31.592358 49.04245
55.130615 33.36293 49.002872
54.93187 33.415668 49.074417
53.998108 33.663422 49.004772
77.381859 27.45919 49.15657
75.007668 28.089115 49.130264
66.745544 30.281229 49.145691
63.626595 31.108753 49.177383
76.463661 27.702824 49.281013
65.79528 30.53336 49.298382
61.026672 31.798565 49.295967
76.939514 27.576561 49.398117
74.227684 28.296049 49.352428
74.479431 28.229259 49.390453
68.519958 29.810427 49.383812
66.205414 30.424541 49.391632
54.872353 33.43148 49.34053
53.284798 33.852676 49.357872
77.761139 27.35854 49.488976
67.503586 30.080107 49.477047
65.654808 30.570629 49.473656
64.820198 30.792068 49.499252
74.685646 28.174551 49.554199
68.212273 29.892057 49.592972
64.81015 30.794733 49.599266
65.127014 30.710663 49.53141
63.2201 31.216608 49.508514
62.763683 31.337704 49.529465
53.950512 33.676048 49.567245
68.651123 29.775612 49.612122
79.044998 27.017889 49.789467
70.582314 29.263235 49.79718
69.873726 29.451241 49.787292
69.018913 29.678041 49.749027
77.893204 27.32349 49.861122
68.489487 29.818516 49.856003
67.825333 29.994736 49.863861
61.034504 31.796495 49.882797
60.026718 32.063881 49.892452
52.920746 33.949299 49.882317
75.649445 27.918762 49.928394
66.737709 30.28331 49.906651
63.181877 31.226749 49.947758
54.468048 33.538742 49.909866
71.107391 29.123938 50.062111
68.942673 29.698282 50.05061
68.003601 29.947437 50.064312
67.557457 30.065813 50.011147
67.122307 30.181267 50.023266
64.731804 30.815521 50.000195
70.248947 29.3517 50.12252
66.06295 30.462337 50.183559
66.665909 30.302357 50.245911
64.98494 30.748352 50.228104
63.506733 31.140553 50.224693
79.791794 26.819731 50.375614
79.471008 26.904829 50.323029
70.031128 29.4095 50.395752
67.480331 30.086266 50.49675
64.860634 30.78133 50.408176
65.064827 30.72715 50.470322
52.874916 33.961445 50.446163
76.939697 27.576473 50.582703
66.974472 30.220482 50.554913
66.647369 30.307268 50.585079
64.935036 30.761589 50.500362
61.509506 31.670498 50.544586
53.201698 33.874744 50.500847
78.287064 27.218971 50.62019
70.231369 29.356386 50.633099
68.311516 29.86574 50.635437
66.95359 30.226017 50.681461
66.157097 30.437351 50.65815
79.030319 27.021763 50.756058
67.909187 29.972479 50.754253
66.356842 30.384359 50.73558
64.171555 30.964188 50.757416
61.56673 31.655329 50.746071
52.843826 33.969685 50.783661
69.307281 29.601543 50.882324
64.16552 30.965794 50.896404
52.768154 33.989754 50.887775
79.566116 26.879631 50.989738
69.124268 29.650097 50.987072
68.346619 29.856426 50.91151
65.928169 30.498108 50.904385
64.978554 30.750076 50.930595
62.59367 31.382858 50.934277
78.219772 27.23682 51.099457
69.860245 29.454832 51.072945
79.974937 26.771126 51.133888
61.636272 31.636868 51.190426
62.211502 31.48424 51.231823
61.125351 31.772427 51.200741
52.767498 33.989937 51.221222
79.655396 26.855906 51.380646
70.08448 29.395275 51.389069
68.510895 29.812826 51.369057
67.006836 30.211903 51.33173
61.346512 31.713734 51.308449
54.373047 33.56395 51.396439
52.92099 33.949211 51.306534
82.282516 26.158878 51.443596
76.336288 27.736591 51.447708
70.231987 29.356134 51.418423
67.152298 30.173294 51.406025
63.604496 31.114614 51.499187
62.950462 31.288153 51.452503
65.799484 30.532215 51.572754
65.860092 30.516134 51.567963
82.579994 26.079945 51.603985
77.024467 27.553974 51.662189
76.838608 27.603291 51.680809
66.232231 30.417397 51.600883
60.326092 31.984444 51.641201
82.394058 26.129272 51.757587
80.636322 26.595646 51.775501
76.247971 27.760023 51.70248
66.79586 30.267851 51.78817
78.596352 27.136892 51.833435
78.699081 27.109636 51.889679
68.826981 29.728951 51.877396
67.115433 30.183062 51.865673
64.200577 30.956444 51.865688
82.440697 26.116888 51.937073
76.693657 27.641758 51.968266
70.56813 29.266953 51.926117
64.257416 30.941364 51.946129
63.986794 31.013166 51.907505
53.525684 33.788792 51.914639
70.499756 29.285091 52.082825
69.666168 29.506287 52.042343
66.283875 30.403696 52.0793
80.566673 26.61412 52.130409
67.536285 30.071402 52.117638
67.16951 30.168715 52.12204
64.295486 30.931259 52.165066
52.657578 34.019119 52.115509
52.055119 34.178963 52.126446
81.310059 26.416872 52.296745
71.213173 29.095808 52.231346
64.435997 30.893982 52.200798
61.666977 31.628668 52.20554
54.854397 33.43626 52.212418
52.371811 34.09494 52.232246
80.675224 26.585316 52.340385
77.548759 27.41485 52.359261
67.537491 30.071083 52.349327
65.104866 30.716515 52.306694
78.08728 27.271961 52.472233
71.488281 29.02285 52.441101
70.956551 29.163895 52.486553
83.656822 25.794266 52.583076
82.230743 26.172586 52.51347
81.79509 26.288179 52.52763
63.325348 31.188663 52.526367
54.949615 33.411003 52.563858
83.122383 25.936035 52.635948
83.09742 25.942661 52.725342
69.425842 29.570061 52.716923
68.580444 29.794363 52.782425
66.287529 30.402727 52.747124
65.33564 30.655285 52.738464
63.372429 31.17617 52.796402
51.729836 34.265213 52.730927
81.661018 26.323746 52.945541
80.458794 26.642727 52.935925
78.438713 27.17873 52.946701
78.683456 27.113792 52.961998
70.877281 29.184929 52.958534
70.539917 29.274445 52.950134
70.636391 29.248846 52.967083
54.659737 33.487915 52.963207
53.792923 33.71788 52.991791
51.924114 34.213673 52.920189
84.133301 25.667843 53.079891
76.851753 27.599781 53.026474
70.68821 29.2351 53.057465
53.352718 33.834686 53.075077
52.727448 34.000576 53.095222
78.81385 27.079189 53.138718
78.944901 27.044422 53.129177
66.996094 30.214729 53.129631
63.916542 31.031803 53.19239
62.876385 31.307783 53.180698
61.771133 31.60104 53.14621
77.344711 27.468962 53.294102
70.851562 29.191757 53.283897
70.06617 29.400143 53.252998
63.034836 31.265745 53.280289
62.326389 31.453712 53.268661
78.252296 27.228165 53.354416
62.793095 31.329882 53.32473
61.628983 31.638763 53.362991
52.447334 34.074883 53.382683
64.178047 30.962423 53.464752
60.035164 32.061649 53.400246
83.45517 25.847754 53.5877
77.839493 27.337715 53.5149
71.249527 29.086197 53.575161
70.791985 29.207569 53.558262
67.154205 30.172779 53.528191
60.173615 32.02491 53.587284
53.917397 33.684807 53.544815
54.621014 33.498104 53.637936
54.195137 33.611103 53.654854
82.522346 26.095222 53.756798
82.770691 26.029343 53.75581
70.073334 29.398247 53.716209
59.948189 32.084713 53.877037
82.523651 26.094887 53.976547
67.094391 30.18865 53.974121
61.627277 31.639217 53.983116
59.774643 32.130756 53.931396
53.686119 33.746197 53.991653
51.983036 34.198067 53.942757
51.355179 34.364658 53.970837
76.659378 27.650864 54.071571
66.170898 30.433676 54.032181
63.806458 31.06102 54.079369
51.752007 34.259373 54.062038
83.218445 25.910572 54.175274
82.82872 26.013958 54.176865
82.21582 26.1766 54.128071
79.502762 26.89642 54.152954
79.410461 26.92091 54.164406
76.587631 27.669907 54.148544
54.430851 33.548615 54.161175
79.39212 26.925781 54.257629
70.491676 29.287251 54.275711
62.236057 31.477695 54.264397
60.946434 31.819855 54.237896
51.486706 34.329765 54.263016
86.252449 25.10556 54.347946
84.918747 25.459406 54.306416
77.883209 27.326141 54.315712
77.208099 27.505266 54.358475
67.853096 29.987347 54.333519
66.276978 30.405527 54.361217
65.524567 30.60516 54.324112
64.956894 30.755779 54.362976
60.79866 31.859062 54.342167
78.916451 27.051983 54.486725
79.112221 27.000038 54.430447
69.844009 29.459101 54.458183
69.156906 29.641417 54.412746
60.36647 31.973728 54.471306
59.61977 32.171844 54.423477
84.329758 25.615698 54.558552
79.656197 26.855703 54.536098
68.171463 29.902878 54.579723
64.070618 30.990942 54.589226
59.924385 32.091026 54.566574
86.00399 25.171471 54.601631
83.69146 25.785074 54.642372
78.885506 27.060196 54.690834
70.881485 29.183826 54.6502
67.266068 30.143103 54.648396
65.17675 30.697449 54.650715
63.7733 31.069828 54.645851
83.759575 25.766998 54.728828
78.385513 27.192865 54.74839
77.636177 27.391691 54.776031
53.780457 33.721157 54.731358
52.34446 34.102173 54.766922
84.279724 25.628963 54.896416
83.748375 25.769964 54.820351
83.828392 25.748726 54.899487
83.442841 25.851034 54.808407
67.135818 30.177658 54.842995
64.144905 30.971231 54.836208
53.925354 33.682716 54.865711
87.45163 24.78738 54.963409
84.455132 25.582409 54.982944
77.338013 27.47081 54.936584
61.86972 31.574883 54.958778
59.973572 32.07798 54.965637
78.986313 27.033459 55.025875
65.796082 30.533125 55.000477
78.947289 27.043814 55.104492
71.478134 29.025513 55.129444
63.674049 31.096149 55.170033
62.972084 31.282398 55.122044
62.844082 31.316362 55.101959
61.568199 31.654888 55.147511
54.139168 33.625984 55.129646
61.755547 31.605183 55.295643
51.632366 34.291115 55.285892
85.069771 25.419315 55.383354
76.231293 27.764435 55.374588
70.065559 29.400322 55.342834
63.228027 31.214489 55.318756
54.701736 33.476723 55.31004
53.331978 33.840164 55.381832
87.772079 24.702402 55.414841
78.05764 27.279863 55.446339
70.863388 29.188629 55.417061
66.751358 30.279669 55.479179
54.752007 33.463375 55.48774
76.778122 27.619343 55.554657
68.086205 29.925501 55.588692
63.104797 31.247192 55.598442
59.865196 32.106747 55.542191
52.982803 33.932804 55.544018
88.764069 24.439175 55.652405
86.189865 25.122154 55.67791
78.868279 27.064732 55.66301
78.555702 27.147669 55.65987
66.288971 30.402359 55.638103
63.764706 31.072104 55.613441
62.490059 31.410301 55.69767
54.500084 33.530231 55.695145
87.487091 24.778 55.798115
77.911644 27.318542 55.738579
62.417862 31.429461 55.73016
60.722778 31.87921 55.739456
60.514458 31.934483 55.749428
52.621151 34.02877 55.750874
63.944023 31.02453 55.883587
54.993767 33.399254 55.810196
89.783173 24.168772 55.977894
78.908379 27.054075 55.906136
76.453552 27.705412 55.916386
66.696411 30.294249 55.94381
66.716042 30.28904 55.937397
54.03915 33.65255 55.918064
60.515324 31.934235 56.062706
86.267761 25.10148 56.154221
74.898048 28.118155 56.197151
71.043144 29.140938 56.172363
68.306679 29.867004 56.130722
68.458572 29.826702 56.105907
65.706261 30.556963 56.146622
65.052765 30.730352 56.150372
61.306892 31.724236 56.101219
52.547852 34.048229 56.183582
51.577145 34.305779 56.112595
68.574455 29.795959 56.281994
66.812164 30.26354 56.262527
66.26149 30.409647 56.223068
60.29781 31.991955 56.20557
54.04586 33.650776 56.200607
90.804413 23.897802 56.337337
66.61348 30.316254 56.340088
54.744362 33.465446 56.343781
51.453285 34.338642 56.313858
51.519089 34.32119 56.372963
90.755997 23.910633 56.471619
90.04364 24.099649 56.430893
90.1716 24.065695 56.438038
89.654533 24.202892 56.425507
78.587372 27.139278 56.471092
77.948608 27.30876 56.461143
70.085609 29.39501 56.447197
67.728928 30.0203 56.495693
63.774792 31.069443 56.486244
55.23687 33.334778 56.490364
88.703667 24.455181 56.589123
76.784592 27.617619 56.584656
75.386047 27.988689 56.553295
60.457821 31.949499 56.560196
76.364227 27.72916 56.680218
75.44677 27.972588 56.674316
66.035522 30.469612 56.616051
65.220665 30.685802 56.607414
53.57436 33.775879 56.616646
86.979698 24.912632 56.771336
71.642097 28.982082 56.734718
62.636551 31.371418 56.703533
88.849014 24.41666 56.875881
76.70031 27.639982 56.884586
70.494888 29.286415 56.808949
54.422974 33.550728 56.846291
63.800697 31.062542 56.903893
54.995163 33.398918 56.970882
55.093464 33.372837 56.941528
53.655876 33.754269 56.949089
52.114952 34.16312 56.985485
89.534058 24.234859 57.073536
89.034561 24.367395 57.05901
74.412094 28.24712 57.002296
64.231003 30.94837 57.077892
63.655174 31.101149 57.068825
56.714394 32.942745 57.079376
54.568573 33.5121 57.047718
90.65435 23.937613 57.134079
87.528717 24.766937 57.134945
64.534889 30.867735 57.135475
56.521008 32.994045 57.186516
55.494427 33.266434 57.137539
55.660011 33.222504 57.103149
52.353767 34.099735 57.149765
89.083176 24.354486 57.201477
76.755135 27.625486 57.232437
76.343529 27.734674 57.29554
75.325577 28.004749 57.255375
63.553288 31.128195 57.264606
60.273472 31.998394 57.275826
91.481384 23.718195 57.35096
77.975243 27.301767 57.300747
76.412529 27.716372 57.344284
74.705879 28.169159 57.323368
70.874435 29.185709 57.34845
68.982895 29.68758 57.365665
67.126167 30.180231 57.364094
60.69101 31.887611 57.313858
56.947849 32.880787 57.331177
52.791618 33.983517 57.392265
74.663139 28.180508 57.400082
74.212646 28.300041 57.476234
71.369072 29.054483 57.472343
60.641838 31.900688 57.487732
74.6642 28.180227 57.582623
68.414207 29.838486 57.537491
65.627586 30.57782 57.557697
64.240204 30.94595 57.547028
61.413258 31.69603 57.52042
56.294647 33.054077 57.548584
90.388687 24.008131 57.656094
76.404755 27.71843 57.623024
73.330696 28.534008 57.666634
52.556217 34.046009 57.695351
91.48333 23.717665 57.797356
90.19725 24.058918 57.711369
74.263756 28.286446 57.750557
69.390236 29.579535 57.732903
67.219055 30.155607 57.738037
54.644596 33.491898 57.769985
90.029961 24.103277 57.894691
88.140083 24.60474 57.871559
69.728455 29.489811 57.85622
66.383339 30.377357 57.822433
65.833595 30.523193 57.883179
63.522343 31.136429 57.823254
59.52018 32.198296 57.803741
57.311134 32.784378 57.845211
65.916405 30.501225 57.955494
59.538155 32.193485 57.994919
57.153397 32.826241 57.913803
55.575722 33.24485 57.900478
53.831894 33.707512 57.969849
91.638443 23.6765 58.033634
91.198868 23.793154 58.003033
88.507477 24.507252 58.025761
76.31073 27.743368 58.044086
73.519585 28.483942 58.074947
71.935822 28.904087 58.03191
71.1996 29.099442 58.064671
70.020691 29.412243 58.026112
64.826187 30.790476 58.036716
56.074875 33.112427 58.074036
54.635433 33.494316 58.068405
87.796097 24.696018 58.108974
74.33606 28.267286 58.173569
93.082611 23.293331 58.226902
93.216393 23.25786 58.221855
89.000954 24.376324 58.218819
71.220055 29.094009 58.293346
70.8255 29.1987 58.283577
61.675697 31.626354 58.289825
55.916573 33.154404 58.278065
55.193256 33.34631 58.294914
88.676498 24.462391 58.332962
75.917023 27.847786 58.338028
72.509125 28.752008 58.378326
70.573166 29.265652 58.363327
64.62429 30.844042 58.39954
54.790314 33.453201 58.36953
92.247528 23.514923 58.401146
90.699486 23.925659 58.450043
90.350235 24.018324 58.49593
68.075974 29.928246 58.453201
93.410515 23.20632 58.584862
92.196579 23.528412 58.583099
76.123322 27.793049 58.552418
73.721924 28.430218 58.589973
72.053757 28.87281 58.562866
63.487728 31.14559 58.513088
60.718895 31.880209 58.591221
59.033028 32.327557 58.557266
54.793373 33.452389 58.537804
93.237122 23.252308 58.621109
92.094757 23.555435 58.651688
70.890884 29.181351 58.678055
69.245926 29.617836 58.664021
68.118271 29.917027 58.611088
62.947617 31.288889 58.607063
62.428333 31.426666 58.65649
70.933556 29.170029 58.71907
59.313324 32.253178 58.70813
92.763237 23.378077 58.869278
74.764885 28.153484 58.864899
62.757584 31.33931 58.892235
60.944729 31.82029 58.864883
58.873734 32.369827 58.806969
56.187851 33.082428 58.867622
55.639248 33.227978 58.872551
93.30545 23.2342 58.967529
93.428207 23.201626 58.960083
91.935638 23.597683 58.901825
92.237823 23.517502 58.922501
75.148964 28.051577 58.924801
71.800308 28.94005 58.943768
70.478584 29.290752 58.97929
68.676346 29.768955 58.92178
67.162247 30.17067 58.947048
66.13121 30.444225 58.9179
63.799522 31.062864 58.912933
60.855606 31.843937 58.939144
55.446526 33.279114 58.954327
92.104202 23.552959 59.041142
71.69738 28.967369 59.06488
69.350166 29.590179 59.098064
63.647102 31.103302 59.0597
61.152733 31.765102 59.066586
58.193985 32.550167 59.09383
75.994453 27.82724 59.146225
72.877502 28.654268 59.189934
72.956406 28.633335 59.161777
56.183296 33.083637 59.155029
69.751884 29.483595 59.259018
65.00843 30.742119 59.226814
61.483124 31.677443 59.23177
91.381577 23.744663 59.316078
90.403778 24.004122 59.309883
76.237946 27.762634 59.382652
69.356064 29.588615 59.380421
62.983994 31.279236 59.366585
61.76207 31.603434 59.330864
55.667122 33.220581 59.320324
74.691879 28.172857 59.408417
71.890099 28.916241 59.464828
65.421158 30.632612 59.470558
64.890259 30.773468 59.478775
66.993652 30.215401 59.50703
61.465172 31.682213 59.560608
55.643196 33.226925 59.582272
54.591576 33.505966 59.532982
72.396446 28.781908 59.656868
62.60833 31.378902 59.662613
58.058594 32.586075 59.606613
73.104706 28.593983 59.768791
68.901703 29.709162 59.702183
75.501663 27.957994 59.895447
66.962021 30.223793 59.854538
63.470409 31.150177 59.808357
60.221169 32.012291 59.847729
58.811573 32.386299 59.858047
56.474304 33.006416 59.831085
74.80687 28.142345 59.969521
74.372612 28.257568 59.903519
62.46991 31.415627 59.952225
58.226032 32.541649 59.909496
56.675819 32.952946 59.996586
73.231537 28.560331 60.061729
71.762627 28.950064 60.080044
69.143219 29.645081 60.038223
57.45977 32.744949 60.06765
56.496029 33.000648 60.061821
72.53952 28.743944 60.186634
70.742706 29.220676 60.150677
66.274338 30.406246 60.19738
65.201012 30.691017 60.162224
64.096062 30.984177 60.138962
60.736923 31.875446 60.144344
75.804161 27.877752 60.21067
73.354767 28.527634 60.287453
71.814133 28.936405 60.268185
62.156864 31.498728 60.291172
55.23856 33.334282 60.204636
68.590179 29.791813 60.348614
62.938046 31.29142 60.397232
62.522644 31.401646 60.300156
70.312546 29.334816 60.456039
69.594933 29.525234 60.409264
61.970181 31.548241 60.458725
55.803703 33.184334 60.425556
73.829453 28.401688 60.584904
72.159485 28.844784 60.532696
69.98175 29.422588 60.582726
68.362022 29.852345 60.517784
66.437569 30.362934 60.585079
63.339218 31.184982 60.553131
62.821766 31.322285 60.533703
60.238007 32.007828 60.593086
59.330597 32.248581 60.513283
72.805992 28.673244 60.680794
73.068069 28.603704 60.631332
70.769608 29.213543 60.654907
65.716446 30.55426 60.610603
65.118515 30.712902 60.618465
57.432877 32.752129 60.692192
56.670593 32.954342 60.613743
74.822289 28.138256 60.738777
70.70034 29.231922 60.745869
70.33342 29.329281 60.707794
69.046539 29.670727 60.70953
68.263618 29.878448 60.798237
66.121964 30.446671 60.752628
60.540199 31.927649 60.75795
57.274849 32.794064 60.739819
71.858925 28.92453 60.855686
67.38356 30.111944 60.822289
63.323074 31.189276 60.864403
74.545578 28.211674 60.956619
68.97403 29.689964 60.958618
69.284256 29.607656 60.963474
68.56237 29.799185 60.914101
68.559273 29.800011 60.908997
59.705582 32.149086 60.958244
75.534164 27.949394 61.09523
69.793427 29.472572 61.035667
69.884933 29.448292 61.003983
62.557056 31.392513 61.073456
65.805855 30.530537 61.133163
61.776718 31.599575 61.1022
60.896687 31.833061 61.126015
60.281418 31.996304 61.109055
71.587311 28.996593 61.224415
58.643192 32.430977 61.269802
57.901581 32.627716 61.27153
74.475716 28.230225 61.336628
74.572906 28.204441 61.320923
63.741394 31.078306 61.36731
62.286743 31.464251 61.302258
61.675652 31.626385 61.313721
55.987015 33.135685 61.36702
75.51339 27.954861 61.491165
74.094666 28.331326 61.46698
72.671158 28.709019 61.482899
69.080406 29.661739 61.417683
68.86203 29.719677 61.434631
61.669407 31.62804 61.416527
73.504059 28.488026 61.593857
71.736435 28.957031 61.533737
70.829239 29.197723 61.534454
60.848125 31.845942 61.513603
55.78022 33.190571 61.515736
65.296059 30.665792 61.646591
59.05217 32.322441 61.644424
58.223648 32.542267 61.634285
56.428841 33.018471 61.615417
74.059868 28.340563 61.718437
71.871231 28.921265 61.792175
70.713516 29.228432 61.797615
65.525009 30.605045 61.704014
60.644512 31.899961 61.707386
73.688667 28.439053 61.84919
66.547173 30.333849 61.837852
61.832184 31.584846 61.823479
74.578735 28.202885 61.952347
68.746887 29.750227 61.90118
62.172211 31.494631 61.944122
74.379013 28.255892 62.051231
70.948181 29.166168 62.090714
70.602707 29.257835 62.027794
67.6101 30.051834 62.068073
64.963501 30.754044 62.061321
62.198433 31.487669 62.090271
61.07663 31.785332 62.098656
61.390591 31.702026 62.039001
75.314713 28.007593 62.124886
72.55545 28.739719 62.141903
65.054871 30.729799 62.118088
58.771393 32.396938 62.224998
70.127098 29.384014 62.359547
68.493431 29.817471 62.325832
67.92569 29.968102 62.360291
63.597157 31.11656 62.325352
61.087833 31.782337 62.390144
71.578339 28.99898 62.453087
69.805618 29.469334 62.489914
64.88295 30.775404 62.413113
63.955189 31.021566 62.492355
69.213623 29.626389 62.554867
62.389771 31.436914 62.559933
59.22543 32.276493 62.551876
58.994789 32.3377 62.597679
58.585167 32.446388 62.541107
73.828461 28.401928 62.612701
72.35083 28.794014 62.602684
70.873344 29.186028 62.655342
69.518379 29.545534 62.618126
67.97274 29.955614 62.655815
61.471802 31.680458 62.631939
60.787701 31.861958 62.668793
69.337784 29.593449 62.740479
65.929337 30.497787 62.760696
58.050522 32.588188 62.75882
74.494125 28.225372 62.821754
68.57225 29.796553 62.892879
68.492668 29.817669 62.805424
65.231667 30.682892 62.881748
58.809624 32.38678 62.889183
56.87928 32.89896 62.875763
73.632767 28.453869 62.920715
72.942047 28.637152 62.941742
72.247711 28.821373 62.958645
68.731354 29.754343 62.909748
67.09993 30.187187 62.938663
67.374382 30.114372 62.911167
63.957191 31.021042 62.978233
60.256592 32.002914 62.917622
63.48732 31.145693 63.040462
60.105354 32.043026 63.037689
57.700272 32.681141 63.076462
71.188713 29.102362 63.16748
68.511803 29.812592 63.163067
67.517906 30.07629 63.179218
65.095398 30.719038 63.186764
63.52491 31.135723 63.152905
61.472851 31.68021 63.194664
72.307495 28.805519 63.241764
71.581093 28.998249 63.211834
69.289215 29.606331 63.243977
67.833992 29.992426 63.204708
65.206566 30.689545 63.221729
57.356674 32.772297 63.233665
67.759583 30.012167 63.311314
67.793877 30.003067 63.492149
66.353027 30.385365 63.421371
61.531898 31.664501 63.483704
58.238079 32.538429 63.451782
72.223885 28.827688 63.630173
63.96888 31.017935 63.613636
63.098705 31.248831 63.601379
62.273556 31.467728 63.644043
61.775658 31.599833 63.616886
58.642517 32.43116 63.669674
58.203281 32.547699 63.607079
69.332848 29.594748 63.74334
61.840611 31.582611 63.723183
72.527451 28.74712 63.875572
65.030579 30.736238 63.877316
62.005066 31.538979 63.853863
60.627571 31.904457 63.820827
70.89106 29.181337 63.907669
69.566559 29.532749 63.981434
68.268066 29.877253 63.96529
67.202545 30.159966 63.947002
65.501503 30.611292 64.014832
64.045303 30.997654 64.064926
62.626194 31.37417 64.007538
61.767113 31.602123 64.024353
69.204216 29.628874 64.121902
67.5215 30.07534 64.124397
62.766479 31.336958 64.108345
67.786697 30.004976 64.25116
62.568504 31.389513 64.219574
66.985146 30.217644 64.306938
63.155987 31.233641 64.312294
67.141426 30.176182 64.476479
66.771599 30.2743 64.42141
61.15218 31.765259 64.427834
60.024208 32.064541 64.461555
59.520344 32.198227 64.494141
65.548584 30.598804 64.586884
59.302559 32.256008 64.520172
59.44733 32.217598 64.576683
67.864609 29.984303 64.68103
67.184097 30.164852 64.765274
66.859116 30.25108 64.745682
67.09021 30.189758 64.882523
63.889931 31.038914 64.850571
63.422943 31.162756 64.854599
65.260094 30.675343 64.988434
62.576569 31.387331 64.932686
64.63311 30.841728 65.111549
68.212891 29.891914 65.289909
66.183914 30.430233 65.233139
65.603149 30.584351 65.340691
65.418228 30.633419 65.446289
63.6847 31.093306 65.46434
63.440796 31.158024 65.432426
67.202988 30.159866 65.904587
66.174477 30.43277 65.947632
66.403793 30.371918 66.051788
64.165527 30.965776 66.039246
68.017242 29.943829 66.278229
67.080627 30.192324 66.216896
65.971832 30.486511 66.29628
65.765228 30.541328 66.209305
64.909424 30.768391 66.267258
63.876747 31.042381 66.259628
63.759247 31.073555 66.35569
66.592117 30.321911 66.675163
64.645599 30.83839 66.625824
66.44606 30.360699 66.864815
64.933334 30.76202 67.180946
68.690666 29.765127 67.246513
67.710617 30.025139 67.203758
66.756409 30.278297 67.296516
68.493759 29.817415 67.361649
65.704643 30.557373 67.340912
64.664284 30.833441 67.337608
68.141136 29.910975 67.491417
65.788895 30.535027 67.437531
66.712067 30.290096 67.674232
65.361038 30.648567 67.676315
68.089653 29.924595 67.795197
68.556488 29.80073 67.85704
63.173805 31.228899 67.818298
68.913437 29.706015 67.985916
67.33873 30.123838 67.974136
63.324287 31.188971 67.910057
63.572464 31.123127 67.951256
68.431374 29.833946 68.184067
64.556732 30.861975 68.260689
64.660042 30.83456 68.323914
66.425385 30.366188 68.456802
64.183823 30.960918 68.530853
63.357742 31.180094 68.570572
63.47459 31.149086 68.599205
69.564568 29.533279 68.771889
66.673843 30.300243 68.749771
63.333088 31.186623 68.715721
63.269459 31.203503 68.710541
68.593521 29.790909 68.824455
69.693054 29.499168 68.900543
67.079498 30.192604 68.961113
68.285194 29.872715 69.015427
67.971199 29.956018 69.01384
64.255302 30.941948 69.079224
68.729042 29.754961 69.114426
66.814018 30.263054 69.181664
64.925377 30.764116 69.181114
66.809547 30.264242 69.324051
63.315834 31.191227 69.344826
68.009819 29.945786 69.486229
67.797379 30.002159 69.703659
66.216171 30.42164 69.738991
62.652149 31.367325 69.813614
69.772491 29.478073 69.943474
67.503418 30.080164 69.929085
65.374886 30.644897 69.938263
65.482498 30.616346 69.933304
62.802784 31.327309 70.098099
65.671204 30.566244 70.196854
63.984398 31.013834 70.152504
63.345978 31.183191 70.287704
67.98114 29.953396 70.3731
64.629822 30.842579 70.380287
63.916378 31.031881 70.385544
62.957489 31.286251 70.342133
66.197189 30.426731 70.492752
62.795853 31.329199 70.562325
64.447128 30.891026 70.675278
66.952499 30.226326 70.713219
68.31974 29.863571 70.80867
66.436104 30.363323 70.804733
64.883415 30.775274 70.826546
65.057327 30.729139 70.947281
69.256775 29.614943 71.046822
68.475388 29.822277 71.088844
63.882607 31.040825 71.144875
