# .PCD v0.7 - Point Cloud Data file format
VERSION 0.7
FIELDS x y z
SIZE 4 4 4
TYPE F F F
COUNT 1 1 1
WIDTH 1614
HEIGHT 1
VIEWPOINT 0 0 0 1 0 0 0
POINTS 1614
DATA ascii
22.31485 39.495277 66.093773
43.678345 39.801338 66.043007
14.293824 31.899107 66.446915
15.079635 35.070869 66.409454
26.709526 35.621937 66.502289
13.84567 34.185669 66.763458
29.856295 33.717571 66.883003
32.679592 34.592148 66.909035
15.494441 28.240211 67.345245
25.302261 36.692852 67.665054
46.484192 37.932236 67.830879
20.527056 25.184404 68.005074
48.73085 35.152222 68.174576
15.547614 27.9625 68.227028
25.154503 23.490753 68.470627
36.87735 38.67205 68.449257
26.096195 36.385235 68.536415
37.146339 38.997078 68.513016
41.547447 41.980736 68.570236
26.444839 25.726227 68.878967
48.325977 33.856209 68.877434
34.977406 37.031475 68.898087
24.795614 37.27142 69.077736
36.397144 38.350872 69.088745
42.949375 26.558496 69.191086
34.303455 29.943048 69.318085
25.554152 17.382078 69.443573
19.354801 25.555565 69.503029
29.821589 34.373146 69.696465
19.949837 25.316313 69.78672
38.822567 18.213596 69.838287
29.567318 49.437675 69.955292
16.368145 26.680363 70.070419
34.157215 30.088549 70.123024
47.069866 29.85771 70.506531
14.563448 34.835846 70.60157
34.645443 16.904675 70.713745
49.065937 35.754749 70.714386
28.679777 31.010065 70.898598
24.099323 23.74935 71.090622
20.661274 19.402241 71.157913
48.000183 22.234375 71.279938
39.048031 48.261391 71.288918
31.924213 49.105793 71.274216
46.335506 20.989471 71.377998
40.95504 48.009472 71.396317
38.103325 18.190434 71.482544
34.182774 29.530209 71.522469
9.7711248 41.074257 71.778061
27.569313 27.980358 71.861816
15.419944 27.922661 71.95723
12.079747 28.022671 71.995926
32.792751 35.604855 71.942513
48.651554 36.89571 71.92009
14.94805 29.434391 72.016708
44.021866 20.30504 72.162468
35.94989 48.395718 72.213669
52.396408 34.433697 72.311821
30.453703 16.16885 72.476921
18.954548 25.591003 72.597336
13.207518 25.488567 72.670242
34.840431 27.221031 72.684952
12.391848 27.538189 72.663788
29.621895 35.065735 72.645798
52.789669 35.608292 72.649551
24.331713 48.115669 72.782181
42.718689 26.509644 72.818497
41.114807 19.424128 72.993507
39.608917 25.308556 72.915642
35.433136 25.415176 72.937065
12.976745 26.196871 72.953468
51.112526 31.002316 72.923523
49.885349 27.903984 73.013779
14.167399 34.630032 73.055847
43.911964 40.849232 73.031616
32.260056 33.907932 73.599373
30.328573 34.823765 73.585403
36.805485 47.932442 73.662102
27.916784 17.28196 73.751045
12.42688 42.949554 73.809273
27.79851 36.416088 73.960655
47.396633 30.351269 74.010422
51.188637 30.940996 74.141632
12.955399 33.153221 74.140564
46.816105 21.558966 74.371185
13.733709 43.941406 74.591118
14.80514 35.144146 74.617699
40.497364 43.425476 74.618813
17.530411 26.050211 74.887085
51.821045 28.590069 74.963158
9.6120491 38.277897 74.910088
29.867037 33.178623 75.0858
12.696905 42.825691 75.007156
32.108139 48.125061 75.108353
8.6422129 38.873909 75.337189
47.819893 31.383022 75.421265
48.415169 24.786634 75.50354
54.994469 28.906969 75.631355
51.098125 32.055634 75.614586
51.107922 32.125362 75.742203
52.72023 38.766716 75.734047
26.045332 18.298676 75.838356
54.113762 27.781982 75.857895
30.760315 16.64735 75.919235
49.104305 35.085205 75.909157
45.705826 39.914223 75.983887
32.099613 33.946045 76.076248
35.407505 47.507187 76.021873
6.2648153 33.724693 76.134026
21.252983 24.570766 76.208527
27.050682 25.706451 76.271652
54.366562 34.244232 76.250175
14.80846 23.175793 76.478912
14.078448 25.12863 76.736084
25.161743 18.775272 76.803711
7.0206604 32.465244 76.956001
20.011744 46.575935 76.930679
25.72887 47.22702 77.049667
14.694607 29.07671 77.179611
10.190862 35.110382 77.178146
47.677711 23.533026 77.225014
17.614639 21.520847 77.382889
50.197971 40.555752 77.566193
49.638416 28.84354 77.742157
52.266335 38.565639 77.886749
54.064682 32.663105 77.94381
14.39818 34.723076 77.93264
30.282139 35.708584 77.998817
35.801315 39.409103 77.92205
11.821757 41.047699 77.99398
11.277383 32.760418 78.030807
27.146278 25.55829 78.118027
56.221436 29.274609 78.170937
18.793392 38.381241 78.100929
45.543339 40.3899 78.155685
20.2036 46.294086 78.16317
53.174938 27.044125 78.234688
50.129551 30.347164 78.272034
47.754898 30.528111 78.206352
12.487509 41.585861 78.288666
6.5685749 38.610172 78.347984
20.176401 20.81926 78.466248
50.012154 30.108185 78.500145
9.1153564 38.260685 78.684837
9.5587997 33.704929 78.786728
43.471859 42.15633 78.772217
16.476934 22.047152 78.877548
52.6702 37.380753 78.819473
47.758698 38.314789 78.845978
44.115559 41.572723 78.832436
54.565765 32.705505 78.904526
51.70063 34.808964 78.941666
29.308002 36.495754 78.948898
12.320455 41.173782 79.087906
26.015226 22.675819 79.237602
29.002012 30.085518 79.256927
9.9801273 38.917366 79.201141
16.760809 36.243431 79.308762
32.513973 30.321165 79.433586
29.539021 31.426844 79.439987
49.087841 37.009277 79.699341
46.649128 39.180557 79.759758
44.727184 45.102154 79.881378
51.197479 33.809258 79.991623
18.579922 38.665417 79.94017
11.519939 33.064152 80.059898
20.096498 40.19289 80.063866
40.347473 43.659874 80.009583
27.266088 46.678974 80.006798
35.729374 18.548422 80.11834
55.529552 33.391235 80.128937
27.84897 26.912621 80.236557
50.573059 32.211655 80.243134
11.381598 33.520172 80.299416
47.182655 28.243198 80.353722
51.079205 33.623154 80.382446
15.432716 23.407875 80.481033
20.778786 40.839668 80.467102
53.142872 26.822647 80.535873
10.008888 36.750038 80.576195
22.743271 23.828234 80.670868
5.1878386 37.94923 80.789131
15.605636 23.121294 80.810776
47.906708 25.2705 80.814522
47.497101 24.470556 80.922119
42.644283 42.609657 80.985535
33.942558 46.457592 80.909294
39.68399 42.933296 81.065872
36.084114 46.180038 81.008514
52.928108 26.977318 81.177673
40.460987 45.631268 81.137352
36.117523 18.836548 81.266739
13.717876 31.456593 81.227127
22.696487 45.830276 81.239716
12.324391 31.638329 81.388382
16.431519 44.189342 81.354134
48.976433 36.86166 81.493187
28.677376 28.747431 81.617584
57.103561 29.325132 81.643517
30.675756 31.206902 81.666779
13.594962 31.728081 81.641281
51.410278 34.939381 81.631165
40.520992 43.609245 81.604248
9.681881 31.269939 81.795685
12.181796 40.198837 81.746078
44.046558 41.211212 81.903427
21.801601 24.137995 82.024536
12.86451 33.227287 82.013664
22.059902 20.773598 82.100517
19.985929 21.481998 82.133331
9.6397533 31.264339 82.159142
31.411221 38.912689 82.274414
46.147644 42.925648 82.257309
15.751374 23.436745 82.325073
34.200752 22.492542 82.437363
25.244438 22.804897 82.429459
13.632333 33.925365 82.462013
24.479721 42.08638 82.438721
46.515839 26.233589 82.513
39.690125 23.355822 82.689156
8.3181534 31.478451 82.787323
28.263554 27.416054 82.872147
39.465897 42.511555 82.83506
41.572418 20.932142 82.97644
55.366676 33.142826 82.910072
23.533653 41.689373 82.970772
49.100227 32.978439 83.000916
29.160578 18.437408 83.106255
49.469521 33.951401 83.216583
35.093384 38.653038 83.224831
40.608158 43.480858 83.205742
35.931198 19.070148 83.300232
48.807854 28.544041 83.454391
17.823488 37.774899 83.53746
44.006149 41.123283 83.523247
40.795383 45.019646 83.523117
37.332603 40.505871 83.661942
38.944256 45.180237 83.656189
33.719131 18.550468 83.729294
47.173958 24.806812 83.743286
37.734959 45.310776 83.704849
57.947922 30.355967 83.848122
7.5778828 31.730103 83.892929
33.367386 40.275978 83.894249
14.960365 26.149815 83.929077
54.008072 27.349674 83.915375
34.546444 45.614128 83.99649
48.870468 31.945814 84.154076
4.8302979 33.021626 84.195763
26.563631 42.647915 84.165634
48.286243 37.102695 84.220482
22.212706 41.072983 84.288559
24.26038 41.796154 84.397789
14.187721 28.437962 84.692444
12.451463 39.488663 84.790817
23.002455 44.996559 84.759583
34.597115 45.431515 84.70266
46.890625 24.609337 84.824333
49.29002 29.376511 84.831825
57.794342 33.083656 84.8993
20.133129 39.926033 84.841095
23.500927 41.479538 84.805611
48.562679 78.809769 84.853355
50.115959 31.036674 84.991302
39.176842 44.844093 84.90361
45.937828 25.498623 85.064476
51.354893 33.456078 85.002724
25.824192 45.260918 85.048874
22.23765 23.772009 85.132332
48.724026 75.056297 85.178329
54.679619 33.132347 85.273102
58.289795 37.056194 85.241669
48.589272 77.951691 85.221069
12.999327 33.319248 85.337196
19.019066 24.68882 85.468987
44.082848 43.83252 85.54921
47.554783 72.989189 85.532959
42.972214 41.92802 85.784348
17.925713 25.296627 85.935127
46.07592 25.557041 85.960358
58.057968 32.098198 85.950478
49.078758 36.156353 85.947899
29.694019 43.5816 85.924568
22.713018 23.365913 86.141403
5.4298987 32.071159 86.114655
36.114052 42.115227 86.113007
46.147774 38.882751 86.260597
24.336996 20.712133 86.457504
17.900391 37.476856 86.409729
40.129372 42.640842 86.42231
40.47702 23.314117 86.559547
22.608721 44.49855 86.584564
33.093422 18.85183 86.613113
47.14529 37.906406 86.665665
46.379005 41.239792 86.623474
13.500143 31.359434 86.835892
39.85537 44.285614 86.943733
15.764684 27.26112 87.000679
7.6945 29.849367 87.363541
33.744339 21.948746 87.49295
50.591675 24.920408 87.448547
41.72596 42.983227 87.407425
36.307072 44.5401 87.459702
48.077576 72.537964 87.434113
53.420074 22.092026 87.588188
11.079458 36.557739 87.525085
46.244621 41.051437 87.577103
29.387859 43.306007 87.523659
49.200451 27.178219 87.631187
48.62122 28.1287 87.616814
16.092508 25.034559 87.777359
11.142821 28.817272 87.86058
55.90522 37.158943 87.812546
33.593567 21.936148 88.078148
10.017191 34.720039 88.096542
11.181599 36.512337 88.09523
19.703772 43.792099 88.043579
56.721855 22.690718 88.255943
17.157928 25.912113 88.225029
47.620003 29.072784 88.25621
26.516247 44.532677 88.22554
25.010881 41.641842 88.322289
58.536953 23.58687 88.55851
50.616341 24.746977 88.598938
54.808907 28.019907 88.555573
54.104465 32.164902 88.529839
35.860378 44.320923 88.546715
47.472656 71.313957 88.548424
49.44873 32.028091 88.629387
49.547157 33.569515 88.650963
8.6864424 37.151478 88.694702
15.873892 37.645309 88.683517
20.965357 22.096109 88.7798
9.5324097 29.186977 88.743179
44.261932 40.406967 88.792191
16.52454 24.43161 88.85218
46.415112 25.045019 88.808456
5.196909 42.169716 88.888779
52.432373 21.903385 88.92585
7.5585971 29.71969 89.034973
14.502087 40.068016 89.097015
46.050468 25.812511 89.174423
56.998306 37.656685 89.17395
46.002846 25.74139 89.288063
49.647949 37.68187 89.222755
42.528084 22.116997 89.315529
60.537468 27.389334 89.383392
8.9690962 32.527924 89.315323
47.507439 27.522228 89.494354
60.104645 33.096367 89.459747
49.591747 37.677658 89.408264
55.788078 22.511562 89.652374
57.75695 22.871002 89.658424
16.051258 27.193045 89.651413
48.701893 29.7236 89.632614
19.186932 24.792496 89.741722
9.4823122 34.287312 89.747696
49.84259 37.401684 89.735611
45.957687 24.482908 89.865509
14.400867 30.246304 89.897118
53.320103 36.421204 89.895981
47.650486 64.921288 89.808327
9.4435234 35.543571 89.926453
49.85207 33.662228 90.240807
17.059904 41.716373 90.23214
13.752075 31.841475 90.334229
8.6605339 32.483021 90.435135
4.9111605 35.163113 90.495216
8.519722 29.289213 90.591103
46.650345 37.714336 90.796211
54.898327 37.067173 90.984383
43.109985 41.06488 90.924583
14.76615 31.080585 91.033218
47.654633 65.012344 91.00248
27.135263 21.511656 91.12468
24.005871 43.538696 91.140106
33.747581 19.785326 91.290863
49.900639 32.560486 91.237488
39.598667 42.30254 91.234695
47.577629 64.009361 91.231377
47.90715 66.504974 91.356697
45.441566 38.750664 91.445267
61.722038 29.746563 91.515717
35.251041 22.016602 91.616417
15.269403 28.841654 91.630577
20.373804 42.992668 91.600067
28.345741 20.198418 91.748962
9.403038 34.590797 91.972733
32.290306 43.88406 91.977707
49.382046 34.424919 92.022957
6.0417876 37.297081 92.058464
36.53244 42.433189 92.142563
11.347128 43.98473 92.284454
58.38781 24.10099 92.375549
9.7696934 28.752968 92.380608
27.877167 21.549828 92.428459
14.071133 33.384945 92.406471
47.129662 62.628906 92.534073
8.2721491 32.031212 92.660278
51.127041 35.436436 92.794571
54.282204 36.99448 92.725594
28.08717 43.530193 92.790527
43.506985 24.526159 92.869751
56.793896 28.698326 92.851051
15.4012 30.310333 92.881073
8.9440384 36.804573 92.898613
45.400536 25.611771 93.09893
53.490791 28.868425 93.166237
60.227791 27.634727 93.311264
13.255185 33.737083 93.308304
15.555211 39.555489 93.421906
40.910591 42.608543 93.4664
47.757248 59.635395 93.432953
47.025673 60.363838 93.437881
56.853111 28.723331 93.551414
45.757034 26.604261 93.667419
15.52419 39.437393 93.710129
38.439205 21.453066 93.86528
49.88327 25.343283 93.826385
19.37178 42.231621 93.815498
12.15457 28.772268 93.932266
14.477552 33.545029 93.928375
59.597336 33.601963 93.996178
3.4217951 40.322533 93.936447
15.929955 33.349838 94.078857
13.558295 42.786201 94.038239
9.688303 28.596609 94.162781
47.440636 29.023136 94.12648
16.306282 38.692215 94.19117
29.394953 43.313404 94.152222
27.510225 21.616215 94.507523
42.0681 22.66264 94.506546
17.224327 35.567745 94.531036
28.584213 43.136124 94.538399
34.310158 20.485861 94.68364
6.0718465 32.320927 94.672432
47.058796 52.917564 94.898323
32.886658 21.850193 94.97644
43.031029 23.050114 94.937943
19.645645 38.928551 94.912506
15.298916 34.115456 95.060646
48.087074 54.161034 95.115524
60.258224 28.081066 95.212936
9.0166311 44.897533 95.220154
30.107452 21.699383 95.305809
40.438446 23.068476 95.304749
28.298498 20.853497 95.494087
29.015013 21.691362 95.405632
22.43903 22.576145 95.479927
3.9614499 40.637238 95.424873
25.351074 42.562157 95.553421
55.835777 27.358131 95.691238
12.979465 29.74489 95.607567
49.026909 32.221169 95.622101
27.753576 21.083229 95.712837
55.029465 22.334639 95.840927
4.4735765 32.629078 95.846725
15.816594 38.941826 95.859512
47.738621 56.785419 95.848785
49.053909 36.390842 96.068382
11.291013 44.009266 96.019989
46.91048 50.695316 96.012085
48.061127 54.66713 96.071396
52.284992 36.447762 96.172897
17.156462 37.179432 96.114952
51.150295 22.00131 96.252754
46.756416 53.171028 96.283417
53.576721 27.420467 96.323471
48.237453 27.74439 96.376236
48.045197 35.291321 96.300354
17.739979 37.166779 96.352516
21.049164 39.533234 96.389961
14.829803 42.489185 96.399879
30.22364 42.837326 96.352089
50.772221 35.640244 96.487747
28.281429 21.033813 96.516525
24.025137 23.090012 96.640251
10.711915 35.535992 96.711456
23.795172 40.474503 96.858673
15.531438 31.506777 96.97049
17.076876 26.720436 97.018089
49.056183 36.146759 97.018112
39.341988 41.000095 97.05558
33.999725 41.824219 97.041718
8.8670406 44.624825 97.053955
56.49852 27.668547 97.14785
17.221624 26.477711 97.287819
55.290939 27.023123 97.261139
7.5991611 28.88129 97.242691
15.408221 31.916994 97.326347
19.128384 38.322655 97.32795
20.141699 39.062057 97.342056
16.617815 39.160973 97.447388
42.486786 39.815636 97.496407
47.984627 51.083473 97.492905
7.5640664 31.362623 97.615448
48.282776 33.847446 97.638039
17.042597 34.234936 97.646011
17.274387 34.668205 97.698135
9.7761383 44.825886 97.708084
37.464539 22.110279 97.847191
45.057426 26.440329 98.042938
42.146946 39.944626 98.048248
56.82827 28.066311 98.17289
16.077179 29.30582 98.157204
48.721943 32.425262 98.188995
55.523895 37.877094 98.100288
38.545036 22.317291 98.250893
14.09012 36.75544 98.305618
30.290609 41.622559 98.313995
34.775745 21.811897 98.467552
22.893967 23.50378 98.44696
50.772797 22.244404 98.552429
48.760944 32.631844 98.60849
11.500946 34.715584 98.655533
48.12439 36.436848 98.682808
53.36441 26.840641 98.787903
17.234352 36.800877 98.783409
18.202965 39.737633 98.759872
25.915195 41.814857 98.721603
58.577385 35.071236 98.813004
46.891041 35.925301 98.917191
16.427692 40.32164 99.067902
20.004047 40.961021 99.065125
35.854347 40.9804 99.132706
17.410976 28.002884 99.271866
47.610733 30.584393 99.236382
17.237785 38.237556 99.298462
33.656124 41.914547 99.26915
52.131424 28.473194 99.340195
1.7253511 36.662937 99.356789
9.3900518 28.152409 99.415298
19.000437 25.103561 99.614174
55.916946 34.230644 99.677475
14.001435 36.245483 99.647705
47.257507 48.041786 99.654938
34.592392 41.68671 99.835342
7.5817966 31.122723 99.985962
56.870296 23.204998 100.0767
59.825974 32.519333 100.07634
45.371086 27.733917 100.10202
35.50692 41.488106 100.28917
48.397167 33.164993 100.30693
58.454872 35.144314 100.37449
5.9787602 36.807846 100.32124
5.5217791 34.298653 100.48623
13.979975 34.314564 100.44147
49.118454 33.95158 100.60928
54.676987 33.971802 100.62636
10.435531 39.634239 100.64335
20.692057 40.799614 100.62467
14.77985 32.739704 100.7216
45.667038 37.801682 100.72232
18.960117 25.021006 100.83156
44.590431 38.565613 100.96542
5.568243 41.485775 100.93999
52.07132 21.761555 101.15498
15.412284 31.570238 101.20296
3.5445342 39.828457 101.20173
27.435249 19.717972 101.471
29.601065 21.116434 101.471
26.628529 22.293503 101.471
21.255396 23.23703 101.471
21.586262 23.95903 101.47099
26.542645 24.093891 101.47101
31.668764 24.980806 101.471
37.256218 25.430325 101.471
40.157066 25.882328 101.47099
38.198074 27.036381 101.471
26.860201 27.115643 101.471
28.767036 27.660299 101.471
22.352205 28.046171 101.471
37.793976 28.24128 101.471
21.097935 28.452927 101.471
42.840809 28.957891 101.471
33.690536 29.904978 101.471
39.491531 30.820095 101.471
32.185947 31.763569 101.471
17.515091 32.073456 101.471
12.110396 33.470039 101.49716
17.541716 33.466473 101.47101
28.927673 34.437969 101.47099
5.5066562 34.596149 101.42455
43.478489 35.429588 101.471
41.823662 35.678448 101.471
21.489241 36.493763 101.47099
19.539145 39.325047 101.47099
42.573227 39.603714 101.47099
44.019749 40.863884 101.47101
32.898079 40.984383 101.471
26.27388 41.170441 101.47099
32.824463 41.459267 101.49108
27.930931 41.501488 101.47101
22.045465 41.616604 101.471
22.141026 41.899342 101.471
49.079956 25.763149 101.57478
47.964424 31.981831 101.5108
48.826851 34.741535 101.5603
7.6580448 43.12849 101.51125
42.9123 24.462963 101.69514
30.723001 41.530499 101.70399
13.340146 29.152889 101.82231
57.681911 32.061951 101.88564
17.640236 25.351334 101.93708
13.092955 28.736282 101.99472
18.248919 25.954109 102.08954
9.3228521 30.897356 102.06234
11.882598 36.520462 102.13966
14.391191 35.787212 102.23152
44.925362 26.800739 102.39577
5.3085775 31.990913 102.34344
15.362598 31.996342 102.31221
45.193748 23.637253 102.41576
55.827278 34.051727 102.49165
10.329417 40.642754 102.42632
32.753441 41.241982 102.42001
17.754786 27.106899 102.53389
58.961666 27.236231 102.55397
7.0371451 31.521215 102.57803
34.382751 41.047447 102.56854
16.158442 30.441284 102.63162
10.711342 31.232698 102.64537
57.903549 29.984594 102.79968
34.645744 39.876068 102.71739
52.225685 21.779316 102.83383
22.916115 23.430513 102.84489
8.92589 27.94059 102.83003
45.273453 28.06913 102.96171
49.386387 31.641285 102.96349
20.718149 40.203293 102.9454
49.654869 24.203159 103.04549
16.171724 27.83889 103.09534
49.062668 34.696594 103.01418
13.634676 29.361563 103.16742
47.09713 31.691528 103.251
57.612766 31.802101 103.20448
5.7041922 33.552082 103.20297
28.57766 40.93668 103.21819
40.087143 42.801949 103.27564
31.665661 43.643589 103.26577
10.467597 44.443272 103.27936
27.622362 22.047268 103.34482
47.214012 30.577633 103.4743
12.977013 35.529469 103.41667
57.35508 24.520504 103.53502
17.864872 35.683243 103.52142
16.742489 37.090584 103.51859
46.922062 37.134457 103.64646
17.308548 37.449348 103.69234
26.460737 22.35598 103.70198
12.049971 31.486404 103.79221
38.08226 19.901543 103.83202
54.238914 25.765673 103.8585
28.106842 19.44256 103.92557
22.410414 21.530937 103.94326
45.263897 37.32753 103.99345
16.12508 31.18561 104.04222
57.630905 31.342989 104.05093
32.546886 43.653145 104.12254
53.024536 21.916355 104.25438
6.7536259 30.219353 104.28226
46.278618 34.107033 104.39168
41.726391 40.196438 104.38006
23.441399 40.422203 104.34167
31.869385 20.975372 104.48474
29.325531 21.315809 104.41771
46.376701 28.421383 104.4211
37.27634 19.645458 104.55392
51.667717 26.543203 104.68666
36.07196 19.405228 104.72411
2.9889321 39.093079 104.70685
16.774906 37.09322 104.87744
58.235756 26.414812 104.96974
14.283199 30.036041 104.97057
5.5256977 35.852119 104.97725
49.857853 22.355013 105.02144
44.982853 27.678219 105.02828
15.489264 31.698082 105.044
18.16906 36.751862 105.04108
55.586166 22.965366 105.18457
43.713665 24.71806 105.15199
33.435406 19.138968 105.23846
17.29073 33.721001 105.20826
17.541286 34.002815 105.22674
49.044094 29.646759 105.31369
2.6807661 38.794434 105.31335
47.009655 28.810415 105.43854
51.314831 32.011448 105.43124
46.398994 32.43708 105.41842
18.514629 39.974392 105.43819
41.204247 20.981266 105.55588
32.593304 41.232738 105.55216
57.065174 24.425438 105.63274
13.361727 33.451561 105.65577
14.507773 42.700367 105.6951
31.103676 20.801092 105.76695
23.872681 22.820541 105.77609
56.708019 27.652681 105.78745
60.168537 28.978474 105.77911
14.606798 30.386385 105.79594
46.547958 28.797091 105.83772
15.632812 42.425636 105.83629
8.3588591 28.333576 105.9751
8.7983341 40.607719 105.94215
26.936092 40.910519 105.95395
39.413857 42.937851 105.96999
25.853168 22.143328 106.03108
32.218689 43.659325 106.19263
46.426285 23.256405 106.27301
46.953018 32.013275 106.37672
53.863037 37.977516 106.37102
23.467829 22.831745 106.45251
54.448128 25.32645 106.4957
4.5713167 33.262589 106.40448
47.406914 38.408939 106.40327
50.170937 28.948893 106.53798
28.978592 43.496952 106.60514
35.028034 43.543335 106.64117
46.736198 24.119081 106.73149
48.774544 35.204956 106.79216
49.239601 30.785976 106.9553
25.949398 21.926889 107.09441
20.747465 22.509777 107.04629
22.159332 23.144018 107.05798
46.708084 26.983686 107.03825
43.389317 39.352745 107.02574
46.681217 27.159748 107.18328
15.617478 35.463703 107.15918
14.506433 36.06963 107.18956
22.591337 40.657589 107.27188
46.861397 19.679968 107.47411
28.543777 20.267557 107.451
29.321022 20.912071 107.451
27.594473 22.820724 107.451
18.378635 24.71043 107.451
22.658499 25.150953 107.45099
32.815048 25.324427 107.451
30.747919 25.688774 107.45099
32.244572 25.78318 107.451
34.411659 25.855488 107.451
27.456533 26.605503 107.451
42.985294 27.312912 107.451
20.561132 27.591694 107.451
16.185328 27.961166 107.451
44.589722 28.353762 107.45099
27.102924 28.552582 107.45099
39.659325 28.734734 107.45099
60.423283 30.581854 107.49287
42.730782 30.727278 107.451
26.821342 30.988941 107.451
27.182507 31.234358 107.451
15.402468 32.040215 107.45099
41.861977 32.98917 107.451
15.623661 33.805859 107.451
33.968456 34.662075 107.451
21.912868 34.737885 107.45099
15.772425 35.873184 107.41944
37.894501 36.730705 107.451
29.340992 37.575607 107.451
47.407848 37.609596 107.451
33.116974 37.943729 107.451
35.020126 38.955097 107.451
35.477757 39.056877 107.451
25.208729 40.517448 107.451
35.750366 40.72319 107.451
34.49239 41.231716 107.451
39.046684 41.225163 107.451
24.925837 41.653923 107.451
32.636787 42.121155 107.451
42.83604 23.590591 107.50381
18.864431 25.021172 107.5456
7.695518 31.706568 107.57855
47.205093 23.609112 107.62482
17.057003 42.078552 107.66546
24.2882 40.734627 107.7063
15.117438 42.583187 108.00439
46.59285 24.503281 108.14709
47.231216 36.418304 108.15794
39.464508 40.728443 108.26942
46.241501 17.406948 108.31505
49.025272 23.769524 108.45046
46.210564 17.472412 108.52673
46.394012 23.159357 108.56665
49.785259 29.126307 108.57773
59.800869 31.677811 108.53749
14.380092 33.970863 108.51704
56.113007 23.498264 108.60754
16.512648 37.606899 108.66343
20.234653 40.573048 108.66994
53.999443 24.556149 108.74393
6.652401 39.438076 108.78677
22.788181 40.930222 108.79021
7.6106138 29.460836 108.88469
42.770107 40.149956 108.80059
31.544521 20.70079 108.90411
53.329655 34.896351 108.98107
27.942795 41.216942 108.95808
51.155571 32.643158 109.02669
50.238968 36.326298 109.1114
55.998528 34.45425 109.20167
35.569305 41.194195 109.28192
46.819317 21.178274 109.32265
7.5756025 29.535995 109.35474
35.515167 41.20541 109.35515
50.676819 25.533012 109.46078
15.548881 37.685516 109.44399
46.860329 14.061979 109.54018
47.782391 26.966993 109.54483
58.130753 27.164551 109.54281
49.586182 29.502546 109.67877
12.645219 31.966974 109.65238
48.805138 35.577568 109.62442
51.989532 21.692631 109.85323
56.474995 33.982723 109.87141
46.960274 36.914024 109.86723
6.7936931 32.522564 109.99699
3.4520936 39.026009 110.1131
48.927502 23.183182 110.26059
60.075745 30.964273 110.25784
55.064331 38.724049 110.27502
21.10181 41.345585 110.32861
53.354977 22.26618 110.46819
56.682491 26.697678 110.48217
11.784838 43.71978 110.42836
46.764671 16.59156 110.58974
7.8979707 42.754368 110.63558
3.3729959 38.906815 110.7897
6.5541821 41.481003 110.75845
27.624947 21.13376 110.8111
25.959923 21.466755 110.87951
8.290699 43.158791 110.92822
8.0572319 29.050823 111.06395
17.696634 33.567326 111.04308
18.149239 34.438812 111.0272
44.869484 18.993814 111.19083
5.9371762 34.434399 111.14318
39.497349 41.015087 111.15311
45.70536 13.770109 111.24906
34.6045 41.448456 111.3178
45.224724 18.96196 111.44735
58.139713 34.705997 111.4311
46.844452 32.856529 111.58344
16.101547 37.68721 111.52765
46.088726 30.96595 111.61926
49.499329 21.225975 111.78508
13.906194 40.824234 111.80812
16.06514 42.403984 111.80166
46.643299 8.8714809 111.98773
51.157173 21.527863 111.91424
13.008223 26.765713 111.90385
52.407482 34.978416 111.9389
41.776917 40.947075 111.90917
18.208035 26.856888 112.06812
9.5883331 44.487274 112.02289
18.783119 39.27544 112.24033
30.115391 20.509716 112.4094
9.4901867 31.173906 112.44034
13.501215 43.043217 112.40462
25.628819 21.412437 112.52032
14.113682 32.378983 112.50305
44.569244 39.312561 112.56075
6.9325171 41.641975 112.53241
8.6135197 43.406483 112.55791
23.749655 21.785822 112.63043
8.76758 28.273193 112.66032
20.218992 22.778006 112.70322
13.336702 41.909332 112.75851
23.262321 21.870613 112.82154
53.755089 38.475861 112.84412
40.070068 41.156399 112.92513
9.6029301 42.239655 112.91579
5.5153065 32.492424 113.07542
20.867401 41.892708 113.1301
35.983654 21.22517 113.24186
24.784557 21.532696 113.21097
12.61877 25.905699 113.27296
58.831161 33.06567 113.20286
21.088417 41.898685 113.24791
18.6021 24.833656 113.5304
46.858356 28.001333 113.68954
49.130676 29.274136 113.67169
60.526291 29.733303 113.66159
6.096179 38.455009 113.77803
48.611557 22.495983 113.85131
57.632267 35.589325 113.96519
6.2043352 39.491032 114.05835
14.185005 40.854031 114.18805
52.092922 35.028767 114.27457
54.706932 35.244034 114.23951
9.5570917 27.405882 114.38956
56.143265 24.600094 114.6229
7.7870255 32.346306 114.73775
17.879307 33.378479 114.80759
4.0293365 34.986954 114.89687
18.092192 41.948685 114.85249
46.353863 -0.87989604 114.98266
49.83453 32.120911 114.90155
36.534939 41.594162 115.07153
36.687958 41.586143 115.08777
11.952458 31.704193 115.27158
16.607677 33.068249 115.22325
46.004696 1.5468774 115.34836
30.971569 20.283922 115.34658
56.95327 30.806942 115.35918
55.857735 24.277826 115.57722
54.056534 35.354721 115.5163
9.250351 43.907982 115.5619
15.920517 36.403244 115.69195
42.709332 41.28194 115.84095
44.477951 24.897959 115.94005
47.676373 25.025421 115.94348
51.174736 25.563175 115.90334
3.3605151 38.470203 116.01271
48.590885 21.223083 116.3832
46.505981 28.2698 116.35945
49.972458 21.283504 116.43366
57.662678 27.281237 116.43249
14.547297 28.324795 116.40717
48.809685 29.032917 116.55302
6.6772203 39.754013 116.54179
28.242725 20.578405 116.61501
56.129421 25.979929 116.63699
58.218163 34.007446 116.67533
54.850174 39.18465 116.74402
25.620676 42.219131 116.7104
6.6795149 38.917458 116.80083
56.455116 25.659996 117.02317
17.419697 32.624958 117.02411
47.259041 35.315147 117.20193
46.233047 28.605345 117.3241
6.7658691 38.641418 117.34986
38.281998 41.732265 117.55096
56.465408 25.808941 117.65655
56.213921 26.852308 117.67589
11.802534 25.608402 117.84858
50.678608 25.912384 117.98466
15.715357 36.166843 117.92824
19.38295 38.502415 117.9241
51.40934 25.368032 118.02368
12.280639 25.456892 118.00101
47.266006 25.489437 118.06972
27.49172 42.337471 118.06603
47.646976 35.112904 118.10703
47.973114 22.625107 118.26819
56.587547 29.227161 118.22211
15.760311 37.172695 118.20472
45.969856 31.286404 118.35237
15.576876 29.547632 118.45033
37.097736 21.12641 118.55375
17.995144 33.109486 118.6144
44.868706 40.050014 118.67323
24.811127 21.135496 118.71483
57.369057 27.132044 118.77689
10.453895 31.349739 118.78004
11.130261 44.060883 118.71339
56.492596 31.548708 118.82739
33.041359 19.587221 118.96768
56.58749 30.622849 119.07652
14.495988 33.679153 119.0195
55.182404 25.284977 119.11347
47.549427 35.622662 119.29135
51.137505 37.612106 119.31602
12.929178 42.277382 119.32838
38.048183 21.117622 119.54062
47.287193 34.252148 119.56416
57.639179 35.017986 119.53966
14.740793 28.019775 119.67345
23.375658 42.933243 119.61049
18.968285 25.938492 119.74257
10.58767 26.483086 119.76573
49.935211 36.984741 119.75217
16.826506 42.330105 119.78921
14.147254 42.98885 119.76825
20.736685 22.054636 119.87934
45.808472 29.991947 119.92923
14.334134 33.873505 119.96855
51.353935 22.01881 120.02834
49.848694 26.432865 120.03912
34.237907 20.480484 120.14913
52.11327 24.559763 120.29907
56.201637 25.855429 120.21181
12.884503 30.751549 120.26999
7.4280114 41.025154 120.23309
8.9602566 32.863232 120.46495
48.723473 27.824963 120.59793
17.034742 35.007019 120.69943
44.643822 26.044191 120.78195
48.80088 27.367313 120.87573
4.405252 35.312172 120.8429
48.744865 21.031208 120.97083
57.494621 27.343271 121.02708
8.1032562 29.660866 121.00714
17.769604 32.482651 121.01954
38.132584 42.048813 121.04105
56.25811 26.145409 121.12328
18.238268 40.777061 121.17691
50.275131 26.075476 121.46082
5.9902358 40.152702 121.44163
13.266755 41.605869 121.51099
45.735924 29.723711 121.7314
54.857994 35.047226 121.72672
13.084284 41.565594 121.77465
30.219139 42.615593 121.7198
25.817524 42.954498 121.98033
24.357241 21.251274 122.00801
6.3249974 40.375076 122.03241
7.2872558 41.402355 122.0347
43.855087 21.574608 122.10297
46.290665 27.056593 122.25491
44.785957 25.983833 122.32307
18.940567 29.199039 122.32329
36.120682 20.412563 122.44701
9.0460768 41.048798 122.4341
56.244217 30.44408 122.56519
27.5406 42.868511 122.59969
53.84058 24.355099 122.82416
9.7614717 27.719334 122.85245
48.043922 30.234158 122.8046
16.890816 23.460817 122.95605
55.987457 27.459661 122.93343
13.919128 35.325893 122.9203
43.102524 41.726444 122.92116
59.833633 30.083138 123.09175
46.258675 32.317661 123.03593
27.049814 20.586113 123.15729
44.454437 21.511669 123.11495
14.234348 36.990303 123.2108
19.585846 37.63406 123.22644
52.262905 38.543404 123.3428
13.876852 40.613457 123.47356
45.059715 23.785603 123.57359
17.576504 26.169258 123.50325
18.847351 31.054693 123.53252
25.076677 21.094204 123.62631
51.075825 22.161335 123.60345
46.357841 34.794418 123.88924
19.733742 38.183918 123.88309
26.970821 20.552296 124.00755
3.5393863 37.563736 124.2415
8.3006058 39.524433 124.26526
11.865301 30.817711 124.47106
48.625847 21.012918 124.57122
45.415043 29.100445 124.62988
13.21064 24.695606 124.75722
30.798407 42.770401 124.76686
57.040405 27.120979 124.8413
56.009579 28.973385 124.95277
54.296482 23.888073 125.08775
17.199144 30.828255 125.15189
14.174175 39.418144 125.22794
56.135769 26.358883 125.39133
5.3252211 34.360313 125.43777
18.505295 39.603218 125.68199
41.835712 41.926369 125.61419
10.482055 27.025339 125.88483
30.943163 42.8312 125.86995
45.322357 31.189861 125.97692
54.241734 35.267387 126.21765
56.310081 37.31765 126.31692
57.589027 27.670181 126.42766
20.302139 40.879623 126.41806
9.5238256 40.445335 126.59443
16.619715 42.477356 126.57811
30.278038 19.610331 126.78992
54.424587 24.079571 126.70639
53.467155 23.615227 126.88705
55.823952 29.710518 126.83739
32.962372 42.753494 126.84438
25.468613 43.282379 126.84608
25.214249 20.838905 126.96927
17.04648 28.875069 127.0575
19.061462 39.255371 127.04107
8.6568861 42.559967 127.1996
50.819107 25.111561 127.27077
56.032516 37.844299 127.26694
19.631222 22.334217 127.33205
59.099434 31.059057 127.33586
56.460457 26.740095 127.56976
55.753681 31.151167 127.54836
38.35862 42.341118 127.53551
14.996055 23.736485 127.87454
30.535385 19.566402 128.12051
45.952007 24.912823 128.16322
18.208866 22.657328 128.26942
53.22451 23.604738 128.29408
9.4352055 28.488523 128.25798
56.906406 35.786354 128.28546
19.030367 22.435329 128.37706
56.074852 37.628925 128.47623
50.78196 22.401436 128.5177
52.192207 23.773071 128.86569
42.233654 20.385471 128.93739
5.9418812 39.532658 128.97073
10.395686 44.321491 128.97159
39.402176 42.267895 129.05159
46.158558 23.21069 129.10403
7.327086 31.260815 129.28952
50.485413 22.319252 129.35635
59.410805 30.240364 129.38367
56.586197 36.400574 129.31477
36.607925 42.572731 129.43332
57.358669 27.629814 129.9588
24.488628 43.532005 129.9173
16.166208 42.639336 130.13025
38.641113 42.377647 130.24678
11.729311 43.732811 130.27698
44.219055 41.370193 130.37766
24.118935 20.913099 130.42072
59.500671 29.933176 130.64865
45.069973 20.508293 130.74081
13.856328 23.778128 130.73018
54.923325 39.970448 130.84709
33.140007 42.976425 130.94264
40.367222 42.22139 131.31963
41.405563 20.254028 131.77391
35.751038 19.850376 131.80807
27.522398 20.096836 132.39369
57.962543 33.008995 132.42722
58.498768 31.798882 132.52419
53.259857 23.970478 132.71404
44.131584 40.076191 132.7502
39.024475 20.357597 132.98811
17.16066 23.039186 133.09763
8.1698132 41.680298 133.03481
5.7879767 34.834423 133.17764
56.29974 36.646954 133.27519
15.266376 42.904961 133.24895
53.603252 24.202435 133.4799
43.877583 20.839846 133.55447
8.3282461 30.239975 133.54195
8.8533039 42.360146 133.93748
30.608353 20.04541 134.08394
57.089157 34.800499 134.06927
55.730644 37.844978 134.03745
18.966375 42.005733 134.0168
36.659019 42.213253 134.438
33.49836 42.477081 134.45749
30.95974 20.170124 134.50157
27.892385 20.542946 134.54845
6.2470441 39.514618 134.64552
7.3400693 40.692612 134.60066
38.872536 41.999935 134.62497
44.683781 37.093098 134.72865
52.227341 39.412468 134.7973
15.092558 23.976719 134.82187
35.599583 20.61002 135.18832
14.558169 43.107052 135.21326
51.386086 23.242138 135.35873
20.855946 42.157341 135.35605
34.880363 42.229607 135.37717
44.472446 38.148666 135.45531
37.860527 41.947926 135.59015
43.33691 21.341125 135.92569
58.156273 32.20031 136.18771
53.69685 40.32806 136.18227
13.52984 25.123405 136.22284
58.477558 28.912609 136.78444
45.872097 37.388 137.07689
35.8577 41.902012 137.09962
7.1565552 40.326405 137.36926
7.0277271 33.220612 137.48347
25.833725 42.797108 137.50018
53.330418 24.401047 137.7338
16.586756 42.660439 137.92587
32.874153 20.927338 138.10118
35.620293 21.3969 138.3732
53.653122 24.784454 138.30882
27.910526 42.44519 138.49933
35.354874 41.709225 138.75212
44.640621 22.13908 139.00958
9.6093435 29.43457 139.07678
51.109573 39.603531 139.0463
16.634033 24.525356 139.17696
29.144068 21.52132 139.25919
35.889572 21.743708 139.67363
6.2169433 35.227932 139.83434
23.649553 22.952604 139.94745
26.500664 42.34943 140.16934
11.363262 43.962383 140.10497
25.201548 42.500481 140.24648
53.165646 25.598074 140.84669
16.533562 25.017439 141.27974
30.853699 41.758644 141.23325
10.172887 31.073956 141.40237
33.710613 41.446739 141.57072
41.432442 22.596291 141.91176
48.141445 39.434074 142.06236
9.1060638 42.13726 142.04666
7.3028336 39.162045 142.10648
10.077039 32.148697 142.29718
9.4535227 42.488426 142.4144
9.3071537 33.4384 142.53738
20.505692 41.894962 142.84563
7.4022884 37.595207 143.10864
11.102767 31.508705 143.22134
9.9776688 33.145771 143.28658
22.157036 42.606197 143.27463
19.567789 42.124653 143.32703
54.05246 28.272511 143.63005
10.748512 32.346478 143.61378
21.823435 24.601822 144.0173
16.279711 25.834242 144.24564
36.676849 40.854889 144.29066
40.568974 23.482836 144.35248
55.891029 30.646568 144.40527
16.001366 42.97961 144.49866
9.5032902 39.013954 144.51469
20.574987 41.927937 144.59203
41.696812 24.04072 145.2731
52.007336 28.227028 145.25212
41.625305 24.275312 145.68196
53.692928 32.701141 145.61092
39.510918 40.593742 145.81808
11.89158 32.792625 145.98138
16.863846 42.839363 146.58803
19.993179 26.309515 146.67784
18.278643 27.60261 146.67682
11.615012 33.741016 146.6274
45.712868 39.905273 146.85036
14.253769 32.142002 147.19469
31.826035 24.127932 147.37952
42.370571 40.332268 147.34058
16.374365 42.06823 147.52002
33.767883 26.620609 147.66974
21.594503 26.628916 147.95407
46.93602 28.569054 147.90732
52.708565 30.705265 147.94
16.116619 31.585695 147.91943
50.165405 29.677494 148.0181
48.843391 35.7962 148.02843
19.775774 42.20945 148.06274
14.919355 38.788315 148.44785
35.690109 25.90719 148.97617
15.353859 34.251827 149.1481
24.526533 41.604904 149.10852
26.081417 26.395367 149.28745
17.757702 39.621201 149.49341
39.256416 26.463604 149.54585
19.180748 32.039276 149.96774
39.035213 27.482563 150.25394
45.766556 33.330334 150.63905
28.641449 40.155422 150.60129
31.583557 24.495686 151.16597
41.907516 37.815865 151.18268
36.274292 38.974457 151.16483
20.143326 33.594376 151.46985
31.724754 38.572712 151.77664
33.318348 25.399488 151.82066
41.274086 31.366385 151.82449
22.999645 38.996094 151.95886
35.72789 26.488207 152.06812
40.817455 31.609329 152.15544
40.164787 37.065704 152.24573
30.078487 25.058384 152.97856
38.043358 29.842823 152.93613
24.548996 35.053894 153.39627
27.195984 26.588375 153.69576
25.933081 36.936359 153.82829
25.086506 32.573803 153.98489
37.24131 34.270065 154.02196
36.897324 35.31274 154.09177
29.588875 25.202904 154.48654
25.340017 29.297447 154.63364
36.057186 26.585176 154.74753
28.623981 22.122105 154.82942
34.514988 24.138321 154.84909
25.249088 30.930336 155.42252
25.661179 32.882969 155.68103
29.540298 36.382889 155.68118
27.7805 22.015121 155.9451
26.190126 34.835457 156.00328
37.940002 27.067827 157.06029
25.591824 33.278053 157.10437
38.130169 31.314072 157.24263
36.676807 35.433689 157.38303
26.165833 33.04425 157.6377
34.976063 36.612377 158.75958
27.229149 34.789242 159.19025
24.383713 25.857607 159.27394
37.915791 22.516598 160.09576
39.422394 27.299448 160.01453
34.87706 20.261185 160.57817
23.969841 25.051939 161.24754
26.669434 35.149994 161.358
27.068535 35.958813 161.77562
39.274536 23.983818 162.08842
23.419031 28.968563 162.1433
38.189163 21.604057 162.20331
39.520546 23.850548 162.80637
25.290348 33.847874 163.0607
39.4011 22.853571 163.20059
24.467251 32.796959 163.62234
30.421047 18.942871 163.78772
25.563969 34.860611 163.97565
30.734413 18.661541 164.01721
35.013607 20.441706 164.42661
28.198975 37.724228 165.05383
24.309505 33.694763 165.55536
29.331995 20.07695 165.64551
32.509319 19.01162 165.74741
37.840324 21.832737 165.93037
26.211164 36.305046 166.03302
40.195099 31.484161 166.78088
39.424648 22.93811 166.87709
37.35688 0.33677042 168.11246
35.640877 19.848961 168.27106
16.58857 3.6732416 168.33881
19.842857 1.7860426 168.47766
32.715042 38.607548 168.6839
44.229103 4.7124443 168.70737
39.991638 29.805819 168.73746
23.507776 24.136017 168.86601
22.906561 31.91338 168.94353
10.405047 10.703382 169.04959
24.029747 34.831528 169.17184
36.648788 -0.29578376 169.23975
50.066685 9.9241791 169.23868
39.891117 6.9164963 169.35371
23.423126 24.185425 169.33849
40.267078 33.056656 169.35602
40.031986 25.333696 169.43375
27.634613 7.3693614 169.58574
37.720074 7.3642426 169.54752
46.949081 10.20016 169.53015
56.951286 13.296368 169.55951
22.86846 32.235432 169.51283
28.479019 0.11196369 169.77438
16.912457 24.730465 169.77463
40.013969 1.2823161 170.08987
51.425388 15.823254 170.04282
5.1906633 22.539701 170.07788
20.019056 2.6988318 170.16251
19.077164 3.0283523 170.14352
11.643854 16.957718 170.16882
5.8910151 22.202381 170.13676
40.332142 11.755779 170.29074
5.2684078 16.333946 170.23763
58.643791 24.156406 170.20439
11.937991 7.6714411 170.3143
55.778339 12.300544 170.41864
51.136147 18.292204 170.43999
52.896225 19.713356 170.41374
59.815258 28.115816 170.4379
21.644093 2.5186198 170.52339
34.367119 11.735139 170.51123
26.826687 12.793634 170.66916
56.411865 25.884634 170.6662
9.0095339 24.253519 170.74646
59.327667 32.176109 170.76379
59.836891 32.763573 170.73294
15.450376 6.0770755 170.89688
32.619396 19.429884 170.82854
59.467995 33.431694 170.82407
33.913864 1.3096281 170.98758
42.118946 15.681298 170.90192
6.1422796 16.009918 170.98068
53.079998 24.377083 170.95587
40.449852 26.637798 170.99074
4.2873101 36.208714 170.99904
45.987625 4.7838182 171.0242
4.9634776 18.513596 171.08031
8.4383516 28.615942 171.09241
5.2922997 37.412346 171.15953
55.990799 14.032835 171.27731
15.796669 21.221487 171.22878
60.016048 22.645437 171.23598
60.75193 30.681679 171.24715
55.999664 33.560329 171.29398
47.472576 24.63068 171.34892
35.089714 39.246658 171.37021
2.6536963 29.22994 171.47461
34.676357 1.9701028 171.50252
5.5608778 18.594379 171.55177
26.690302 19.590834 171.56859
35.056118 17.131159 171.60951
14.926763 25.515444 171.64447
10.406057 33.280502 171.65082
36.286003 17.915699 171.70654
50.057049 28.172943 171.72365
31.716555 1.9844747 171.81821
24.243515 3.1005139 171.83575
35.081085 18.437727 171.86731
56.26556 43.949509 171.80754
31.693947 2.1237102 171.9417
11.785159 10.57937 171.97768
50.006325 8.9842072 172.09637
6.8108912 17.518677 172.05688
25.045141 35.297302 172.07092
25.900101 36.925987 172.11322
50.900463 42.357433 172.13933
12.550196 47.381386 172.10712
50.750454 47.664352 172.12581
13.661396 41.432877 172.25209
15.544632 49.767963 172.29175
46.905689 52.858269 172.29393
11.416872 11.583428 172.31801
21.980305 24.429733 172.38748
14.560841 43.574516 172.34219
47.249996 50.471825 172.3371
5.6238656 40.772392 172.42088
28.00473 3.2209542 172.53494
45.788895 32.039062 172.55794
22.711683 26.334671 172.65378
39.582787 32.373356 172.6257
17.234631 38.392216 172.65317
40.836449 53.516914 172.61415
34.201656 55.770218 172.68246
26.501682 56.057095 172.61215
52.190704 12.304529 172.72331
44.651459 45.065357 172.72102
20.527668 47.079975 172.79771
20.734629 48.468117 172.75691
32.049839 56.063599 172.70451
38.779205 4.1039248 172.86388
57.685291 39.715904 172.84732
41.537754 48.013206 172.84979
9.8559074 14.353156 172.90718
37.212738 35.746796 172.98447
20.149555 36.945038 172.97644
36.499893 49.794395 172.99789
21.333136 33.667934 173.07033
29.695206 49.323902 173.07494
57.563957 23.052811 173.22054
22.571838 34.663616 173.24515
22.800083 36.546165 173.27036
24.981091 42.314236 173.29164
32.680286 46.344303 173.27541
28.642199 44.19265 173.36253
35.634541 44.780247 173.31398
6.4269652 22.474087 173.42378
38.13707 40.005737 173.43034
32.754715 43.675552 173.43407
56.155273 20.086805 173.51248
58.209324 30.43721 173.56346
12.330002 12.88902 173.65399
5.4119453 28.186934 173.63147
5.6324172 30.43421 173.75375
34.777847 4.6089544 173.87814
40.268684 55.665913 173.81584
6.3399839 25.696884 173.94707
37.434975 34.617676 173.95094
23.183596 22.923969 174.09444
6.1088619 31.401611 174.09897
11.615077 46.903778 174.08585
23.550356 6.1781182 174.15022
37.409561 34.510223 174.1646
33.576805 38.280991 174.13269
22.56072 26.596941 174.2518
13.383587 48.497936 174.24188
43.141869 53.650005 174.22174
32.694668 19.461868 174.33325
8.8695765 41.8069 174.37878
6.6073484 34.228783 174.42215
21.157543 53.593697 174.45537
55.070004 20.705967 174.55167
56.475018 35.760826 174.53868
29.368176 37.979897 174.56239
56.647301 33.775784 174.69159
8.8263206 40.733288 174.68643
22.638088 53.923573 174.67471
56.454681 34.644432 174.7899
34.904373 54.98526 174.97206
44.282402 51.726227 175.06198
21.699986 8.6993322 175.15149
28.293497 7.0355897 175.24564
17.243668 11.468689 175.22772
13.46579 15.106341 175.30142
54.594437 22.092812 175.34721
17.338966 49.848694 175.34259
51.54496 43.943432 175.46664
39.500687 53.261204 175.48654
23.292273 8.8924627 175.55345
55.604065 29.265369 175.58578
54.906891 36.32349 175.52348
35.548584 7.7647848 175.64464
38.072628 21.432043 175.6602
14.525517 46.77676 175.64053
54.1996 24.247822 175.84195
36.883858 34.07972 175.84689
24.069439 9.3364677 175.93695
46.652065 48.282047 175.96472
10.234624 22.712587 176.01965
35.750362 9.0940304 176.17268
23.083632 24.097652 176.18127
8.9146452 28.836662 176.13702
39.895397 26.019566 176.27266
30.979074 36.814827 176.3604
38.582695 9.9427986 176.43817
43.087067 12.471 176.44389
18.687168 13.078273 176.41104
25.449892 33.631344 176.48238
45.150845 48.587135 176.48897
30.766998 52.976665 176.48053
35.766144 13.492987 176.52657
13.121477 19.547916 176.55316
52.549118 23.588371 176.52765
20.146605 49.605492 176.58014
44.506908 13.424625 176.69211
24.826431 15.155693 176.66022
37.821846 15.582109 176.69456
50.983891 20.819874 176.66284
10.717822 25.46269 176.64127
28.018536 36.10696 176.67
50.372231 42.659477 176.65308
43.55883 12.894295 176.72498
18.62396 48.2822 176.72717
45.433289 16.915474 176.80182
13.601774 42.857311 176.80502
19.76433 48.978699 176.85088
32.335617 9.6433334 176.92021
45.930122 15.132326 176.92586
16.10121 19.065786 176.97482
34.509674 19.320957 176.9953
39.730724 24.693256 177.02904
43.067165 48.93391 177.09352
12.304709 23.631849 177.12933
32.297558 35.87957 177.12001
34.692398 22.435402 177.24585
50.491478 22.916817 177.40396
39.393471 24.45787 177.44754
25.424417 24.709339 177.42894
24.213223 25.49221 177.43488
35.88945 11.197449 177.57698
26.246838 11.649793 177.58311
34.935947 25.695045 177.5081
23.214695 26.244143 177.55215
45.435486 16.640795 177.68417
47.221497 27.178341 177.62755
13.641534 27.328941 177.63951
17.114117 44.606106 177.62845
28.007151 50.660637 177.68945
47.355465 19.027147 177.8004
12.711264 28.046673 177.90054
50.085354 35.544533 178.05496
14.801241 39.133427 178.08026
44.901878 44.622494 178.06744
30.255585 50.178982 178.00487
34.442268 33.720417 178.15427
17.843887 33.879719 178.16681
31.005766 34.112877 178.18402
34.621239 12.25456 178.26012
26.673861 12.71896 178.23497
43.9515 16.678017 178.26874
38.126602 29.627584 178.24326
35.538227 33.049171 178.25787
49.305634 25.502762 178.33427
36.939083 35.660713 178.31
44.025871 35.910137 178.32999
47.939011 39.480728 178.32428
45.756962 42.785011 178.35454
36.00185 13.153647 178.47827
44.493839 17.745804 178.46233
45.125267 18.458286 178.48785
16.684219 20.658096 178.43097
36.125347 32.426544 178.44701
33.681122 36.921799 178.41115
16.363945 40.21907 178.43564
49.691666 31.503363 178.52237
38.976265 38.979881 178.57681
22.567753 39.403671 178.6109
20.23838 39.691818 178.63419
48.219727 24.798393 178.74695
25.724739 25.931126 178.78568
23.682182 46.269291 178.72008
31.547918 14.116472 178.83676
37.057274 14.818851 178.81708
27.044205 14.960208 178.88684
35.14756 32.060741 178.84473
17.83486 41.047474 178.80945
45.861679 40.372562 178.90878
21.977634 43.914959 178.97383
34.414249 47.578285 178.91763
15.709678 35.149189 179.04674
38.596371 44.385414 179.01176
28.256187 46.979988 179.08723
34.027 47.249031 179.06447
44.263229 20.231798 179.15146
31.128132 45.784603 179.12401
27.624908 22.970539 179.25052
15.461594 30.778952 179.23941
16.020042 34.701675 179.22545
17.904028 39.002792 179.2507
19.797449 20.922375 179.33502
28.582516 23.574577 179.3931
44.218189 22.210279 179.45731
18.329933 23.494301 179.4761
16.479275 25.957336 179.42282
30.112339 23.972477 179.59045
26.009506 18.362167 179.63474
33.658764 29.835968 179.64139
23.366585 20.212835 179.72076
35.083015 25.332674 179.70482
46.588367 28.336109 179.72354
41.161823 42.278389 179.79149
32.738594 18.063593 179.84329
44.506119 25.822983 179.86966
32.750008 31.015911 179.89503
17.591631 31.0937 179.98453
38.028835 20.240299 180.00522
43.408482 26.303291 180.11343
25.481205 21.390894 180.24461
42.161991 25.708904 180.27196
44.276909 32.676811 180.29535
24.519812 42.218521 180.26793
36.174549 21.022211 180.38239
40.245735 23.793121 180.34869
19.681187 30.607222 180.32471
23.104458 41.156197 180.30289
41.822182 26.463823 180.41034
21.079401 28.026596 180.42368
21.495005 34.721256 180.62436
40.882706 38.176636 180.64639
25.219887 41.176163 180.68251
33.546261 21.780264 180.7769
