# .PCD v0.7 - Point Cloud Data file format
VERSION 0.7
FIELDS x y z
SIZE 4 4 4
TYPE F F F
COUNT 1 1 1
WIDTH 214
HEIGHT 1
VIEWPOINT 0 0 0 1 0 0 0
POINTS 214
DATA ascii
-0.030166034 -0.11546759 -0.0078070499
-0.043578111 -0.059224248 -0.015477704
-0.063211322 0.06691508 -0.013275661
-0.030409738 0.1186043 -0.01424317
0.17613474 0.2487527 -0.018057756
0.21919002 0.26204723 -0.015186722
0.17498498 0.37266603 -0.02129822
0.23314466 0.35269016 -0.020775758
0.18278477 0.43994302 -0.018919753
0.22834086 0.40571675 -0.023378501
-0.02085775 -0.025179308 0.016950801
-0.03300501 0.065731458 0.049656428
0.0013573093 0.06914755 0.0025694214
-0.036819339 0.11296592 0.057347145
0.19795144 0.29474601 0.021191798
0.2233763 0.27062774 0.0096798483
0.18161607 0.3500956 0.019023085
0.22295217 0.37397379 0.037635975
0.18293509 0.43930674 0.055483837
0.22740956 0.42855424 0.054715212
-0.051242542 0.055318207 0.15585154
-0.051050425 0.11246831 0.16350824
0.19557336 0.28026038 0.19877669
0.17533357 0.35316235 0.15911619
0.24520871 0.34860009 0.16894785
0.18130079 0.42481178 0.13169539
0.22325979 0.42127872 0.14714113
-0.073711134 -0.0058075408 0.2721515
-0.10474955 0.053315725 0.26477608
-0.04062767 0.04764691 0.25928181
-0.050771125 0.10680033 0.24351683
0.17991436 0.26892078 0.2497533
0.24913016 0.25269714 0.25380909
0.17615296 0.33684558 0.24654536
0.23042668 0.35465968 0.25740507
-0.047866326 -0.021157341 0.3571344
-0.1133821 0.054006204 0.35187218
-0.051719788 0.06676174 0.34860912
-0.073525965 0.10126516 0.3137005
0.19816166 0.18618405 0.37568164
0.22772048 0.18307628 0.36865482
0.18565007 0.24947248 0.3587974
0.25004274 0.24248238 0.36701459
0.18834475 0.30054432 0.34268859
0.25224802 0.32743236 0.30525702
-0.112931 -0.0063307234 0.43872628
-0.078575999 -0.016576381 0.45196855
-0.11301907 0.036681529 0.44740915
-0.058413249 0.046069499 0.4623206
0.17748642 0.18001395 0.45137548
0.2374061 0.17876481 0.43499646
0.18570152 0.22965896 0.4377386
0.2321855 0.23570743 0.44449261
-0.074972942 -0.013359231 0.51405746
-0.10931833 0.058333933 0.54458839
-0.05003152 0.038360387 0.54505223
-0.1020464 0.10223642 0.55664283
-0.049356859 0.12590869 0.55966538
0.16826423 0.17063704 0.56966478
0.22142191 0.16784795 0.54941052
0.16298094 0.24920447 0.55818516
0.23025127 0.25215805 0.550758
-0.040753432 0.083800957 0.65995812
-0.10304037 0.12550892 0.62059563
-0.062124897 0.15150245 0.63531846
0.013379429 0.14980996 0.66452336
0.15156476 0.16455635 0.66528136
0.21975318 0.17844652 0.66209763
-0.041823767 0.23868865 0.6660288
0.012581186 0.22281834 0.66904843
0.13060699 0.26170361 0.64983773
0.22956854 0.24625114 0.66242051
0.18219146 0.30366641 0.66020757
-0.060694497 0.15598913 0.74848187
0.0071820817 0.15899484 0.75490743
0.15831472 0.18703264 0.75825173
0.21341586 0.1904525 0.72557867
-0.04223891 0.24857166 0.75999361
0.042466812 0.23841946 0.75468993
0.15418524 0.24871905 0.7548278
0.21284094 0.25867951 0.72757053
0.1693012 0.3064903 0.72066981
-0.021779014 0.1849518 0.8572492
0.056653764 0.15380153 0.84056437
0.12688147 0.17090496 0.84140009
-0.032274988 0.25944832 0.84730059
0.040776622 0.25052625 0.82273906
0.15743075 0.25580662 0.84100276
-0.012001933 0.30580026 0.84223658
0.055241086 0.33353221 0.84868342
0.12194129 0.32969925 0.86665839
0.25052911 -0.12559725 0.96554649
0.2598381 -0.060115039 0.96988845
0.3044146 -0.0045375018 0.95575571
0.2762545 0.042523399 0.97493482
0.34425411 0.057704493 0.96401078
-0.033529676 0.19126531 0.94538379
0.046948519 0.13277251 0.95243126
0.13267702 0.15517189 0.95014185
0.29947472 0.10736343 0.96497077
0.33965921 0.14828642 0.96280974
0.41204748 0.18587165 0.97270727
-0.039478775 0.24557224 0.94878709
0.067219786 0.25442585 0.99419451
0.16626316 0.25426179 0.95436823
0.38490096 0.22094302 0.97374439
0.41776004 0.24679686 0.97358149
-0.014878676 0.31748512 0.94386047
0.060821738 0.35069486 0.96528363
0.12379615 0.33689481 0.9491325
0.19624457 -0.11909129 1.0238421
0.24202013 -0.13890059 1.0274372
0.26252738 -0.053397421 1.0218196
0.27526438 0.044785224 1.0162816
0.32837912 0.041659638 1.0223112
-0.010591879 0.19031872 1.0164194
0.051264517 0.17212127 1.0474495
0.12235186 0.17809339 1.0516762
0.36053371 0.16306771 1.0260347
-0.016427683 0.25635287 1.0392337
0.051976047 0.25193837 1.0220156
0.14070594 0.25499335 1.0269523
0.35587698 0.24204706 1.0559158
0.40876377 0.23401302 1.0232788
0.058248069 0.31922522 1.0355643
0.11828291 0.31496981 1.0281526
0.063550226 0.17668539 1.1407634
0.12608355 0.18436971 1.1541908
-0.006957904 0.2647 1.1638664
0.056501865 0.2427953 1.1424338
0.14732032 0.24731435 1.1519235
0.26389852 0.2474871 1.167652
0.35565734 0.24326821 1.1265641
0.050527476 0.34041852 1.1443658
0.13401926 0.33005774 1.1505746
0.28079775 0.31450367 1.1755422
0.32535312 0.30807129 1.1529633
-0.13133593 -0.064352028 1.2856317
-0.084685817 -0.034570768 1.2936466
-0.1253393 0.058196995 1.274087
-0.077548876 0.06431295 1.2800661
-0.13070285 0.14607893 1.289497
-0.062912546 0.15522042 1.2803555
0.056267317 0.16227092 1.2480791
0.14660117 0.175897 1.2448719
-0.10504813 0.22664076 1.2898693
-0.04513685 0.2375887 1.2672638
0.18504497 0.23748139 1.2528043
0.2431009 0.26119605 1.2527695
0.31554699 0.25547132 1.2347528
-0.015534163 0.32297176 1.2510408
0.030397845 0.38090095 1.247261
0.14773931 0.36912078 1.2331226
0.25620088 0.31962416 1.2626433
0.050976064 0.40149286 1.2732273
0.11741014 0.40339673 1.264267
-0.12273156 -0.047001805 1.321422
-0.056786437 -0.033923224 1.3448846
-0.12426679 0.038316347 1.3386483
-0.062365294 0.041370172 1.3513627
0.0078861779 0.011193058 1.3884633
-0.12996794 0.12853612 1.3299023
-0.046296064 0.15735142 1.3443632
0.060275394 0.1709993 1.3433487
0.12113756 0.17381233 1.3562084
-0.11174642 0.26130861 1.3378874
-0.054921791 0.24363168 1.3479654
0.0076997629 0.21578659 1.3418359
0.17981136 0.23813759 1.3600925
0.24542518 0.27262831 1.3213729
-0.047941748 0.31589633 1.3496553
0.049648255 0.37677854 1.3606483
0.16048275 0.36110163 1.3594462
0.2543022 0.32320964 1.3254828
0.083432101 0.409105 1.3352545
0.11419364 0.41164389 1.3243679
-0.052282892 -0.022537319 1.4118662
0.010359848 -0.012114666 1.4293735
-0.032292508 0.055425432 1.4445882
0.027200026 0.03841985 1.4600116
0.11052803 0.081732154 1.475427
0.084652893 0.13487169 1.4796463
0.11497054 0.13897265 1.481451
0.063817866 0.26453838 1.4399709
0.13641462 0.27717733 1.4428362
0.065674208 0.32667655 1.447614
0.14031553 0.34453246 1.4619387
0.052879363 0.079740405 1.5381202
0.12146369 0.08187189 1.5654854
0.071576893 0.14713739 1.5368906
0.12226376 0.13629788 1.5441365
0.069329895 0.25541022 1.5349487
0.15721017 0.24894632 1.5460631
0.20119709 0.28390229 1.5749581
0.046880759 0.36040872 1.5541439
0.16556673 0.38748837 1.5281292
0.20807162 0.35510683 1.5649475
0.083180942 0.4150818 1.5741794
0.12018882 0.41189122 1.5444205
0.12055831 0.12925613 1.6065016
0.080259062 0.26101717 1.666497
0.14239466 0.24489789 1.6401532
0.20804925 0.27746949 1.6417515
0.039930113 0.35891384 1.6650661
0.22658809 0.3403112 1.6552552
0.074349865 0.42262527 1.6503595
0.14493676 0.43767837 1.6444343
0.20597835 0.40593234 1.6499386
0.084465668 0.28661206 1.7210288
0.15820931 0.28310814 1.7203726
0.070898212 0.34084085 1.7240124
0.15267996 0.36218047 1.7394855
0.082310192 0.40448079 1.7157339
0.13760692 0.41473475 1.7142111
