# .PCD v0.7 - Point Cloud Data file format
VERSION 0.7
FIELDS x y z
SIZE 4 4 4
TYPE F F F
COUNT 1 1 1
WIDTH 1526
HEIGHT 1
VIEWPOINT 0 0 0 1 0 0 0
POINTS 1526
DATA ascii
-8.9406729 -5.9991255 14.611816
-8.1606636 -3.496006 14.643068
-4.5582294 -3.2863946 14.786716
-6.6292777 -2.7203493 14.709476
2.3859751 -18.28348 14.891613
3.7306097 -17.212379 14.833154
-0.047541171 -16.948494 14.898314
-0.76096898 -12.543217 14.874662
2.7714405 -11.935693 14.81374
-3.9015138 -11.059422 14.811487
-7.5211282 -3.0557275 14.958041
-8.0903044 -10.714476 15.017693
-4.8449678 -3.118448 15.080387
-0.024864972 -16.941658 15.123878
3.3217974 -12.161925 15.146441
0.95517945 -11.810608 15.114614
-7.9278812 -3.2468181 15.160734
-5.6207495 -2.7414935 15.166147
-4.8629518 -3.1542015 15.281517
-0.65323889 -15.234821 15.385605
-3.1658967 -7.2310276 15.334819
-4.4810176 -3.4849415 15.31287
0.8649323 -18.223042 15.433529
-7.1470613 -12.363373 15.483046
-8.3288403 -10.730451 15.489372
-3.1252649 -7.5986633 15.485009
-8.4300756 -5.4858866 15.417542
1.7090994 -18.596638 15.581166
1.2948322 -18.412674 15.570815
-0.26993859 -16.171898 15.583373
-0.72470808 -14.990494 15.587768
-6.6301827 -14.152827 15.555427
-4.3996634 -13.456423 15.528694
-6.6893673 -13.014166 15.567827
3.8080544 -13.009825 15.507617
-0.48574328 -12.41946 15.518738
-8.7073002 -8.5832844 15.54772
3.9620237 -13.378029 15.61709
-0.54327184 -12.625055 15.685428
-7.4911671 -12.099374 15.632085
3.0645261 -11.983688 15.639915
2.8574185 -11.877546 15.601816
-8.6599007 -7.052825 15.67091
-4.0679388 -14.051044 15.721929
-3.4835043 -11.25854 15.857893
3.4191585 -17.689754 15.942022
3.7799821 -17.411592 15.970573
3.9512072 -13.23897 15.958969
-8.6224852 -7.5749416 15.935228
-8.0792322 -5.6720266 15.946562
-4.0428457 -14.446672 16.063679
-7.9595861 -3.7919257 16.024605
3.0641375 -18.020544 16.186718
-3.575778 -12.59142 16.127731
-4.4190974 -4.7198687 16.124115
4.4663668 -15.614712 16.213551
-0.73126084 -14.167322 16.243382
-4.3220768 -14.056067 16.28669
-3.6805861 -5.7791872 16.274488
-4.4283919 -4.9111843 16.227882
-5.9365225 -4.0300446 16.24227
-7.8389249 -5.7009273 16.324844
-6.8866816 -4.2791104 16.309189
0.58999282 -18.053621 16.427462
-5.6492486 -14.599736 16.489388
-6.8359246 -4.6291218 16.475895
-6.1636686 -4.4347758 16.420052
-5.0995874 -15.436776 16.56292
-3.7209589 -14.270218 16.503605
-5.9655533 -4.6940536 16.551956
2.5843511 -11.75547 16.628767
4.3044038 -16.53883 16.788687
-5.2003126 -14.720943 16.793785
-8.4026165 -9.9610958 16.778837
-7.7276082 -6.3179102 16.720873
-4.7381048 -14.591195 16.825674
4.4244347 -14.139692 16.837418
-2.9131179 -10.539164 16.881832
-7.3752918 -5.7979436 16.840336
1.8753814 -18.652189 16.98102
-2.8648953 -10.368504 16.923634
-8.0755014 -7.632122 16.959864
-0.40846479 -15.395069 17.01671
-5.7740641 -5.8442373 17.069345
-7.2712975 -14.732184 17.107321
-7.5451417 -6.5902987 17.172848
4.3520107 -16.795927 17.27746
-3.4885287 -14.389789 17.298241
-2.8428993 -10.140022 17.246935
-8.3492069 -10.084311 17.26573
-7.949985 -7.825983 17.274668
-4.850812 -15.952871 17.398787
4.8543367 -15.002354 17.387335
4.3008881 -13.669046 17.385973
-8.1777678 -11.131605 17.335163
-8.0332737 -11.839175 17.419115
-8.1951828 -10.983471 17.423777
-6.6695108 -14.441328 17.642288
-3.2345049 -7.8047066 17.749716
-3.8062084 -15.658921 17.812454
-7.6026587 -13.748824 17.830198
-7.3033314 -7.0754805 17.846384
2.7102869 -19.072481 17.926067
-2.728487 -11.170777 17.906687
2.0919969 -11.575084 18.023264
-3.0817041 -8.8088303 18.036446
3.7759666 -17.738174 18.113827
-5.0409389 -15.665783 18.147625
-7.1351409 -15.445913 18.163471
-7.7554479 -12.888335 18.102722
-3.2837315 -8.1047802 18.10791
2.3179066 -18.728165 18.29845
1.2522671 -18.272442 18.282839
0.8516469 -18.099201 18.297466
4.2372198 -18.397449 18.388073
-7.7786865 -9.5239315 18.356529
1.3644915 -19.089561 18.480639
-4.553062 -16.595163 18.474508
-3.8128939 -7.713654 18.405443
4.8555965 -14.746316 18.544653
-3.2656293 -8.6440697 18.607389
-6.0300069 -7.3964548 18.663521
-2.8047242 -14.335321 18.763384
-7.7933097 -12.741022 18.711153
-6.1354408 -7.5090833 18.783054
-4.0772548 -16.494452 18.86496
-7.7342138 -12.96419 18.856012
-6.6134033 -7.8187914 18.875446
1.3220564 -19.031885 18.901516
3.8359706 -18.961763 19.000252
-7.0355415 -14.990795 19.024494
-2.5786202 -13.854887 19.02047
4.1861315 -12.656264 19.099016
-7.5618405 -10.209536 19.045324
4.0116496 -12.444831 19.187965
2.1890512 -11.489017 19.165045
-7.1419926 -15.061556 19.284231
-7.685308 -13.147057 19.270632
-2.6513329 -12.23604 19.212181
2.7589066 -18.646561 19.335476
4.3520012 -12.971462 19.355282
0.82258052 -12.435238 19.319981
1.3837026 -18.215275 19.498814
0.3239145 -13.381687 19.418472
4.2483201 -12.786561 19.467293
-4.0337744 -10.688215 19.472839
-6.1378946 -8.2495899 19.498898
-3.1104722 -15.364531 19.509905
1.1996536 -12.20902 19.556313
3.3110785 -12.399249 19.611305
-4.2507215 -10.593716 19.626516
0.31383574 -16.979092 19.722424
-5.808887 -16.017609 19.730743
-3.0055056 -14.95614 19.760105
-2.5109327 -13.871135 19.73344
-2.9255173 -11.184692 19.796541
-4.706768 -15.861137 19.844437
-2.3831568 -13.652248 19.809378
-6.7977066 -10.855253 19.839052
-4.9177122 -10.1604 19.820278
1.905591 -19.273666 19.98465
-7.551548 -12.791589 19.996443
-5.4946389 -16.562544 20.061783
1.4980184 -12.111856 20.048019
-5.5949602 -9.1988363 20.043537
-4.2842417 -8.8367329 20.076988
3.8618298 -18.00485 20.158548
-6.6271701 -15.773907 20.148121
3.0664272 -11.654671 20.154472
-3.8506243 -9.4033518 20.146458
-2.7745731 -14.427402 20.218666
-2.2503095 -12.494298 20.230865
-7.3453312 -10.413979 20.244848
-6.1157598 -9.2660894 20.299564
3.4313407 -18.366693 20.375446
3.7180386 -18.166866 20.429848
4.8668613 -17.323826 20.443382
1.4357049 -18.862204 20.577377
5.1600819 -12.492651 20.570854
-7.1866708 -12.141773 20.505779
-4.8082428 -10.170618 20.565392
-6.6149244 -9.4466286 20.555267
0.83504021 -17.677795 20.625149
1.0299522 -12.436573 20.69665
-6.1721616 -9.7328234 20.626621
-6.432066 -9.2140074 20.7309
-5.0914378 -16.47023 20.836132
-3.0435357 -15.46488 20.829401
5.3882508 -15.050333 20.815495
-7.3486409 -14.358246 20.881767
5.3491669 -15.444671 20.948078
4.647666 -11.109831 20.992264
4.5010481 -11.09302 20.972036
1.0397483 -18.296286 21.057405
0.88410783 -17.58621 21.175102
-4.0595131 -10.60532 21.10976
4.1405735 -17.963074 21.269947
0.49902904 -16.823338 21.212879
4.5501809 -18.710802 21.318792
-1.8128676 -12.688177 21.37495
-6.5776467 -10.944302 21.31488
-5.8431325 -10.376484 21.325628
-5.0379181 -15.860363 21.488243
-6.841116 -15.538815 21.481062
0.17227221 -15.541176 21.477203
0.32798925 -12.599517 21.459808
-1.8333145 -12.282024 21.470181
-3.3356335 -8.5581503 21.450129
3.047956 -19.40122 21.507397
0.47154954 -16.473824 21.542109
5.3473353 -16.455465 21.586071
-3.7500131 -15.385391 21.584106
-6.9694929 -15.214884 21.519043
-5.3933392 -10.474955 21.598967
-7.0256791 -9.2324619 21.580837
5.1847043 -17.021725 21.606468
5.1010818 -10.524488 21.639145
5.1179132 -10.453146 21.715176
-4.5901103 -16.339491 21.862303
-3.105619 -8.3327484 21.845425
2.9420042 -19.151402 21.983887
1.3238217 -18.33116 21.918989
1.1982613 -17.385813 21.989111
0.31486437 -12.303563 21.940832
5.2210622 -17.494713 22.090977
0.66237676 -11.578159 22.071789
-6.9289036 -14.878803 22.108742
-7.1558766 -14.004711 22.15134
5.0512161 -9.8587408 22.155014
4.4263144 -17.558445 22.292652
0.4157716 -13.101303 22.291693
5.3949676 -10.532629 22.20573
0.43875313 -11.568875 22.306545
4.4675827 -9.4913683 22.330881
3.5179942 -9.1773233 22.426594
-3.1934628 -7.8104687 22.426834
-6.0407929 -7.7872868 22.4265
-2.634445 -14.628409 22.516388
3.1537366 -8.9646263 22.56665
5.3174982 -16.760195 22.684362
-5.1173964 -7.2393489 22.603653
-4.9419589 -7.1523223 22.644217
4.8528733 -17.836811 22.712332
5.8251524 -14.382144 22.875191
-2.1643069 -13.768328 22.867462
6.0119123 -12.167873 22.806034
3.2852502 -8.7123175 22.813128
4.3283477 -17.31163 22.984211
1.2407846 -17.197155 22.992174
6.0716686 -12.920907 23.010559
6.0616198 -11.706141 23.05381
-7.2337761 -9.9894695 23.094814
0.31401831 -14.29554 23.137161
6.0401039 -13.270184 23.146809
6.0225601 -10.992837 23.146923
2.8733494 -8.5315008 23.135626
5.0059862 -17.493881 23.258484
-1.5831093 -12.761293 23.226717
-1.8725045 -7.7451167 23.217331
-6.952322 -13.458722 23.323048
7.6087236 -8.514101 23.386028
-3.300705 -6.9641681 23.387865
5.6341839 -16.045366 23.404573
0.27092516 -11.347103 23.464611
-5.0962739 -14.96023 23.52306
8.8448429 -8.2147722 23.51372
7.5492067 -7.6879802 23.515766
4.0215282 -17.234829 23.604399
-1.8754389 -13.404676 23.641926
0.45836878 -12.85336 23.64863
-7.0550251 -12.556093 23.642487
3.4067235 -7.7606463 23.689404
1.3878523 -16.30518 23.794071
-2.5944612 -14.515459 23.774967
0.69993699 -10.118959 23.746267
2.2682869 -8.5165062 23.818947
3.4532721 -7.6024337 23.838837
6.3632493 -8.3124399 23.921509
6.4682832 -8.1371441 23.931299
8.7479658 -7.2075386 23.963474
3.4615288 -17.252008 24.072741
3.0804415 -17.11289 24.096294
0.44865876 -12.555985 24.009726
8.00002 -9.476141 24.02914
-1.7149531 -7.1246514 24.049177
0.46154565 -12.909803 24.258579
-7.1123018 -11.348358 24.202063
4.8909397 -16.259193 24.35445
-4.0910215 -14.844149 24.38106
0.9390049 -9.3950291 24.312618
6.4424686 -8.3827724 24.34425
7.4146781 -7.7562203 24.361036
6.1057272 -14.106875 24.454042
8.5108242 -7.6425347 24.40258
5.0809793 -7.1946263 24.438911
-2.3390756 -14.268362 24.598988
6.833478 -9.9541264 24.555805
-0.80172455 -9.7011223 24.519943
6.4878368 -7.7217464 24.507118
6.6170673 -7.7065401 24.514603
2.5129604 -17.424786 24.627291
2.3261838 -16.611065 24.612757
2.5612986 -16.693022 24.60626
8.4749184 -7.4396243 24.688898
3.016367 -6.9835591 24.689121
6.5775247 -9.9047832 24.760942
9.3963623 -8.3064461 24.770763
9.3855581 -8.1515789 24.725418
7.7348442 -7.4266596 24.785732
0.81160092 -14.616313 24.823067
8.1767559 -10.629204 24.844421
7.4477415 -10.520927 24.876299
-7.1401358 -9.7879457 24.871069
9.4146862 -8.1765223 24.849148
-1.1348083 -6.1754532 24.872772
-3.7244306 -5.5956516 24.807018
-6.5282636 -13.428281 24.908381
8.4253368 -10.856285 24.972443
-7.8965721 -10.488777 24.928312
-7.834239 -9.9267941 24.951193
0.80577791 -8.9660454 24.933626
2.2252483 -7.5256114 24.961704
6.8278561 -6.8396735 24.984295
4.2209535 -6.5432835 24.904224
4.1888123 -6.4485817 24.985121
8.2884579 -6.4967847 24.984493
-6.6025386 -12.900025 25.043142
-1.3955677 -12.824602 25.009939
-0.67250025 -11.401644 25.028545
4.1656175 -6.3886595 25.035898
-2.7139022 -14.350052 25.1308
-0.76549363 -11.588824 25.112175
0.18710139 -10.015783 25.1273
-7.9188581 -9.6678047 25.123316
3.4155953 -16.614811 25.24124
1.2008268 -15.054821 25.23909
-5.0792503 -14.108781 25.268625
-6.5251398 -13.024887 25.231688
6.732182 -11.00231 25.26413
6.1079149 -7.8647938 25.211306
6.7157903 -10.519393 25.392122
-4.1298523 -5.0078349 25.324911
-4.4165144 -14.274583 25.49387
8.3490696 -6.8790636 25.482563
2.7170966 -5.9619112 25.447426
4.6150174 -5.9544144 25.429337
3.3197722 -16.43895 25.552822
2.6466217 -16.266397 25.550615
6.3687048 -13.178982 25.596111
-7.4611712 -10.102438 25.595951
6.6310663 -7.5914259 25.558552
0.55991536 -13.629174 25.667252
9.5481787 -11.180095 25.690321
9.5965977 -8.3932171 25.621651
1.2987818 -7.8486719 25.625505
-3.4788954 -4.689415 25.604797
2.2036247 -16.037683 25.716988
-7.7346735 -11.704515 25.750181
9.6186085 -10.688013 25.765436
-7.0179605 -8.8788662 25.731972
6.9459934 -6.4762211 25.722532
8.7513723 -12.061379 25.803028
-0.14659637 -8.6409035 25.85247
1.0405278 -7.4132147 25.868481
5.3657875 -5.5064001 25.825821
6.7961206 -10.958145 25.936752
6.7487059 -8.7367935 25.960615
3.8578186 -16.118561 26.039351
1.1108493 -14.398567 26.026831
-7.0316839 -9.2628117 26.047636
4.9869599 -5.0513182 26.031908
-3.3899822 -4.2305307 26.076107
-1.1690208 -4.2308116 26.055122
-0.17279249 -4.205492 26.071886
-6.4498138 -12.187987 26.155994
6.8418994 -10.178128 26.163361
4.0492282 -4.5318012 26.180132
1.9384444 -15.697563 26.238127
8.3591652 -12.590453 26.249168
-0.096376523 -9.2131109 26.281116
6.1956367 -6.5020247 26.207958
5.7311034 -14.539263 26.352068
-4.7671542 -13.657833 26.368343
-0.51037306 -11.398423 26.326019
-0.47241426 -11.323857 26.349834
9.736084 -10.364986 26.304134
-6.8163061 -10.194218 26.347298
0.59212708 -6.483182 26.336855
0.60745734 -6.4385653 26.354815
7.9714613 -12.757522 26.43021
-7.4055109 -9.5961285 26.465761
-6.9798355 -9.1020546 26.439665
9.7988148 -9.1730804 26.478344
1.3374114 -4.8242855 26.440374
6.8012929 -7.4492092 26.530539
6.5701933 -7.1588964 26.538109
4.5392027 -15.360491 26.606125
4.6398773 -15.282153 26.623468
8.4743538 -13.163296 26.650049
-6.2740812 -12.38628 26.649942
5.016984 -14.934975 26.743319
6.9313345 -10.217573 26.743587
7.7581196 -6.0276866 26.729477
-4.6179829 -13.490241 26.809353
-5.610136 -12.94183 26.811184
-6.9140925 -8.9646931 26.891985
-3.0518868 -3.4345844 26.891891
8.8097153 -13.622697 26.934557
6.8971453 -7.9563785 26.950535
-7.6977348 -10.647053 27.084736
-7.3310747 -9.3303318 27.003214
4.6073475 -15.058226 27.109432
9.6276169 -12.303309 27.168859
-0.55586058 -11.69819 27.119312
7.336462 -8.556632 27.180614
6.754385 -6.7108855 27.165348
2.8869832 -3.3959084 27.12413
3.3128197 -3.2518206 27.184681
0.547782 -12.443907 27.250423
-7.8251657 -8.1141682 27.268753
-1.8278303 -13.472758 27.371204
7.1962867 -7.8285713 27.34823
-6.4999008 -6.9242578 27.309107
4.0071082 -2.8471916 27.342327
7.0104718 -10.048968 27.450706
0.89056337 -7.2365665 27.401775
8.3676901 -5.5809221 27.415489
5.6371965 -3.7034369 27.405754
1.6295328 -14.459505 27.57814
7.7069535 -13.438262 27.527531
8.3775043 -5.5275493 27.505028
0.85302305 -1.8215163 27.563301
-2.6364007 -2.3128757 27.667953
0.13818184 -1.6188953 27.619425
-0.32577145 -11.371506 27.753506
0.84998357 -8.2889853 27.759235
-5.2450151 -3.625416 27.723396
-4.5921803 -3.2302279 27.794327
8.4986 -13.825361 27.857897
8.2472992 -13.777725 27.839504
9.1860209 -13.073911 27.877216
-0.6068905 -12.004734 27.893131
-7.0600548 -11.489567 27.872139
0.073968746 -9.869277 27.816896
-7.6740246 -9.0509701 27.829571
6.7919102 -5.6580601 27.872883
6.4798594 -4.7483101 27.816387
8.1816845 -13.084055 27.969795
0.56113422 -11.321454 27.909588
-0.25970751 -11.279753 27.943586
0.73787862 -9.8702402 27.912727
7.8984957 -5.3131561 27.916075
4.3011098 -14.783121 28.069225
7.018362 -10.635778 28.056604
-6.7859693 -8.1935568 28.00544
-0.97668767 -1.2559943 28.025045
0.64881778 -11.306474 28.147882
-5.7724972 -4.4843779 28.196815
8.4730139 -12.869087 28.237858
-5.474669 -12.189312 28.271143
10.124854 -9.4358139 28.203035
7.1463895 -8.2394209 28.267214
-4.1105795 -2.6369088 28.259256
5.0866609 -14.043357 28.305677
7.7287436 -13.552581 28.385044
-4.3539343 -12.761903 28.351837
8.6090279 -12.798697 28.321318
-5.7312984 -4.3383327 28.333544
3.2785611 -14.748433 28.467838
1.1623297 -13.052898 28.41547
7.1037054 -6.3888197 28.47163
-5.4924984 -3.5510817 28.478355
9.4015684 -12.991991 28.540239
-6.263442 -6.0266762 28.571754
8.0654631 -4.9034734 28.593842
-0.72795868 -0.96999425 28.503418
8.6763039 -13.287954 28.681511
-2.9516327 -13.188767 28.637331
1.0644743 -12.736279 28.62723
7.2826872 -9.7132454 28.657158
-6.4439588 -8.9310179 28.667328
10.165919 -8.0529108 28.687443
7.1115189 -5.9514294 28.623909
-7.8139567 -5.7232938 28.672228
2.5764256 -1.0284523 28.669884
3.2771795 -1.0417813 28.667253
-6.5472279 -9.6238489 28.791977
-6.6006627 -8.0912199 28.710291
-8.0068836 -5.7042851 28.744499
-5.3730917 -3.1425357 28.713564
6.4562516 -12.608115 28.824301
-0.62269372 -12.376669 28.832396
7.0778275 -10.721279 28.823952
7.8168049 -7.6173153 28.888241
10.034744 -7.0917463 28.863811
7.1779957 -6.7753038 28.800316
-5.8237381 -4.5889478 28.869015
6.8145351 -4.0551271 28.831442
6.8783832 -11.706174 28.992828
-0.26575089 -0.73989594 28.95997
9.4681463 -12.675467 29.045109
-6.8645601 -10.985023 29.015408
1.5436518 -13.335495 29.162821
-2.8932705 -12.966755 29.188433
7.169292 -10.384955 29.146606
-6.7207909 -8.27847 29.134483
-6.1610003 -5.4789629 29.195713
8.4887733 -12.138536 29.252974
-4.2197051 -1.8611183 29.239815
7.1557708 -10.410685 29.344398
10.220405 -9.9014959 29.313349
-6.9815969 -7.0285692 29.381502
2.4460235 -14.214293 29.463533
7.5568714 -12.675817 29.457397
-7.4231472 -10.166273 29.483355
7.8136702 -7.780416 29.429359
7.3709183 -4.4471889 29.432842
5.4453206 -1.4281628 29.469101
1.3629382 -12.022966 29.579941
8.3172607 -11.941559 29.529451
-6.9292994 -10.548614 29.513678
9.9455013 -6.2807469 29.522552
9.0252132 -12.448936 29.648891
0.32471704 -11.454506 29.681524
7.0831685 -10.933847 29.653557
8.7260036 -4.2122483 29.699869
6.9009542 -3.1505253 29.68959
-2.1942704 -0.069132462 29.654373
1.0506716 -0.086618349 29.694635
2.7996626 -14.032949 29.74361
-6.1137357 -8.9325104 29.77354
-6.5518227 -6.8356514 29.761036
-6.5319405 -6.3738289 29.752342
-6.4080019 -5.9904547 29.784683
7.2991524 -5.6157932 29.777056
-7.6544976 -5.4418168 29.783691
-6.3829207 -7.5857744 29.804596
-0.42022645 -12.341977 29.912853
7.8027411 -11.694398 29.94375
1.3251767 -11.553942 29.919628
9.7806568 -11.559067 29.923002
-5.7897272 -10.326269 29.921865
7.283277 -9.5135527 29.928923
9.9082413 -5.8823361 29.975971
-5.9922724 -4.6832151 29.948204
7.2679176 -4.315114 29.919113
7.9530897 -4.1173363 29.934925
2.7848315 -0.027380725 29.941765
10.127945 -7.3581395 30.061655
-6.5029035 -6.1903911 30.002138
1.4268188 -11.514416 30.111124
-7.8259153 -9.1047668 30.121447
-7.4346852 -8.6190338 30.143698
-6.4155097 -8.5922804 30.107473
7.9905643 -4.0036054 30.123764
3.891016 -13.617716 30.281448
-5.1827383 -11.174359 30.221821
9.8659534 -5.4992523 30.272316
5.3553424 -1.233013 30.261278
1.4154253 0.024996977 30.264633
7.2076716 -10.899988 30.340214
7.3586731 -9.0898495 30.369263
-2.1169398 -12.336416 30.490431
6.7055969 -11.490104 30.412733
-7.4516325 -6.6991386 30.484926
3.8338211 -0.0036537759 30.484173
-1.655015 0.087458819 30.491579
5.3406706 -12.61071 30.552044
-0.23650485 -12.094996 30.513084
-5.8311272 -9.1602163 30.567854
9.8029823 -4.9824295 30.544193
7.2782397 -10.354567 30.620338
7.4153204 -4.5981431 30.661594
5.8799019 -1.7019809 30.655685
9.3091593 -10.991032 30.700846
-6.0991001 -4.7033153 30.723278
9.198988 -4.4999828 30.765167
7.7267628 -3.9614911 30.767944
4.4691138 -13.205134 30.819477
0.43417466 -11.366136 30.832445
10.000282 -10.835202 30.805737
7.4638901 -8.3076248 30.814417
8.154829 -6.9011364 30.86525
-4.2120352 -1.4793369 30.872004
5.8423862 -11.943976 30.954197
-4.856204 -2.0020244 30.951097
1.8159672 0.097174756 30.984097
9.1994591 -10.660733 31.095222
7.6794481 -8.7450838 31.076815
7.8644342 -8.0322418 31.011292
-7.3702278 -7.9499235 31.025822
-0.99145341 -11.794615 31.174379
-7.4328856 -9.2215948 31.104662
10.098287 -7.8146772 31.183994
-6.31458 -7.6920619 31.192551
7.5278807 -4.9220419 31.181995
-6.1720052 -4.7818809 31.142868
7.6201925 -3.5051343 31.139055
-6.9128408 -9.6567621 31.26169
9.6941748 -5.2482729 31.243145
1.8793371 -11.013933 31.369953
-5.8293405 -8.0616388 31.345238
-1.0873481 0.17773141 31.370045
1.4801625 -11.063732 31.489464
6.7762513 -10.806084 31.458876
-7.40345 -9.0303936 31.411781
-5.6283083 -3.3235013 31.499336
2.1543703 -12.298773 31.593678
-2.4920807 -11.824293 31.526516
-4.0392137 -10.993589 31.508221
-6.0556145 -6.6672535 31.561462
-6.2283378 -5.7903638 31.571125
6.9606504 -2.2205098 31.541891
-3.1340799 -0.52066469 31.518707
-0.47110635 -11.517027 31.609766
-3.5682836 -11.153925 31.661404
-5.381145 -9.7268534 31.695248
-4.3143287 -10.654273 31.780691
10.040145 -6.2153692 31.774429
1.000017 0.16868514 31.714109
-3.0759974 -11.30372 31.803814
-0.55240226 -11.386343 31.852484
-6.0649724 -8.6057348 31.844786
-7.3394423 -8.5211563 31.830753
-5.9515443 -6.7396269 31.823883
2.2675073 0.12980284 31.819992
9.8959074 -9.87603 31.931997
-5.9778333 -4.1830339 31.942799
1.6999624 -10.95997 32.050858
9.4418259 -6.324935 32.060257
2.0138946 0.14962709 32.005634
-6.1877632 -9.2506351 32.189167
8.0331917 -7.0932026 32.141689
5.2539034 -0.66108108 32.152191
3.6730444 -12.281551 32.210449
8.0200195 -9.807579 32.213245
-5.6997433 -3.410125 32.249073
0.39520657 0.2237258 32.290161
5.0274668 -11.771826 32.353287
-1.0558692 -11.056585 32.328438
-5.9090891 -4.155098 32.337669
1.5915873 -10.924072 32.489292
7.2835069 -9.6855431 32.459385
7.7568593 -6.674243 32.540516
3.8520081 0.11635932 32.556202
4.6007991 -11.815592 32.63636
6.4997916 -10.148921 32.668709
8.0300636 -3.955143 32.654564
-5.4474115 -2.7323318 32.668488
6.3205576 -1.3182889 32.632122
10.007165 -7.3717337 32.72263
-5.3167844 -2.3509543 32.742519
-3.2587442 -0.49944377 32.748066
3.1114054 -11.598841 32.813786
7.5729408 -8.6509333 32.897076
-5.2581635 -8.3053732 32.864468
4.8255453 -0.18941882 32.844997
4.0254784 -11.504648 32.907711
8.2002172 -7.3002372 32.938858
-5.6171389 -6.5790052 32.991119
-4.4853907 -1.5678372 32.924862
3.1208763 0.091824494 32.909821
8.2812672 -5.4610262 33.156631
-5.2569551 -2.41202 33.146248
9.5391283 -8.7978926 33.222958
-3.6495028 -0.97864729 33.285255
4.81394 -0.36667937 33.207573
0.7576468 0.072883405 33.229797
7.5147843 -8.5765085 33.313023
8.486124 -6.9042039 33.337566
7.4285221 -2.580647 33.485828
6.3576365 -1.7501202 33.43964
7.8180857 -7.1087589 33.503361
8.2611628 -4.9318628 33.598942
-2.4553864 -0.17975402 33.551243
-4.3684812 -9.3028603 33.654713
7.9266191 -4.0302444 33.631382
-5.2958512 -2.937984 33.642975
-5.2716188 -2.8681231 33.649452
-0.21628346 -0.01969713 33.612991
7.958528 -8.3635874 33.748318
-5.6553702 -4.1465559 33.757793
-2.8934636 -9.855341 33.824638
6.6100783 -9.1772337 33.895466
7.9757204 -5.8956237 33.849403
7.7804098 -3.7447386 33.84185
-2.4965012 -0.40159833 33.924236
0.99875903 -10.69252 34.079487
-3.6803837 -1.2445241 34.048233
-1.0972183 -10.410997 34.180347
-5.5309997 -4.1049795 34.179466
4.1664634 -0.32930723 34.164177
2.6781876 -0.28206718 34.157005
-0.72356343 -0.18809444 34.168846
1.6063882 -0.29651982 34.23016
5.1443877 -9.7848425 34.376831
-5.433013 -6.2246017 34.344879
6.8146963 -2.2215359 34.39439
2.0249004 -0.33168572 34.342674
-5.6837749 -5.5146465 34.44492
7.1005344 -2.3875551 34.436127
1.1784716 -10.716736 34.559631
3.2368007 -10.538866 34.583324
-3.5953801 -1.3381504 34.533062
3.3777926 -0.38675284 34.548737
4.3037472 -0.68188423 34.630447
3.2353973 -0.42740637 34.700859
1.689235 -10.950189 34.896065
1.0878916 -0.45623237 34.80872
4.6200366 -10.045411 34.913979
-2.8508298 -9.7118015 34.96397
-4.5194926 -9.1506519 35.05304
6.9233403 -8.1432486 35.064693
-0.12982769 -10.890964 35.198677
-4.6468239 -7.8962035 35.195282
7.9660482 -5.3410602 35.142792
7.4113712 -3.4623911 35.172451
-4.8004484 -2.590848 35.100151
-3.0859895 -9.702013 35.23888
-5.6366692 -5.2440629 35.274513
1.8039293 -10.919657 35.369461
-3.017869 -10.183242 35.358368
-3.3707995 -9.5234814 35.338207
1.3673844 -0.58960164 35.307785
-4.136672 -9.5327759 35.440975
5.807683 -9.4624767 35.458855
3.8405619 -0.72515422 35.450676
-3.1057153 -10.112703 35.689655
8.056942 -6.8469296 35.650497
8.1906958 -6.7449775 35.624176
7.5977697 -6.6044579 35.681488
5.774292 -1.9017349 35.69376
-1.4325286 -0.727835 35.64642
0.46791884 -10.89464 35.777264
-5.7385573 -5.0295115 35.877975
1.4551692 -0.72408032 35.810997
3.8256252 -0.70093101 35.837769
6.8576283 -8.5721102 35.929783
6.9520082 -8.3080206 35.96003
4.0692182 -10.346844 36.053879
-5.4460363 -5.9963303 36.027927
7.57901 -3.7330792 36.06189
7.9896989 -5.4348311 36.166855
-4.9791965 -3.090539 36.135483
-2.4828629 -9.9995289 36.274849
-5.6942286 -5.0109015 36.296333
8.2536392 -5.0458336 36.298431
5.845346 -1.8000226 36.235954
-2.921067 -10.165298 36.412663
5.8660059 -9.3615179 36.458981
-4.6208019 -8.1717482 36.402222
8.2380857 -5.7276835 36.412086
8.1600552 -5.0233655 36.593361
7.912035 -4.9883785 36.507423
-3.8579741 -2.0299182 36.57618
3.9228745 -10.371826 36.687393
6.7234669 -8.7815266 36.693336
-1.6775542 -0.83397651 36.671078
0.35638714 -0.63517761 36.841328
7.9967756 -5.2295089 37.059097
6.7302189 -2.3573327 37.002312
-1.7986152 -10.286818 37.126801
8.1122293 -5.7879128 37.105476
7.5110846 -3.8081021 37.133026
-3.4183674 -1.8339816 37.106419
1.4918826 -0.65811896 37.158188
6.372829 -2.1780262 37.205402
7.2825365 -7.1220093 37.334812
-0.31509465 -10.444057 37.494377
-2.1171546 -10.09159 37.43288
7.3173032 -7.0090413 37.422173
0.72302455 -0.68008149 37.461521
1.1101478 -0.67965478 37.455627
3.0798678 -10.413854 37.51717
5.1465535 -1.5346467 37.586834
-5.019474 -3.5524981 37.656395
3.2270856 -0.69082868 37.609962
1.044558 -10.535521 37.795879
6.656558 -8.2502613 37.755627
7.6398659 -4.2884755 37.726295
0.39299899 -10.745384 37.858398
0.39405045 -10.641058 37.854801
6.2898526 -9.1121769 37.862698
4.177773 -10.97757 37.987812
4.1424875 -10.831081 37.95993
-1.0396861 -10.252256 37.984135
-2.2994249 -9.726697 37.912727
2.3118558 -11.392064 38.010426
-0.66350788 -11.264864 38.072151
5.1635132 -10.037575 38.052044
6.4165611 -2.412658 38.093208
2.8171997 -0.90617275 38.058918
-2.5115905 -10.526094 38.19278
-1.441795 -10.494699 38.156315
7.2003813 -3.6058168 38.116653
-0.22385246 -0.87070543 38.130814
-4.1209817 -2.4432657 38.281219
6.5385327 -2.488328 38.273426
6.4529896 -2.3850131 38.271053
4.7607069 -1.2886109 38.238571
-2.2441728 -0.95500946 38.232124
1.4591177 -11.400556 38.370338
7.0041685 -2.4625092 38.349483
4.5045323 -10.844685 38.478394
3.5718915 -10.544832 38.409676
5.3225546 -9.7306147 38.442863
-0.10939826 -0.37955451 38.424377
7.5845394 -6.1221123 38.534496
-0.9974457 -11.128407 38.648876
5.7388229 -9.6604834 38.654881
4.1907959 -10.271141 38.765289
7.2437115 -7.0271177 38.736706
2.3126698 -11.351852 38.888287
1.0278635 -10.916113 38.812061
4.2782707 -0.54238439 38.87793
-1.2409401 -10.520568 38.992203
-0.93553406 -10.542789 38.913025
7.6342144 -6.0548244 38.955582
7.7351851 -4.4373751 38.993866
6.2248616 -8.8420305 39.006142
0.91638607 -0.36201936 39.074089
-2.9511442 -1.2296124 39.198601
-1.3308916 -10.567566 39.378086
-5.3773899 -4.2447758 39.372864
-5.3061771 -4.0369344 39.336464
7.2264128 -2.8552389 39.366837
1.3966119 -10.911821 39.471321
-0.45173943 -10.550425 39.431553
-5.6058397 -4.9184666 39.448223
7.4932685 -3.6456962 39.441738
1.0348747 -10.64135 39.514736
2.7874305 -10.546344 39.538216
7.4702344 -8.495368 39.620426
7.2293844 -2.8271513 39.621059
2.9931815 -0.34608075 39.664722
7.0091305 -9.1826324 39.797558
-0.025498807 -0.34443256 39.725594
3.7327156 -10.451198 39.872047
7.4334483 -6.6975913 39.83942
-3.581944 -1.6457376 39.862991
-5.6782393 -5.0449929 39.990704
7.6624818 -4.0772014 39.968136
4.529139 -10.775862 40.066299
5.1012373 -9.7940979 40.061771
7.3041291 -8.3148651 40.018845
-2.8476439 -1.1290185 40.047775
3.4171083 -10.534179 40.178047
7.2375822 -7.2303052 40.181206
6.9385591 -2.5635822 40.199379
-4.5980372 -1.7464125 40.152412
3.5314159 -10.408464 40.272621
-3.429872 -10.145209 40.268806
6.5862465 -2.0994706 40.250595
5.6835737 -9.5406246 40.380402
7.1025505 -8.1033192 40.302502
-2.624536 -0.77251512 40.326462
-0.9616971 -10.874582 40.470619
4.6706791 -10.705757 40.423321
5.6063957 -10.142377 40.453934
-4.0773988 -9.6449585 40.476772
5.0741701 -1.0281215 40.453102
-2.5806305 -0.92103797 40.46423
-2.7149956 -10.746529 40.64669
-2.918617 -9.699625 40.685368
7.0337801 -1.6523981 40.66906
-2.2627659 -10.005619 40.76305
7.3886919 -2.075233 40.762066
-4.6959763 -7.8467169 40.860447
-5.0306854 -2.9877367 40.872627
6.489368 -1.0901601 40.850979
1.2741772 -0.3133027 40.87899
6.9118457 -9.2087383 40.905678
-3.7911651 -1.7539212 40.967964
0.71206492 -11.28755 41.038078
6.5843859 -8.4673615 41.03006
-2.3277779 -0.71623719 41.037865
5.7768784 -0.72869086 41.010811
-2.7959385 -0.57769072 41.050362
-0.94775468 -10.599323 41.149647
3.4392314 -10.492924 41.107689
-5.1385889 -6.7485552 41.17181
6.1097779 -1.7297673 41.142693
-3.5089033 -1.5509093 41.152405
-5.5937629 -5.6491489 41.304379
4.9274292 -0.80233991 41.319153
5.8186283 -9.3875999 41.413197
-4.5474319 -8.0539761 41.462891
-4.891274 -2.5077677 41.433208
4.2340546 -0.39819503 41.496902
2.4538016 -11.222897 41.505581
-2.904058 -10.362547 41.543201
3.680716 -10.399887 41.589153
-1.2336235 -0.29545975 41.539886
-1.8058212 -10.623121 41.611179
-4.5784235 -8.0262737 41.618958
-5.1982732 -3.3574982 41.681374
-3.1378901 -0.52145159 41.615593
0.17258631 -11.072534 41.759972
-0.75971186 -10.923352 41.772812
3.3769672 -10.912712 41.729317
-0.75726438 -10.737419 41.766384
5.6290984 -10.153061 41.745369
7.236598 -8.5821867 41.737
7.5811024 -6.5676947 41.766884
-2.8335371 -1.045054 41.741756
3.3443429 -0.28859359 41.794594
-4.6155615 -8.381465 41.86351
0.773651 -0.28729311 41.842583
5.3746452 -0.44597799 41.943741
0.16995737 -10.610378 42.176224
-2.2753258 -9.9586678 42.130669
-3.2004094 -9.5743427 42.133446
-5.1548977 -3.170058 42.128445
0.85809821 -10.507546 42.25808
1.322789 -10.516615 42.284401
2.469285 -10.446207 42.276196
-3.5157642 -9.4609737 42.341187
-4.3818612 -9.093173 42.376701
-4.2579556 -8.9713268 42.312931
-4.8047447 -1.5415977 42.390465
5.7735519 -0.60225606 42.340977
-2.0942202 -0.49493718 42.30357
1.9454432 -0.27449664 42.316769
-0.35678178 -10.424902 42.436531
-3.0114248 -9.6082859 42.414619
-5.3721447 -3.7512541 42.447968
1.145804 -10.785328 42.538033
-5.1936007 -6.8011732 42.575581
5.6409807 -0.51463079 42.589279
-5.4892187 -4.0639529 42.623783
6.6081347 -2.0306365 42.697922
-5.0105724 -1.7271792 42.670738
4.4330549 -10.022486 42.77224
-3.163204 -9.8794003 42.711403
1.1490475 -10.499227 42.858932
-1.3052689 -10.350653 42.812202
-24.280298 -8.200633 42.867653
-5.420825 -7.9942865 42.859303
-5.1912985 -7.7729702 42.806496
-3.3452008 -9.4367571 42.997589
8.156188 -5.0346918 42.919502
-4.7327619 -2.3433349 42.900723
-5.5695348 -8.151021 43.092022
5.4346719 -11.121778 43.196857
7.5856066 -6.7092757 43.124741
-1.1773486 -0.25316608 43.106812
-1.01298 -0.25221547 43.142044
4.1630101 -10.133019 43.201855
-18.094204 -5.8969607 43.25576
-5.783112 -4.8181033 43.285679
-4.7747459 -2.359242 43.249641
5.2243452 -0.45914003 43.264332
1.2247875 -0.25050575 43.205555
5.6844077 -11.625461 43.316151
3.8089097 -10.29137 43.3862
-2.8133674 -10.198259 43.361637
-24.324287 -7.9091015 43.385174
7.892415 -4.2052608 43.350662
3.8168697 -10.285742 43.440502
-24.841003 -9.1260538 43.425377
-5.3903298 -3.669203 43.409889
-1.6358051 -10.714013 43.581341
0.024423597 -10.402245 43.500202
4.6903276 -10.48173 43.578251
-18.99304 -7.7319112 43.512959
-5.3411427 -6.5801044 43.532642
-5.9141645 -5.1369901 43.53772
2.5313642 -10.82009 43.618301
7.350255 -7.3790498 43.660522
8.0173635 -5.7460489 43.663059
-15.786606 -4.8601398 43.62672
-4.9193068 -1.4763777 43.643044
-3.1462753 -1.1289825 43.602261
-5.0803838 -8.7911606 43.741249
-20.351997 -7.704608 43.761032
7.4416208 -7.1881137 43.774319
-14.873921 -3.0807486 43.752712
6.9567256 -2.1368756 43.78899
-4.0658836 -0.78301972 43.703438
5.1382618 -11.366622 43.868458
7.3537083 -10.316624 43.827473
-14.784652 -4.1856351 43.823586
-12.42905 -1.6893598 43.875217
-2.133548 -10.018908 43.932178
5.7164221 -1.1889085 43.972462
4.7225513 -0.4929893 43.920456
-1.441126 -0.18993811 43.930367
6.4134855 -1.6682794 44.036179
-2.7886817 -0.58688903 44.054634
4.8312616 -0.51560181 44.093323
0.90986574 -10.910175 44.146629
-4.2240591 -8.5862427 44.129326
8.0249557 -5.8672075 44.14764
-13.831519 -4.1667004 44.187954
-12.48123 -1.3240024 44.130951
-1.2488384 -0.16739437 44.155758
4.1421251 -10.140835 44.241848
-13.663044 -4.2178884 44.263435
-11.693735 -1.9174044 44.221886
-11.482775 -1.6318963 44.258286
-1.9944379 -0.15984274 44.231239
5.7644477 -11.573805 44.324764
2.6912546 -10.948956 44.382702
3.7021799 -10.539651 44.33152
-14.60207 -2.1881888 44.388599
6.9036016 -1.9186003 44.351959
-4.0016932 -1.505342 44.341305
2.8733134 -0.15273279 44.302422
1.2981992 -10.442021 44.468227
6.801837 -9.1387405 44.464905
-18.86137 -8.4144955 44.46479
-5.2033944 -7.1726246 44.420399
-0.39055851 -0.13585466 44.471092
4.5546999 -9.9520502 44.560387
6.4901924 -9.2890568 44.584515
-5.2472706 -7.1161184 44.597004
7.6133595 -6.978487 44.505791
8.0470181 -5.9191427 44.515053
-10.782683 -1.0264269 44.564716
1.6503029 -10.423928 44.683121
-24.943552 -8.4688339 44.650024
-14.725456 -5.9724026 44.682671
-5.8729157 -5.5281644 44.660294
-16.72163 -3.9217062 44.611855
7.8470278 -1.8985231 44.658512
-2.8249581 -0.54578364 44.617912
2.7314477 -0.12154096 44.614258
7.4114456 -10.320706 44.750999
-21.143631 -10.275455 44.794128
6.8652344 -8.4622669 44.749199
-19.65402 -6.6455026 44.780315
-14.772553 -6.0089588 44.763969
-12.682073 -4.56809 44.719597
-5.1056337 -2.1419842 44.710861
5.6672316 -0.89119536 44.792435
-2.6814165 -9.8308868 44.885586
-23.270388 -7.1046052 44.884644
-16.396046 -6.9787827 44.854408
7.3401709 -1.2300031 44.814354
5.5464888 -0.78644586 44.849243
-1.9346451 -0.099922664 44.830292
-20.862921 -9.9308844 44.992435
7.240881 -9.9499683 44.91272
-20.693794 -7.1308556 44.977501
7.2855048 -10.030109 45.006199
-5.2607594 -7.9867845 45.006832
-6.0085936 -5.2049203 45.095711
-17.259869 -4.5612001 45.002617
-12.242083 -0.41445541 45.049084
0.81691974 -10.772368 45.168449
-18.555084 -7.8628788 45.168015
-20.178009 -7.7892795 45.109497
-13.247104 -5.1723428 45.194778
-12.271072 -4.5956488 45.105286
-5.9145365 -4.2840748 45.15752
-0.36990601 -10.694656 45.248569
1.1024263 -10.421079 45.276829
5.1232071 -9.9460697 45.295231
-5.3991766 -8.1342382 45.246758
8.3590822 -4.6254649 45.216434
-4.8831639 -1.8187307 45.213867
-3.7100179 -0.7413435 45.212456
-3.3999159 -0.60182309 45.234051
-21.124048 -10.068058 45.374054
-20.612713 -9.4351969 45.30162
-3.7003198 -9.2869759 45.362804
8.1583052 -5.7782822 45.344124
5.0346279 -10.958649 45.438919
-4.6088719 -9.512084 45.404297
-3.9419122 -9.0147476 45.479584
-23.059132 -7.5285892 45.445793
-2.8604455 -0.32092977 45.488213
-2.5327275 -9.9492226 45.587372
-21.08506 -9.8282061 45.538395
-21.503481 -7.3117557 45.581291
-22.460173 -9.405098 45.66872
-22.617878 -9.241785 45.619701
-4.7277617 -8.3380604 45.613197
-18.126192 -6.1395974 45.607372
-17.057005 -4.5628152 45.653992
-13.107462 -1.0168141 45.618549
-1.4534957 -10.30722 45.781185
-21.824049 -9.6569405 45.70887
6.2477632 -9.2855873 45.757439
-23.316315 -8.3071413 45.779469
-3.5016403 -0.70468736 45.724411
0.77795708 -10.385027 45.89193
7.011538 -9.3669529 45.811157
-17.205736 -4.7342277 45.806339
-13.663492 -1.5723791 45.848175
2.5326257 0.0069250651 45.898594
-17.91016 -7.1227121 45.982765
-0.53325194 0.012226701 45.951546
-26.40271 -9.6645966 46.021969
-17.155741 -5.6651397 46.011856
-9.5028658 -2.7603602 46.038563
3.3937674 0.024510361 46.074417
-24.080893 -8.7193813 46.142788
-17.059519 -6.0126796 46.177578
-25.620192 -10.224656 46.294888
-22.949406 -9.1084499 46.280464
-16.321043 -6.4754629 46.266586
-6.1084309 -4.2790971 46.240108
2.0790296 0.046252023 46.291759
-23.736233 -10.094687 46.32901
4.8827443 -9.8179035 46.358852
5.4137259 -9.6391659 46.366447
-5.6522937 -8.3769531 46.342606
-14.864086 -6.0139141 46.349373
-16.571362 -5.8100929 46.392525
-3.7806253 -0.70025277 46.363018
-2.4276097 0.052167863 46.350819
4.6616216 0.04728958 46.30217
-22.770882 -9.1240063 46.420971
-6.1229753 -4.6621003 46.488823
8.4503918 -4.4454064 46.4921
-13.491982 -1.5807081 46.493713
1.5736473 0.059727512 46.426472
2.5182822 0.065106012 46.480263
-22.746199 -9.652771 46.509567
-11.581286 -4.1117339 46.583042
-3.2845249 -0.27059841 46.595207
-0.54384732 -10.507157 46.687393
-2.3290544 -10.104809 46.661598
12.794044 -9.8094635 46.696487
-11.740818 -4.4609518 46.631927
-5.7777839 -2.7176914 46.606358
-5.758347 -2.3438749 46.630013
-3.2050467 -9.9247417 46.701115
-15.958199 -5.7243204 46.716221
-10.934247 -0.1211651 46.791771
4.400444 0.094228856 46.771442
4.3136168 -10.087564 46.814247
-14.898751 -3.4991314 46.838337
-5.3107805 -1.5650393 46.810776
5.774838 -0.30857486 46.853798
-2.0076804 -10.554749 46.944569
12.903581 -9.216814 46.972755
8.0905027 -6.3153267 46.940567
-13.23922 -5.0432563 46.990753
-15.058945 -4.725925 46.913143
-10.58146 -4.1186476 46.923985
-5.875946 -2.8248339 46.977837
-8.654892 -0.52173483 46.979492
5.3928785 -0.011861265 46.925236
1.5384361 -10.365416 47.057625
12.350126 -9.7317448 47.004059
5.4181013 -9.6769552 47.013813
-14.41469 -3.3966746 47.068474
0.85712707 -10.783796 47.196732
11.405775 -10.454661 47.113579
-5.7337413 -8.3194656 47.175072
-8.2731724 -3.8186276 47.105774
12.174508 -11.702529 47.207523
-1.1323662 -10.725922 47.296425
7.2589159 -10.734991 47.294746
8.402338 -3.6258659 47.288376
8.2281113 -2.2697532 47.23468
-0.4574129 0.13811959 47.210163
4.7592721 -10.161019 47.304405
6.6364703 -9.1742239 47.333347
-11.884716 -4.0962067 47.315845
-12.179037 -3.8233705 47.376373
0.045793742 0.1569854 47.398785
1.819489 -10.781475 47.453827
11.567233 -10.236755 47.438572
11.460281 -10.114476 47.454033
-4.7568998 -9.5507975 47.457436
6.0774794 -9.4934721 47.491749
8.0798903 -6.4577522 47.47052
-3.3177931 -0.03266719 47.413494
3.9569533 -10.246851 47.507656
5.4206662 -9.7070236 47.524426
8.4259977 -5.4386187 47.585621
4.5782046 0.17309307 47.559891
6.6924434 -10.998955 47.618916
-2.4772243 -10.431716 47.653423
8.5327301 -4.5571218 47.668434
-0.86382985 -10.305676 47.749969
0.1532848 -10.312737 47.764889
11.05062 -10.238697 47.779186
-4.298831 -9.0099497 47.761551
10.837776 -8.8478661 47.781128
11.527527 -8.4472408 47.789036
11.754822 -8.44559 47.700588
-12.493574 -3.5345278 47.718739
7.9215918 -1.3141323 47.786705
-1.7022135 0.19634846 47.79229
-3.3130798 -10.174244 47.883282
-3.8581936 -9.2854509 47.810257
11.917654 -7.7437363 47.889637
-5.987359 -5.8302107 47.8451
8.292779 -2.0300066 47.841179
-12.55288 -1.5467843 47.848713
-2.165581 0.20427498 47.871525
5.2871833 -11.16543 47.956482
11.669724 -10.159452 47.905781
11.504891 -8.1228867 47.914749
-5.8309264 -6.3173032 47.903938
6.6068144 -0.53786576 47.957291
6.2820673 -9.3221512 48.069473
6.7548785 -9.091774 48.052757
11.991379 -8.8736134 48.008022
10.923868 -8.1681814 48.055508
12.236578 -7.257647 48.038265
-6.1084571 -5.4960246 48.0098
-1.7246187 -10.761162 48.105068
-3.5771792 -9.8860769 48.180027
7.0861635 -9.2287073 48.161324
12.087168 -8.5434408 48.107449
8.525362 -3.2058134 48.181957
13.946407 -11.653754 48.257954
11.521008 -7.1928434 48.243473
3.2191157 -10.781384 48.337467
10.5338 -10.151011 48.375969
6.1161561 -9.5316868 48.348076
7.6834793 -7.8337064 48.340118
8.2978182 -5.9781089 48.320625
-7.9799948 -0.47179648 48.325371
2.613637 -10.807917 48.493835
11.969478 -9.500864 48.469788
0.091710091 0.25943938 48.423073
5.6756434 0.26079568 48.436714
14.044832 -11.434763 48.584454
6.478301 -9.3530922 48.516079
-5.8309574 -8.9286489 48.524078
-5.6586185 -8.2966013 48.5159
9.397481 -7.9895353 48.551113
9.5587177 -7.414259 48.596424
8.2762384 -4.8959441 48.50964
-6.2500682 -2.7728703 48.520561
8.3193846 -1.6413765 48.542114
-7.3751111 -0.69388318 48.54789
-9.3276949 -0.2242284 48.500683
-2.8333817 0.27167106 48.545307
11.369594 -11.829994 48.63559
10.423531 -10.220065 48.69664
6.7468376 -9.2186003 48.610527
-5.6289749 -4.1004252 48.61039
2.1834788 -10.955794 48.718227
7.5618834 -3.9016984 48.776508
8.2640238 -1.3807402 48.739304
-9.6435432 -0.45039356 48.750942
-2.7517509 -10.580094 48.852108
2.0877416 -10.299192 48.837349
2.5987899 -10.281151 48.836926
-4.9913292 -9.8318348 48.872238
9.0120773 -7.5559292 48.833111
-5.2646484 -5.1727023 48.897289
13.72715 -11.791703 48.947418
11.683232 -11.362166 48.9319
5.375185 -10.875486 48.937141
-5.1064768 -9.7224798 48.96563
9.2502108 -8.3071537 48.993523
13.153869 -7.4359856 48.930691
-10.880362 -4.5739303 48.986168
7.3203058 -0.56329638 48.996605
-7.8031516 -0.41418043 48.933426
-0.067755103 0.3124806 48.953346
11.555829 -11.974587 49.043175
0.18421516 -10.90147 49.051788
0.26303852 -10.906789 49.03688
2.1378274 -10.291048 49.079697
6.9347968 -8.9695873 49.055462
9.4474154 -8.6675777 49.020271
-5.265429 -4.5732098 49.028473
-5.0547667 -3.2847767 49.05661
-11.617097 -2.6288409 49.075962
-11.654462 -1.5214564 49.059803
-8.5506907 -0.17204902 49.084484
11.342528 -12.072384 49.148388
5.4566188 -11.011762 49.18808
8.4716635 -6.9776306 49.164818
-9.5558872 -5.2586517 49.143127
7.4772806 -4.7536645 49.156601
-5.1354728 -8.6983156 49.222206
-7.172452 -4.8550797 49.234268
10.3403 -11.1782 49.349327
7.7799215 -5.1932845 49.308693
8.9971485 -4.3792453 49.342522
7.5116739 -2.1587903 49.304596
12.07747 -12.064111 49.460537
-2.8487668 -10.369766 49.479626
-3.197876 -10.254535 49.472054
9.9748707 -10.032616 49.425598
9.9371557 -9.9885235 49.448257
13.573665 -9.653409 49.496971
-5.8343883 -5.958077 49.449924
-5.2159843 -5.5244026 49.433876
10.549134 -4.5400834 49.484364
12.36019 -10.99566 49.58519
0.49008408 -10.759424 49.574043
10.026006 -10.282721 49.574005
14.161052 -10.186829 49.536644
-5.8610048 -6.082387 49.568283
8.3039827 -3.7306879 49.511295
-5.5779009 -0.81046247 49.553013
7.9676943 -2.7773733 49.671028
6.002593 -11.252493 49.716316
13.810085 -11.117066 49.729263
-5.2681379 -9.1988297 49.712391
-5.6040912 -9.0289526 49.728245
9.0167465 -8.6849213 49.786964
8.0835361 -6.9714599 49.79871
7.4414926 -5.8440514 49.701153
-10.667274 -4.5740538 49.759686
9.3478212 -3.3066728 49.793304
-9.9908161 -0.96490347 49.703033
12.421955 -11.730721 49.863846
-0.12673253 -10.661656 49.890907
2.377049 -10.663918 49.817772
10.839481 -8.3434038 49.833645
-4.9893055 -0.23267332 49.869534
-4.2683797 0.14389798 49.860725
-0.83832443 0.39880106 49.816326
4.1388068 0.39726293 49.801022
-1.6933782 -10.439918 49.928745
2.2328179 -10.196009 49.966965
7.797874 -7.8574896 49.939392
-8.6612215 -5.5809379 49.924217
8.0642052 -1.8998666 49.985897
12.058566 -11.981948 50.039242
3.830801 -10.124525 50.035149
-3.5253367 -9.5802717 50.044086
-10.812749 -3.0601535 50.080807
12.949234 -11.245072 50.112068
7.1669512 -8.9169407 50.143963
-10.48975 -4.6239595 50.197906
0.42602447 0.64446205 50.194862
1.2739916 0.60643423 50.135284
10.506155 -10.92599 50.219891
-0.29371041 -10.150259 50.205776
13.11183 -7.6746507 50.243744
12.703115 -10.953027 50.378975
0.48693416 0.65976155 50.347687
10.996614 -11.061721 50.436287
9.7180576 -8.5957088 50.456429
-7.3764019 -5.7372198 50.419083
-9.0487127 -0.92268652 50.480526
-7.3935409 -0.31358176 50.40493
9.1701565 -10.970314 50.599129
-5.3913088 -0.50825214 50.547615
11.279545 -11.069046 50.668484
-10.408342 -2.9662447 50.615379
4.8020468 0.67798376 50.604748
-2.8443406 -9.6950369 50.768044
-4.8092194 -8.8803806 50.794899
-10.203821 -1.4531171 50.738464
12.491334 -10.000438 50.808037
11.209564 -8.3455172 50.812397
13.046848 -7.9994216 50.816467
-10.08405 -1.4419785 50.822708
11.029146 -11.884996 50.972553
11.104531 -11.745811 50.983158
9.0011148 -11.287537 50.911858
0.96172261 -10.410784 51.088123
5.0491204 -10.052393 51.077553
7.3103428 -8.3384371 51.08699
5.1180887 0.63493687 51.051857
-3.8123038 0.46091694 51.170525
1.9498351 0.73598045 51.109032
2.8101745 -10.332699 51.242126
11.008295 -8.6937675 51.276318
10.910207 -3.8332179 51.219482
2.4573069 -10.314616 51.338577
12.152094 -9.6764412 51.334698
-8.7150669 -1.1783254 51.386967
8.2494392 -8.6734905 51.464558
10.415155 -11.776413 51.556618
5.8803844 -9.3423605 51.513721
-7.8671632 -0.95317018 51.554752
-4.2625866 0.16450691 51.540844
12.794434 -8.6229649 51.686718
8.065033 -8.1105337 51.650986
-9.4919825 -4.2757931 51.69696
-7.7465506 -0.93992126 51.622379
10.842454 -9.2479496 51.712875
8.014246 -9.1901188 51.721737
10.401847 -8.4865751 51.710827
11.74329 -5.4167328 51.789642
9.2394447 -11.781713 51.81987
7.7939668 -10.421078 51.822922
-2.7297618 -9.8973904 51.899391
7.9628506 -9.089592 51.873535
9.3923817 -2.4098122 51.886154
10.354405 -9.7523479 51.996986
10.058433 -9.8103113 52.064224
8.0932684 -7.8556118 52.014038
-9.2523069 -4.0081158 52.059574
10.03114 -2.8426638 52.028465
-1.263669 -10.046412 52.11977
-3.3094063 -9.7586498 52.168484
8.1599102 -7.869936 52.183086
8.3286295 -11.54873 52.271576
10.405355 -10.679272 52.268143
11.962998 -6.3380876 52.28241
-9.2216043 -2.6573486 52.249435
1.7003419 -10.023691 52.373398
10.4804 -9.816946 52.367611
-3.3873878 -9.626811 52.30616
-3.7077427 -9.1566477 52.398109
-1.5179602 -9.933567 52.450111
-1.2147268 -9.9513607 52.423733
-0.71855801 -9.9390612 52.497173
4.0457339 -9.8969173 52.479458
10.139299 -9.4397621 52.417202
-8.6633787 -4.9578457 52.438469
2.4124165 0.5972715 52.476555
7.3568172 -10.987961 52.524662
-1.2784117 0.52925634 52.52116
7.1926894 -10.855663 52.642414
-2.8966656 -9.6371822 52.658241
5.7955775 -9.0887623 52.665138
-5.6049948 -8.0715895 52.603966
11.169846 -5.265317 52.734222
1.1676003 0.5900616 52.885315
8.9968491 -8.4654665 52.901764
10.556204 -3.9442654 52.927338
-4.5060258 -0.19504446 52.935944
5.7659941 -8.9692545 53.089176
9.1665678 -8.9811373 53.040707
8.3823433 -7.8258839 53.007645
11.563443 -7.1690388 53.099743
11.537333 -6.3111382 53.068161
-8.5278006 -4.5291724 53.01083
3.9067636 -9.4662275 53.279728
4.0910115 0.3624112 53.256081
6.881299 -8.8102932 53.370739
7.839901 -7.2467575 53.313381
-5.5969334 -1.0797094 53.349335
7.76441 -0.70749348 53.377991
5.9754729 0.14363754 53.368626
-3.3976805 -9.0469532 53.403549
8.7381229 -1.3371675 53.443962
7.025382 -0.42206514 53.477341
6.4423666 -9.1466732 53.585896
10.215075 -7.5544724 53.507614
-6.0339026 -1.1980758 53.509964
-2.4075484 0.21513164 53.588638
5.0163732 0.2013267 53.529011
8.470685 -7.3677855 53.629551
4.3183928 -9.1584768 53.729317
10.86433 -5.6946836 53.742397
-0.50380003 0.35774595 53.746468
2.3353171 0.38453376 53.737755
6.0314407 -9.8809919 53.809502
-2.4795411 -9.0292492 53.847214
8.530714 -7.2222061 53.864693
8.7188835 -1.8678547 53.81337
6.472106 -0.30368632 53.895409
8.0995712 -11.078674 53.914902
-0.4598864 -9.1874485 53.918518
8.4167624 -7.1239758 53.91927
10.977634 -6.1392908 53.962746
0.31635499 -8.9441137 54.045452
-2.6448591 -8.8752117 54.084877
2.2262368 -8.5470152 54.193451
10.114467 -6.6472807 54.139019
9.4935675 -3.4756389 54.15078
5.8060799 -0.037645072 54.173698
-2.4381499 0.083295919 54.110836
3.294951 -8.4350424 54.229099
7.9636092 -6.8629894 54.213337
-6.3819704 -5.6887593 54.269997
10.009586 -4.3419747 54.205048
-7.1710162 -1.8561873 54.227333
5.9665203 -9.0241051 54.373707
1.0877644 -8.4340878 54.35125
-1.1534975 -8.2926025 54.363903
8.82971 -1.5858655 54.349403
-0.56156635 0.20231071 54.39817
6.0774589 -11.227454 54.406403
4.307694 -8.0126305 54.543617
6.6590471 -7.3178225 54.584251
6.1252136 -8.9138365 54.600601
4.3524437 -7.9172072 54.630402
7.5586071 -6.5602288 54.698418
-6.5341172 -5.6921244 54.600609
-5.561882 -1.3386375 54.60944
-5.1367922 -1.0197344 54.616287
-5.0516934 -0.9343375 54.603256
-3.1929846 -0.12024428 54.626694
2.0895674 -7.9149985 54.786331
3.2939229 -7.9654398 54.700661
-6.6734428 -2.2265403 54.762421
-2.1263378 -0.039045036 54.735043
-2.0024896 -0.040607288 54.792206
4.8479481 -0.086813517 54.767181
5.5904613 -10.144836 54.840462
5.8105516 -7.2879853 54.870728
3.463048 -0.054314476 54.941399
-5.7897654 -6.3126812 55.083759
9.5721979 -5.2358875 55.045319
2.3351941 -0.022519769 55.030533
0.70532572 0.1203532 55.029694
-0.017626494 -7.5447741 55.141533
8.3423615 -5.6153698 55.132339
0.45967287 -0.12058751 55.191196
5.3964319 -10.295485 55.312847
-2.8777993 -6.7797809 55.341656
6.7029061 -10.465412 55.476616
-6.2697229 -4.8662171 55.452065
8.1456566 -2.8070149 55.479805
6.5383453 -1.5587091 55.403423
5.2308154 -0.76870358 55.450691
3.3918228 -0.50986242 55.417313
6.3990541 -8.3132753 55.532986
-0.50829566 -7.2519269 55.553505
4.1678638 -6.8814335 55.528248
-5.5440893 -5.0066538 55.575409
-6.0647306 -4.4542494 55.573494
-2.9689128 -0.69050413 55.561409
2.9623907 -0.52629179 55.510548
6.8568115 -5.9953403 55.641399
8.3558197 -5.2000041 55.635849
7.0051289 -2.2505903 55.644936
-2.7869983 -6.5904398 55.704514
3.4280732 -6.4741473 55.731606
-3.9309649 -6.1420913 55.761604
8.6440859 -4.5288143 55.738792
8.8270731 -4.0395069 55.763432
-4.7142639 -2.4071608 55.760902
-4.7146525 -2.3772829 55.741844
-2.2103615 -0.69132906 55.732204
-0.63942754 -0.53792214 55.777065
6.1823268 -11.071634 55.841919
