# .PCD v0.7 - Point Cloud Data file format
VERSION 0.7
FIELDS x y z
SIZE 4 4 4
TYPE F F F
COUNT 1 1 1
WIDTH 256
HEIGHT 1
VIEWPOINT 0 0 0 1 0 0 0
POINTS 256
DATA ascii
0.069491372 -0.21414378 0.07439594
0.10078512 -0.21900725 0.097715601
0.071135163 -0.14908156 0.046776202
0.10055375 -0.11899958 0.085472666
0.051617708 -0.066548795 0.045807723
0.10125426 -0.085478202 0.079413027
-0.10368232 0.09220916 0.089316651
-0.040836524 0.064328447 0.088805817
0.052522361 0.048768274 0.093993112
0.12400384 0.038993455 0.095797844
-0.11555084 0.15963295 0.092924766
-0.019605372 0.14720386 0.059856225
0.027470961 0.14388192 0.059995014
-0.11212266 0.20609619 0.091652624
-0.029453052 0.25757471 0.041474707
0.038808122 0.26885295 0.065193206
0.01984185 0.3096242 0.048328485
0.064166732 -0.21122561 0.11816799
0.053286102 -0.149453 0.14138342
0.12663707 -0.16421399 0.15139075
0.043745518 -0.04471099 0.13641931
0.16248488 -0.048262544 0.12210415
-0.046446178 0.067932583 0.15499809
0.030628784 0.045083769 0.14849062
0.13840024 0.029053127 0.14373165
-0.11585009 0.13880378 0.15024771
-0.039844617 0.17306219 0.13109453
0.038388178 0.13856113 0.147835
-0.11045343 0.22277805 0.14482473
-0.053474884 0.24437675 0.14083768
0.033320323 0.25216091 0.14153402
-0.04578837 0.32208627 0.14779246
0.030469514 0.32706818 0.14756726
0.054538898 -0.16120797 0.24186333
0.12932083 -0.149454 0.25099033
0.021073068 -0.05374451 0.23434649
0.1656516 -0.052759849 0.24123612
-0.042008232 0.06923867 0.26193523
0.046261817 0.056891456 0.2468112
0.13428372 0.029597124 0.24739429
-0.10854028 0.15927474 0.25992715
0.045249276 0.14335573 0.25356072
-0.10666521 0.20572859 0.22971651
-0.070948221 0.26827669 0.25837764
0.038923416 0.2386003 0.25090671
-0.038431298 0.31242549 0.23191305
0.03000153 0.31650797 0.24784608
0.048534352 -0.14417422 0.3403922
0.11133597 -0.15118891 0.32858017
0.025825402 -0.069704354 0.33389631
0.16365173 -0.035446264 0.35143098
-0.038265873 0.064300276 0.3567048
0.024976866 0.049609687 0.34219539
0.14035626 0.020147573 0.32968333
-0.1055661 0.15166096 0.3581242
0.043640949 0.14126614 0.3461768
-0.10347744 0.20960502 0.36137238
-0.053215783 0.26227105 0.36101809
0.026400045 0.25975126 0.36178476
-0.028575324 0.46175539 0.38621411
0.053512707 0.45047134 0.37873858
0.14386643 0.41589662 0.38838783
0.051892072 -0.1359168 0.45850015
0.1294772 -0.12100117 0.42842108
0.02210528 -0.034515396 0.45167992
0.15744595 -0.031906832 0.46460816
-0.051051527 0.072741322 0.45846403
0.034080029 0.054143164 0.44626218
0.12877063 0.024356445 0.42675591
-0.10326885 0.15135966 0.44130144
-0.093121424 0.10123178 0.44890207
0.041510884 0.13143624 0.44075567
-0.058953296 0.2398771 0.44005191
0.021356042 0.25979355 0.43516731
0.09015169 0.38070077 0.48840767
0.1315489 0.38770887 0.46381444
-0.027441761 0.44304702 0.41895157
0.031772811 0.42888975 0.45981702
0.14099114 0.40446386 0.42577648
0.045478355 -0.12055951 0.55592722
0.11899295 -0.11521036 0.5347867
0.025313161 -0.07447502 0.54732394
0.15953057 -0.043032274 0.53575402
-0.051034193 0.072018206 0.54449934
0.048722573 0.046124361 0.5704667
0.11394435 0.022612676 0.54042947
-0.24301343 0.15400241 0.58577102
-0.1024036 0.15031639 0.5291025
-0.085943587 0.16242486 0.55481464
0.035925899 0.17074312 0.53405237
-0.038854685 0.22399607 0.53358662
0.024413386 0.23523004 0.5376007
-0.037628539 0.37676296 0.57000124
0.065393478 0.36785915 0.5571875
0.12927748 0.35759908 0.54659194
-0.035764586 0.4039464 0.51927269
0.020926038 0.40806723 0.52308542
0.061923623 -0.1110138 0.63988668
0.0221364 -0.062340975 0.65943307
0.1551877 -0.039617337 0.65737671
0.23548643 -0.032237928 0.66416138
-0.23208909 0.082578905 0.67173243
-0.030450445 0.040635888 0.64939332
0.039464977 0.055259023 0.63482171
0.13561203 0.047859125 0.64939791
0.22478874 0.048516668 0.66558594
-0.23644035 0.14842109 0.64266497
-0.088886574 0.16468562 0.64634955
0.045595706 0.13505381 0.65284514
0.16981122 0.11207252 0.6932056
-0.23522609 0.24172084 0.65627021
-0.029596472 0.21529302 0.64371634
0.015682848 0.2159189 0.68346512
-0.033576127 0.34125251 0.66380662
0.046403412 0.34161493 0.64537394
0.12228417 0.31614643 0.6551131
0.044547953 -0.068221867 0.74683523
0.13830593 -0.045442283 0.75378704
-0.21444924 0.046050243 0.75788224
-0.19953451 0.087208182 0.79290032
-0.02730622 0.023112614 0.76275074
0.043678731 0.065407805 0.73849279
0.14805657 0.044606533 0.74591225
0.23265414 0.07035616 0.7489019
-0.21391803 0.14476 0.74871826
-0.13506371 0.15315901 0.76052475
-0.075318009 0.16849419 0.7575736
0.046745457 0.14837199 0.73674554
0.16679047 0.11996362 0.74500346
0.2149502 0.10921355 0.75628167
-0.22021258 0.23433809 0.71795273
-0.18403503 0.230831 0.77468485
-0.044678856 0.24019845 0.77893287
0.079358302 0.28941908 0.76426917
0.11991685 0.28471112 0.75449419
-0.036222383 0.31744042 0.71985263
0.034110967 0.31565499 0.7354821
-0.21630232 -0.1211268 0.86424899
-0.21731158 -0.070359245 0.86638725
-0.16839431 -0.041575864 0.86164433
0.039373763 -0.047193322 0.83694601
0.13720019 -0.027180819 0.86973101
-0.20482258 0.067823775 0.80894351
-0.17870146 0.036170263 0.85079038
-0.07494767 0.057182111 0.85442406
0.00046514207 0.0047819447 0.80138397
0.16164485 0.052925169 0.83739799
-0.20319033 0.14913714 0.80964458
-0.16680607 0.14054383 0.85733217
-0.073139913 0.15480144 0.87422484
0.038971644 0.1720181 0.83352327
0.15546538 0.13751051 0.85906899
0.24296574 0.1424633 0.8477146
-0.16973707 0.22333209 0.80025655
-0.041180249 0.2631084 0.84805989
0.05027546 0.27460137 0.84882742
0.12199618 0.25545791 0.85843486
-0.22468436 -0.10024432 0.92674375
-0.20942962 -0.044760551 0.94468474
-0.164524 -0.048600994 0.95200217
0.041668121 -0.022411948 0.95144111
0.11697824 -0.031121803 0.92696363
-0.15114023 0.04993625 0.94658375
-0.073065348 0.038629755 0.9428094
0.15428255 0.037188794 0.93885356
-0.13611446 0.11533339 0.92514145
-0.056778029 0.17976484 0.93212986
0.049745824 0.17258675 0.93135625
0.15028232 0.15387145 0.94569111
0.24323517 0.16591136 0.94845891
-0.034414761 0.23651437 0.95203859
0.042006377 0.24280095 0.95083553
0.11466055 0.22745937 0.96300101
0.23233151 0.2134645 0.97550732
-0.20719455 -0.012082428 1.0009046
-0.16848846 -0.037121549 1.0361183
-0.0086022997 -0.01586882 1.0990582
0.050175909 -0.013116229 1.0443007
-0.136075 0.0291686 1.0589114
-0.052268151 0.032522719 1.0583621
0.092728928 0.0045884503 1.076911
0.1352254 0.058648214 1.0687679
-0.10619938 0.1109782 1.0150602
-0.047992099 0.14161558 1.0398352
0.065882683 0.13573131 1.0560716
0.15698618 0.16754514 1.0559058
0.22390281 0.16977817 1.0396044
-0.043939978 0.21396409 1.0477577
0.045831159 0.22490321 1.0492715
0.1236796 0.21745339 1.0646645
0.22696365 0.21495706 1.0363314
-0.17764157 -0.0027128765 1.1473072
-0.025698179 -0.021231491 1.1566792
0.055945974 -0.023508996 1.1391162
0.10972657 -0.0095463218 1.1701032
-0.13320333 0.020084662 1.1362067
-0.067925863 0.053038567 1.1473504
0.12668864 0.040890414 1.1459845
-0.045478936 0.13172632 1.1467524
0.079699285 0.14101022 1.1554173
0.13924386 0.16073921 1.1487683
0.21800406 0.17862374 1.150187
-0.017398605 0.21067521 1.1539347
0.050064098 0.2102287 1.1562027
0.13389994 0.2105968 1.124326
0.21283373 0.22465533 1.1375777
-0.035459101 -0.035181075 1.2481152
0.041913923 -0.036844879 1.2558753
0.12225739 -0.027384162 1.2421392
-0.13627678 0.03905068 1.2500291
-0.087461427 0.030124718 1.2419698
0.14728162 0.052616552 1.2533677
-0.037889339 0.16021775 1.2612863
0.04832904 0.16296326 1.2582773
0.14787216 0.15434721 1.2611101
0.20994528 0.16548339 1.2441267
-0.024372099 0.20343198 1.211545
0.03530518 0.20634048 1.2273191
0.18584831 0.20409186 1.2407832
-0.034241844 -0.025933884 1.3079776
0.038121916 -0.014325639 1.3406626
0.12088663 -0.021078123 1.3053677
-0.13423407 0.039095737 1.3635055
-0.074127458 0.013722466 1.3460124
0.054716844 0.005946619 1.3804582
0.16629465 0.044368062 1.3675691
0.20987375 0.082828663 1.3656389
-0.041034553 0.15180345 1.3331071
0.058700573 0.16536345 1.3316036
0.13208869 0.14161971 1.3306977
0.20851624 0.12713102 1.3486683
0.015623977 -0.027599499 1.495706
-0.12966427 0.081062667 1.4199814
-0.046998229 0.038360648 1.437018
0.061901093 0.031734873 1.4485341
0.14806822 0.061069287 1.428322
-0.12581122 0.10344435 1.4062717
-0.039336525 0.13256814 1.4154009
0.058221601 0.12999098 1.4323249
0.14021511 0.12226574 1.426281
-0.011547809 -0.02032119 1.5400077
0.047626186 -0.044006024 1.5472835
-0.018086238 0.043402947 1.5550457
0.079277828 0.048479401 1.5343981
0.10275444 0.066512972 1.5821731
0.061641999 0.11865251 1.5747176
-0.016862692 -0.016531225 1.6293707
0.040869702 -0.039115675 1.6291618
-0.020432888 0.053504612 1.6596818
0.070279822 0.051135421 1.6919137
0.11268441 0.066703387 1.6348623
-0.004994452 0.12180807 1.6594646
0.046818107 0.14045174 1.6632792
0.10653543 0.11178833 1.619491
0.025889965 0.060294237 1.7088603
0.03599719 0.1349341 1.7128141
