# .PCD v0.7 - Point Cloud Data file format
VERSION 0.7
FIELDS x y z
SIZE 4 4 4
TYPE F F F
COUNT 1 1 1
WIDTH 1592
HEIGHT 1
VIEWPOINT 0 0 0 1 0 0 0
POINTS 1592
DATA ascii
12.898033 247.44794 -17.204838
11.213116 255.36536 -17.261028
29.962437 233.90228 -17.141626
27.588398 240.72235 -17.102139
14.687305 248.03864 -17.141087
8.8232288 250.86746 -17.154312
10.824013 252.14752 -17.106583
11.218479 252.17633 -17.182564
14.054612 255.06378 -17.148575
27.002918 233.8978 -17.089212
29.810984 234.45319 -17.00036
8.704174 253.16095 -17.097534
27.064373 238.90778 -16.966703
13.16728 248.74791 -16.95834
30.103861 235.10092 -16.846287
30.454212 238.43604 -16.853237
26.427805 238.69852 -16.858953
10.829285 248.06834 -16.866858
8.9974461 249.09018 -16.869043
27.572933 238.48047 -16.736664
8.8813992 249.58081 -16.714365
8.9292507 253.0925 -16.710356
9.4316902 248.53682 -16.620411
29.835205 233.95346 -16.591246
23.884439 239.32959 -16.562677
23.925417 239.47542 -16.534084
8.6597795 251.00865 -16.594212
9.3240643 252.07298 -16.582005
12.433288 252.21539 -16.512508
8.7748337 252.89838 -16.583511
12.086093 255.46162 -16.586159
24.251534 236.23549 -16.429178
24.903488 234.20312 -16.347044
29.500168 235.96825 -16.391279
24.056791 236.59349 -16.224733
27.437864 238.09161 -16.234941
11.494866 247.17833 -16.128294
12.828217 247.82932 -16.179371
15.166545 248.05707 -16.178118
8.7612972 252.64697 -16.190798
13.216187 246.48341 -16.008875
23.696476 237.7363 -15.961706
10.417755 247.71527 -15.912962
29.50201 239.27921 -15.887627
14.626756 246.91426 -15.868032
28.171673 233.51619 -15.787464
26.308939 233.67838 -15.730984
25.937565 233.67245 -15.612688
23.62624 238.75961 -15.639277
15.087523 247.38498 -15.640311
15.463978 251.59497 -15.634194
15.44761 251.30957 -15.50936
15.483147 252.27534 -15.550522
9.9861088 253.16595 -15.501457
28.51894 233.69281 -15.409823
23.515255 237.71008 -15.435978
8.3390026 251.21817 -15.303518
13.728405 252.17593 -15.339074
14.030498 253.85028 -15.325855
14.259195 253.81731 -15.382658
9.7373514 252.85605 -15.290045
10.577886 246.83005 -15.180738
12.384632 253.30849 -15.153761
30.040779 234.9064 -15.051072
10.175685 246.84068 -15.00948
27.952433 235.99333 -14.953145
14.32235 251.13681 -14.970895
10.919452 253.6557 -14.955701
26.925308 240.88893 -14.828552
23.961987 235.21033 -14.777462
29.795109 239.10812 -14.764929
14.728523 247.45935 -14.795792
14.071346 248.4805 -14.725398
26.158388 240.6523 -14.645426
10.483887 246.4149 -14.606825
14.127562 248.77014 -14.680407
8.4678087 249.87886 -14.68958
14.442907 251.0206 -14.677077
14.348896 252.21613 -14.622949
9.8803549 252.57266 -14.613517
27.916323 234.8161 -14.575762
12.52632 253.81711 -14.502175
24.294788 234.0029 -14.462185
30.410603 238.47006 -14.431499
14.471006 247.40338 -14.481645
10.099745 252.63835 -14.406658
13.99448 252.69154 -14.428756
12.910907 253.47601 -14.404388
13.98068 246.58099 -14.359028
8.6271772 248.83865 -14.37533
14.511729 252.44058 -14.310333
10.006624 252.70061 -14.338881
14.299451 248.05267 -14.22535
8.2975636 250.37474 -14.22109
13.910657 251.84865 -14.210258
10.035921 252.63309 -14.162111
10.359197 252.68774 -14.101221
14.09514 246.60504 -14.09407
8.4560652 249.3244 -14.065975
14.816114 251.72556 -14.037241
10.370339 245.86513 -13.940696
14.670164 250.27667 -13.990234
9.3300123 251.78767 -13.989879
23.872227 234.32706 -13.826707
10.281238 252.27615 -13.860732
10.433126 252.2796 -13.83576
25.838017 240.60381 -13.766964
14.415712 247.9106 -13.744501
24.979704 233.35115 -13.677671
8.585331 248.7126 -13.681279
8.8368225 251.63507 -13.649534
14.856159 250.00977 -13.514729
10.509926 251.53618 -13.528374
27.590561 233.1902 -13.455154
24.007057 233.8745 -13.459324
9.6713734 245.7623 -13.324503
14.771486 248.75319 -13.364694
13.076471 253.18417 -13.335379
28.518562 240.2684 -13.215309
26.908051 240.97809 -13.20549
13.454926 249.35101 -13.249136
27.534557 233.14612 -13.194948
26.507484 240.8521 -13.151081
10.233736 245.30765 -13.129621
14.716507 247.83823 -13.136633
15.162127 251.7402 -13.172769
12.499557 249.98038 -13.031889
11.91331 250.64233 -13.077332
24.31818 240.30792 -12.923922
12.789122 247.20349 -12.888809
14.742817 247.21902 -12.859522
9.968008 251.94946 -12.841267
9.9195156 249.28316 -12.7805
8.5912657 250.91585 -12.710023
27.21965 232.98415 -12.570352
29.846478 234.13643 -12.564741
30.037827 234.67227 -12.54714
22.758013 236.83447 -12.561386
28.19717 240.63515 -12.568682
9.3117685 245.32663 -12.515566
15.283079 250.05865 -12.590892
14.169632 244.65723 -12.416397
11.043015 248.54459 -12.447653
15.360696 250.5502 -12.448315
26.256344 240.8385 -12.370537
27.528343 241.23257 -12.368645
11.062677 247.22681 -12.285196
15.273273 250.96976 -12.27613
28.227325 240.67422 -12.128422
8.0583735 249.54984 -12.191309
8.976347 250.98169 -12.174562
14.942131 251.71223 -12.116014
25.90653 232.77744 -12.006474
10.518744 244.34802 -12.089794
27.13118 232.86925 -11.717386
15.221608 251.13556 -11.787709
13.620289 243.42502 -11.535154
14.700327 244.16461 -11.597672
9.372448 244.51343 -11.502159
8.6661139 245.56473 -11.493751
11.887059 243.08281 -11.335115
15.04645 244.72444 -11.361092
23.414461 233.78683 -11.180567
13.727158 251.71545 -11.141548
10.867546 243.38278 -11.07507
23.516422 239.9162 -10.892683
8.5251017 245.75073 -10.870294
13.952349 242.77434 -10.662512
10.468548 243.28952 -10.67375
23.442606 233.52829 -10.558595
8.7559042 244.04607 -10.439555
22.77784 235.00565 -10.097961
30.653008 238.34723 -10.036882
26.536633 241.20209 -10.056363
13.545998 241.884 -10.082932
8.6272306 244.31195 -10.004168
8.3460407 245.88925 -10.042238
15.326454 243.79123 -9.9052353
26.014109 232.36905 -9.8620129
29.831112 233.85188 -9.837306
14.97236 242.81248 -9.8164988
15.183639 250.46219 -9.8510876
10.605247 250.98268 -9.8676491
22.647135 237.28563 -9.7316008
25.484631 240.92584 -9.7948427
28.501122 233.09178 -9.6795368
30.67943 236.04953 -9.5214176
14.417887 250.59995 -9.5384007
11.534954 251.51193 -9.5380058
14.285274 241.7869 -9.4472771
8.2734346 245.69763 -9.4799662
12.155932 251.61139 -9.4822702
11.672514 241.66989 -9.3738947
9.3422985 242.87045 -9.3180847
22.702991 237.77426 -9.2187719
15.537943 248.9274 -9.1634121
26.672636 232.46738 -9.0411396
30.405642 238.64787 -8.934761
22.705269 237.72908 -8.7404146
28.469303 240.83493 -8.7078419
28.95273 233.13791 -8.6379395
31.199606 237.79242 -8.6915474
7.8455362 247.98387 -8.6783943
25.137682 231.99522 -8.5874596
15.019101 241.78052 -8.5940771
28.415195 232.94019 -8.4010868
7.8454151 246.90732 -8.4891243
23.991947 240.7222 -8.3550491
11.102632 241.14435 -8.3196716
8.2997494 244.41051 -8.34338
7.7033138 247.53302 -8.3584108
26.024759 232.20644 -8.2491531
13.445044 239.87868 -8.1511974
27.417027 232.57706 -8.0005951
28.051916 232.78543 -8.0229092
23.0215 239.34341 -8.0362339
26.661016 232.33766 -7.8090701
7.716486 247.42094 -7.8485918
30.547779 235.52133 -7.7805882
7.706778 247.38075 -7.7902436
15.379574 241.70766 -7.6197486
22.59141 235.85127 -7.5402904
23.134407 239.89197 -7.5681181
12.386132 250.42015 -7.356988
29.397295 233.15593 -7.2421656
30.22543 234.64346 -7.2047076
11.699322 240.05272 -7.2517719
27.016241 232.37387 -7.1959586
23.130493 233.07439 -7.1189556
8.7068663 241.58165 -7.1503825
30.894417 236.4209 -6.9918485
15.126754 240.48996 -6.9532242
15.992698 243.66824 -6.9947977
15.792377 247.2269 -6.9719534
30.574356 235.56396 -6.8327427
14.98631 249.00705 -6.8065658
27.496763 241.87935 -6.7978597
15.984803 246.24942 -6.7664647
10.72645 249.68697 -6.6753283
29.481731 239.71481 -6.5263247
13.068892 238.8557 -6.4846945
14.199798 238.97574 -6.392621
10.325895 249.18515 -6.317965
23.837721 231.96725 -6.2294092
15.977427 243.47345 -6.2503381
23.419252 232.19841 -6.1726174
29.196009 240.07137 -6.1562872
8.5031099 241.23448 -6.0121288
29.133991 232.99965 -5.9580355
11.210876 249.73433 -5.9237814
12.911509 238.47464 -5.8228254
9.7889462 239.90295 -5.5830908
8.3553486 246.85349 -5.5656166
11.553127 249.8132 -5.5062175
25.413601 231.82423 -5.4454551
7.9639745 243.32364 -5.4012847
8.64571 247.04568 -5.3856668
30.927219 236.46634 -5.1050663
9.8833389 239.46564 -5.0250249
23.675888 232.07504 -4.9286613
22.656631 236.69769 -4.9298868
13.044337 237.95689 -4.9837513
9.1213837 239.80222 -4.9033313
9.2952843 247.42722 -4.909853
30.403978 235.13072 -4.8581181
15.6619 240.39816 -4.8031874
23.972965 227.79564 -4.7484102
24.94965 229.27557 -4.7484102
22.851059 233.4545 -4.7484102
29.468163 233.44101 -4.7484102
28.135704 233.5502 -4.7484102
29.181583 233.86282 -4.7484102
23.576696 235.69177 -4.7484102
30.369411 235.82501 -4.7484102
31.54563 235.9393 -4.7484102
32.309036 236.27802 -4.7484102
22.650848 236.49275 -4.7414088
22.505749 237.13602 -4.7484102
27.182194 237.48717 -4.7484102
22.979254 238.48119 -4.7484102
24.586866 239.3721 -4.7484102
26.541428 239.8291 -4.7484102
21.738773 241.1795 -4.7484102
22.963863 241.29625 -4.7484102
25.631264 241.496 -4.7496929
25.060497 242.28944 -4.7484102
33.686008 242.20032 -4.7484102
32.855839 242.60674 -4.7484102
22.117096 242.97723 -4.7484102
28.99791 244.56876 -4.7484102
29.392933 245.32848 -4.7484102
28.670078 246.41452 -4.7484102
29.228228 246.76096 -4.7484102
30.567545 233.49072 -4.6023936
22.621363 234.06052 -4.6719575
31.291176 237.36676 -4.6013732
28.542645 240.90788 -4.6187201
24.577217 241.29117 -4.6876445
12.905754 237.94229 -4.5573559
12.076086 238.01137 -4.5572109
34.201153 240.91916 -4.547503
7.7652044 243.64046 -4.522974
7.6363444 244.261 -4.5226059
29.309107 232.43115 -4.496758
14.08206 248.31531 -4.4223738
21.613161 240.1622 -4.3543472
24.258112 241.24118 -4.381063
28.170551 241.37946 -4.3387184
15.878269 242.40407 -4.2843523
23.414118 232.38152 -4.1994677
29.465786 233.01736 -4.1063142
30.75824 235.99525 -4.1889191
12.487003 248.88605 -4.1008053
14.139841 229.81845 -4.0830598
15.661282 229.87628 -4.0830598
16.941885 230.00723 -4.0830598
14.319813 230.44748 -4.0830598
25.203503 231.68102 -4.0025477
28.219696 232.59369 -4.0547533
13.421154 232.96942 -4.0830598
14.050659 232.96692 -4.0830598
12.549119 233.19571 -4.0830598
16.974934 233.17862 -4.0830598
17.139465 233.51129 -4.0830598
11.042721 234.98898 -4.0830603
12.911661 235.23004 -4.0830598
16.65625 235.81543 -4.0830598
22.735056 236.01958 -4.026885
11.675092 236.59177 -4.0830598
13.716542 236.88841 -4.0830598
12.260317 237.13083 -4.0830598
8.0822115 238.49597 -4.0830598
14.084248 238.59346 -4.0830598
9.6076155 240.11636 -4.0830598
16.236191 240.34848 -4.0830598
12.190317 240.42311 -4.0830598
6.2164841 240.66084 -4.0830598
13.604348 240.70903 -4.0830598
15.67867 241.57457 -4.0830598
7.3022437 243.15207 -4.0830598
5.3719053 244.2132 -4.0830598
13.981337 244.5881 -4.0830603
5.9299421 244.8709 -4.0830598
7.9025464 245.77757 -4.0830598
14.204162 246.03699 -4.0830598
12.145243 246.31186 -4.0830598
9.0992613 247.28442 -4.0830598
13.157553 247.22163 -4.0830598
8.5878563 248.48729 -4.0830598
13.35108 248.97523 -4.0830598
10.243988 249.38272 -4.0830598
8.1428242 249.42456 -4.0830598
6.8491535 249.95996 -4.0830598
8.5125399 250.14128 -4.0830598
14.209 250.12233 -4.0830598
10.559965 250.244 -4.0830598
14.863822 250.51433 -4.0830598
11.864582 251.45657 -4.0830598
8.8248196 246.47871 -3.9699655
8.1781464 251.1731 -3.9821811
21.644909 238.72913 -3.8384199
8.2974939 240.55804 -3.8040161
15.918597 243.06409 -3.8084812
24.029085 232.2471 -3.7733009
23.186251 238.187 -3.7133768
33.545143 238.20023 -3.7184134
24.137253 241.21262 -3.7812068
15.770615 241.3531 -3.7646565
17.161711 247.20979 -3.7674069
12.315664 230.81203 -3.6375
15.719418 240.86452 -3.6816339
25.716551 247.37889 -3.6647024
16.989733 252.25439 -3.6702321
23.150623 235.30672 -3.544641
30.885679 236.28668 -3.5258083
11.30357 238.20343 -3.511539
15.983724 245.56873 -3.5778928
12.318518 248.7343 -3.5832722
26.831232 229.08733 -3.4577084
8.0551882 241.4061 -3.4482925
11.064848 251.81386 -3.4062409
32.472744 236.02493 -3.304497
21.80018 241.09436 -3.3170719
15.78072 252.38002 -3.3291125
7.6317902 244.9911 -3.2834189
9.0494232 246.29793 -3.2199864
10.877971 248.26987 -3.2737861
23.443876 236.39719 -3.1858318
21.416527 228.0751 -3.0297332
17.284477 236.85544 -3.0423203
11.786925 238.19087 -3.0118132
29.812117 239.60291 -3.0015445
33.638988 242.67911 -3.026787
7.6862941 242.77681 -3.0347497
4.9620094 247.24908 -3.0824604
13.654798 247.87634 -3.045505
30.862463 236.20056 -2.9033525
7.695137 242.68767 -2.979012
21.730911 236.70105 -2.8367772
21.906336 242.14102 -2.8388288
28.155437 246.40787 -2.7538922
10.569326 238.46033 -2.665544
12.407105 248.26039 -2.6097527
30.715277 233.99924 -2.5635517
24.062199 236.8067 -2.54035
9.7136517 238.67181 -2.5728941
24.738888 239.47209 -2.5279036
7.1149726 249.66124 -2.567251
17.185102 237.91724 -2.4143338
23.41048 247.07251 -2.423913
6.313323 249.18306 -2.4062042
30.760077 235.91864 -2.3577697
31.214315 238.20326 -2.3790631
25.167351 239.59808 -2.3894582
7.5182805 242.96443 -2.3282731
9.1869106 245.98978 -2.3948767
24.865938 233.17557 -2.2948892
21.897099 239.12209 -2.2551768
25.870293 228.74738 -2.1787853
27.664219 233.02025 -2.1233802
9.2837124 235.64085 -2.1236546
21.905291 238.94707 -2.16366
28.793346 246.05212 -2.1817911
15.818491 229.57245 -2.0294919
25.933546 232.92282 -2.0440643
8.1017017 236.77707 -2.060385
33.459034 238.65973 -2.014344
24.592257 233.634 -1.9589226
17.034899 242.52061 -1.9628195
15.888327 244.12164 -1.9771768
9.3712759 245.93149 -1.946285
7.2498975 243.7991 -1.8021196
8.636651 249.91916 -1.8905036
12.362366 251.12558 -1.8876444
29.17408 233.97765 -1.7304118
17.13261 236.66612 -1.7818595
16.977566 244.27023 -1.7892337
15.908621 245.03687 -1.7885299
30.862417 237.48305 -1.6331135
15.357735 251.40703 -1.6002091
26.44417 233.34798 -1.5353625
24.896221 234.80312 -1.5542884
6.8833923 248.77768 -1.4286628
25.647589 237.95845 -1.3713931
26.251448 238.50974 -1.3292043
26.735512 238.6756 -1.2110488
22.104792 240.67574 -1.2139574
27.438747 233.82501 -1.1006899
8.3852739 236.70331 -1.141371
11.038722 238.79131 -1.1915057
14.544483 242.03793 -1.1065913
24.263462 247.01294 -1.0688139
16.827507 245.95366 -0.95615673
5.6923876 246.71225 -0.93226421
33.257229 242.38776 -0.84763038
7.3471503 243.58151 -0.81650639
16.921457 240.66953 -0.73749268
33.13026 238.0925 -0.67656362
14.076752 241.77673 -0.67188227
9.9310169 245.90356 -0.66149163
16.962656 237.67482 -0.57384658
27.134014 236.30888 -0.43602511
8.5100737 236.73636 -0.46577203
16.725605 247.50433 -0.48365057
30.51375 234.11403 -0.32422623
12.75928 240.38524 -0.3508586
5.4520855 245.35295 -0.29258484
8.826251 240.87624 -0.12356955
7.9749489 243.86957 -0.18764126
14.608355 246.04494 -0.062795192
16.854052 238.95752 0.092169404
10.192326 240.14291 0.093890026
5.8958731 240.90102 0.0024695396
10.615235 249.18831 0.01583612
16.970638 232.90253 0.15365341
22.073292 233.7563 0.12596762
14.235898 245.61192 0.18054181
14.309052 246.03883 0.12820156
12.27382 246.8172 0.14470482
7.9820991 242.95209 0.21655336
5.4043326 244.02087 0.24633616
13.064043 242.18799 0.36399472
31.24128 235.29092 0.44895917
9.0290194 242.17691 0.47124714
8.4959164 243.43668 0.4161517
8.7251797 243.5435 0.49577826
8.6359444 244.18562 0.44664735
8.3297462 237.15121 0.54777205
7.2679462 238.42889 0.60374671
9.3631763 242.87018 0.6278156
12.76263 243.2989 0.6224755
7.9198737 247.7184 0.64006662
10.792092 241.61012 0.75705713
9.6331911 243.4035 0.7427327
29.181999 245.01186 0.7871812
28.810555 245.11392 0.76321697
6.2510262 246.31126 0.74682194
56.647369 230.88312 0.88748276
16.574234 246.12556 0.87898546
24.72266 228.80258 0.94582391
12.509096 246.15295 0.92537344
53.929146 229.31964 1.0312636
26.53858 229.86732 1.035176
19.658154 232.16016 1.0663257
5.5911908 243.33823 1.0853875
10.373787 245.3356 1.0581667
23.654629 245.75879 1.0299027
53.932556 229.69376 1.1311388
20.22176 230.13976 1.1167784
33.040272 238.82144 1.171977
54.614727 229.96034 1.260059
30.047855 233.91814 1.2995776
16.579041 243.77072 1.2661418
11.706591 246.30687 1.2414417
55.362633 230.784 1.3440484
30.467335 234.39285 1.3574169
33.077377 241.27518 1.3504674
11.556684 246.40071 1.3046546
16.505156 246.49823 1.3210398
-15.829865 230.04262 1.4141217
-18.084721 230.92886 1.4058834
11.108582 234.24939 1.5762546
19.700949 234.45206 1.6493551
7.6011086 238.27055 1.6390519
5.9915352 241.54941 1.6318147
17.151354 239.30611 1.7854044
17.037477 242.50276 1.8221051
9.606781 247.6673 1.8585362
55.48423 230.44127 1.9708047
19.643267 235.89331 1.9542689
16.809296 241.97818 2.0676372
16.514292 242.246 2.0167923
16.850027 244.65948 2.0267334
11.683558 233.68115 2.1139803
-16.740782 230.85672 2.2197685
21.405531 235.09137 2.2774942
21.809399 235.09961 2.2672963
20.701702 235.44864 2.2955861
21.425938 240.98706 2.2820582
21.303791 241.38004 2.2854829
21.280479 244.24342 2.2885389
-15.61783 230.04674 2.3054562
-17.364359 230.49057 2.32513
20.31275 237.46663 2.3071525
7.3839698 238.69089 2.3017998
20.39241 238.75003 2.3062458
16.598866 240.44299 2.3201675
19.869865 243.77577 2.3237791
18.053024 246.09616 2.371686
12.752945 248.13908 2.3322108
12.126724 247.86008 2.5371947
12.566967 247.99469 2.5188377
55.87133 230.51308 2.6491518
-18.302269 232.65686 2.6397007
32.794975 241.43254 2.660768
56.412178 232.19936 2.7859526
10.686661 235.30214 2.7061963
30.953506 235.44273 2.7116928
28.185293 232.45332 2.947459
56.217258 233.28983 2.9498723
27.602068 244.98163 2.9008532
-18.994123 232.92236 3.0008276
13.416471 232.43175 3.1188855
6.9033618 245.86829 3.1073031
24.150885 245.99152 3.1596844
-15.080334 229.95071 3.2856131
27.094551 231.09079 3.2848063
30.274944 234.85132 3.2296352
32.544182 238.40547 3.2257359
54.8153 230.37057 3.3922958
-16.812752 230.28801 3.4545419
9.3305073 236.63562 3.4342346
51.049061 228.88139 3.5213039
-18.51182 232.59244 3.5474713
7.2696924 245.93948 3.5538282
18.927898 230.67657 3.6582425
11.369353 247.40039 3.7280247
50.137939 228.22699 3.8097467
25.025061 229.71738 3.8880968
20.987932 229.81256 3.8380833
26.16263 245.38272 3.8776779
23.881706 246.08557 3.87813
55.440701 234.32008 3.9037898
-15.880711 229.88911 4.0270844
-16.748957 231.47523 4.0833869
29.85235 244.2769 4.0824332
-15.548231 229.13789 4.118948
52.3965 230.78021 4.106822
15.927735 231.32532 4.1916347
21.399807 245.66852 4.1883011
50.824615 229.06464 4.2097406
-15.881019 231.284 4.2831864
56.182831 234.09256 4.2288704
51.952766 230.25835 4.3306904
-15.70063 230.58319 4.3677416
54.695427 232.67859 4.3619628
15.1995 248.32275 4.3386674
51.182556 228.72731 4.4096127
50.305244 229.18178 4.407083
54.034435 229.82796 4.4618216
-16.543453 230.41269 4.427351
7.0527821 239.58322 4.4707198
6.3422914 242.29436 4.4040465
51.172508 228.74261 4.5896463
51.19606 228.73294 4.6793146
-17.036016 231.19876 4.6280622
18.065044 231.15448 4.6353769
26.871851 231.49463 4.6907682
28.496527 233.67052 4.6953883
-11.622263 228.80559 4.811501
54.188377 230.23862 4.8626804
-15.193237 230.31769 4.8086972
53.864506 233.66977 4.883997
29.802002 235.01306 4.8092585
7.2464137 239.07434 4.8298297
-13.893028 230.04877 4.9649677
14.069376 231.98369 4.9322395
-16.385395 230.33009 5.0587134
19.202532 230.57506 5.0469337
55.107376 231.73837 5.0030184
55.773113 233.6347 5.0121622
55.547035 234.25818 5.0564923
49.854858 229.03545 5.1727715
-15.609983 230.35495 5.1974077
51.145866 231.0401 5.1170425
8.2142811 237.94594 5.1365132
55.015598 232.84836 5.2954998
55.541538 234.00237 5.2966361
18.502319 246.92503 5.2001181
19.578705 230.41441 5.3239079
-16.216825 231.95079 5.3084254
7.2672186 245.24944 5.3302593
19.176155 230.58633 5.4347305
-17.279453 232.85959 5.427937
53.702232 234.17644 5.4078732
22.320208 245.34096 5.4577947
24.592535 245.9274 5.4652691
51.146839 231.5192 5.509716
30.951593 236.56799 5.5197506
27.9207 245.03131 5.5298972
52.583527 229.48285 5.6452899
-15.275369 229.79953 5.6660051
49.588654 229.59857 5.8591042
-17.048761 232.07805 5.8452759
21.563534 229.46558 5.967597
11.580544 247.00024 5.9880838
17.581263 231.42958 6.0028343
-15.572659 230.24158 6.1923795
9.3954449 246.14606 6.1772118
13.917004 247.63058 6.2872071
-13.61792 229.45667 6.3991928
54.069542 231.39801 6.45012
20.087044 246.23376 6.49193
-13.830857 232.70918 6.5991898
6.8328438 242.97585 6.5119047
-11.838778 231.20862 6.6395073
8.2302446 238.05881 6.671669
7.3405628 239.74388 6.6361561
8.0998793 238.22293 6.7427812
-14.038265 229.4817 6.8272324
50.494858 233.13788 6.8712711
-14.268898 233.85353 6.8780365
6.8576455 241.48845 6.8804007
13.633356 232.17404 6.9552698
22.486507 245.95552 6.9246154
-15.695893 231.34277 7.0098629
-13.744764 233.69566 7.047214
-12.214449 228.80939 7.1179671
-15.577877 231.24237 7.1869516
9.3558006 236.78366 7.1794462
31.510136 241.94522 7.1414738
49.449486 231.11292 7.2895703
7.3436613 240.00525 7.2012224
18.775074 246.80206 7.2416439
20.699865 229.93567 7.3729811
51.899567 234.49487 7.3568563
13.837622 247.37418 7.3933496
7.6711283 238.97495 7.4267855
27.610132 245.20744 7.4843154
15.904193 247.76953 7.6685867
-12.817563 229.40283 7.7701726
49.63451 231.78859 7.7095346
-15.574792 232.00513 7.7509794
17.289497 247.06001 7.7822847
-10.838263 229.96933 7.8990932
-11.669643 232.42322 7.8398471
7.9072781 238.46777 7.9430542
-12.131796 229.32452 8.0446625
21.177418 229.58023 8.0005207
30.268179 244.05591 8.0887012
16.177948 230.89316 8.1525803
10.734963 246.4223 8.113101
17.080948 246.91205 8.1993227
-14.216796 234.36389 8.2194366
22.018456 229.61322 8.3745985
-15.054503 232.04822 8.3895645
-13.956837 230.66626 8.4400778
-13.152048 234.44243 8.4358654
26.517231 245.53148 8.4107494
27.268616 234.04083 8.5316114
52.277939 231.96645 8.6671066
22.267845 229.75476 8.7110243
7.7490358 239.44246 8.7675505
51.784882 231.77408 8.939168
12.281372 233.73268 8.9888954
13.959562 231.90669 9.1537666
-11.469149 233.41562 9.1633396
29.73101 236.82629 9.1076708
49.935848 231.08426 9.2160072
7.8586535 244.02405 9.2907181
49.014572 234.37738 9.3681812
49.054092 234.46558 9.4411964
20.685425 245.96738 9.4125681
24.374283 246.12685 9.4876928
49.073524 232.08684 9.5502691
50.722954 231.49933 9.6724358
8.5733833 245.09174 9.6644611
12.140345 246.41853 9.6287327
17.999237 246.87376 9.666563
-11.813578 230.87483 9.7282505
48.189072 233.86134 9.7806749
48.553375 234.68082 9.825634
51.060596 234.74333 9.8147802
22.232712 246.81226 9.8904486
17.221214 230.41289 9.9947491
23.369066 230.50247 9.9067106
16.299479 230.69846 9.9074469
-11.728831 230.93613 9.938798
48.114925 234.49864 10.059205
8.8913555 237.54482 10.007773
13.112443 246.60405 10.084578
13.3883 232.37839 10.192758
51.830261 233.30228 10.1124
51.163338 232.28445 10.361605
-10.249802 232.77626 10.337936
51.513466 232.74995 10.320427
28.337206 244.91592 10.328857
51.213238 232.46153 10.485432
-13.597394 233.61656 10.477237
-13.558134 233.69092 10.591942
16.612492 230.53976 10.62254
48.919098 231.72372 10.625944
13.686357 246.60344 10.894013
51.275352 234.34137 10.975137
48.285851 232.06885 11.085523
49.646988 235.64835 11.040549
50.026421 231.98682 11.126569
47.088501 233.71683 11.185099
21.934893 246.94818 11.197459
46.727592 235.45554 11.29327
48.316101 236.29971 11.27248
50.864517 232.9529 11.328884
9.9121561 245.25142 11.363322
30.30629 242.12827 11.474815
25.985899 233.97946 11.536221
46.274876 235.3894 11.543221
46.401173 235.67676 11.554918
13.833737 246.50795 11.569558
20.463152 229.83763 11.648302
7.9766779 242.96217 11.636685
20.393576 246.14334 11.688725
23.533159 231.13759 11.721209
26.231079 245.76895 11.723477
9.2354364 237.29007 11.890895
25.621624 245.92834 11.811459
-9.7602787 232.01215 11.93863
46.494255 233.69388 11.988564
21.042871 246.59515 11.998963
22.604336 230.68959 12.092754
11.99832 234.54575 12.028661
21.0336 246.61142 12.061586
-10.613857 235.73264 12.167389
10.128704 236.25439 12.181664
45.397842 236.19446 12.232285
8.0077972 242.3035 12.374805
25.811911 234.30553 12.593803
21.70252 230.60144 12.667
19.078045 230.71109 12.603832
-11.338355 232.18375 12.641785
24.78476 232.87607 12.667
13.38266 232.92615 12.667
17.772997 233.14273 12.667
22.57321 233.52068 12.667
17.821117 234.31161 12.667
25.285746 234.81038 12.667
12.366014 235.05763 12.667
20.774832 235.22169 12.667
-7.6650634 235.43619 12.642122
11.383341 235.66702 12.667
12.442262 236.16132 12.667
25.02755 236.28391 12.667
17.772312 236.79822 12.667
28.585831 238.89902 12.667
12.054373 239.25903 12.667
23.353346 239.40274 12.667
27.458618 240.39601 12.667
10.725967 240.42067 12.667
11.094226 241.06415 12.667
25.612034 241.90746 12.667
10.968645 242.36342 12.667
26.775784 242.43649 12.667001
15.546283 242.99004 12.667
27.524284 242.94385 12.667
29.521299 243.78148 12.625515
18.986912 243.9238 12.667
26.483683 244.29976 12.667
16.841446 244.71446 12.667
23.86091 244.87715 12.667
12.083575 244.92307 12.667
24.962393 245.07811 12.667
11.658863 245.30493 12.667
12.618366 245.44427 12.666999
16.483088 245.75287 12.667
25.424063 233.65114 12.798782
12.635202 234.20268 12.824273
28.115847 244.91052 12.880965
27.431194 245.2338 12.853898
24.748819 246.11819 12.860719
20.915361 246.7188 12.825906
15.92802 230.76448 12.938538
12.869096 234.09271 12.923184
47.60199 237.05487 12.917665
8.5835133 240.21313 12.93131
22.584068 246.75035 12.903773
9.7152576 236.98344 13.057985
21.061693 246.82709 13.080132
18.007288 230.26755 13.13089
50.11795 235.15253 13.190088
44.161034 236.73447 13.172997
11.659618 244.93375 13.243367
12.773691 245.02286 13.245476
18.525583 230.72746 13.389524
-9.5649033 232.27261 13.358253
12.462899 234.72993 13.347127
-10.983275 235.73102 13.325444
9.444128 237.10117 13.311505
28.368196 237.86316 13.321752
8.541975 241.61917 13.370764
27.435366 245.0482 13.306225
26.913204 245.26819 13.350946
49.243416 233.04088 13.463068
44.499222 234.3468 13.491022
12.213042 234.94952 13.446052
9.5698261 236.96109 13.460021
47.228447 237.38361 13.476383
9.3771133 241.06699 13.456294
11.275688 242.75876 13.484357
-6.2322593 235.67078 13.507235
11.066419 242.86273 13.576087
9.7913933 243.58688 13.55719
15.733561 245.20491 13.518457
46.959385 232.8488 13.639905
13.196171 233.24103 13.698594
25.297935 233.60663 13.615033
45.884544 237.73944 13.679634
9.9807568 238.48778 13.651806
29.534584 240.38962 13.623992
13.853365 245.16782 13.651691
-9.2183161 232.45038 13.775154
-7.9239254 233.30244 13.757063
-11.855704 233.59816 13.710135
15.932858 245.53751 13.715802
-11.299791 233.1568 13.829979
-6.1720662 234.59709 13.833062
43.86953 234.64238 13.803873
43.468025 235.05879 13.874624
-5.6221862 235.66844 13.8557
-5.8206768 236.1319 13.839323
47.439034 237.3954 13.816205
29.893112 240.8894 13.838718
10.43536 243.75627 13.884768
24.519657 244.36554 13.85726
20.208071 246.26144 13.874331
20.516466 246.32657 13.866596
16.967407 230.85364 13.964069
-8.2063293 233.0358 13.976986
26.497644 234.35065 13.948684
47.19212 237.56958 13.97462
-7.3473682 233.59929 14.09973
-6.7716074 237.24631 14.08348
19.375645 244.81076 14.083377
43.438889 237.18633 14.150157
-6.7198467 237.28995 14.138207
47.245232 237.50583 14.156017
24.185551 243.97618 14.113783
27.162766 244.07315 14.155304
9.7457676 240.53116 14.297928
14.854105 231.59787 14.34392
22.894169 232.01828 14.367995
29.395872 242.25426 14.303837
18.380638 244.93506 14.39425
23.863661 245.84637 14.322641
47.715054 232.95976 14.463154
44.619953 233.98828 14.442472
12.363183 234.52188 14.432198
27.690653 235.56973 14.514181
9.198844 237.69684 14.518108
-5.4601927 234.56418 14.613545
-8.7497692 237.3465 14.683695
45.558044 238.21367 14.632621
28.753204 239.83408 14.612202
8.8364611 243.08626 14.604529
10.94746 243.09378 14.622781
-4.683569 236.27271 14.765783
-6.2568932 237.7377 14.771158
27.131828 243.66331 14.744699
18.960215 244.28215 14.727583
16.880981 246.10016 14.73287
20.383026 230.97063 14.852332
29.026056 240.97684 14.88422
24.339632 232.75955 14.989889
16.960981 245.85623 14.928159
28.152994 239.32141 15.082585
-4.5533862 235.58864 15.155867
28.230927 239.46794 15.138863
-5.605145 234.17554 15.279559
-10.887856 234.76865 15.237685
-10.672537 235.60754 15.259024
9.4635906 243.55225 15.28216
16.638496 245.93167 15.259788
45.98016 233.21539 15.359013
25.346907 245.47685 15.330488
47.43784 233.33252 15.453892
9.5951576 239.35912 15.424006
20.858219 246.74297 15.442354
16.355539 231.29079 15.520147
10.600478 237.10577 15.567444
27.660635 242.93234 15.526994
15.528918 246.32306 15.581211
-8.5553675 237.46429 15.659411
43.058376 238.28676 15.607013
9.4340153 241.91545 15.66288
21.591549 246.86819 15.607637
-5.3442931 234.19992 15.731772
26.630432 236.42854 15.710985
46.302601 238.12379 15.775915
45.987411 238.31537 15.724663
22.192039 247.03078 15.721495
28.344275 239.45938 15.835372
18.69606 231.42462 15.931757
22.475143 231.60324 15.932142
12.575912 233.89357 15.937352
26.883436 244.62285 15.954736
22.720112 231.74309 16.066683
11.127572 244.72672 16.046574
13.178837 246.37352 16.086672
41.625591 237.53488 16.13324
20.450447 246.06664 16.164616
17.226715 231.10756 16.261116
12.645553 234.03001 16.389957
17.184013 244.37634 16.34683
11.268645 245.31847 16.351376
17.643171 245.74184 16.43651
21.757347 246.38875 16.434929
24.084766 246.75961 16.474731
11.840253 234.73071 16.556543
11.589046 244.36195 16.522722
23.776981 247.15057 16.566595
12.038061 234.53369 16.631788
27.927267 243.19766 16.648544
26.816326 235.96692 16.751852
-3.5843549 237.77937 16.703503
41.343037 238.08124 16.753788
11.535831 244.04283 16.704525
19.983738 245.99481 16.722847
24.510277 233.11523 16.842279
24.844231 233.582 16.833839
25.763556 234.59061 16.825523
28.022577 242.9706 16.840752
25.177168 245.07503 16.817556
17.382011 231.20079 16.945618
46.757431 233.74225 16.934917
10.317307 237.008 16.925055
42.7229 239.47292 16.980335
11.284628 244.57007 16.916344
23.466747 246.76851 16.991556
45.476776 238.59692 17.093849
9.4338007 239.28516 17.069687
9.1524992 242.08862 17.127621
18.621803 244.61716 17.14966
22.374008 245.64574 17.13439
12.404428 245.98819 17.188599
15.448061 247.03867 17.194658
17.767204 231.30644 17.248592
12.430902 234.04973 17.207176
-8.7485275 237.52209 17.373093
41.229607 238.97208 17.38398
20.308523 244.44467 17.372459
-9.4015503 234.48059 17.431696
-8.8748589 237.38989 17.408834
-2.9354677 238.22052 17.463242
13.659792 232.5014 17.52721
44.599129 233.54865 17.580862
20.426321 244.38434 17.613699
11.731762 234.66696 17.792835
27.472425 237.45262 17.772253
-6.0055795 239.12445 17.778843
-9.4740763 235.11951 17.876551
22.674755 231.79008 17.947788
41.463055 235.68369 17.914364
40.072788 237.55051 17.905504
10.936416 244.63171 17.913094
13.983989 246.1709 18.044724
43.640957 233.77731 18.101257
11.457703 234.64893 18.197632
26.68852 235.47737 18.152637
47.021587 236.64767 18.127062
45.682301 238.20561 18.182531
20.227127 244.37073 18.125782
21.065254 231.43132 18.2848
-6.2732258 233.47607 18.242563
-6.5891118 238.85806 18.274555
8.8814182 241.74731 18.210737
8.9842463 242.63113 18.220583
40.650703 236.51434 18.317448
-3.3517671 240.18111 18.37273
9.8388596 243.95708 18.397455
28.161081 243.76965 18.491102
-9.0355425 235.2043 18.535295
-8.9159575 236.13342 18.565454
28.443285 238.59863 18.563425
-5.8907542 239.3019 18.518141
25.654152 233.69647 18.670864
-1.8213673 237.80522 18.624256
-7.7935963 237.90297 18.671566
-3.6911347 240.45801 18.683731
10.102179 244.29297 18.663933
17.176228 244.57611 18.650791
20.631067 244.59485 18.676994
11.94823 233.75281 18.771687
-1.9891943 238.84998 18.786253
29.027517 242.37262 18.787363
12.755491 246.71066 18.765633
39.883549 239.03143 18.817616
18.842047 244.13428 18.876329
26.231804 245.04018 18.866787
20.266161 231.29218 18.959604
-8.1320305 234.13394 18.912449
41.145546 235.56772 18.981455
-8.1568336 234.32256 19.06736
9.5219917 237.66248 19.08773
-2.0346024 239.09134 19.010628
26.196957 245.10754 19.012733
14.436677 245.29004 19.02776
9.7310543 236.53888 19.179308
40.237286 240.15625 19.167383
10.010406 244.44516 19.126663
-5.4675074 233.78105 19.237658
45.086552 234.20377 19.227024
39.154846 238.44116 19.231752
20.799372 231.34146 19.37035
24.803923 232.76607 19.396713
-8.0541878 234.47316 19.333076
8.1995125 242.2249 19.349884
10.916504 245.00406 19.32658
-1.2058221 238.0137 19.430752
28.579338 238.56694 19.497988
42.467987 240.32382 19.41964
42.305233 240.58929 19.418785
26.826569 234.77472 19.571049
39.029297 236.97079 19.592657
39.002312 238.63533 19.508797
22.925034 245.28352 19.522135
11.789033 233.78717 19.634155
45.613338 234.91669 19.69825
-1.3268293 239.01236 19.638655
17.514433 244.66052 19.745707
43.815895 234.30956 19.815535
-2.4399562 240.55016 19.802267
29.535381 241.75827 19.881355
8.0200272 242.10991 19.835915
38.291698 237.75531 19.959915
38.284889 237.53027 20.058676
24.949284 245.58231 20.074039
-3.4695697 234.86984 20.154066
9.1355848 237.06299 20.142641
-1.6549593 240.28255 20.172169
7.8923302 242.10764 20.175354
16.96101 231.43082 20.26277
-7.5861611 234.9088 20.222315
45.670208 236.03625 20.262348
39.228973 240.18391 20.220188
29.823757 242.07584 20.246447
29.365681 243.28444 20.293808
20.306211 245.00804 20.249821
-1.5716518 240.42261 20.329163
25.371651 233.05386 20.423084
-4.9590015 234.91658 20.419964
-7.7006264 235.29556 20.429226
45.312988 235.44092 20.441137
12.555422 245.66835 20.498507
17.708897 231.47713 20.530315
24.942148 232.79199 20.508343
8.0916367 240.9054 20.519653
38.32803 239.3539 20.622395
29.651108 243.01111 20.682241
15.30788 245.31366 20.698069
39.925419 234.98889 20.724293
42.714283 234.9593 20.793802
44.85614 237.88838 20.745728
37.561832 238.60622 20.787777
29.417873 243.53355 20.742308
8.2513676 240.03392 20.824291
-3.7518792 234.66071 20.974779
-6.035593 238.73154 20.965988
-4.7134314 239.84402 20.941902
37.864922 236.73819 21.065163
0.52381241 238.23546 21.037685
37.061428 238.40305 21.032974
-1.2426935 240.74905 21.053082
-6.4715176 235.16885 21.168993
-0.53728813 236.36459 21.101046
10.023309 245.06517 21.158573
23.418444 231.70963 21.294495
28.62867 244.3577 21.255796
24.804893 232.06149 21.378447
37.297955 237.17273 21.35611
28.241049 244.72696 21.313019
16.403179 245.65775 21.386017
22.470398 231.68062 21.470741
25.76244 232.65869 21.459641
37.114223 237.37918 21.40587
37.618523 235.8325 21.679262
44.761086 236.90657 21.622501
30.394646 242.25735 21.68951
8.330307 243.85263 21.678207
10.075225 234.90228 21.780867
-0.70494962 235.19966 21.74143
0.20923348 236.5484 21.773022
-6.3657804 238.17076 21.746357
7.9763603 240.64424 21.764109
22.77607 231.34824 21.886095
22.812807 231.37633 21.833389
40.646984 234.48106 21.821678
20.225189 231.63611 21.978048
-1.8801019 234.64934 21.951477
1.3012044 238.93269 21.917747
-4.8231554 239.38969 21.970016
30.173237 243.06543 21.903902
23.129614 245.62082 21.912619
16.261654 245.8175 21.997446
14.917845 231.22981 22.09794
16.891426 231.61908 22.023001
-0.70097905 235.00743 22.025368
8.5754433 237.76021 22.076733
0.87648797 241.01019 22.12035
7.2111716 241.82269 22.144768
17.043917 245.74411 22.110537
28.970793 236.84167 22.261023
-1.5418072 241.37018 22.215611
18.263092 231.70859 22.300491
7.4024754 241.14159 22.303108
-0.61376715 234.73473 22.475529
11.764007 245.51753 22.487164
37.014328 241.4585 22.503138
9.4409351 235.36514 22.630072
38.055382 241.63794 22.662647
27.943081 245.04944 22.663216
7.7915297 240.08195 22.771132
35.620293 238.0249 22.830093
25.410265 245.54468 22.888073
42.401905 235.63437 22.98304
-5.2933593 237.24722 22.922594
2.179496 241.46005 22.959332
28.2057 235.00642 23.090742
2.2742956 237.88052 23.002087
8.1628485 239.06972 23.020409
-3.9569387 234.8461 23.146881
34.943863 238.91411 23.138966
34.837204 240.0658 23.191946
26.525921 232.5312 23.293032
-3.0621104 240.23671 23.256981
-1.2085316 241.55984 23.249165
30.697018 242.73137 23.270367
29.7831 243.92845 23.252785
9.558279 245.38138 23.284779
13.776276 245.5558 23.247334
-4.4372959 238.98987 23.313026
42.274387 236.05457 23.451702
8.3291235 237.73254 23.422375
30.820421 241.48018 23.413265
6.8251004 241.71378 23.42898
39.735237 234.4924 23.52758
-4.8135524 238.13802 23.583397
1.0910292 235.01494 23.605305
9.6403904 234.21198 23.723692
28.733997 235.46977 23.708107
-1.1625487 241.5849 23.714775
36.717789 234.83786 23.80611
35.184891 241.89801 23.859505
9.2428141 245.35297 23.881668
-3.1625679 234.76129 23.936445
31.003559 241.5204 23.921808
36.006287 242.29315 23.960709
-3.9467731 235.98558 24.061346
42.137428 236.94563 24.001957
-3.2410898 239.90189 24.030302
3.7385178 240.18199 24.072571
2.9649317 236.25699 24.175941
21.873848 231.03052 24.262054
20.076075 231.59016 24.273703
-3.8982043 239.14946 24.258785
30.258118 239.38582 24.239895
3.7104764 241.45015 24.286591
34.592903 236.88367 24.35745
3.2178571 236.90056 24.350565
-4.1513987 237.79376 24.318436
33.702637 237.97769 24.353348
31.127592 241.57043 24.384211
7.1832848 243.57513 24.346737
19.576103 245.49428 24.399506
25.918297 232.15738 24.451302
9.2783985 234.5141 24.53429
40.999863 235.20815 24.53302
33.260696 238.58344 24.54575
-2.2008188 240.32751 24.528805
-3.7210665 237.17825 24.69553
26.537682 232.47458 24.724232
-1.8257494 234.62448 24.785294
3.4748583 235.89986 24.748268
-2.6687393 239.97282 24.756134
8.276228 235.74834 24.879095
27.875799 245.70209 24.813419
5.0341196 238.09494 24.934738
31.954855 239.66202 24.944899
40.864933 239.61263 24.960594
4.7270145 240.83606 24.979679
14.864706 231.29323 25.004059
5.082108 240.39967 25.05097
8.1627035 244.5372 25.046833
20.905867 245.86784 25.091084
22.858078 245.86061 25.044245
7.2768111 238.33659 25.131594
34.351696 242.4108 25.139215
20.725697 231.51657 25.236214
32.159363 241.12935 25.276644
27.607378 233.12868 25.367004
30.565231 243.84792 25.368523
28.093418 233.50858 25.46916
6.03231 238.16612 25.488888
5.1910915 241.08781 25.460604
30.590889 243.83197 25.405706
36.923756 234.57967 25.581018
34.493874 242.51474 25.512339
9.5102415 245.4705 25.510897
24.734547 231.56284 25.684891
29.211197 235.16205 25.662159
28.253056 245.46378 25.602993
13.368032 245.63641 25.62261
24.631422 245.71747 25.658371
-1.1311722 234.84688 25.752085
3.1839352 235.36549 25.711529
4.5769114 241.7547 25.708567
11.192219 245.84956 25.745173
20.098803 231.91818 25.847607
30.165598 236.50926 25.819452
6.772809 237.2097 25.80448
17.599821 245.59619 25.839672
40.521427 237.56754 25.903526
32.999424 241.68033 25.922663
7.9564734 244.43913 25.950047
13.147605 245.72064 25.968033
17.1917 245.76749 25.912083
19.902208 232.24963 26.191029
8.3744545 235.12724 26.157059
39.446564 235.39984 26.172159
25.091722 245.84973 26.250263
25.490875 245.97572 26.207592
10.162748 233.13152 26.398182
-2.6465812 238.55106 26.34894
36.528542 242.45296 26.377235
7.0262103 243.64018 26.361202
16.046898 246.11452 26.32448
29.130577 234.58865 26.441349
32.267872 236.88522 26.544367
40.029011 238.1221 26.539949
-2.2884715 239.01743 26.55101
33.016006 242.40909 26.552847
30.222519 244.26794 26.508129
8.7809839 244.9608 26.546616
20.852516 245.74266 26.522617
17.644718 232.2966 26.672718
-1.5122604 236.38547 26.672161
-1.7973635 239.67027 26.653158
38.65641 240.47754 26.691971
18.828217 232.87488 26.75441
32.691349 242.7843 26.864681
11.523405 245.98616 26.819334
16.907902 245.92081 26.801357
19.044735 232.97057 26.988411
38.567566 235.5275 26.92746
30.154444 244.67242 26.978926
26.84119 232.69659 27.098543
1.1307865 235.0993 27.072004
6.5952406 235.30775 27.056175
4.7589364 242.81667 27.054516
16.653353 232.10478 27.104961
7.4500012 234.87274 27.155462
32.963226 236.1398 27.106655
33.636684 242.93321 27.121601
17.081797 245.79927 27.177719
14.407562 246.0473 27.124033
30.006561 234.46292 27.297232
38.568573 240.11536 27.243546
18.508713 245.22487 27.263794
33.33522 235.95052 27.312416
18.94672 233.04419 27.421265
3.6901054 235.71188 27.461016
38.312416 240.12994 27.455252
16.781654 232.29854 27.580896
32.48539 235.66704 27.509186
-0.74022371 239.96713 27.544067
30.064468 245.19525 27.590693
10.455843 246.04034 27.529234
6.4422541 234.67149 27.682758
4.5529237 235.55286 27.628731
4.5609145 243.2905 27.665949
18.347067 245.15694 27.622078
30.867393 234.42621 27.720066
5.3651791 235.18297 27.735611
-0.84742135 237.42418 27.721243
34.482796 242.85947 27.784092
24.157585 245.9696 27.793858
12.882109 232.23044 27.864594
29.157806 233.88564 27.812164
-1.0374582 238.88931 27.865376
27.679037 245.97461 27.8811
12.513023 232.39326 27.943045
5.4668007 243.80511 27.939484
25.813776 246.07184 27.992588
24.101976 232.17543 28.013269
30.832489 233.91386 28.047129
17.381796 245.26535 28.024422
10.630959 233.54785 28.103548
18.864262 233.71791 28.184313
-0.39408347 239.09088 28.192429
21.410517 246.26706 28.11129
25.947762 232.85109 28.243404
33.853622 234.79794 28.251431
37.907761 237.07643 28.208975
29.153654 245.53246 28.233276
15.45082 232.50467 28.480715
12.150337 233.02206 28.459373
33.314606 243.41992 28.44121
17.942932 244.81982 28.419449
12.117386 233.06981 28.506468
19.451775 233.4846 28.58662
26.177389 245.99507 28.55813
22.418404 232.58377 28.602682
25.923138 233.25563 28.670368
32.139118 244.0737 28.614403
7.1172171 244.85904 28.688271
13.798219 232.74658 28.732132
0.8523097 240.94072 28.726202
32.064011 244.16748 28.970039
32.791351 234.1078 29.090878
30.121471 244.98576 29.108246
9.9614697 234.04114 29.322701
1.6259766 236.22575 29.371544
0.9305554 237.082 29.355471
2.2411475 242.32805 29.361809
24.327065 233.34438 29.557888
34.388828 243.01291 29.543932
25.382965 245.61565 29.568493
24.776175 233.61769 29.78447
20.336884 244.76289 29.702805
9.4944162 234.04877 29.861959
5.2237539 244.11734 29.80666
25.004278 233.87962 29.976915
19.155737 233.94211 29.924339
28.245113 234.01038 29.960701
11.473539 234.48688 29.928146
36.880814 238.88792 29.923712
30.76889 244.86546 29.925377
25.457703 245.49695 29.975225
12.214375 234.27139 30.068523
31.415178 244.61874 30.069748
26.862644 245.64995 30.078945
14.370436 233.68777 30.141956
1.6333528 240.94717 30.242157
2.0274162 236.63553 30.355663
35.45734 241.84729 30.317455
17.078827 244.93903 30.374331
1.5198957 239.16739 30.423626
3.4070804 242.90938 30.434504
28.511255 245.2449 30.438129
25.679169 245.36034 30.487328
5.9484501 234.0605 30.678158
32.324257 234.21881 30.638985
17.042763 233.96999 30.758411
14.777472 234.03003 30.715082
3.7123363 243.05814 30.729229
33.213005 243.52426 30.795256
11.556627 234.72806 30.820866
19.903116 244.19226 30.88743
15.238389 234.12285 30.956947
34.922371 236.25122 30.942661
35.412628 237.05478 30.983248
34.003475 242.964 30.907549
7.423512 234.32167 31.073689
5.1928897 234.4924 31.013405
26.247097 234.85335 31.056402
2.2532756 240.0545 31.084105
30.737743 244.71077 31.049746
9.182745 245.20555 31.017414
4.2033253 235.15041 31.261055
33.900169 242.83383 31.219536
35.327511 239.91867 31.361855
3.5194705 242.46761 31.314119
33.08424 243.45807 31.313503
30.562962 234.58231 31.427914
28.91711 234.67778 31.462774
10.103008 234.95303 31.555895
34.652725 236.41962 31.557594
22.871098 244.93018 31.527203
4.109127 235.5058 31.752785
3.2575312 239.34892 31.770859
20.890511 244.33475 31.746656
7.0526857 244.53717 31.751091
16.769049 234.44012 31.864578
21.063992 234.46912 31.888582
6.4358587 235.02399 31.859625
27.813299 245.09018 31.849188
34.67944 240.02232 31.937819
19.095108 244.17252 31.926243
9.3811188 235.08136 32.030178
2.6288581 237.87521 32.056503
6.4733286 244.06082 32.065128
12.896502 244.61749 32.173737
5.1352911 243.04881 32.284046
24.760645 244.49359 32.264626
25.398935 235.51907 32.394447
16.828262 243.94 32.352406
14.146497 234.90443 32.469818
8.6116943 235.29147 32.477928
33.817051 237.01724 32.411564
33.851791 241.32245 32.432556
12.46376 244.48117 32.443565
23.856487 244.45955 32.429813
24.751038 244.453 32.425323
12.076584 235.53319 32.51543
28.365738 235.4314 32.656788
33.541306 237.05505 32.676777
7.0056953 243.71428 32.650085
18.895493 243.90634 32.668633
11.792224 244.43594 32.649338
29.510921 235.47633 32.785599
4.6155734 235.96162 32.706142
7.3627443 235.56732 32.876579
12.340376 235.6785 32.856033
4.7892332 236.3884 32.836815
22.248964 235.12021 32.972305
32.639519 236.23787 32.92289
4.2225709 238.24603 32.981716
26.97657 236.34937 33.042198
26.669231 236.4678 33.011234
22.062145 235.32675 33.160442
5.8188787 236.29102 33.125278
5.6837626 236.57883 33.153221
10.026423 244.48206 33.152092
16.966055 234.94157 33.247047
30.939644 235.92627 33.271126
9.7459106 236.66313 33.226788
31.058809 242.94382 33.216766
24.246929 236.37961 33.331837
6.0089102 236.7775 33.318893
31.268187 240.24966 33.343674
5.9400797 240.58133 33.362221
9.7401819 237.10687 33.469887
5.08428 238.00421 33.435986
32.161526 239.25922 33.471092
16.9716 243.25464 33.497906
20.972435 243.4317 33.424305
25.548531 243.79965 33.463837
22.769733 235.66208 33.500957
30.782257 236.73318 33.533466
5.3079252 238.26332 33.524891
31.487976 239.85294 33.511646
12.956228 236.69406 33.643196
6.3326201 241.17957 33.609417
16.643736 243.23296 33.670895
25.27195 236.71712 33.774662
29.388296 242.5495 33.775249
28.589762 243.07509 33.777237
20.877625 235.00159 33.809971
29.783674 237.3974 33.852882
26.401133 243.11356 33.89859
27.299042 237.52608 33.902916
28.566523 238.85205 33.924076
27.699295 241.62955 33.970463
29.858765 238.47003 34.003696
31.067318 238.41957 34.005112
17.266306 242.56703 34.086384
20.133007 234.7952 34.110748
9.5160389 239.51616 34.169724
17.966208 242.89182 34.134575
21.989441 242.87193 34.186703
13.985588 243.28871 34.309853
19.707733 234.5643 34.559395
13.236523 237.13438 34.532024
27.20722 238.13306 34.557426
26.456856 242.20885 34.531803
25.982426 237.72656 34.87397
10.829442 239.62822 34.949722
13.995268 242.84302 34.938885
24.747955 242.93555 34.9123
11.643062 238.02492 35.024612
25.525496 242.30069 35.043785
16.784969 235.12836 35.110428
27.012577 238.56216 35.115837
26.343655 239.70767 35.275742
24.596039 237.7332 35.38213
18.16535 234.00517 35.474144
21.312193 235.30254 35.443325
21.76436 235.52776 35.490158
26.534306 238.36938 35.434654
17.263666 234.91541 35.526619
12.11938 240.93127 35.645912
25.15023 241.26045 35.786728
16.044357 235.49879 35.893204
13.893108 237.58469 35.820477
25.259319 240.6947 35.821983
21.771954 241.73824 36.059799
21.622122 235.45102 36.374233
12.508747 239.38669 36.351097
24.320782 241.05705 36.347195
20.23831 234.54111 36.568775
23.755976 240.19792 36.868816
14.013048 238.20792 36.956821
23.478306 238.2326 37.004421
24.177624 238.99388 37.09444
17.63728 241.53232 37.154896
14.989432 240.90042 37.215466
16.980644 241.27582 37.336731
16.482054 241.31082 37.38739
21.163586 235.22371 37.415627
23.47036 239.29303 37.48217
21.230049 241.25055 37.532948
16.662411 234.98737 37.706177
16.285625 235.29324 38.050789
20.160295 232.70432 38.195923
23.010578 236.50958 38.34407
20.49962 233.34911 38.464684
18.242245 230.99307 38.502571
21.794899 235.40509 38.544376
19.39789 241.45279 38.664204
23.075703 237.08191 38.736702
15.783356 240.34422 38.959312
16.034983 240.50099 38.9758
21.119146 240.84801 39.246674
18.159361 230.89711 39.426765
15.647023 233.71545 39.475552
18.985489 230.94475 39.784275
20.557064 241.10944 39.753563
18.89695 230.91837 39.808754
21.306213 232.11418 40.189728
18.892004 230.44804 40.288616
17.713249 230.99486 40.288116
19.547146 241.99686 40.271214
20.913208 231.59589 40.664326
21.826635 232.62639 40.7948
22.252279 233.17207 40.760128
19.20232 230.63077 41.067955
21.857307 232.60527 41.019798
19.60704 230.81247 41.167809
18.834965 230.3344 41.272282
14.794725 238.11777 41.213886
23.158047 236.65002 41.333626
17.817383 242.91479 41.351665
15.406507 232.93715 41.464413
21.752739 232.26495 41.562088
15.149408 239.68588 41.540459
14.716022 237.64734 41.669083
23.222584 235.04832 41.702042
14.707293 237.42529 41.941513
14.60078 237.19836 42.146919
14.817036 233.54984 42.233208
15.302744 232.72177 42.447266
14.152662 238.07303 42.43211
20.425182 231.36331 42.521767
13.758189 238.51385 42.55872
24.391552 239.36385 42.548058
21.161951 243.18111 42.624756
14.573669 239.59306 42.705673
15.560993 242.66138 42.78793
23.37368 236.59933 42.943417
23.151199 240.84222 43.070759
17.997082 230.74896 43.179054
23.737988 238.63672 43.428822
23.064186 241.91617 43.483631
22.279478 242.98392 43.463852
23.900982 239.51112 43.639881
