# .PCD v0.7 - Point Cloud Data file format
VERSION 0.7
FIELDS x y z
SIZE 4 4 4
TYPE F F F
COUNT 1 1 1
WIDTH 276
HEIGHT 1
VIEWPOINT 0 0 0 1 0 0 0
POINTS 276
DATA ascii
0.39510754 1.2992284 0.081668407
0.45876473 1.2861507 0.051786058
0.56427765 1.2721561 0.02253571
0.36031666 1.3521487 0.060559943
0.45367226 1.3454244 0.059308983
0.55799335 1.3153547 0.025576079
0.37768486 1.4140123 0.077380091
0.44126874 1.401391 0.087734997
0.43818951 1.7865934 0.085735917
0.39172229 1.8428483 0.064489461
0.44539326 1.8547319 0.048389815
0.53878921 1.8681462 0.051923878
0.60151631 1.8981398 0.034472778
0.48671225 1.9152502 0.047849953
0.55889916 1.947593 0.02658152
0.62527472 1.9377675 0.020039491
0.44819817 1.2879351 0.15424077
0.50142205 1.2950145 0.181095
0.36200655 1.3594999 0.14035715
0.47210711 1.352561 0.13539502
0.52180403 1.3481617 0.1501271
0.39623997 1.4047871 0.13722789
0.42658371 1.409268 0.14976478
0.44673759 1.766995 0.14692725
0.52598894 1.7840114 0.17548414
0.39761695 1.8087052 0.11185443
0.44701365 1.8539903 0.13670988
0.5466249 1.8387922 0.13847873
0.49093682 1.9026214 0.11137605
0.48224342 1.2878247 0.26386744
0.52983123 1.2793566 0.25613475
0.39557707 1.3609862 0.22922087
0.43507794 1.3646845 0.25965279
0.56814986 1.3429362 0.26129225
0.45875108 1.4019537 0.23614749
0.45309165 1.740859 0.24717438
0.53723532 1.762549 0.25629556
0.45485058 1.8317822 0.23792785
0.53069854 1.8505783 0.24445565
0.54206181 1.2760714 0.34618261
0.61746824 1.2875509 0.33674723
0.47736603 1.3305588 0.33487308
0.53740418 1.3637042 0.35970441
0.63729948 1.3262072 0.35373631
0.45994437 1.7294198 0.3375394
0.56643987 1.74254 0.36488068
0.60596359 1.7696255 0.37865737
0.48479033 1.8187824 0.33195195
0.55244005 1.816342 0.35012993
0.55860871 1.2826437 0.44468698
0.6133033 1.2694271 0.43581212
0.52168816 1.3596981 0.45682406
0.65399927 1.3464466 0.44930902
0.57251716 1.4217046 0.49118173
0.6055724 1.4043431 0.47394666
0.47581974 1.6624759 0.4768618
0.5470764 1.6742254 0.46735087
0.47325498 1.7389672 0.44136429
0.56751871 1.7730339 0.4582088
0.60518539 1.763934 0.42495775
0.54613811 1.8133851 0.43042353
0.5764184 1.2941333 0.5336498
0.49150127 1.3854507 0.57904112
0.52675289 1.3363516 0.5578652
0.65351683 1.3634744 0.54152507
0.49962056 1.42044 0.5636009
0.53517437 1.4250432 0.54216754
0.63314545 1.4317596 0.57261777
0.47282779 1.5867559 0.57431132
0.52917528 1.5821787 0.57351547
0.44626734 1.639883 0.56079423
0.56545854 1.6255914 0.54658377
0.61569971 1.6649007 0.54141623
0.47483537 1.7266388 0.54005295
0.5693531 1.7497575 0.54293752
0.60695696 1.7065879 0.53172356
0.48560292 1.3819759 0.67736685
0.53279603 1.330857 0.63194889
0.63371241 1.3450309 0.6543842
0.48122963 1.445522 0.6599403
0.55530518 1.4723862 0.63237721
0.64369136 1.4444678 0.66303122
0.3997803 1.5964448 0.66159594
0.43757299 1.5484951 0.64596158
0.55363441 1.5542175 0.63969368
0.62150639 1.5664883 0.67084026
0.44026917 1.6510904 0.64955777
0.57432002 1.6623459 0.66509664
0.61267966 1.6144665 0.63585436
0.48844123 1.7072686 0.62330133
0.53120524 1.7119917 0.6380403
0.48037529 1.3867362 0.74981749
0.54788637 1.3447267 0.74310303
0.61620331 1.358232 0.75646341
0.38555074 1.481042 0.74345869
0.45949805 1.4524022 0.75286996
0.5200448 1.4828671 0.71632677
0.63949686 1.4590119 0.74723935
0.3749288 1.5403937 0.75161374
0.41204885 1.5979956 0.78111839
0.58064264 1.5813069 0.77706289
0.61770087 1.5281737 0.75530994
0.43459144 1.6267438 0.73565692
0.54602164 1.6362125 0.74349195
0.47360516 1.3752452 0.86998576
0.53595883 1.3565121 0.86125386
0.60961211 1.375181 0.85517716
0.37747338 1.4835141 0.85132372
0.43233913 1.4204385 0.8537088
0.64508706 1.4446179 0.84504235
0.3687163 1.5276675 0.85805827
0.42285842 1.5882747 0.86625499
0.5641216 1.5587666 0.85396397
0.45992255 1.6191763 0.81564158
0.51339912 1.6092625 0.83199263
0.45724198 1.3646364 0.93921322
0.55417234 1.3541805 0.9262715
0.6280697 1.3838959 0.94604886
0.37429747 1.4684399 0.9472006
0.41742307 1.4204527 0.9387567
0.64353317 1.4449048 0.94807994
0.36682943 1.525619 0.93160242
0.43467364 1.5852396 0.94528848
0.5687651 1.5590123 0.94617611
0.61839259 1.5261645 0.95370424
0.47958142 1.6128918 0.93762326
0.45092756 1.3670952 1.0485959
0.56482691 1.3375974 1.0475782
0.62643307 1.3828739 1.0641381
0.37806106 1.4777647 1.0561297
0.41152677 1.411369 1.0619135
0.64588934 1.4677417 1.0582104
0.36927077 1.5100924 1.0384316
0.43084213 1.5832506 1.0542578
0.56408417 1.5860878 1.0556313
0.62132347 1.5220357 1.0658939
0.49215111 1.6028758 1.0935081
0.52083933 1.6049019 1.0998478
0.45431328 1.3597693 1.1567134
0.5645324 1.3147877 1.1606607
0.62567455 1.3702676 1.1475687
0.77319604 1.3846626 1.1838595
0.39408371 1.4595308 1.1644582
0.40211001 1.4291431 1.127207
0.65317285 1.4558814 1.1400833
0.78896666 1.4074483 1.1793299
0.8156414 1.4370569 1.1870131
0.38817397 1.5260644 1.1221703
0.41917789 1.5591019 1.1611398
0.57963949 1.5656832 1.170523
0.62512541 1.5183692 1.1097426
0.3687638 1.6593513 1.1582386
0.44998372 1.6267675 1.1700461
0.52489746 1.6075635 1.1410533
0.35992315 1.7334315 1.154176
0.42112157 1.7271824 1.1650835
0.38396657 1.8214395 1.1815192
0.4433099 1.8180122 1.1835835
0.56564057 1.2917331 1.2416208
0.66373819 1.2950373 1.2775215
0.45677564 1.3636751 1.2620605
0.51949817 1.3082217 1.2217761
0.65496111 1.3519394 1.241037
0.76114661 1.3524402 1.2489007
0.80814922 1.376199 1.2260427
0.39595583 1.4580634 1.2017422
0.40768543 1.4561126 1.2617953
0.64888453 1.4347245 1.2596868
0.76343811 1.4336917 1.256521
0.83876324 1.4581802 1.2311841
0.38493696 1.5513455 1.2579173
0.41823602 1.5672255 1.2028718
0.55851293 1.5682015 1.2435712
0.63423151 1.5431509 1.2869439
0.76628447 1.542474 1.2481982
0.81167459 1.5273606 1.2656204
0.36654696 1.6538614 1.2414845
0.45422739 1.6417956 1.2424964
0.52253354 1.6202919 1.2282295
0.69685072 1.6775948 1.2976419
0.74093282 1.6411517 1.2811038
0.38776052 1.7292371 1.2232969
0.44891271 1.7777244 1.2317964
0.69136721 1.7523575 1.2992418
0.71661073 1.7204984 1.2904769
0.39940819 1.8055388 1.2329732
0.47432011 1.8489279 1.2622529
0.51750231 1.845534 1.2749039
0.62677491 1.2935507 1.3197088
0.48135227 1.3561655 1.3073868
0.54694933 1.3364871 1.3317139
0.65184557 1.3645258 1.3378612
0.71816188 1.3437631 1.3121452
0.45203432 1.4441652 1.3438869
0.55855983 1.4363847 1.3636553
0.65505904 1.4376613 1.313513
0.72321272 1.4083287 1.3079964
0.39106724 1.5306002 1.3033992
0.44465041 1.5379226 1.3248665
0.53715062 1.5431454 1.3691697
0.63885611 1.5527967 1.3400064
0.75257087 1.5872266 1.3091999
0.42836988 1.6186926 1.3055781
0.6475758 1.6676383 1.3355634
0.72648937 1.6488186 1.3194782
0.37640896 1.7124956 1.390739
0.43879288 1.7004627 1.3903301
0.6738463 1.7331433 1.3269171
0.71620953 1.7275997 1.3258501
0.48644796 1.8382792 1.3021873
0.55433547 1.8772383 1.3227346
0.61085451 1.8616965 1.3587434
0.5824604 1.9557134 1.3596855
0.62709916 1.9462143 1.362457
0.58335018 2.0475173 1.3737248
0.56596529 2.1537893 1.3859601
0.55697727 2.2419794 1.3851759
0.52358896 2.4871235 1.3934332
0.45094657 1.2813097 1.4799557
0.53711319 1.2515601 1.4675763
0.61798549 1.2516923 1.4726241
0.70615494 1.2504441 1.4774803
0.37871695 1.3437613 1.4882212
0.48787752 1.3129758 1.481787
0.55903178 1.3301733 1.4904405
0.62882006 1.3332627 1.4951178
0.71661407 1.3238608 1.4973217
0.55118895 1.4353011 1.4358606
0.64159077 1.4441382 1.4578036
0.49861866 1.5010338 1.4835329
0.54000247 1.5445633 1.4450991
0.63426673 1.5380652 1.4546788
0.61808479 1.6748506 1.437909
0.3846972 1.7113564 1.4075425
0.59831613 1.7181283 1.4430329
0.61986911 1.7520028 1.4330293
0.59453952 1.8303814 1.4201779
0.60872948 1.8558881 1.428304
0.5839144 1.9441608 1.4448286
0.61746728 1.9593105 1.4332893
0.57519335 2.0415933 1.4079938
0.56186879 2.1410801 1.4040698
0.56244987 2.2576642 1.4029696
0.55069304 2.333261 1.4057136
0.54162705 2.41381 1.4038702
0.52264661 1.2955689 1.5037955
0.6596728 1.2809464 1.5053664
0.45906276 1.3498998 1.5131316
0.55891085 1.3681539 1.5093527
0.63183242 1.3748102 1.5433948
0.73211884 1.3599141 1.5222093
0.80519342 1.3416268 1.5070834
0.35226485 1.4532119 1.5201803
0.43856364 1.4447024 1.523308
0.54517102 1.4534668 1.5681866
0.64839584 1.4545374 1.5625787
0.74901611 1.4361639 1.5402728
0.82635993 1.4498649 1.5401567
0.36684525 1.5480742 1.5557784
0.44847554 1.5499743 1.5597135
0.54080558 1.561491 1.5550376
0.64575845 1.5467507 1.5612487
0.75142568 1.5544462 1.5742838
0.8171621 1.5323807 1.5697832
0.38932621 1.6257579 1.5679864
0.44607341 1.6243219 1.5781934
0.55958909 1.629317 1.5838009
0.62608987 1.6790402 1.59057
0.76702267 1.627149 1.5906913
0.81116313 1.6032532 1.579742
0.58095521 1.5527997 1.6150572
0.65616769 1.5289752 1.6152443
0.557069 1.6841521 1.6096318
0.63954151 1.6329401 1.6026323
0.71681154 1.6847379 1.6062603
0.64540333 1.725029 1.6072515
