# .PCD v0.7 - Point Cloud Data file format
VERSION 0.7
FIELDS x y z
SIZE 4 4 4
TYPE F F F
COUNT 1 1 1
WIDTH 524
HEIGHT 1
VIEWPOINT 0 0 0 1 0 0 0
POINTS 524
DATA ascii
0.69350362 0.44678926 0.096042074
0.76948553 0.4648281 0.09011063
0.85265517 0.46650171 0.083425261
0.69923741 0.50578177 0.096138537
0.75667548 0.54650241 0.091902785
0.80782753 0.54129559 0.095810696
0.56686711 0.065179922 0.14703375
0.63526201 0.073154464 0.15609087
0.74422193 0.065965503 0.15459245
0.48732799 0.11531065 0.19940624
0.54094273 0.11981979 0.15479824
0.62217319 0.14652833 0.15489206
0.76713353 0.12115235 0.16752787
0.58328652 0.47911349 0.16877878
0.66375917 0.45528126 0.13031821
0.73958582 0.432331 0.13851805
0.82996196 0.44004905 0.1066924
0.56281674 0.51049197 0.14619195
0.63393909 0.53777504 0.14040075
0.77345479 0.54326081 0.13571116
0.83772212 0.52894568 0.10334161
0.57106084 0.076880388 0.22485065
0.63770509 0.069272697 0.21967907
0.54004794 0.13343722 0.24555056
0.61313713 0.14207131 0.24805996
0.54380977 0.2146982 0.27480644
0.56206274 0.47595957 0.21120676
0.64478457 0.43988281 0.23959702
0.56249708 0.53108424 0.25031283
0.63336772 0.54846632 0.24399142
0.56762826 0.062307347 0.33197415
0.61094356 0.080179513 0.33684304
0.52797842 0.19132224 0.39712894
0.62625396 0.18637133 0.32304525
0.55090004 0.22095433 0.34881306
0.59303337 0.45617092 0.30877838
0.64419061 0.43650422 0.34685844
0.62160474 0.58577657 0.35953483
0.72068578 0.5658896 0.39404386
0.58385563 0.065705493 0.4351303
0.52160555 0.1548885 0.46003768
0.66174191 0.16135561 0.44968069
0.59195101 0.2404716 0.41927564
0.64610642 0.2268438 0.4619486
0.64673805 0.43782458 0.46204853
0.73551279 0.46547276 0.44840044
0.67913753 0.59911734 0.41912815
0.72161305 0.56869853 0.42904714
0.56720531 0.090097554 0.54854226
0.62908477 0.081949614 0.53780848
0.5380367 0.1702683 0.57729441
0.67516416 0.13432282 0.56251299
0.64333576 0.2300795 0.53110206
0.65985948 0.44087672 0.52909774
0.75411206 0.46719241 0.58814102
0.65317255 0.57820702 0.5292362
0.76378101 0.55936015 0.56664217
0.80194736 0.53954655 0.57517689
0.58285177 0.082707018 0.65845072
0.65188622 0.094466351 0.64153516
0.56079489 0.15390898 0.64738327
0.66612917 0.12457864 0.65851992
0.70633972 0.19299337 0.67342246
0.56639475 0.21417783 0.6263724
0.64084834 0.2347708 0.65652877
0.64127886 0.46336901 0.64748371
0.75836259 0.45321754 0.6513775
0.80557024 0.49660879 0.66547996
0.64733642 0.52213925 0.64209747
0.74378049 0.55406219 0.65280694
0.81432235 0.53767371 0.63436425
0.63739675 0.098402917 0.71630353
0.59317172 0.10302 0.70789325
0.67407137 0.13941289 0.74791318
0.54337102 0.29896355 0.78943706
0.65457523 0.26265511 0.75047493
0.57929736 0.30635899 0.78857833
0.58290559 0.45747352 0.76798433
0.60961932 0.42504254 0.73924309
0.57303315 0.50586647 0.76350629
0.6201067 0.55954695 0.76744109
0.7640841 0.54791349 0.75071907
0.49166867 0.18804653 0.82800984
0.55511665 0.12056358 0.84004092
0.64767778 0.14026575 0.87505996
0.47054279 0.23267533 0.86899906
0.50266439 0.26790556 0.8208853
0.69066715 0.27067617 0.85042304
0.49108994 0.30731773 0.87493461
0.56947434 0.32111686 0.85094345
0.63716167 0.36895168 0.86247319
0.55825341 0.42481709 0.83550471
0.7625953 0.44760543 0.86448783
0.58986175 0.58323163 0.89108109
0.63443655 0.58403921 0.86891061
0.73306876 0.55733991 0.86707544
0.47490561 0.17976664 0.94461942
0.53305042 0.1608724 0.9539687
0.64984047 0.17549968 0.96587354
0.439419 0.23223452 0.94409943
0.54112232 0.25376457 0.91783279
0.66587651 0.27328855 0.94500333
0.45435041 0.33578163 0.96367633
0.55841416 0.36212057 0.95720047
0.6495164 0.35521582 0.96112603
0.70220655 0.39187616 0.98424166
0.48455223 0.46051165 0.94435674
0.54902244 0.45102757 0.92685002
0.74083239 0.43726102 0.94979125
0.49776661 0.52821088 0.93988156
0.53772581 0.55388689 0.94647455
0.65537375 0.55448073 0.95416892
0.72091442 0.54447162 0.93596303
0.2665571 0.023491388 1.0713649
0.34521875 0.023143044 1.059217
0.26735145 0.14177641 1.0633075
0.32232285 0.12431829 1.0451434
0.475182 0.18905158 1.065789
0.54063416 0.15565355 1.0597616
0.64782149 0.16614889 1.0311348
0.70495546 0.16937149 1.0837038
0.26960278 0.25487861 1.0595046
0.36705294 0.24906485 1.055967
0.43811536 0.22167408 1.075859
0.55855572 0.29722661 1.0870653
0.65479898 0.23456894 1.0512124
0.70049888 0.24200538 1.0879719
0.26126632 0.34242415 1.0642334
0.37211666 0.33416724 1.0623041
0.42081285 0.30466396 1.0182991
0.55452603 0.32676354 1.0360839
0.66985816 0.35475686 1.0344594
0.27372015 0.42354509 1.0546308
0.3442415 0.44879854 1.0506954
0.43944344 0.46765366 1.044336
0.57182014 0.49596119 1.086134
0.65596581 0.42546326 1.0556481
0.71746272 0.45274559 1.0419394
0.26075667 0.55683553 1.0684518
0.54045188 0.5704481 1.0348467
0.65531933 0.55276227 1.0634668
0.70279801 0.51476026 1.0627654
0.24507354 0.67659283 1.0781347
0.32511318 0.66025263 1.0449328
0.4045423 0.69436002 1.0936223
0.32772759 0.70336801 1.0925233
0.24645597 0.047527999 1.1459785
0.35824102 0.023748504 1.1541103
0.41020304 0.052513823 1.1491785
0.61487323 0.048162594 1.1413209
0.24349973 0.13733563 1.1386483
0.34615338 0.11792556 1.1459783
0.42661765 0.1348335 1.1701025
0.53824729 0.14100231 1.1383396
0.63732547 0.12198921 1.1629077
0.7240243 0.16451749 1.1681123
0.25386077 0.22430831 1.1729723
0.34597525 0.26041558 1.1472626
0.43015221 0.25440809 1.1558038
0.56074405 0.24125749 1.1372466
0.6283533 0.25529647 1.1644388
0.73687392 0.25572199 1.1605377
0.23120064 0.34748358 1.1684321
0.33474624 0.35426542 1.1522696
0.42729253 0.35564455 1.1344838
0.53414261 0.34930331 1.1236329
0.6483652 0.34143156 1.1369301
0.74559808 0.34676763 1.1544778
0.83853698 0.3984172 1.1950618
0.22350882 0.49322996 1.1301459
0.34804979 0.45449886 1.1577303
0.44687569 0.44355121 1.155949
0.50267875 0.41570577 1.1363163
0.67275798 0.4452154 1.1510532
0.72968149 0.44189 1.1477242
0.32210359 0.58542663 1.1102455
0.42553014 0.55925834 1.1343361
0.53722155 0.55031627 1.1532815
0.66953933 0.5682506 1.1398939
0.72693658 0.54344535 1.1409312
0.2264142 0.62488806 1.1227632
0.32537541 0.63900262 1.1671106
0.41350758 0.68827176 1.1193795
0.55345446 0.60850352 1.1352019
0.63956755 0.62431782 1.1380529
0.75002772 0.64374918 1.1342607
0.27380282 0.70336801 1.1440036
0.39382717 0.70336801 1.1700451
0.40469787 0.70336807 1.1577747
0.2639741 0.033569928 1.2384964
0.34964022 0.044365406 1.2353958
0.41623476 0.065956354 1.2637802
0.5471946 0.093334161 1.2377417
0.60205835 0.099387385 1.2529608
0.24562964 0.16368583 1.2389351
0.34450999 0.1475466 1.237043
0.44009084 0.16002598 1.2651794
0.66566753 0.11208382 1.2364048
0.72693741 0.16314541 1.2487379
0.8675704 0.17675501 1.2709442
0.17899485 0.28724498 1.26447
0.2401814 0.27199414 1.2371687
0.35975158 0.25580102 1.2278174
0.46252775 0.23517744 1.2433665
0.55801159 0.23900396 1.2230303
0.64098674 0.24066815 1.2461426
0.75642848 0.27542216 1.2551847
0.83197743 0.23793657 1.2622579
0.9736979 0.24870335 1.2851236
1.0783658 0.28509897 1.2844188
0.16774967 0.36399972 1.2757168
0.24219751 0.34318918 1.2405895
0.35859087 0.34823683 1.2368174
0.46232247 0.35821825 1.258868
0.50055802 0.34416622 1.2634325
0.63844198 0.37259588 1.2252301
0.75459015 0.36630732 1.2599622
0.83283424 0.33423975 1.2473861
1.0761098 0.30508515 1.2917299
0.15155691 0.42280763 1.283637
0.25465828 0.4658227 1.220413
0.36647266 0.43984285 1.2335143
0.44493267 0.46663347 1.2563112
0.55537283 0.47461855 1.2193987
0.64278537 0.44329119 1.2323115
0.76138824 0.45509958 1.2585709
0.83747369 0.43464956 1.2479956
0.26129487 0.56502169 1.2325908
0.37212163 0.53152138 1.2200665
0.44164738 0.54345876 1.2612871
0.56097239 0.5157488 1.20565
0.66065335 0.57125163 1.2522238
0.74713498 0.54437292 1.265869
0.24455765 0.65228301 1.2314992
0.32553846 0.6638931 1.23754
0.41600862 0.64948708 1.2488765
0.54609442 0.6136626 1.2592379
0.63009536 0.65045404 1.2600126
0.26091021 0.70471197 1.2648253
0.36016622 0.70336795 1.209029
0.66497135 -0.040121265 1.3725514
0.73763388 -0.052696183 1.3328202
0.8510192 -0.038345154 1.358477
0.2241908 0.037405673 1.3759949
0.34573972 0.0081510004 1.3543388
0.41434848 0.02367232 1.3613163
0.57148826 0.088467531 1.3199409
0.65940225 0.081936814 1.3761377
0.74064046 0.073682055 1.3811572
0.87017 0.054287449 1.3173332
0.92473042 0.070998333 1.3258629
0.21471266 0.14954923 1.3569578
0.44138464 0.13066444 1.3514762
0.55958444 0.1438316 1.3204033
0.6488778 0.12994574 1.3721929
0.73616618 0.15645716 1.3637453
0.85461628 0.15493369 1.3532377
0.95331806 0.15510689 1.3418484
1.0246298 0.15324976 1.3251827
0.17173855 0.28184199 1.3536977
0.20699838 0.23673253 1.3509938
0.37432101 0.27512705 1.3781999
0.44238144 0.2463104 1.3462716
0.69098639 0.23857959 1.3270687
0.76287633 0.24458119 1.3446454
0.84330368 0.22349362 1.3510299
0.9802199 0.26837882 1.3687702
1.0453224 0.28250405 1.3776404
0.14573398 0.35970449 1.3627552
0.208372 0.34112704 1.3784539
0.37432098 0.34907356 1.363728
0.45203462 0.36455697 1.3354338
0.76073319 0.34243551 1.3451244
0.84397995 0.39010489 1.3446438
1.0700341 0.33237469 1.3673182
1.1019895 0.31515944 1.3629805
1.2384682 0.37426752 1.3377156
1.3034947 0.38325202 1.3592776
0.16391613 0.43102098 1.3362713
0.208372 0.45439866 1.31405
0.37432101 0.43879277 1.3338046
0.44252726 0.45155001 1.3614724
0.50794399 0.46464267 1.3694651
0.77287835 0.43565825 1.3442464
0.83019292 0.41192186 1.3260818
1.079633 0.48589307 1.3414601
1.1846524 0.44545224 1.3351866
1.2421696 0.44256386 1.3578907
0.21471268 0.55304992 1.3215476
0.43679619 0.52967799 1.3499538
0.52940887 0.54754788 1.3712755
0.66637105 0.57222682 1.3578697
0.74016654 0.53777212 1.3561269
0.86420453 0.59627235 1.3854151
0.97333175 0.53272277 1.3624836
1.0982158 0.53586674 1.370903
1.3481827 0.51424551 1.3793216
1.4465606 0.57954878 1.3935803
0.21788299 0.6605531 1.354597
0.46780613 0.60459942 1.3370239
0.55301893 0.61628544 1.3401604
0.61316699 0.60795468 1.3430004
0.74878967 0.66459644 1.3995786
0.85277361 0.66186315 1.3830198
0.93587118 0.62455076 1.3751011
1.0004275 0.65302795 1.3955462
1.4842865 0.62212932 1.3799942
1.5107615 0.63120353 1.3899167
0.23116738 0.70471197 1.3413427
0.38838446 0.70471203 1.3821323
0.92107558 0.70238924 1.3946776
0.66812539 -0.027397774 1.4804248
0.7625705 -0.056882918 1.4409392
0.80016387 -0.035822034 1.4024205
0.21788301 0.062387176 1.4566629
0.40753174 0.0081510004 1.4256797
0.50627512 0.099235356 1.425567
0.61829716 0.069914788 1.4236588
0.77241039 0.04762144 1.4651423
0.8154999 0.07775563 1.41412
0.92585307 0.081096902 1.4087057
0.21312749 0.16536996 1.4725645
0.45280582 0.17707147 1.4519547
0.56600672 0.14160745 1.4502366
0.67136943 0.16019623 1.4452428
0.71873993 0.14651527 1.4503365
0.84577775 0.16961642 1.4144011
0.208372 0.21139283 1.4664871
0.38109383 0.25216249 1.4205637
0.42861488 0.23104662 1.4536958
0.50794399 0.2494022 1.4240533
0.73808646 0.2338735 1.4628879
0.80100602 0.25133508 1.4727883
0.94343472 0.2385971 1.4011445
0.14483465 0.36990508 1.4341483
0.208372 0.3313618 1.4370217
0.37432098 0.35490465 1.4532049
0.43189606 0.34273183 1.4466598
0.76686454 0.34295279 1.4425538
1.0877588 0.37366173 1.4868618
1.1120484 0.37184373 1.4429932
0.14510079 0.41400957 1.4343466
0.208372 0.45113996 1.4318767
0.37432098 0.43277019 1.4176073
0.44242376 0.45514476 1.4594293
0.50794399 0.45517534 1.4623832
0.76315743 0.44106004 1.4651798
1.0944992 0.406845 1.4275402
1.1563566 0.42508215 1.4429874
1.2236489 0.45789996 1.4495819
0.21788302 0.5761202 1.4611161
0.45535529 0.52197558 1.4535984
0.52838689 0.52738732 1.4613291
0.6243211 0.55954802 1.4424779
0.74097544 0.54398274 1.4478297
0.84013611 0.56017226 1.4621938
0.93735212 0.55704957 1.4312258
1.0433367 0.58689576 1.4374357
1.3784227 0.56898046 1.4048924
0.21788301 0.68916214 1.417861
0.420452 0.66317546 1.4393697
0.56556743 0.62147635 1.439955
0.65151441 0.63396549 1.4389648
0.72906244 0.65579045 1.4073961
0.85863346 0.68688774 1.4414449
0.94089824 0.65899211 1.4628719
0.2700066 0.70471197 1.4299929
0.33373189 0.70471197 1.4305158
0.41282111 0.70397967 1.4301846
0.72329605 0.72581637 1.492502
0.83061731 0.74916375 1.4379649
0.925165 0.70397019 1.4254869
0.40119383 -0.0014600001 1.5572317
0.22892019 0.027246349 1.5499884
0.39163613 0.0081510004 1.5161073
0.4232679 0.027115226 1.5422319
0.58987737 0.074062154 1.5574462
0.65066147 0.021189731 1.536832
0.73816514 0.072473623 1.5453361
0.21312749 0.14321855 1.5554401
0.43814 0.16069603 1.5487187
0.54457897 0.14629278 1.5518929
0.63935912 0.13391662 1.5695302
0.74248672 0.1470006 1.5446488
0.83943033 0.15831794 1.5354527
0.17352512 0.27914399 1.5081989
0.20837201 0.2813091 1.523339
0.38387477 0.25829339 1.5427589
0.45480141 0.25294945 1.547781
0.50794399 0.22230804 1.5706847
0.6739794 0.2226907 1.5805991
0.73772776 0.23421064 1.5066324
0.88824725 0.22233847 1.5507452
0.95450246 0.26531282 1.537326
1.0136883 0.28579453 1.5039883
0.15879232 0.34838104 1.5266851
0.208372 0.36321449 1.5383162
0.459306 0.36199436 1.5535029
0.69997108 0.30048871 1.5928023
0.72564375 0.37101409 1.5459003
0.97754228 0.30291191 1.5676215
1.0357795 0.34361878 1.5148721
1.1092936 0.38312295 1.5078418
0.16078401 0.42671159 1.5297885
0.2060876 0.42985773 1.5722337
0.38186133 0.45324105 1.5031205
0.45673546 0.44251505 1.5303737
0.50773817 0.44560719 1.5311468
0.69378662 0.49483722 1.5836331
0.72463048 0.4611043 1.5641464
1.1485565 0.41420022 1.5076585
0.21074975 0.55442178 1.5575042
0.439771 0.51563334 1.559622
0.58037513 0.54038781 1.5470253
0.66378278 0.54085213 1.5709423
0.72208363 0.55427974 1.5507078
0.208372 0.68278801 1.5265964
0.56981492 0.62702286 1.532697
0.64891493 0.6594497 1.5409955
0.75912571 0.65508717 1.5619749
0.85883224 0.65613508 1.5292772
0.90584242 0.67082787 1.5069444
0.26792288 0.709517 1.5544887
0.32951811 0.71245831 1.5422038
0.41773617 0.70748854 1.5293816
0.6759367 0.70572281 1.5083869
0.73982912 0.71062833 1.5108964
0.36004919 -0.0014600001 1.6084661
0.41198504 -0.0014600001 1.6054033
0.25959972 0.054428793 1.6249435
0.35579553 0.044347472 1.6249244
0.42996299 0.048066296 1.6005881
0.22826989 0.16286643 1.6563311
0.34453118 0.13897304 1.6441801
0.4217144 0.18441577 1.6746989
0.58168423 0.17332992 1.6056889
0.64085579 0.15349813 1.6165962
0.19261882 0.262319 1.664878
0.208372 0.20098981 1.6301372
0.47188854 0.26565984 1.6505226
0.54665363 0.25437412 1.6644673
0.64867705 0.25684133 1.6564255
0.92961228 0.26871085 1.6067969
0.208372 0.35969651 1.6584316
0.4492774 0.32152459 1.6699039
0.55104578 0.3442665 1.6775482
0.67720193 0.33197418 1.6338599
0.7320931 0.36394149 1.6332443
0.19628 0.45525426 1.6144495
0.45973784 0.45969743 1.6569794
0.54728442 0.44755721 1.6696345
0.65399992 0.4577398 1.6646061
0.71690309 0.46036902 1.6425207
0.21260083 0.52807015 1.6716285
0.35559133 0.54184151 1.6363794
0.44154131 0.52489758 1.6539859
0.53826112 0.5113579 1.6493647
0.6752519 0.52619439 1.6265937
0.7197156 0.53478044 1.6640015
0.2463758 0.65225083 1.6251564
0.36701301 0.6390717 1.62679
0.41144186 0.65560937 1.6257702
0.32924515 0.71432197 1.6065884
0.19628 0.18164714 1.7699467
0.24799477 0.16355801 1.7475963
0.37456116 0.16355801 1.7410434
0.44205499 0.18781587 1.7838361
0.19023451 0.26447195 1.7571113
0.45957541 0.23362118 1.7031555
0.58779335 0.27917001 1.7513349
0.66824085 0.26679578 1.7407131
0.19628 0.35247451 1.7829208
0.44205499 0.35569909 1.7140834
0.52721244 0.34103236 1.7733003
0.75135738 0.35786679 1.756832
0.19628 0.47787207 1.7873616
0.44492456 0.47188485 1.7160939
0.58128625 0.44351804 1.7679653
0.66329592 0.44586602 1.7289171
0.73298693 0.41079849 1.7275083
0.19628 0.52050173 1.7727017
0.22852997 0.54930401 1.7159296
0.36141667 0.54930401 1.7028074
0.422149 0.53664994 1.7250009
0.35055405 0.19062816 1.8382499
0.65434766 0.18878649 1.8259218
0.24304509 0.24324661 1.8356553
0.34054506 0.23769435 1.8382499
0.47551656 0.29199997 1.8414593
0.55281764 0.25729787 1.8618336
0.62034011 0.23434281 1.8483748
0.76035786 0.2542159 1.8541397
0.2766028 0.35660887 1.8382499
0.47386396 0.34151429 1.8593535
0.51133388 0.34489653 1.8702706
0.76372337 0.34541884 1.859431
0.8187812 0.37439984 1.8798908
0.19628 0.44801143 1.808181
0.23945136 0.46603757 1.8346007
0.36451808 0.4108941 1.8382502
0.44205499 0.43283653 1.8177229
0.55564946 0.45055044 1.8320525
0.63537544 0.46877572 1.8700927
0.75350279 0.45294881 1.8806089
0.80915701 0.42051151 1.8687479
0.25944877 0.51353914 1.8382502
0.34483612 0.54926449 1.8153269
0.43995881 0.52401203 1.8239417
0.59774876 0.51097178 1.8091208
0.64854622 0.51236731 1.8608934
0.58258367 0.29140672 1.948226
0.64795488 0.26249173 1.9511762
0.70985824 0.22132307 1.9022735
0.55065697 0.35518232 1.9391654
0.67147702 0.35936567 1.9634166
0.73111343 0.34504953 1.9669155
0.80223572 0.36279595 1.9212351
0.56043375 0.43785191 1.9330404
0.66888618 0.44334155 1.9567233
0.71935326 0.44060135 1.9405155
0.5339765 0.5613389 1.9072225
0.61225563 0.35388628 2.0078912
0.70214725 0.38437086 2.0038979
0.39836729 0.5653376 2.1271696
