# .PCD v0.7 - Point Cloud Data file format
VERSION 0.7
FIELDS x y z
SIZE 4 4 4
TYPE F F F
COUNT 1 1 1
WIDTH 1611
HEIGHT 1
VIEWPOINT 0 0 0 1 0 0 0
POINTS 1611
DATA ascii
19.871729 3.7826405 4.9002624
16.279833 8.6309557 4.9691105
20.813099 17.948666 4.9725313
14.797529 19.640467 4.9350343
17.96508 20.854136 4.9053535
15.521534 21.621351 4.9916668
15.35053 4.0182676 5.0979414
20.209799 7.6657972 5.0621281
17.053411 6.8564091 5.1765795
14.053693 16.493252 5.1095209
17.354378 16.462826 5.1935844
17.256754 18.164152 5.1061211
15.114388 19.723253 5.1246524
15.106262 6.0596924 5.2961969
16.849281 6.8567281 5.2279773
16.893805 16.465897 5.21454
16.528152 21.008408 5.2344904
17.091812 3.1409173 5.3804193
14.249889 8.6151943 5.3768396
17.848856 8.6739359 5.3066273
15.562252 21.586929 5.3853617
15.418315 7.034483 5.4265351
15.205586 18.381029 5.4564247
16.278875 8.6596041 5.5097437
17.023954 21.879622 5.5663829
14.929001 16.464993 5.6942205
17.524853 16.445627 5.6331997
14.383281 21.059019 5.6649141
20.559917 7.3114824 5.7356868
15.235214 8.6563015 5.7621503
20.540855 17.661247 5.7746887
21.65023 18.976698 5.7093401
16.299095 21.704689 5.7485237
14.030952 5.3819494 5.8892474
14.679199 16.460468 5.8780499
13.896971 7.1481524 5.9037247
17.221704 16.43734 5.9341941
18.451733 8.7245293 6.0790901
15.419324 3.5479677 6.1797991
20.929972 21.047308 6.1013765
15.624533 3.5163751 6.2818432
13.87413 5.7843676 6.4242859
13.849549 17.304005 6.4089742
18.810787 3.764034 6.5657101
13.998146 4.2687426 6.5282812
20.622734 7.224967 6.571661
13.940635 4.5679836 6.6577358
21.20763 6.6680202 6.6073294
18.593449 8.7576599 6.6612344
20.538519 17.65847 6.6455097
19.944347 21.226105 6.6804929
21.180382 6.1688261 6.7206435
21.45311 19.335747 6.8273444
19.13456 16.371996 6.9340057
15.981784 16.409414 6.9989519
13.757151 5.6398335 7.0191622
13.979797 19.683147 7.034586
15.624335 21.417349 7.0545344
16.366749 21.578169 7.0355015
20.999115 6.8448195 7.2725286
16.158512 8.7481928 7.216918
15.022152 3.7402592 7.3254614
14.054113 8.6061974 7.300642
15.516439 8.7465076 7.3787446
20.938652 6.890326 7.6449561
16.854218 21.619301 7.6114283
15.722448 8.7689533 7.7399697
14.053991 16.396986 7.7910709
19.851038 16.933006 7.7346568
21.137054 18.14604 7.962893
18.154774 21.496544 7.9602547
16.492378 3.5409157 8.063509
14.202934 20.247532 8.0153522
19.597008 8.1019592 8.1989985
16.25209 3.6040313 8.2572107
13.433503 6.8559198 8.2581749
15.727059 3.7032254 8.3293123
15.922015 21.334763 8.3894186
15.267697 3.797091 8.4167929
20.08736 4.4979663 8.4633636
18.274639 21.395315 8.5498457
16.480888 3.6106884 8.6782293
20.620317 7.1609755 8.6375084
14.330316 16.360731 8.7370577
13.656865 4.6468973 8.8425913
13.282417 6.4359713 8.8781347
20.462605 17.511986 9.028553
15.101757 21.048937 9.044857
16.844957 3.6396675 9.1446199
19.968159 7.7600188 9.2818289
18.262415 4.1031237 9.3729019
20.429571 4.8956275 9.3906002
20.71575 6.1387119 9.3448009
19.56654 16.63236 9.3782043
18.874575 8.5210791 9.4476891
21.486353 18.578098 9.4732933
13.776824 18.95682 9.4555016
16.225998 21.282949 9.4556847
19.118961 21.083981 9.5403471
15.386673 3.9080522 9.6505404
13.998199 19.495129 9.6589928
17.881559 8.9122095 9.7908821
15.669677 3.8866534 9.9025373
14.942099 4.0191627 9.9575462
20.730259 6.9033442 9.9786282
15.303442 20.965145 10.135044
14.700764 4.0916171 10.234296
17.180439 8.9325743 10.386406
20.572752 20.643538 10.343738
19.774727 20.839197 10.333092
16.230093 3.8455784 10.413347
13.669725 18.126427 10.471827
14.542774 4.1539645 10.550749
12.917604 6.8937817 10.561846
19.346331 8.1290159 10.569466
13.623848 18.450598 10.58844
15.90641 21.06937 10.588058
13.742075 17.590965 10.64694
21.279278 19.028862 10.612117
17.921761 4.2568045 10.785689
20.524046 7.1833019 10.792742
16.327194 16.261459 10.795263
16.914446 3.9901876 11.00576
12.826524 8.1371641 11.076962
14.110354 19.685394 11.023759
13.878548 4.3591466 11.292109
17.982281 4.3636298 11.267912
18.85771 8.4205341 11.282362
16.966377 21.245287 11.244515
12.739334 7.0068493 11.370567
18.339609 21.024214 11.359066
17.269295 21.260195 11.348566
16.965752 16.22423 11.446046
20.754717 17.621841 11.425516
13.968 19.303566 11.4387
17.523233 16.21262 11.502025
16.094379 8.866292 11.661711
17.689011 16.197727 11.799121
17.821106 21.09318 11.71142
19.015486 16.173586 11.846902
16.212318 20.986971 11.888073
18.651358 4.7121634 12.04838
20.297115 20.510117 12.020197
16.218611 16.209639 12.110179
17.146738 8.9892626 12.269733
14.098518 8.6453705 12.313886
18.129395 4.6527658 12.601164
14.614799 20.463995 12.64063
15.430182 4.2368517 12.701302
13.84528 16.749844 12.796243
16.369356 20.91507 12.789602
15.260381 4.2819571 12.842749
19.491707 5.1209207 12.870132
12.390614 7.1912675 12.887941
16.310959 20.895222 12.82289
13.611259 4.5743022 12.91277
17.562651 16.154465 12.900624
14.136358 16.208973 12.980552
18.145643 20.849903 13.066322
14.409456 16.19466 13.142254
17.234709 21.037062 13.164168
12.56922 8.5825739 13.277289
13.870771 16.416681 13.270483
13.656669 17.891796 13.285187
17.515343 9.1300154 13.366776
16.334951 4.2390327 13.423534
17.111204 21.027842 13.477471
16.642202 4.3495326 13.525268
14.30755 4.4717336 13.57835
13.387127 4.6282101 13.516318
19.686047 16.718712 13.570696
15.321157 20.560524 13.573592
19.789494 5.913403 13.641073
19.883215 6.5475574 13.6388
15.901785 16.103386 13.645456
20.898075 17.763742 13.682182
17.109507 9.1351099 13.702759
16.854662 20.973169 13.79571
16.074696 4.2179418 13.805057
17.803255 4.7576103 13.848526
20.949478 18.631588 13.96476
14.925638 20.438087 13.978013
16.247545 9.086462 14.000355
16.989647 20.971706 14.257333
12.031271 8.5602951 14.30045
18.229788 15.96785 14.371881
13.483813 17.745344 14.377649
17.620333 4.8001437 14.486654
20.257099 17.297796 14.452804
20.783718 17.773764 14.431585
18.542934 8.1684132 14.586721
16.261984 4.3991613 14.601514
12.056553 6.3740306 14.624446
20.726763 18.870964 14.605894
18.063862 20.665209 14.660824
11.84568 7.2702627 14.863312
15.84816 15.959618 14.884262
20.691465 17.744949 14.802507
18.842682 20.459724 14.93288
18.324268 20.576962 14.906275
12.121997 6.0054126 15.28653
11.751482 7.6462641 15.236572
11.769202 8.5778351 15.246083
19.152441 7.5980673 15.359694
13.334687 18.246704 15.440428
17.922298 5.0751634 15.64978
13.374557 4.6868858 15.756609
16.551386 9.366828 15.795772
20.610798 18.070972 15.79097
13.612101 19.028324 15.705343
14.128368 9.1337337 15.90781
12.328497 5.3355155 16.021448
18.853828 6.4027147 16.161026
20.053907 20.029408 16.192486
14.374727 20.213419 16.126625
18.810623 16.260187 16.294182
13.340403 16.380766 16.288425
19.867117 20.062981 16.284212
11.429917 7.7031231 16.40313
15.616398 9.3660603 16.449507
13.366531 16.033407 16.421841
16.556793 15.746439 16.574881
19.659111 17.044182 16.557781
13.117818 17.704243 16.564011
15.232393 4.4018545 16.666403
11.354806 7.6108708 16.666361
17.018274 15.720261 16.712992
18.212044 20.363518 16.77951
12.131598 5.3461332 16.834164
18.356861 5.4965591 16.923227
14.681568 9.3448954 16.989216
16.297541 20.711365 16.94219
13.040973 17.996428 17.084724
20.08445 18.871883 17.021362
11.214096 7.5203805 17.166695
16.241711 9.3105564 17.189919
13.1222 4.7712278 17.337929
11.183277 8.3839169 17.343241
14.393521 15.697422 17.31032
14.819528 20.293192 17.335331
11.804274 5.6810184 17.468412
18.188301 7.8190565 17.424034
11.153254 8.8110943 17.482683
18.019239 15.706534 17.434887
18.84333 20.140474 17.445129
14.982195 4.4659843 17.577623
11.120968 7.5512524 17.505812
11.977221 9.1416397 17.568117
18.357904 20.229969 17.57897
20.082991 18.207659 17.699493
14.369459 20.158131 17.692299
17.819138 5.4729958 17.783726
20.16366 17.864647 17.733915
17.840208 20.339762 17.747671
16.410872 20.716131 17.700653
17.670858 5.4375601 17.87941
15.523314 9.5470486 17.806675
18.128393 20.252579 17.822001
15.809082 9.478981 17.971897
18.236984 7.4281015 18.07966
10.982109 7.9997702 18.040033
18.22065 7.6494923 18.137201
18.80929 16.496872 18.18985
19.766853 17.398907 18.15756
19.911713 17.528484 18.109118
12.896897 17.956799 18.161737
11.124868 6.5887375 18.291168
15.446613 15.573181 18.218863
18.532814 20.108618 18.232372
12.928137 16.71265 18.406382
13.548058 19.718147 18.5084
11.111728 6.4183154 18.745359
14.610112 4.548975 18.808958
15.052494 4.6812763 18.826509
12.205874 4.9709482 18.852777
19.147396 16.925388 18.87505
11.707586 5.2120609 18.938938
17.38895 8.0531902 18.941946
17.756165 7.7774053 19.028221
16.636793 5.3124747 19.143841
15.49941 9.4685154 19.149879
10.634497 7.8928232 19.284809
19.119499 16.952854 19.216305
16.714855 8.4964485 19.307077
19.795038 17.713362 19.316641
17.016411 20.36598 19.482292
17.13649 20.340912 19.414951
11.26391 5.7439337 19.622496
10.542485 7.8202925 19.611055
13.365271 15.425332 19.695831
18.568649 16.496506 19.630962
14.444655 9.7108793 19.769547
12.80595 15.730049 19.842751
11.507102 5.1473093 19.937197
17.392792 6.8878617 19.953369
11.486731 9.4415464 20.037025
13.861927 15.381544 20.001152
15.850463 20.480164 20.076271
18.184433 16.211964 20.133949
13.632 15.343442 20.345417
10.335047 8.8103638 20.513058
12.518376 17.707104 20.517775
15.087368 15.290302 20.619759
19.098625 17.156828 20.627747
18.468075 19.836378 20.646326
12.430431 16.842974 21.082569
15.569315 9.2771568 21.147179
11.280123 5.2269192 21.286873
13.317639 4.8660498 21.383635
14.599108 4.9096107 21.36397
11.486847 5.1959867 21.357298
15.309393 20.295364 21.323265
13.621934 15.212657 21.431234
18.132843 19.831242 21.427761
14.420662 15.190155 21.523247
10.674748 6.4998646 21.684387
15.298335 5.1962414 21.866621
17.427198 7.7758837 21.823725
18.1007 16.120037 21.907162
18.305651 16.303043 21.981071
17.530523 19.988335 21.971437
12.377787 17.63866 22.080875
16.380207 20.311407 22.000471
13.024031 5.0003657 22.156727
17.299988 6.9451513 22.115585
15.61 15.091823 22.115765
18.678457 16.608282 22.26141
19.305861 18.053488 22.217867
19.156548 18.598412 22.280714
15.026714 20.170809 22.295284
12.520067 15.365979 22.438059
14.671337 20.069187 22.401571
17.419949 7.1501999 22.529896
10.310668 7.6554542 22.548271
16.611891 15.003881 22.665211
18.980331 16.830988 22.617416
10.417739 9.4985962 22.730135
19.476397 17.582554 22.770067
15.923437 5.4711537 22.839954
17.125851 5.9311743 22.897274
19.160807 18.716404 22.829109
14.178031 4.8521867 22.961908
15.528723 5.3259296 22.973806
10.416783 8.956007 23.241997
14.975159 10.253121 23.208658
14.395462 19.96122 23.283257
18.570551 16.301287 23.333782
17.313002 6.0239768 23.465622
17.17165 14.914566 23.427637
11.139387 5.930479 23.531153
17.014439 8.9135065 23.544636
13.160397 10.11228 23.540302
19.21191 18.703974 23.524845
17.075369 5.9395785 23.626217
17.764357 8.3071756 23.770895
11.887051 5.3885336 23.870935
19.122192 19.18363 24.016647
11.544709 5.481204 24.158508
15.3099 10.418364 24.137884
14.239517 14.825214 24.15484
15.308323 20.182232 24.110016
12.367429 15.270621 24.291828
16.571833 5.7776875 24.413612
17.823074 15.344994 24.559065
14.966073 14.741197 24.682484
16.76667 14.743488 24.734383
10.502969 9.0698576 24.879229
18.151249 19.754799 24.855812
17.302212 19.993902 24.84552
15.70284 5.4664712 24.994936
11.327248 5.7636733 24.963779
12.311845 15.266989 24.928152
14.942148 20.049316 24.994684
18.027872 7.8467255 25.044888
11.646766 5.5673175 25.146832
17.915438 7.197669 25.194408
12.113029 17.087608 25.137243
11.078007 6.3876157 25.226727
14.078959 10.447977 25.252842
12.392299 17.904825 25.200054
17.931168 19.808964 25.235886
28.199436 2.0184956 25.314529
16.740988 5.8773761 25.344442
10.481766 8.5254536 25.474308
11.209024 6.149014 25.576015
14.039551 14.637667 25.513432
12.215994 16.013973 25.527908
18.057926 8.659071 25.625387
17.373533 9.328083 25.61343
17.644073 14.925348 25.698874
13.724261 5.2298727 25.847652
15.238105 5.2663054 25.890587
12.117967 16.594511 25.898842
17.973045 6.8043346 25.979731
14.187522 19.800293 25.991974
27.821934 1.387316 26.087132
14.440585 10.603842 26.095629
12.985743 14.57799 26.043978
10.589781 9.5733852 26.147629
10.437155 7.9295926 26.442682
15.423761 20.128817 26.450401
17.018045 20.038218 26.591415
10.455923 8.1564074 26.637199
10.467726 7.9304366 26.756054
19.259109 16.303167 26.815887
14.961483 19.983437 26.95116
28.886433 1.7474046 27.007572
18.901344 15.908345 27.084473
28.47089 0.97609437 27.180553
18.363117 7.5938964 27.18417
12.659538 18.744244 27.156839
19.457771 18.963699 27.279161
18.552116 8.3495159 27.34465
12.818012 19.171091 27.348345
14.829533 19.931164 27.39015
26.662405 2.3197374 27.478998
12.184181 5.7145963 27.459911
12.778292 10.667572 27.456562
19.137913 16.060379 27.48214
13.198316 10.717886 27.580605
14.283293 10.794514 27.56572
14.36072 5.2426257 27.653828
15.46009 20.09671 27.6073
10.575018 7.9079399 27.728352
12.355547 10.677364 27.711628
12.053284 14.556792 27.727915
13.196219 19.377789 27.736618
27.393211 2.0284703 27.844208
13.290146 19.397472 27.959318
11.937227 16.81609 28.010597
18.528267 7.576107 28.11376
10.721918 10.250462 28.165754
11.957607 10.711156 28.106192
12.117558 10.736704 28.193584
12.228428 10.74906 28.220516
12.015417 14.844248 28.228445
14.609212 5.2444725 28.325209
12.21628 5.7990723 28.312712
16.46084 11.051444 28.391325
13.745188 5.4687099 28.47966
12.02182 5.8469791 28.43137
12.769696 19.126774 28.462202
17.539143 19.839712 28.460949
28.578959 0.67061579 28.557207
13.980942 5.4137964 28.50518
12.594807 18.677315 28.545916
10.757668 7.7298055 28.68317
11.024407 10.727511 28.636156
12.476543 10.829313 28.611454
18.402893 9.382473 28.701639
11.937269 16.281466 28.909336
18.685604 19.408216 28.963461
10.787593 10.693688 29.064318
12.76319 14.166955 29.000103
12.613607 18.767162 29.104195
18.741007 7.5679278 29.294056
12.1102 17.401052 29.211254
29.279917 0.30422011 29.346214
24.754766 2.4954629 29.378147
13.223825 5.6766911 29.357025
11.411521 6.3704605 29.335178
11.270717 6.7061486 29.392101
16.191086 14.153252 29.328243
25.2799 1.4818616 29.446585
18.639103 6.9910574 29.414925
11.916156 15.193851 29.44713
11.875735 16.766325 29.456894
11.884736 14.222927 29.582821
11.633465 6.0510073 29.691526
19.027943 8.6217308 29.646372
20.130611 16.933414 29.657661
13.627165 19.41938 29.687477
10.78405 10.196054 29.742119
19.525101 19.076733 29.738506
27.451855 0.74663347 29.874886
10.814372 10.471094 29.825598
12.737776 11.042509 29.832125
28.708099 0.34946972 29.981028
19.078444 8.6105499 29.937311
13.598694 14.026731 30.056126
12.031292 17.24025 30.052719
17.941288 19.632778 30.095051
19.33033 15.726795 30.135506
19.782158 16.148609 30.283947
12.170379 17.640129 30.242592
10.980219 7.5494814 30.33186
14.833233 13.998837 30.404484
17.279472 19.858782 30.410484
16.507401 20.103695 30.422329
12.941971 5.8608928 30.605701
14.749201 19.744411 30.633886
24.077715 1.5920327 30.705452
10.590526 8.4786339 30.743538
18.429693 10.068453 30.763685
20.186205 17.001236 30.749672
12.315945 6.038733 30.883448
11.769137 6.1646981 30.997959
18.74873 6.8547192 30.960451
10.597497 8.5012369 30.927252
20.167856 17.133553 30.912554
12.515145 18.646814 30.963905
15.701979 20.04085 30.970665
17.705173 6.4070621 31.073856
18.432758 6.7317524 31.109947
11.985399 11.199504 31.163435
17.76405 19.655355 31.174994
15.628143 5.4822092 31.230108
18.625446 6.8188496 31.260408
12.886972 13.860224 31.294926
17.239002 6.2014933 31.364063
10.830691 8.0823164 31.354189
11.758549 15.636333 31.356134
25.167734 1.9795055 31.449331
12.559457 6.0458221 31.598345
16.469227 13.87512 31.550106
20.285872 16.830307 31.502144
19.893391 18.690531 31.543741
10.937683 11.171264 31.642052
12.681787 13.809753 31.671524
22.082558 3.0581598 31.753681
11.956883 17.15094 31.74176
21.883339 3.1013427 31.836679
10.669349 8.5371504 31.8337
20.258915 17.104282 31.870674
19.925671 18.65699 31.827906
10.89869 10.740849 31.960169
14.510649 19.598274 31.90163
18.020367 19.535112 31.910889
23.010208 1.6435416 32.056698
12.45236 6.1120934 32.032661
12.422171 18.468876 32.092518
13.452868 13.764019 32.112324
26.047678 1.134264 32.232204
22.26115 1.615633 32.242298
18.06715 14.004011 32.215889
18.390209 19.388832 32.258804
17.592371 6.3671942 32.399529
10.81351 8.3012323 32.331757
18.744183 10.292818 32.308578
15.523878 13.760862 32.352642
14.206626 5.7266755 32.472919
12.46318 18.609978 32.481865
13.26222 19.15321 32.439255
15.61663 19.939247 32.441826
11.539659 6.6676068 32.570347
16.50141 20.058105 32.522598
14.237299 5.7337227 32.629375
19.937031 15.824275 32.650734
12.930107 19.029009 32.692947
14.829491 19.66449 32.669144
13.582905 5.9009933 32.740879
13.649819 13.689144 32.72316
17.725748 13.735043 32.785259
11.608807 14.133899 32.741745
11.62777 15.023779 32.713638
15.237569 19.798393 32.714134
23.486217 1.3403878 32.866425
23.775032 2.1130788 32.877712
10.715 8.658082 32.80925
12.752705 11.520191 32.87101
14.346073 19.491169 32.896088
19.635143 9.657217 32.924744
19.228899 10.116421 33.073715
18.569921 10.767685 33.083813
17.104586 13.697147 33.041344
11.618169 15.482443 33.050472
19.653494 15.445856 33.077824
15.030005 5.570899 33.175793
17.407013 6.2800808 33.182907
14.586392 13.658487 33.165142
19.833103 18.835356 33.164322
12.147555 11.523127 33.204086
14.63528 11.712723 33.262581
19.287905 15.030625 33.232254
18.028233 19.479477 33.296066
18.1628 11.25799 33.307568
13.51978 19.19379 33.353241
17.224033 6.1955028 33.458862
20.117355 15.788773 33.477905
10.795009 9.0121479 33.586636
19.150812 14.737524 33.530155
11.781725 11.555279 33.62051
13.316454 11.666967 33.619232
17.13953 11.934945 33.618576
11.575229 14.522113 33.669224
21.344532 2.8698733 33.816437
14.838375 11.810879 33.852699
11.557291 13.836513 33.816936
19.347589 14.802887 33.81942
15.164191 11.850084 33.962135
20.195398 15.658272 33.908195
17.669176 13.598916 34.237736
11.538632 13.931526 34.28532
13.231098 13.528131 34.311703
13.784132 13.535675 34.397949
17.78355 3.2370098 34.487015
12.539123 13.491076 34.439068
12.279228 17.609398 34.470989
11.604112 11.674811 34.558449
12.937866 13.486135 34.589672
18.194277 13.579914 34.521824
20.314613 17.050581 34.590691
12.978542 13.480843 34.64584
11.969168 16.824976 34.612694
19.444225 1.9600992 34.756916
16.31617 5.7769985 34.726059
19.747648 10.295905 34.777733
18.963459 11.184741 34.795639
13.406601 6.0675688 34.822426
18.265368 12.184587 34.978619
11.652375 15.785303 34.989201
13.029856 18.964752 34.925117
14.957384 5.6870155 35.091927
20.53466 15.497885 35.02874
14.304937 5.8483896 35.140076
17.279594 6.2019968 35.101112
11.057936 8.7387381 35.149422
21.464207 1.8627739 35.228775
14.901842 5.7095776 35.267815
13.857615 13.432676 35.295418
11.509044 14.619422 35.237305
19.995583 14.780141 35.252087
19.830215 7.2083583 35.463303
15.064987 13.452543 35.454739
11.831792 16.421045 35.424572
20.038326 18.072649 35.48254
18.659044 6.7394657 35.504601
11.755651 13.333517 35.56813
18.853424 13.500211 35.518005
17.353094 3.6410141 35.64875
15.376805 5.6160789 35.699512
17.482344 13.471289 35.675549
16.958513 19.016293 35.622063
19.072048 1.8770127 35.737358
14.570623 5.8161917 35.76511
15.780043 12.152214 35.949898
16.66573 5.9178147 36.066204
14.390631 13.358571 36.071785
20.44523 16.256487 36.183239
19.65966 11.365395 36.299923
14.410633 13.343092 36.209106
20.270416 1.7756314 36.363266
13.809409 13.303246 36.384937
14.742737 19.155334 36.32201
15.736437 4.6780114 36.420998
18.440075 12.389588 36.46331
20.782885 15.587705 36.412231
13.837934 6.1235495 36.539986
19.39035 6.9828644 36.570404
11.419838 8.4809866 36.534157
12.498052 12.018777 36.537815
19.639709 13.743938 36.580891
12.852589 18.494019 36.590382
15.985506 4.4337783 36.691055
15.307034 4.7031207 36.621956
14.945487 5.8030725 36.691071
13.677507 13.268099 36.648468
14.921936 13.306646 36.658745
18.871016 13.398026 36.69038
20.677612 10.254879 36.739799
12.058426 16.725452 36.793438
12.555188 17.805803 36.702999
14.24902 3.5763671 36.889168
15.627018 4.3051634 36.888187
14.9305 4.4286418 36.822433
13.961517 12.156631 36.875885
20.116327 17.151321 36.830967
19.621223 2.4011235 36.935699
14.351331 3.0491793 36.952965
19.649467 11.864245 36.919827
18.135492 13.359866 37.034203
20.145008 16.939941 37.004639
15.682826 5.6239729 37.10593
13.567562 6.2707386 37.135761
16.070473 13.288992 37.121704
18.595247 13.3572 37.122948
18.30864 1.8882999 37.282574
13.310138 3.8508325 37.232895
15.854419 3.9656477 37.222519
19.055574 13.352327 37.237045
14.129372 4.3241744 37.3592
21.274355 9.4878845 37.321873
20.812109 10.519096 37.32394
20.413383 14.20833 37.422821
20.487843 14.31937 37.401405
20.917179 14.891708 37.422478
13.127782 3.94627 37.524479
14.093432 4.1758142 37.56752
17.386589 12.459054 37.512283
19.90485 13.55438 37.530731
14.235321 2.590832 37.602253
18.028269 6.4376945 37.647621
20.916553 8.5667267 37.644165
11.605308 13.075259 37.666851
12.220702 13.108535 37.611362
20.779778 14.594966 37.657413
14.290264 4.0285788 37.714638
19.099953 6.8691025 37.70594
20.137604 16.700758 37.702652
17.788706 2.8919418 37.882374
14.349173 6.0544682 37.898087
19.756878 12.432174 37.843201
20.417032 14.020152 37.833771
14.062029 2.3929076 38.054447
12.729158 12.988894 38.024193
13.113149 13.022308 38.00985
13.313937 4.3329844 38.105549
14.805109 12.466458 38.160103
20.011766 13.382259 38.106781
11.100028 4.1176991 38.216431
17.713064 6.337738 38.245789
11.045082 11.157623 38.256325
18.398554 12.688365 38.273525
14.836897 3.3974488 38.334522
13.38026 12.427385 38.30125
11.261885 13.448048 38.399483
13.725238 3.7659628 38.453926
14.653486 3.8336291 38.448273
16.255125 18.098076 38.431976
20.620268 11.17123 38.501678
18.621128 12.687469 38.591412
12.613418 17.828045 38.59164
13.429497 3.3476954 38.687836
15.607429 12.664616 38.640564
16.34136 1.8539553 38.751389
12.729218 3.5740104 38.787361
13.6343 4.0316505 38.794769
13.789107 6.2459917 38.708855
21.090981 10.449376 38.718216
11.377057 14.442068 38.719765
19.083818 17.237162 38.710812
13.468063 3.9974022 38.899788
21.441788 9.37327 38.885139
21.442059 9.350523 38.956219
13.306257 18.531469 38.970867
16.398561 18.775566 38.965096
12.235123 3.6704834 39.050663
9.4389219 4.9900446 39.05669
14.3837 12.700895 39.093494
15.162506 12.747701 39.017456
16.118088 12.784131 39.041466
16.494764 12.742014 39.02277
20.704081 13.832209 39.06205
19.691181 13.074865 39.112038
16.544615 19.462292 39.101833
12.457572 3.3204262 39.282986
11.785603 8.0611134 39.245247
11.026359 9.4576054 39.298847
13.178698 2.625602 39.348396
13.103211 3.0531745 39.396072
15.208684 5.752892 39.382324
14.037789 6.1590905 39.357506
16.054358 3.116868 39.432358
15.711733 3.2204299 39.46109
11.386203 4.1139197 39.433842
8.4883995 4.2985697 39.424301
18.409283 6.5403633 39.433144
18.678787 12.90983 39.414722
13.462002 3.5203061 39.527588
12.843904 4.2279348 39.500328
13.165107 4.9565883 39.561119
18.008373 12.806892 39.590374
10.036352 4.2834716 39.620331
11.534513 4.3841143 39.666035
11.8217 4.3495035 39.616859
7.6795673 5.5215273 39.60442
12.217428 7.3460398 39.637779
20.993444 10.76086 39.633587
11.070999 13.989583 39.613701
15.362425 3.4589734 39.75695
7.7571182 4.371582 39.719345
19.493328 12.682353 39.716248
20.197063 12.957148 39.742256
7.7610102 4.531498 39.894218
9.4020395 5.1566939 39.80109
6.9351296 5.3792725 39.809067
21.44545 9.0539389 39.881599
21.276085 14.094179 40.017838
14.038197 18.568605 40.02121
11.847521 3.7509773 40.144917
12.059061 3.8315961 40.137283
7.4127703 5.4540505 40.102722
15.198383 5.7379799 40.206219
11.083197 14.636651 40.240189
20.348433 16.380583 40.229675
13.360737 4.0359545 40.326065
7.0995231 4.391789 40.36628
10.836183 4.5274315 40.396183
6.3240852 4.6543584 40.377747
6.8038082 5.0641999 40.356026
7.9861298 5.6857166 40.308441
14.01564 6.1547155 40.311729
20.110435 12.677233 40.398903
16.860172 18.320503 40.367249
15.776323 2.2226224 40.471001
7.9809237 4.323566 40.410175
21.471327 8.9426107 40.480312
10.889738 10.903869 40.469658
12.619997 16.904922 40.497837
20.241919 16.945024 40.447945
16.259895 19.772346 40.427689
15.03655 2.3284791 40.531826
8.0798988 5.5264578 40.52615
6.7764225 6.0162191 40.557579
18.09429 17.623926 40.583431
6.2075377 4.7696471 40.668926
9.8530083 3.8734949 40.754089
6.8334951 4.4702425 40.719505
21.660486 9.9415169 40.756004
13.992931 17.520065 40.797478
10.338286 4.1067724 40.814102
5.7816038 5.6079454 40.893959
20.644598 12.701861 40.889828
15.93408 2.2652884 40.921875
7.4331942 4.8708186 40.900524
14.073651 6.1595712 40.986572
9.7867727 4.4593778 41.072495
4.7094879 5.1733527 41.030209
6.2710152 5.9813008 41.067734
18.885426 6.5913687 41.042698
19.030441 6.6374311 41.004097
12.325534 17.322701 41.039742
16.239414 18.143421 41.052738
16.726875 19.765175 41.027328
16.417965 2.4217236 41.105053
6.9861875 5.0620766 41.164177
7.2291298 5.3870697 41.188049
6.0015287 6.1780686 41.162712
13.944678 6.2122412 41.172855
21.18326 14.678447 41.197071
19.848778 17.167778 41.122501
15.831813 3.938905 41.275276
14.344532 4.1085501 41.275509
8.1353188 4.2339382 41.246117
7.4742312 5.1829214 41.234676
8.1485586 5.191783 41.287865
7.0341187 5.5760274 41.209946
15.066218 2.417366 41.355209
6.2999744 5.5991683 41.322838
12.234513 7.4382601 41.381721
6.707294 4.8728504 41.442059
6.9403028 5.2688656 41.437336
7.3255196 5.2695804 41.459724
14.311177 6.0945125 41.492439
12.364871 7.2297401 41.419827
21.362352 10.948646 41.455181
14.498469 2.6054735 41.522789
7.1140456 4.4459186 41.500134
13.242777 6.473454 41.596722
14.407001 18.267099 41.558609
13.39762 17.276159 41.670403
6.1375356 5.3338127 41.703548
13.963802 17.706778 41.753796
17.405033 19.538467 41.79554
15.155042 4.1598063 41.819107
8.1146507 4.5551262 41.814774
5.9999566 4.7992411 41.878315
4.3361545 5.3205223 41.8759
11.138636 15.329198 41.863209
16.730537 3.0165441 41.979748
5.5507984 5.1733642 41.936932
17.79767 17.826809 41.9818
12.313745 7.3764048 42.083733
20.800713 7.6730275 42.004433
21.179352 8.9186602 42.016403
19.189522 17.483114 42.068565
17.725544 17.847782 42.0159
16.831886 18.071823 42.001274
17.172922 19.578066 42.024071
5.3476558 5.6288872 42.14539
21.285368 13.267387 42.11747
21.435324 14.283661 42.199211
13.844484 17.734228 42.163628
13.127728 18.349699 42.145618
6.1329684 4.630672 42.254772
21.309477 13.417236 42.287079
12.656522 17.377813 42.271187
16.198694 18.230911 42.243477
14.701941 19.241287 42.282757
16.018854 2.025301 42.319107
6.4782286 4.7710614 42.389313
5.4858599 4.8031616 42.340591
6.7253337 5.3390746 42.335617
15.928596 18.272198 42.389633
6.2453036 5.4839535 42.41935
2.5100117 6.2999315 42.420189
13.828465 17.924862 42.410591
5.1398678 5.8222876 42.525013
10.662996 13.58538 42.59761
14.522858 18.269501 42.585846
15.344085 2.0023656 42.626804
6.0138679 5.4653335 42.603268
3.1077199 5.8600159 42.677948
19.577734 6.6721067 42.679268
14.284443 18.060595 42.658146
0.48472753 6.5808721 42.787384
12.899105 6.6322107 42.798859
2.1295841 6.7315588 42.719887
12.70533 6.8047037 42.770237
20.528833 6.8162527 42.750641
17.396267 19.013535 42.79047
16.940681 2.8970363 42.815102
2.6876478 6.3380914 42.866489
20.666636 7.9412613 42.831173
11.03639 10.197648 42.84861
10.733616 11.629824 42.895775
15.355011 19.088844 42.854717
21.048927 9.261116 42.916115
15.352631 5.7856054 43.081825
12.756922 6.7431278 43.004509
16.694357 5.8584971 43.134094
10.620811 13.611833 43.101219
13.375843 17.758793 43.100834
14.483118 18.177746 43.107075
17.295341 19.05397 43.193409
16.066706 5.6596475 43.279861
20.774956 16.494339 43.294605
17.930527 18.748486 43.272858
4.3227859 5.1636333 43.322105
11.988949 16.865887 43.332912
15.829345 18.32233 43.34193
16.399284 19.669529 43.332581
1.4170367 6.4409008 43.456699
20.73811 11.386561 43.429321
13.113293 16.73152 43.462334
14.853024 18.418026 43.424828
10.987652 14.916195 43.537079
11.863859 16.715315 43.548595
13.078253 16.836319 43.564491
16.484957 4.1295023 43.658432
20.893463 15.757584 43.688801
14.099619 17.594734 43.690166
17.212177 17.823833 43.693718
17.265459 2.803746 43.791733
3.0677576 5.3770609 43.712135
3.6145184 5.7576237 43.796036
13.565349 17.885786 43.757599
14.370323 6.1579089 43.885479
10.582872 13.548474 43.841873
20.630186 11.206787 43.997738
13.377829 16.976364 43.949963
0.52087384 6.3418732 44.072155
20.890306 12.717218 44.091511
13.706845 17.476488 44.002361
13.347054 18.70068 44.061333
17.062597 18.787706 44.029114
2.676666 6.1285925 44.148155
18.976862 17.374264 44.16423
19.098644 17.351326 44.132607
2.420166 6.0898809 44.247028
18.67194 17.430288 44.254578
14.493429 17.680227 44.205833
19.263668 17.269983 44.488102
12.610428 17.798246 44.412792
16.817446 5.8618369 44.563324
20.771095 15.45682 44.627525
15.214085 2.3100777 44.705788
20.403347 10.089775 44.73991
10.842314 10.676942 44.748558
20.457657 10.625326 44.726364
10.608487 11.50351 44.71471
20.771984 13.110768 44.786545
18.934254 17.311008 44.740257
15.002563 18.550768 44.773167
0.92661184 6.5666776 44.855927
11.932424 8.2576294 44.810436
11.15615 9.5567799 44.828739
20.438774 10.698872 44.89011
10.654273 13.682297 44.821651
14.950842 18.083057 44.989456
20.488165 16.102825 45.097355
13.595047 17.155767 45.084549
15.883062 19.751339 45.001045
15.686996 1.9274358 45.117737
10.555849 11.554417 45.143562
17.668343 5.8884096 45.265419
10.427841 11.974935 45.228298
14.978909 2.6649148 45.375732
11.058788 10.578588 45.36618
14.320124 16.832663 45.377331
14.599113 17.629183 45.302639
14.784946 17.831631 45.331047
20.270695 9.8804121 45.445675
15.545769 20.370089 45.437767
20.419304 11.621222 45.577217
15.914955 18.937462 45.532333
17.004204 5.7606678 45.645401
15.234529 6.0215273 45.624184
10.675983 13.417219 45.639771
21.329906 13.675681 45.692719
11.011044 13.959828 45.634926
13.892799 18.118412 45.676277
14.043236 18.180834 45.653168
16.285089 19.925745 45.688347
16.971867 5.3669724 45.779724
19.083572 5.9851809 45.746101
19.896444 6.3900723 45.788086
21.260464 10.25481 45.788124
17.788578 2.3776679 45.828293
15.353787 6.0196409 45.873623
20.182949 9.6636267 45.864559
21.354618 11.220052 45.841293
13.052145 6.2618442 45.930191
14.76313 6.300405 45.931793
20.801065 11.12604 45.931206
20.834251 11.40967 45.937622
11.532436 15.383619 45.937561
15.188926 20.464092 45.916161
13.239653 7.1765528 46.075146
21.120783 7.9355268 46.098869
20.034975 8.5586843 46.072632
11.876378 8.628767 46.049015
20.313343 11.10787 46.078201
17.304264 5.1759114 46.17617
12.385734 6.6339421 46.160465
20.49028 9.6206894 46.138988
10.231222 9.8954353 46.177116
15.929846 18.548393 46.122139
17.847534 4.0481744 46.206356
10.481064 9.8854294 46.209282
21.06266 16.442984 46.277084
14.800526 17.719292 46.298622
13.795294 18.216064 46.200142
13.826708 18.367231 46.271862
18.316202 2.8401122 46.345932
15.403204 6.0089769 46.314407
9.9454861 12.785717 46.365669
20.914438 15.35486 46.303192
14.497547 18.399944 46.380009
18.613863 3.2427144 46.402252
20.013702 6.7139521 46.423134
20.522449 11.29492 46.47086
15.250864 18.130318 46.424023
15.980968 18.811592 46.487373
14.51278 19.833218 46.461517
15.786304 5.8144989 46.596348
17.612272 5.8662519 46.569439
20.671188 15.412069 46.518288
16.388624 1.69823 46.648247
19.28507 6.1356745 46.604279
12.630634 17.623779 46.627831
13.893972 5.5403938 46.717793
14.01366 5.5291862 46.78315
12.970439 5.7239761 46.73999
20.170721 10.500809 46.753334
21.450672 13.322411 46.726135
20.554367 15.42323 46.728195
12.270152 16.509346 46.792633
16.679897 20.583742 46.748863
17.953875 1.9789641 46.89386
18.561651 2.8817086 46.87912
21.518997 14.456101 46.881466
17.613026 17.871357 46.82579
16.907087 1.6718781 46.980385
18.582333 3.8509359 46.914032
11.089664 6.550324 46.993664
21.289875 9.4131279 46.937389
10.419543 16.453751 46.921471
17.154263 18.084276 46.925686
17.394459 4.3919754 47.056316
20.873791 6.7673206 47.190689
21.28191 15.963834 47.160477
20.234095 16.9081 47.19384
21.447569 13.327151 47.260384
19.014732 17.403982 47.273605
18.274509 18.190388 47.253624
16.382778 18.900412 47.240067
16.012476 19.040121 47.240543
16.152109 19.047029 47.286102
21.373444 11.835597 47.35833
10.144213 12.38505 47.30331
13.177875 18.422876 47.313976
13.086798 18.570492 47.372917
21.280115 9.009037 47.411072
10.187399 12.089171 47.404472
21.552319 14.684882 47.44722
18.239149 18.247728 47.444481
16.54398 18.879726 47.413887
18.769583 3.9015741 47.559662
10.73122 16.439978 47.569351
12.506078 16.662956 47.529228
19.12479 17.316404 47.592949
16.497452 18.490437 47.550865
14.489956 19.731958 47.528851
16.515287 4.6699905 47.675793
10.315543 11.126671 47.67775
12.975924 18.562572 47.670837
10.93762 7.4098721 47.7276
10.287031 13.744135 47.708023
10.607346 16.044189 47.787483
10.862499 16.944448 47.732212
20.472544 17.479198 47.762901
12.548567 18.049591 47.772984
16.378075 21.856485 47.772106
16.015726 4.2273569 47.881615
20.785877 6.5227056 47.814747
16.811419 1.5996097 47.923466
20.777426 6.5593996 47.957565
18.151384 18.400227 47.962326
15.02589 18.987583 47.985947
14.168515 17.943836 48.082951
15.939423 18.587765 48.063667
15.668497 18.724373 48.031628
19.202745 5.7171898 48.10434
17.83004 17.767765 48.163429
15.406082 21.566845 48.148727
15.753839 21.764183 48.137516
18.982983 3.9448109 48.223038
20.774426 6.7148471 48.204113
12.188725 18.362953 48.247047
17.656334 18.613346 48.287514
15.716091 19.080692 48.282799
19.07831 2.8182454 48.304638
11.382971 6.4991541 48.35508
20.805914 7.0957756 48.38398
13.034258 18.541176 48.321091
19.123857 3.9329934 48.478935
18.468903 5.6215634 48.411572
11.068058 7.5133934 48.582832
10.506546 10.830248 48.527683
21.39488 12.417321 48.516602
10.437989 13.136625 48.531479
15.861191 2.6117492 48.677654
21.422256 12.923056 48.640644
12.528311 6.1767035 48.728733
21.077579 8.1009207 48.701653
10.742944 8.5603361 48.722527
21.248428 8.6487007 48.730202
10.553454 11.130135 48.778404
18.643602 1.8314298 48.803368
19.382151 3.8916659 48.861832
17.089737 5.4256659 48.8022
11.328491 6.9630804 48.902504
15.627258 19.068871 48.909149
14.997883 5.4431062 49.019119
13.143824 18.509745 49.046867
18.360497 21.491489 49.019501
21.355528 11.005286 49.220764
10.617208 13.461022 49.262524
17.827808 18.566486 49.247513
21.122019 17.420725 49.483341
13.476324 6.0175676 49.510262
21.245131 8.6302128 49.578857
21.345478 10.13574 49.502388
10.661419 12.971575 49.554153
15.693522 20.557701 49.56028
16.167067 22.698545 49.596306
17.414749 23.407703 49.599113
18.959702 1.7699566 49.659824
19.534622 18.108459 49.642754
21.539015 13.91299 49.782501
13.937761 18.6166 49.744892
17.423782 23.632801 49.802399
16.666214 1.8032612 49.905849
16.668142 4.980607 49.973267
10.692636 10.671282 49.905045
17.638004 20.552908 49.961166
20.195084 6.162569 50.011341
11.420602 7.3619313 50.060776
17.685013 18.604042 50.046139
16.650871 1.8776265 50.174839
20.81284 7.2378864 50.183853
19.216293 22.979454 50.195099
18.502111 4.5678382 50.277676
18.358078 5.8536525 50.269478
21.398411 16.017387 50.214447
18.19961 4.6762261 50.326641
16.626247 5.5363264 50.321075
20.917749 7.5768895 50.308296
16.977283 18.793966 50.385307
15.136068 5.4340987 50.468945
13.394384 6.0745397 50.438118
21.413607 11.514655 50.481277
12.917367 18.22917 50.48735
17.476053 20.44252 50.459408
21.20705 8.5390701 50.513374
11.15753 15.614822 50.610771
19.402529 22.533545 50.678284
19.092117 23.650501 50.60952
17.309221 23.936201 50.653057
11.759994 6.7669878 50.786873
11.153357 15.578526 50.728401
10.986759 8.9104347 50.843376
17.785915 18.600349 50.932697
16.315836 2.9351084 51.007664
20.327921 3.4885361 51.010895
11.243326 8.2089367 51.062202
19.905859 23.136349 51.028297
16.595264 23.620869 51.074867
18.693907 18.364254 51.162804
17.865852 18.598938 51.125923
19.347248 18.189108 51.281414
18.552948 5.9485545 51.314217
13.281366 6.1842098 51.371773
16.502947 21.507589 51.300999
17.064777 24.068268 51.369541
21.456997 10.601484 51.422272
18.177843 4.8459353 51.548264
16.884432 18.929941 51.554089
14.650723 5.7035618 51.649498
20.010824 6.2769604 51.727047
14.751104 18.70607 51.755852
16.689772 4.6445279 51.876148
16.895424 5.2038245 51.821484
15.072023 5.5654802 51.850266
18.630175 5.9992685 51.807693
18.989643 6.0763268 51.848015
21.665325 13.476033 51.895309
12.272195 17.769289 51.813278
17.956625 20.94635 51.862579
17.202776 21.34758 51.821949
18.367348 25.239151 51.866718
17.992464 4.9540157 51.985538
18.133608 4.9155169 51.978985
20.256317 6.3539138 51.97604
10.906961 9.2104816 51.949219
20.866386 17.824352 51.943512
17.497498 5.0981102 52.076252
17.604839 5.8040676 52.00967
11.472357 16.145823 52.0019
15.648473 18.996887 52.034168
20.601439 23.861824 52.030964
16.135735 5.5324535 52.171387
21.700209 11.316787 52.174881
18.082932 21.076971 52.148708
17.207817 21.644413 52.113899
20.38759 23.567436 52.137863
11.217329 8.4381313 52.26577
21.792246 12.199813 52.267506
21.770618 12.343465 52.258011
20.680779 17.927544 52.392509
20.668907 17.93952 52.469765
13.872246 18.44105 52.454536
20.824316 3.4318728 52.521767
19.603662 6.2908535 52.534843
21.174664 8.6063871 52.569542
10.762575 10.525923 52.520321
20.669668 2.7313943 52.647335
11.607204 7.665751 52.727684
19.867146 18.204924 52.781284
20.545689 23.662987 52.767868
17.96048 1.212117 52.817547
20.652603 7.0460939 52.85627
21.640097 15.146287 52.858006
19.889391 4.433269 52.932304
11.054129 15.363485 52.903572
17.291891 24.773567 52.993515
19.686352 26.119984 52.916069
19.54291 1.1252229 53.030956
20.105152 4.3590598 53.059544
16.974897 4.8538413 53.052536
20.579342 6.8570151 53.04966
11.277446 8.5049181 53.001011
21.939566 12.391192 53.050705
21.706366 14.289366 53.047005
16.439459 2.9942737 53.106499
21.632141 16.046926 53.153419
20.466297 18.070904 53.129051
13.703724 18.38212 53.192554
17.34272 18.973919 53.15868
15.940017 19.113651 53.128197
17.666353 1.2635705 53.267197
16.524603 3.1817064 53.247704
17.785152 5.9837418 53.266846
21.835838 10.750009 53.253632
21.083742 25.402466 53.218704
21.60973 25.099495 53.372627
13.119014 6.4521914 53.410725
18.621201 18.632938 53.405998
15.286437 18.894415 53.453968
21.325668 24.565901 53.422485
19.447208 6.3819804 53.525009
20.923061 17.995575 53.52631
21.204769 3.5732937 53.663445
12.500919 6.7238326 53.604252
12.872682 18.116283 53.627968
21.695101 15.730312 53.767498
21.140244 24.272047 53.747307
19.009941 26.552485 53.787193
17.17396 1.755116 53.875504
21.798553 10.577669 53.809746
14.64588 18.68075 53.808079
19.953533 22.899782 53.840153
17.189167 23.725983 53.878448
17.557957 25.05755 53.842171
20.766445 26.431133 53.884556
17.065403 4.7829227 53.931061
11.640966 16.573265 53.988632
18.549675 6.1725063 54.011475
14.551664 18.654543 54.011387
17.252806 24.153774 54.046104
14.552829 5.9936342 54.116966
11.139507 15.652131 54.17675
18.453897 22.738636 54.162239
21.393131 9.2465868 54.260071
10.89621 14.628127 54.230171
22.04797 13.580191 54.363255
12.608713 17.995714 54.364651
16.289999 19.268457 54.38974
21.150068 2.9400072 54.428162
12.687624 18.049164 54.422127
17.691288 25.130205 54.405968
17.87672 1.2059344 54.534546
21.836874 10.629789 54.555141
10.800661 12.962887 54.545395
17.320404 1.7640814 54.706291
19.277653 5.0257449 54.753914
13.735027 18.390526 54.705734
19.770836 6.3727441 54.875744
19.543535 18.57909 54.826328
19.939497 27.49823 54.839878
20.240356 27.566967 54.830441
18.424061 5.3284426 54.990738
12.385614 17.596437 54.985497
12.919835 18.115618 54.989349
15.44632 19.112228 54.971874
17.834316 25.226986 54.97044
18.483871 26.674042 54.978428
20.508923 23.542536 55.011459
17.384653 1.8396626 55.193027
12.083135 7.2214975 55.147858
17.386641 19.247135 55.160061
18.051958 1.345668 55.292908
10.819804 11.669587 55.280537
10.848819 12.060143 55.286201
10.844108 12.882854 55.227245
17.838505 19.135429 55.277893
17.9473 19.103573 55.27449
18.765141 26.999407 55.277283
20.181828 1.2265129 55.39439
18.28591 1.3386304 55.381599
18.354948 1.3255491 55.331997
22.159502 13.301006 55.36676
18.685562 6.12397 55.421436
20.503288 6.4610291 55.480614
20.846567 7.0016522 55.44838
11.830674 7.7664018 55.473522
17.260921 19.32765 55.443928
14.949089 6.100482 55.589539
21.42795 8.9507484 55.523201
10.876753 13.13458 55.555344
22.071247 13.918394 55.588554
10.912639 14.030292 55.550262
16.005411 19.195017 55.586094
22.208769 26.972528 55.594486
21.776165 10.073195 55.609413
22.224449 13.029608 55.626553
20.085955 23.32745 55.667515
17.924063 1.6201863 55.773808
16.700838 3.4664683 55.792397
16.830093 3.9646723 55.754543
11.073123 9.3032198 55.754372
10.799102 11.644722 55.737961
18.118538 25.609112 55.719017
18.135418 1.5051728 55.831539
20.59304 2.2394016 55.903179
20.665955 2.3963799 55.9702
18.089565 5.9706659 55.925079
13.87513 6.5459452 55.911541
22.072294 27.359041 55.917244
20.855114 2.7613332 56.053143
12.101374 7.1616063 56.093472
21.949539 17.634575 56.018372
17.951588 5.6667056 56.144024
20.962044 7.0787134 56.147785
18.553593 25.073105 56.174759
19.785711 27.773949 56.196121
19.062263 1.4376016 56.281471
10.858797 11.214573 56.214333
20.128935 18.6213 56.208755
22.19603 27.216949 56.294464
19.21069 5.233078 56.301628
17.551065 2.1973453 56.496006
21.966349 3.5604787 56.484127
17.884899 6.4233322 56.435623
22.103516 14.713037 56.478935
21.634073 4.9480739 56.508553
20.353813 5.4892912 56.564617
19.986162 5.7932653 56.548401
16.304029 19.226734 56.516796
16.605148 3.2169671 56.647606
16.817068 4.0401273 56.629482
11.246201 15.658543 56.656799
14.854142 18.975796 56.671249
16.899563 2.6346018 56.755199
22.033867 3.6934185 56.774048
22.321415 11.734042 56.757568
11.059966 12.609297 56.783829
18.733091 19.149349 56.786198
21.955162 24.919565 56.791824
21.340038 2.089174 56.873264
16.762867 5.5965743 56.868355
20.735422 5.5418119 56.838837
21.013636 6.9342318 56.808941
15.433725 19.071466 56.833115
16.499626 19.262192 56.81115
17.153458 5.3542938 56.990002
20.035515 23.183298 56.900166
18.479256 26.329086 56.978004
21.012882 3.1191828 57.089249
17.376888 5.7805347 57.011456
13.364901 6.6754479 57.078194
22.395323 12.587955 57.092728
12.230133 17.200283 57.019627
21.243397 18.487171 57.095337
19.090675 19.126778 57.072128
18.676056 19.242119 57.041199
19.845619 23.218544 57.012154
22.002188 2.5389481 57.155064
11.064516 11.512938 57.188858
22.011692 18.202448 57.109653
22.10449 15.579944 57.211468
13.647274 18.756907 57.282364
18.360153 6.3395338 57.327328
11.605144 8.694623 57.325249
22.402151 12.871634 57.373417
21.009331 5.3417597 57.473137
19.337427 6.1260891 57.434528
22.000021 16.574829 57.430748
20.360271 21.851576 57.478485
22.624083 25.438354 57.448536
19.469091 27.25971 57.404408
18.047951 1.8012044 57.58231
16.234198 3.1243579 57.558907
16.617868 4.1614318 57.589741
22.225393 11.196751 57.514404
22.043957 15.421178 57.545074
15.24144 19.07259 57.521957
17.260311 5.5835667 57.680107
18.615608 23.684105 57.683533
18.545982 1.5675445 57.731438
20.149094 2.0945182 57.770138
17.549778 2.2145438 57.781502
11.293854 13.323573 57.748302
11.376415 14.809226 57.720894
14.37909 18.907501 57.747299
22.614208 25.356693 57.700916
15.473307 5.7710562 57.807549
13.939894 18.822176 57.852787
19.462429 26.891544 57.893608
21.175533 27.116495 57.841774
20.396225 1.3892113 57.912102
19.961514 1.7319466 57.929729
17.189165 2.3224678 57.982754
15.674339 5.6904764 57.951355
15.371802 5.7724099 57.999096
13.308271 6.5992112 57.976837
21.709751 9.015667 57.977184
22.325577 11.463715 57.950851
11.954507 16.705557 57.953854
20.733932 18.865211 57.977921
19.302588 22.290493 57.927658
20.994116 5.3459611 58.061985
22.411396 26.297882 58.063934
19.690405 6.1856446 58.132439
19.325325 26.599527 58.182365
16.277525 3.5242648 58.212029
20.019291 5.9140515 58.203377
11.421124 13.784239 58.256367
21.375973 26.924076 58.211933
14.386209 6.0744171 58.300743
21.261263 7.0065756 58.301308
11.969522 16.839491 58.382896
21.816586 17.617987 58.345299
22.945015 24.37743 58.380569
20.975019 26.866644 58.386642
20.327396 1.4686333 58.442459
16.416025 4.3594375 58.409241
16.852154 6.6604948 58.427689
21.36277 22.467621 58.484032
17.666246 5.4921093 58.538239
19.852654 21.174156 58.537903
12.26167 17.639835 58.690304
18.367832 19.798546 58.604946
23.371786 25.149609 58.603775
19.123348 6.082531 58.750862
11.41106 12.190277 58.780602
19.294184 20.771235 58.70681
17.865057 22.858866 58.781929
22.253405 23.322945 58.735096
22.522497 24.950596 58.766483
23.375603 25.56842 58.764313
22.102932 26.479408 58.734909
14.638486 5.8647022 58.828758
22.062374 10.173382 58.838867
21.168978 23.247822 58.832111
21.905205 24.160992 58.886124
22.296635 24.661922 58.80941
17.885847 24.90941 58.867012
17.523972 2.2217894 58.906345
11.691608 16.061729 58.94857
19.247084 19.59412 58.910789
23.181597 24.864449 58.918335
23.051025 25.815247 58.984879
20.963371 2.1339061 59.070995
11.704221 16.033857 59.065655
21.815557 18.585934 59.012123
13.007589 18.888914 59.097572
18.334644 21.016695 59.043007
17.920034 24.991117 59.047142
18.211262 25.480234 59.029881
16.149651 2.9755173 59.134003
21.797623 3.7288241 59.154846
11.492188 12.459572 59.158741
21.631889 16.525106 59.148083
14.309826 19.175756 59.191738
17.994839 25.033176 59.113049
22.940809 25.061947 59.169197
18.08584 25.266752 59.105118
16.202438 5.3424501 59.244862
19.713299 6.1847639 59.287102
11.588869 8.1309223 59.233536
11.361158 10.283565 59.295902
21.38468 6.8350835 59.368858
22.324867 11.085939 59.378441
21.600195 16.040867 59.394657
13.055237 18.952276 59.309063
16.105631 19.57144 59.322083
16.440847 19.634598 59.304298
13.5503 6.1313014 59.413013
20.402645 6.3062639 59.435898
18.511078 25.944876 59.472534
21.374998 6.6748466 59.5746
21.69627 7.9108963 59.549423
11.470537 8.4279203 59.548595
18.716263 20.436443 59.569916
21.650312 27.077732 59.5914
16.454571 19.730324 59.670105
22.922482 24.449503 59.600792
18.625731 25.570621 59.695518
18.679359 26.09185 59.64967
19.30315 26.570473 59.648281
13.518518 6.0615387 59.735428
21.205933 6.4473038 59.736477
13.469591 19.139713 59.71748
17.857388 19.810377 59.77597
21.445257 6.7787662 59.846409
17.083895 21.601709 59.868595
20.923798 26.408041 59.838936
20.343483 27.120411 59.842247
15.828927 5.3547163 59.97411
11.871132 16.254818 59.937584
13.061134 19.115225 59.945633
16.84935 22.336603 59.940739
22.779039 24.195721 59.982105
22.300682 26.783916 59.953529
20.01222 27.03545 59.937637
12.123697 17.667131 60.018372
22.078888 25.905701 60.027187
18.069998 2.0150087 60.130657
21.092318 2.5189252 60.16362
22.114166 13.843414 60.144089
19.087591 20.34831 60.128319
19.186537 26.530128 60.177208
21.472513 26.912468 60.184074
19.511219 5.9937935 60.21772
22.188416 13.636228 60.214649
21.579424 17.477192 60.234665
12.595929 18.931965 60.27821
12.981966 19.187555 60.293179
17.930176 24.970192 60.287472
20.788097 26.493992 60.242081
16.188297 3.0078344 60.306427
21.485067 16.490061 60.35318
20.325985 26.258921 60.300602
20.673462 26.23576 60.38031
13.805423 5.8758116 60.400822
13.81067 19.390516 60.433468
17.252817 19.841814 60.446228
17.214476 5.6219573 60.573757
18.787888 5.6029081 60.580669
14.564629 19.566879 60.528484
14.579059 5.6861887 60.687729
15.635851 5.8056335 60.696037
15.590143 6.0195246 60.600769
17.109371 19.546913 60.650318
16.465275 22.403046 60.603477
20.427849 2.0824506 60.720215
12.697857 6.1528907 60.729195
11.760005 12.464998 60.780716
12.022254 16.430872 60.754608
21.490633 17.073778 60.703537
12.151894 17.22065 60.721573
12.270831 17.908535 60.733406
17.298204 19.352079 60.725067
22.397274 23.494858 60.758156
15.349437 5.1266012 60.854462
14.9235 5.8061204 60.807198
19.099136 6.33113 60.839638
12.152275 17.073322 60.893425
22.10243 25.832726 60.87413
21.733345 26.331223 60.8587
11.794886 12.515126 60.971069
18.182917 25.288555 60.943214
22.275709 10.428577 61.089447
22.431091 23.517019 61.021553
21.218405 2.8854685 61.193531
20.585358 20.975231 61.178802
19.333052 5.9570279 61.28928
11.924143 6.3198233 61.273544
16.813459 19.953682 61.256268
22.307297 24.673929 61.2075
14.048844 5.7293124 61.398079
19.303122 19.925575 61.370022
16.304306 21.403347 61.373444
22.451239 11.342302 61.461899
15.402178 19.101624 61.417686
17.192575 19.559958 61.440983
21.482634 22.002878 61.495857
19.883259 1.7615135 61.513573
21.112112 2.8738151 61.549431
