# .PCD v0.7 - Point Cloud Data file format
VERSION 0.7
FIELDS x y z
SIZE 4 4 4
TYPE F F F
COUNT 1 1 1
WIDTH 1529
HEIGHT 1
VIEWPOINT 0 0 0 1 0 0 0
POINTS 1529
DATA ascii
-7.1160135 -0.16212553 3.1806669
-5.5163469 -0.014974818 3.1593962
-5.984231 -0.99398851 3.2060847
5.4234457 0.65196103 3.2591839
6.3378711 -1.1530479 3.3621309
5.6279573 1.6721454 3.3388975
6.4235215 1.9655024 3.373847
6.601954 -0.85955417 3.4662833
5.4282994 0.40909651 3.4357734
-5.4342194 0.85002732 3.4503572
-7.1449656 0.95070863 3.475543
6.04491 1.9198856 3.4217572
5.8468037 1.843591 3.5831223
6.8967237 -0.41133112 3.687284
5.4344044 0.81223136 3.6980581
5.4169278 0.48135707 3.736958
5.4086986 0.69107562 3.7773554
5.4106631 0.70125872 3.7482042
6.9392362 1.6238666 3.7194705
5.6474719 -0.32715106 3.8280475
-6.9304457 1.4147177 3.892534
5.5007677 1.4073647 3.836556
6.1512117 2.0546491 3.8001928
6.2610559 -0.95998001 3.9305289
6.1567435 -0.82865071 3.9591851
-6.6664877 -0.50327927 3.9864399
-5.5066853 1.2025068 3.9622931
-5.5206437 1.5672891 3.9895358
-6.4590387 -0.56289154 4.182179
5.720068 -0.24707581 4.1499577
5.5569592 0.1297892 4.1415286
-5.5233927 1.2033373 4.1983566
6.0111303 1.8711884 4.1550531
5.7209115 1.6663795 4.219121
-5.5412927 1.2745641 4.4887471
6.214345 -0.54008412 4.5251026
-6.0250597 1.7494324 4.5705247
6.3006654 1.899859 4.5108418
6.7870398 0.18861336 4.6420407
-6.8784194 0.68180978 4.6152191
-5.4064779 0.60785598 4.6176004
5.5457835 1.3265767 4.7705455
-6.4253278 1.5408123 4.7885132
5.5888262 0.083727702 4.8674979
-5.5243144 1.2402252 4.8102303
6.4329505 1.5246799 4.8079796
-6.2240639 1.6790891 4.8846989
6.4989481 -0.030940495 4.9426756
-6.6779137 1.1054808 5.0294204
-5.4980526 1.2221711 5.0241194
6.2977929 1.4936366 5.0634971
-6.579824 1.2721745 5.1734595
5.4794207 1.2819788 5.1423879
-5.9190855 -0.22719505 5.2631927
6.1411505 -0.24150433 5.2534971
6.7170005 0.77549368 5.3397679
6.1673441 1.5819761 5.3039026
-6.3856673 -0.052401464 5.4808993
5.6103139 1.4258819 5.466332
-6.6558886 0.40516496 5.5728416
6.6905155 0.81979907 5.5374117
-5.51648 1.4058201 5.5987134
-6.0627961 -0.28831378 5.6107135
-5.6769924 1.4794774 5.6454201
-6.6254416 1.0538135 5.7129593
-5.8969626 -0.32635874 5.8602209
5.3499751 0.096812502 5.8523674
6.4147143 1.3611128 5.9162388
5.8094339 1.5723295 5.9049864
5.1542749 1.0748067 6.1908464
-6.5158815 1.2629974 6.1180243
5.962956 -0.33281529 6.3062458
6.6107087 0.86634439 6.3556857
-6.3987427 -0.02534982 6.4924946
-5.0708556 0.43177125 6.4302101
6.3218122 1.3957205 6.5362301
-6.2292404 1.4646442 6.6901903
-4.9965467 1.0720749 6.7335386
-5.028656 0.28302854 6.8337007
-4.9153018 0.53827292 6.8154716
-5.1150203 0.013605475 6.9085221
-4.8988152 0.4686814 6.9924288
-6.5739317 0.71594143 6.9700017
4.9329696 1.1316245 6.9561367
-6.17945 1.4910085 6.914855
6.2746763 1.4047103 6.972712
5.8580036 -0.37843758 7.116333
-5.6798677 1.703163 7.1168251
4.8636398 1.1794281 7.203721
-5.9437108 1.660007 7.2737942
5.7094955 -0.46380645 7.30617
-5.0291376 -0.023518652 7.3021679
-4.8007112 0.79221952 7.3058605
-4.8335481 1.1501667 7.3093562
-5.6046128 1.710654 7.366014
-5.1544752 -0.21997522 7.5475116
4.6972456 0.68492836 7.5937228
6.0012994 1.5968659 7.5121164
5.6568832 -0.48887005 7.6114674
-6.1113892 1.5007625 7.602119
-5.2773967 -0.31601739 7.724834
-5.3940043 -0.42135519 7.9758945
5.3970447 -0.42486638 7.9736557
6.4713736 0.75241637 7.9286728
-6.299715 -0.0091076568 8.0836668
-4.5983167 0.74640834 8.0050917
4.796165 1.410292 8.1694765
-4.9316669 -0.21706125 8.2227497
-4.5369825 0.95290715 8.2681475
-5.2617264 1.6774548 8.2815104
5.2136211 -0.39290947 8.3556671
-4.8709097 -0.20046844 8.3148937
4.4629807 0.87573129 8.4830332
5.1255131 -0.37924206 8.5489235
4.7651062 1.4487096 8.5295811
-4.5003939 0.34390962 8.6472588
4.450767 1.2809521 8.6302977
-5.6970196 1.7782773 8.631546
-5.2740746 1.7369204 8.6270084
5.1674967 -0.45093215 8.7915325
4.4013672 0.96961999 8.71698
-6.2156625 -0.051193394 8.8871136
-4.4069858 0.39750198 8.88978
-4.3982096 0.43546429 8.8585854
6.1433015 1.3835846 8.8463144
-4.6836038 1.4893202 9.0241013
-4.9037466 1.6137643 9.0660362
4.9382801 -0.39813259 9.1024771
-6.3238058 0.3134611 9.1799726
-6.381094 0.63082254 9.144701
5.0830894 1.7244319 9.132453
5.2074146 1.7889754 9.1278534
5.3400998 1.8659796 9.162981
4.6856427 -0.30304712 9.2771025
-6.3192186 1.0581627 9.2927837
-6.1366644 -0.1402529 9.4254093
5.2485547 -0.65386087 9.5535717
-6.3455391 0.45725095 9.5328665
-6.3371286 0.80966651 9.5789242
4.9655495 -0.53796941 9.6858816
-4.3401914 0.032041192 9.6555443
-4.410708 1.4801618 9.6874962
4.5733733 1.5645162 9.6675091
-5.6493273 -0.48089921 9.7843227
5.9807634 -0.27552485 9.7031555
-6.0950193 -0.17647137 9.7570543
4.2847309 1.4293047 9.75035
-4.066546 0.94668365 9.8756084
4.1003213 1.2690889 9.8600445
4.1218295 1.3175924 9.8035212
5.3542919 -0.6248706 9.9650326
-4.457829 -0.33546132 9.9855175
-6.3289051 0.73795789 9.9373703
-4.0514259 1.1106613 9.9876671
4.229085 -0.049914643 10.006916
4.0556679 1.369988 10.05868
4.0226274 0.45566127 10.135351
6.1543002 1.3209225 10.192566
3.9324908 0.5851447 10.241888
5.8242893 1.6586764 10.235497
-6.2285337 0.32290965 10.301135
3.889791 0.64588726 10.384034
-4.4405265 -0.43233538 10.475121
-3.9212372 0.33182564 10.659153
6.2900429 0.74721229 10.604534
-6.2738342 0.8879962 10.676313
4.1567135 1.5455627 10.655905
-6.059732 -0.044394404 10.718464
-6.1771498 0.28031826 10.713865
-5.4002223 1.9656737 10.761438
5.3699665 -0.61077154 10.87868
3.9174685 -0.051806271 10.892822
-3.8712671 0.20896833 10.877196
6.2551146 0.9305079 10.840857
5.9530573 1.5600083 10.823784
-4.8794403 1.9996669 10.844285
5.0722985 -0.7523641 10.938541
-3.7860215 0.45582846 10.966169
-5.9596992 1.5601745 10.906672
5.2494698 2.0526266 10.948576
6.2769136 0.65192366 11.063908
4.5261865 -0.60703939 11.100109
3.6641409 0.68153346 11.166194
4.9877872 2.1325247 11.117733
4.6754236 1.9826016 11.251116
-6.2481933 0.63173038 11.365816
-4.1601992 -0.49565074 11.470881
6.2387328 0.83784115 11.422615
-3.8534422 1.5497203 11.456968
-5.815289 1.688808 11.420146
-5.3178244 2.010819 11.4658
4.3506646 -0.6079641 11.535608
-5.5102396 -0.54169214 11.525249
-5.7891369 -0.40860233 11.527853
5.9429226 -0.16414779 11.511393
6.1444554 0.39671391 11.518335
-6.1854134 0.95129073 11.561308
3.59516 0.96070647 11.522581
5.4667487 1.9163959 11.582713
-4.5095515 -0.70545292 11.624619
-5.4151773 -0.58615303 11.648949
5.579915 -0.50477624 11.682153
-4.3183613 1.8588527 11.611708
5.4439707 1.929426 11.697535
-3.5965259 1.3957726 11.725212
3.5493469 0.36986697 11.801912
3.8803673 1.6229275 11.96543
3.6795323 -0.43110478 12.085913
-3.6600199 -0.39490023 12.055207
-3.5047603 0.99313939 12.015156
5.4917641 -0.55284536 12.161289
-3.6284337 -0.35077059 12.151833
6.1762896 0.68920779 12.175086
-4.1172543 -0.69317472 12.26088
5.9316216 0.18595012 12.345732
-5.092761 -0.75421929 12.415012
-6.0011206 0.9270218 12.461501
-4.2093749 -0.83325124 12.595293
-5.1736355 -0.71701348 12.505556
-5.0535822 -0.77591914 12.540136
-5.804822 0.028323695 12.596897
4.2435784 1.7997401 12.536149
-5.8697214 1.1070663 12.609343
-4.7317257 2.0726957 12.64923
-4.5570092 -1.0825245 12.767494
-4.3663926 -0.98004043 12.783801
5.2014942 -0.70650601 12.761947
-5.6873207 -0.19142789 12.709441
3.5475554 1.2988592 12.761829
-5.503541 1.6115189 12.799915
5.4077096 1.6774141 12.759186
5.2234249 -0.69675815 12.802206
-5.6284671 -0.27839768 12.849874
3.3883452 -0.021177769 12.867022
-5.8899431 0.4071888 12.821568
-5.8856378 0.76806885 12.899322
-3.3613119 1.0307968 12.854933
-4.4890113 1.9245486 12.806356
-4.3853207 -1.0393726 12.931908
3.7044744 -0.6977247 12.983027
5.189548 1.6945786 12.992485
-5.3755379 1.593249 13.003088
5.0395298 1.7711238 13.001484
-4.9212656 1.8299196 13.018923
-4.9849148 -0.82305896 13.17808
5.028502 -0.79821289 13.125875
-3.3353209 -0.08473447 13.178245
5.762013 0.33977494 13.164712
-3.4263105 1.1477625 13.211992
3.7276213 1.3592848 13.266471
-3.8492384 1.4430089 13.22924
4.6311512 1.8501425 13.26422
3.1961403 0.4861564 13.337519
3.1894147 0.533409 13.392629
-5.695384 0.81421697 13.321632
3.6286936 -0.78820294 13.433412
-3.2008448 0.12076351 13.564414
5.596756 0.76342124 13.599977
-3.901773 1.4417355 13.530376
-4.51898 -1.1646868 13.685326
-4.9217234 -0.87704211 13.697424
-5.4966354 0.023689762 13.689036
-5.6782103 0.46430039 13.655947
3.161253 0.68543077 13.697178
-5.1136484 1.4466505 13.674239
-5.6322651 0.39222381 13.719261
5.5863833 0.33313131 13.781484
4.7990303 1.5634973 13.788557
-3.3528242 1.0185894 13.898005
3.1983066 -0.29652444 13.946927
5.4617095 0.23263901 14.08581
-5.2902575 0.93346059 14.140799
3.3464937 0.99709868 14.105794
-3.6250772 1.1739495 14.179164
-3.0295413 0.44276464 14.229254
5.3498044 0.73530984 14.230879
5.2214766 0.93772912 14.268145
-4.6938009 1.4284425 14.21689
3.6562753 -1.0899491 14.309184
5.2587891 0.81666255 14.328048
-5.1481061 0.98378515 14.379795
4.9540229 1.2311754 14.371574
-3.681499 -1.1742905 14.430794
5.2991524 0.57218379 14.516205
3.924902 1.2944796 14.509267
4.7710328 1.2377689 14.585516
4.1101222 -1.5396926 14.624246
5.1984472 -0.27052054 14.629623
-2.9883766 -0.11681053 14.683699
-5.2288299 -0.043757483 14.682995
5.2177849 -0.066786394 14.690758
4.0006876 -1.5500524 14.746862
3.5219204 -1.2523735 14.70996
3.8347061 1.2019186 14.734062
3.5475762 -1.3671488 14.877125
4.6641035 -1.1460483 14.809446
-2.9571018 -0.15604097 14.827501
5.2309141 0.16374981 14.812459
-3.0160396 0.42636061 14.804727
-5.0993919 -0.42422214 14.958696
5.1052046 -0.40779975 14.923523
2.9862936 0.4683741 14.976021
-5.0141025 0.71607065 14.96351
-3.0158718 -0.73590058 15.045292
5.0470009 -0.68508953 15.040726
-2.9068937 -0.19300553 15.038961
-3.1084864 0.64145422 15.006089
-2.9304297 -0.43792439 15.135379
-4.8531146 0.83584934 15.162769
-4.384388 -1.4909151 15.270298
4.9235349 -1.0593805 15.228426
-2.9620142 -0.68865907 15.207399
2.8413336 -0.3763977 15.39697
4.8680358 0.66042101 15.339565
-4.5636606 -1.4208803 15.472356
-5.0293784 -0.40144244 15.496367
-4.9190211 0.53025484 15.437836
-3.8479972 -1.9137182 15.506424
4.1987896 -1.7307791 15.584916
5.0118866 -0.4426941 15.552901
5.0269241 -0.29143497 15.579399
4.7810268 -1.3038037 15.667075
4.8275404 -1.1039069 15.693485
5.0028038 -0.37764224 15.687651
-3.411489 1.0326025 15.629202
-4.2622652 -1.7543526 15.771704
-3.0672109 -1.5497975 15.73546
-4.7366328 -1.3787116 15.716175
2.755914 -0.39091432 15.721192
3.3384874 -1.7502236 15.856378
4.9232006 -0.62997973 15.836052
-3.292506 0.99453318 15.875921
4.3634834 1.0065843 15.865283
-3.9522386 -1.974733 15.976535
-3.5877047 -1.9196565 15.942184
-3.3122182 -1.7572536 15.979412
2.9098444 -1.3975719 15.906326
2.760217 -0.74305987 15.966792
-4.867662 0.37277883 15.941664
2.8508821 0.51324028 15.929508
-4.6918125 0.82598782 15.958788
-3.1293414 0.94013059 15.956474
3.1791003 0.95763808 15.959044
-3.3159857 1.0009995 15.931746
-3.9958091 1.1504146 15.949266
-4.8522439 -0.75246912 16.081463
-2.646698 -0.29877034 16.063688
-3.5336666 -1.9218144 16.161304
-4.5581064 -1.5879109 16.1759
2.8265336 0.66998792 16.185057
3.3790395 1.0345901 16.10993
-4.3974543 -1.6993573 16.248289
-4.5834599 0.83453363 16.285982
4.7905288 -0.81396955 16.312134
2.5829248 -0.56842679 16.383829
2.5085206 -0.16546857 16.332129
-3.0817692 0.96962082 16.337425
2.8502214 -1.5799723 16.473249
2.7236414 -1.3583876 16.498726
-4.6613908 -1.2731203 16.467361
-2.7066784 -1.1425856 16.423595
4.7123799 -1.0682487 16.422024
-2.6499066 -0.97498262 16.469646
2.6092019 0.28761014 16.446352
-2.7623765 0.72344679 16.433846
-4.558918 -1.6059097 16.571182
-4.572557 -1.5583265 16.598463
2.5197835 -0.49821788 16.50692
2.5962923 0.37889922 16.571241
-4.7110658 -0.94951069 16.654369
-4.7859364 -0.66412789 16.615265
4.0685158 1.0800197 16.650547
3.8681569 1.180421 16.64724
2.6224415 -1.3490855 16.759432
2.5980368 -1.1533504 16.703423
2.5159926 -0.85067111 16.733446
2.4322238 -0.69309133 16.857162
-4.8827267 -0.23429161 16.849798
2.4121945 0.14524862 16.893206
-3.3484931 -2.0172079 16.971247
2.4013071 -0.77529573 16.989059
-2.3637097 0.049220353 16.969883
-4.7915382 0.33413631 16.955551
-2.7267599 0.94950688 16.961121
4.2200089 1.0022069 16.903351
-4.3104854 -1.7767817 17.033484
2.6129582 -1.6533155 17.085588
2.3432879 -0.63222206 17.053898
2.3042192 -0.44614258 17.042423
4.8602772 0.093154103 17.038349
-2.817486 -1.8080978 17.105679
-2.350214 -0.80114931 17.148376
-4.5167313 0.82970333 17.191961
2.7796297 0.98905075 17.141056
2.4663205 -1.3692768 17.229942
4.9013457 -0.059413791 17.265766
3.6828961 -2.1328206 17.375263
-2.7932315 -1.8775395 17.314447
-2.6389387 -1.8205013 17.363056
-2.3144972 -0.99232221 17.359106
-2.4792812 0.80636203 17.326532
4.5086641 0.82415485 17.349815
2.7666245 1.007937 17.312571
-3.1742113 1.1245022 17.315418
3.6672564 -2.1450095 17.403553
-2.7993736 -1.9207591 17.417553
-4.6517172 -1.100428 17.495644
4.9284787 -0.16670702 17.486679
-2.2180521 0.056669772 17.422338
3.5716066 -2.2124677 17.533459
2.2851133 0.48248783 17.575258
4.7043562 0.55820584 17.550116
-3.8342366 1.1917331 17.589191
-3.3347242 -2.2451358 17.678835
-2.6649528 -1.9288664 17.608164
2.0599473 -0.26637772 17.623091
-3.8632116 1.1766829 17.653404
2.0964448 -0.77183062 17.789516
-4.9126263 -0.12325764 17.737827
2.0544636 -0.13943578 17.749405
4.6459303 -1.1028574 17.816109
-2.0881901 0.046085894 17.810984
-4.0122638 1.0867001 17.898994
3.8596029 1.1758358 17.816818
-3.0513163 -2.2349324 17.964067
-4.4665065 -1.795449 17.982195
1.9941367 -0.169607 17.90917
-2.1960945 0.61878717 17.970665
-2.5272174 1.021634 17.937244
-2.6745327 -2.0988321 18.032047
-1.9850931 -0.77453488 18.088751
-4.7979641 -0.67770445 18.020954
2.0068874 0.035321593 18.04656
3.1520226 1.2193692 18.079723
-3.0247555 -2.2844503 18.160278
2.0618627 -1.1261775 18.182938
-1.9612299 -0.8109296 18.173578
-1.9056106 -0.58035839 18.178022
4.6614132 0.65345699 18.165012
-4.2137074 0.95675033 18.151871
-4.2023807 -2.0146718 18.298208
-4.5358381 -1.5273283 18.210527
-1.9227297 -0.82890821 18.295319
-1.863253 -0.47486129 18.224361
4.8976665 -0.12395754 18.224604
1.9521186 0.067240715 18.242733
-2.2334197 0.97237325 18.200367
4.4589334 -1.8061118 18.394812
-2.0865903 -1.3202122 18.312832
-4.6256819 -1.1986648 18.389616
4.7253847 -0.92261118 18.341263
1.9187465 -0.83198166 18.306389
2.4092336 1.0398248 18.330494
2.1096702 -1.5100771 18.434992
1.8135264 -0.71529031 18.499596
4.8457508 -0.63577038 18.476465
4.6533403 0.66262484 18.406796
2.5236783 -2.2228065 18.539711
-1.9855566 0.49922192 18.513111
2.5815907 1.1117649 18.502007
2.7849634 1.1790624 18.570953
2.6531274 -2.302474 18.639418
2.0178189 0.75051987 18.629429
-3.7674699 1.1904725 18.652132
3.9165449 1.1031958 18.654642
3.4127071 1.3699002 18.655657
-2.1181886 -1.7988991 18.708523
1.9914249 0.83429062 18.782951
-3.7379603 1.2023071 18.756144
-3.07129 1.2838148 18.723249
1.9265654 -1.4031234 18.869614
4.7192554 -1.0333271 18.817659
-1.753101 -0.8861267 18.855339
-4.7245278 0.39700946 18.896393
4.6265364 0.67881048 18.887115
-1.9878868 0.88258171 18.834789
-2.0029378 0.99903589 18.889229
-4.4323797 0.7911365 18.907227
-4.0820637 0.99846721 18.929993
-3.1672268 -2.6021678 19.066465
-2.014739 -1.8426918 19.059147
-1.6147649 -0.71982586 19.09444
4.9604096 -0.39427248 19.013035
-4.0287828 -2.2216411 19.127716
4.715024 -1.1169258 19.182585
1.8359287 0.66704214 19.118906
-3.5816269 1.3234496 19.142719
-3.4258037 1.4162002 19.104326
1.9803008 -1.9002891 19.220346
4.4350166 -1.8865625 19.235062
-1.8367631 -1.544456 19.280674
1.553404 -0.69521999 19.254253
1.5810622 -0.096902646 19.244793
-3.5469592 1.3545004 19.29987
-3.1257851 -2.6715772 19.346241
2.9042389 -2.6069939 19.380226
-3.9077001 -2.3219872 19.386013
-4.2497005 -2.130794 19.327637
-1.7143083 -1.2670519 19.362785
4.958817 -0.52042812 19.378366
-4.1446986 0.98871851 19.372021
-2.7987981 -2.5988133 19.470543
-2.2713375 -2.4149535 19.45396
3.4436131 -2.590059 19.532368
4.2900057 -2.1423194 19.572973
-1.8026793 -1.7062429 19.554321
4.7942662 -0.98047042 19.534996
1.4064785 -0.41502637 19.575369
1.490001 -0.055593565 19.562288
-4.3856001 -2.0710394 19.641666
-1.7271066 -1.5787783 19.650888
-1.3653598 -0.46129373 19.696396
4.0122242 1.089641 19.659498
3.141773 -2.7751265 19.76936
4.8499827 -0.83947682 19.70785
1.7381195 1.0745246 19.774809
-2.3971939 1.2788706 19.710674
-3.4301307 -2.6240096 19.804922
2.6293654 -2.6276009 19.851009
3.8221149 -2.4172983 19.848652
1.4984922 -1.1408439 19.889236
4.5398793 0.77199876 19.814318
3.1694736 -2.7686303 19.958988
3.3924208 -2.6510053 19.976536
-2.7574992 -2.7155986 20.045961
-3.8410523 -2.4164736 20.051073
1.7061406 -1.8720216 20.023651
4.7468953 0.092900455 20.072594
-1.599638 0.93563956 20.081722
3.9770091 1.139227 20.079422
3.6701758 -2.5089753 20.10256
-4.6711664 0.35917938 20.112656
-3.8205614 1.2405257 20.14502
-3.5320458 1.4172816 20.153965
2.4066081 -2.6279583 20.228086
-1.4453186 -1.3391744 20.258265
1.4132543 -1.2197933 20.231869
-1.3739293 -1.1471711 20.274361
4.8851523 -0.7080673 20.271687
-4.6958151 0.22021846 20.204117
-4.4219604 0.87440765 20.250385
-2.0306838 1.2743373 20.237951
3.2269747 -2.7530072 20.303246
3.5301886 -2.5920548 20.304504
-4.788012 -0.97064787 20.390564
1.2504551 -0.82082909 20.309378
-4.913969 -0.61965632 20.38098
4.6275306 0.69902575 20.376266
2.2035832 1.3418248 20.330795
3.5915244 -2.5668411 20.474335
3.9964466 -2.3500438 20.433849
1.6668793 -2.0584273 20.426249
-1.3861448 -1.3203537 20.418859
-1.2632701 0.07470274 20.476015
4.7125101 0.10252494 20.477985
-1.7458912 1.2264065 20.416759
-2.9251034 1.5936663 20.41684
3.3881769 -2.6763752 20.510271
-1.7771372 -2.4170592 20.590805
-4.8088531 -0.90421152 20.509735
4.6545086 0.47140378 20.582748
-3.212754 1.6344744 20.507301
-1.8021984 -2.4951091 20.623085
-1.1367084 -0.30427903 20.679661
-4.5157013 0.84455633 20.68066
4.0164828 1.1536187 20.671965
2.3141866 -2.7056856 20.748699
-1.9604621 -2.5879669 20.789991
4.3454642 -2.1357746 20.78071
1.3684907 -1.5367684 20.70092
-4.731616 -1.1008501 20.762199
1.2095776 -1.1559066 20.785582
-1.2482944 0.4344157 20.795876
-3.4953241 1.4782664 20.767551
2.9524708 -2.9001894 20.859318
-1.6280822 -2.219049 20.817215
4.707859 -1.1597053 20.847282
-3.3750806 -2.7021725 20.934464
-3.6610124 -2.551384 20.958496
1.5293396 -2.0458329 20.902542
-4.408484 -1.9585397 20.956743
1.3446991 -1.6341078 20.92141
-1.2893764 -1.5193363 20.939137
4.6113057 -1.411532 20.997272
-1.1723572 -1.2205729 20.965714
-1.1101553 -1.005585 20.929688
-4.6672282 0.35434473 20.964056
1.2649925 0.70312816 20.93012
-1.323132 1.006245 20.998232
2.1214924 1.4445478 20.926867
-3.2210145 1.6571836 20.948942
-1.589448 -2.2525003 21.009146
4.707768 -1.1431336 21.060577
4.8872962 -0.56255001 21.006748
-1.2132788 0.56290686 21.022812
1.2266858 0.62559736 21.018942
3.7276397 1.3562186 21.08906
-3.1478028 1.7083814 21.052185
4.371067 -2.0502181 21.101549
1.5279801 1.304983 21.154654
-1.8682746 1.4023809 21.107605
1.3396366 -1.823596 21.237486
1.2360966 -1.5674621 21.208376
-4.8816986 -0.59547931 21.222233
-4.3127003 1.0092984 21.265709
-3.1705408 1.7094241 21.289738
-4.3421435 -2.1158357 21.348005
0.96240318 -0.34109688 21.316088
3.7923324 1.3306847 21.311462
2.8275914 1.7569629 21.314405
2.8771064 -2.9638212 21.419991
2.9804268 -2.9357467 21.499771
-1.2019985 -1.6715021 21.493469
0.97673428 -1.0722129 21.407404
-4.7382722 -0.21303967 21.474661
4.6989994 0.07216081 21.474155
-4.3219304 1.0178152 21.481678
4.0051093 1.2079754 21.426565
3.7282882 1.3753804 21.400345
-4.0252275 -2.3796773 21.541639
-1.4069678 -2.1997743 21.584469
1.3212034 -1.9802647 21.550207
-4.7370467 -1.0238168 21.546078
-0.87566048 -0.95663816 21.592997
4.7594333 -0.95872253 21.562077
4.5351439 0.88779032 21.524771
1.7224411 -2.6856318 21.651796
-4.2737317 -2.2502036 21.638058
-1.0897368 -1.5382726 21.688992
2.5964122 1.7462161 21.608536
3.1889944 1.7180871 21.613056
-3.6514101 -2.5887847 21.752813
-1.0448968 0.72910714 21.783875
2.8407383 1.8476775 21.712088
-3.7336202 -2.5482421 21.841568
-4.0160809 -2.3957891 21.819859
0.78761464 -0.97535902 21.895384
-4.8325357 -0.73282993 21.8412
4.6493893 0.45735839 21.864494
-2.9419413 1.8812662 21.881805
-3.8298187 -2.4995487 21.914343
-4.8269691 -0.74240363 21.917698
4.7351708 -0.239824 21.908028
4.6963291 0.075218678 21.903038
-4.6716108 0.27784216 21.913399
2.1502285 -2.8704209 22.04977
-1.1707134 -1.9511725 22.045887
-1.1346023 -1.8419079 22.004402
-1.7031045 1.5628632 22.085413
4.7285562 -1.0003027 22.132278
-2.1717882 1.7192583 22.108124
3.1257463 -2.89013 22.242977
-4.2969222 -2.1911607 22.220755
-4.3705964 -1.9895333 22.298122
0.6737563 -0.62996089 22.273182
0.68912172 -0.5595814 22.268354
-4.6830764 0.17010254 22.256664
-0.92337012 0.59105182 22.28458
3.8126571 1.3720421 22.291731
-4.7081342 -1.0415388 22.349367
0.81966674 0.17734709 22.390888
1.0196049 1.3484331 22.32963
-3.7537391 -2.561605 22.441519
-1.1446216 -2.199661 22.470448
-1.0446934 -1.9946891 22.491077
-4.2520795 -2.29232 22.583347
-0.74719465 -1.4171853 22.592049
0.77894771 0.11123949 22.545382
4.6891174 0.10776633 22.500908
0.86046982 0.54236633 22.587694
-0.88718915 -1.8094488 22.690197
0.60025132 -1.1612409 22.692673
-2.0614128 1.7984071 22.626587
-2.0808532 1.8163399 22.679222
-3.2213383 -2.8592291 22.737514
-4.3127961 -2.1149833 22.79253
2.8504202 1.8916241 22.710634
-3.9150305 -2.490211 22.818005
-4.2808185 -2.1984851 22.870569
-4.4530735 -1.7136843 22.89415
-4.6071653 0.48727405 22.871729
-0.86864132 1.0013762 22.812693
-3.8846011 1.3098197 22.890598
-3.9733882 -2.4635568 22.9338
0.88304734 -1.9918888 22.922722
-4.5038023 -1.5658389 22.965393
-0.57266569 -0.83821076 22.954025
4.7856131 -0.77233517 22.994291
4.7358818 -0.3502084 22.958858
-4.7158575 -0.19724941 22.925055
-0.85697383 1.2908831 22.941422
-0.65178365 -0.093618765 23.028446
3.3993907 1.5772297 23.096516
4.542768 0.55365819 23.160173
3.4841888 1.5277257 23.135019
1.2634554 1.6535432 23.137493
-2.1500189 1.9156535 23.169779
3.7286506 -2.5440934 23.230186
-0.58363581 -1.5772066 23.224762
4.508564 -1.4651238 23.21328
-0.68791813 0.27347016 23.254505
-3.0532217 -2.8486123 23.385096
-1.3175848 -2.6494641 23.379883
4.6298237 -0.17987752 23.391155
4.5036201 0.52256107 23.363098
4.4479599 0.75102842 23.347008
0.71558082 0.96908075 23.396372
-1.4898293 1.7694256 23.329418
2.3207979 1.9479446 23.300034
3.0268946 -2.8476052 23.457048
-3.9275765 -2.3993888 23.479675
-0.59379643 -0.053762957 23.406366
13.431361 0.53387094 23.499393
-3.8668489 1.2981999 23.486423
-1.3772774 1.7650511 23.473831
-1.75175 1.8867793 23.47739
-2.4321487 -3.0154049 23.514059
-2.1575317 -2.9332194 23.540363
2.1954739 -2.9447994 23.528027
-3.2702379 -2.7102149 23.551262
-3.2937794 -2.6919682 23.586437
-4.161304 -2.2586033 23.574059
4.1754727 -2.2105949 23.593418
-4.614933 -1.0180598 23.530598
-4.6483574 -0.49881715 23.598948
-13.554458 -0.14740485 23.580393
-13.283491 0.18846655 23.537651
-13.426666 0.65959156 23.556419
0.65186906 0.6876055 23.561607
-3.6856813 1.3980888 23.565491
0.91546983 1.5613149 23.537529
-3.290015 -2.6806159 23.656509
-4.4085531 -1.5598357 23.615824
13.570685 -0.46992335 23.673944
13.437078 -0.30150381 23.676296
-0.68021488 1.2190447 23.604692
-3.3855219 1.5649328 23.659479
-2.8980138 1.8258176 23.644939
1.5463254 1.8608899 23.661211
-2.587419 1.9847076 23.652979
1.1218691 -2.5259838 23.799732
-4.5022936 -1.2370636 23.741047
13.764256 -0.49305969 23.738976
-13.311472 0.26743978 23.774611
4.2228084 0.97676051 23.776516
-3.3559761 1.578932 23.73531
-1.2047528 1.7772328 23.780495
2.8626103 -2.8698387 23.813519
0.82474756 -2.3517437 23.878977
13.889397 0.87024099 23.831112
4.1706858 1.0260075 23.857515
0.78173018 1.537601 23.820919
-3.1334252 1.6974161 23.817329
1.3089726 1.8311496 23.873039
-1.9254742 -2.8525534 23.96368
-0.56163746 -2.1669095 23.996651
-4.5454359 -1.0344806 23.914181
13.479727 -0.17035228 23.910801
-14.048756 0.18456769 23.933661
-0.51724744 0.37861043 23.992712
4.2603216 0.81916142 23.993509
3.3911276 1.5521972 23.914213
-2.70735 1.9117099 23.910566
-2.6517749 1.9373887 23.973598
1.7182277 1.9294355 23.967934
1.7494762 -2.7971005 24.007986
4.3382616 -1.5698638 24.01569
-14.116842 0.055685416 24.032715
-0.48333862 0.0042503625 24.01586
-0.52457023 0.77861422 24.079851
13.911942 1.1331762 24.09528
-1.1796216 1.8240515 24.028603
1.8395252 -2.8212638 24.171806
0.74153411 -2.2972362 24.153744
0.44074678 -1.4705986 24.155235
-0.44039422 -1.2172894 24.164497
-4.5954294 -0.72243607 24.114862
4.4504213 0.0090233386 24.165302
0.50112247 0.78458053 24.17284
14.10334 1.1425629 24.117516
-3.1482477 1.6763214 24.119423
1.1310449 1.842576 24.18409
0.42840734 -1.9876729 24.25432
-0.42916468 -1.8216012 24.250839
0.083367325 -1.5126604 24.258013
13.195897 -0.83984149 24.287909
-4.5156741 -0.3944506 24.245319
-0.44991183 0.22185314 24.205357
0.51697409 1.3153188 24.26474
-3.3978667 1.5376141 24.217575
2.7269921 1.8857851 24.260132
3.0939732 -2.6464834 24.363743
-0.014356347 -2.0336473 24.324518
-12.904499 -0.95163596 24.371735
-14.278746 -0.57621223 24.385229
13.802858 0.21324906 24.307768
13.881709 1.1442703 24.302628
-3.5907402 1.4249078 24.308187
0.37937239 -2.1874821 24.40086
4.4134402 -0.10624799 24.452946
-14.33147 0.1875948 24.420897
-14.285763 0.89400566 24.409166
-1.8314774 -2.8106477 24.558483
-14.361374 -0.2924692 24.541428
2.7118924 1.8816808 24.525679
-13.110144 -1.1654229 24.694153
-4.4121804 -1.0498458 24.684116
12.815263 -0.94378173 24.697937
4.2943821 0.21828942 24.601913
-0.7034843 1.7413021 24.684111
-2.7099035 1.8787247 24.619663
-13.890308 -0.17079018 24.766212
-4.344171 -0.095980048 24.740198
-14.326269 1.1577389 24.701557
3.7385168 1.3242393 24.764114
3.1527169 1.6468558 24.722717
-1.2453781 1.9990019 24.716017
-1.4357394 2.0402269 24.794594
-0.88594961 -2.3776186 24.868824
3.4953642 -2.363203 24.801086
4.0441113 -1.9621081 24.836603
4.2461543 -1.4128649 24.862984
12.766887 -0.94449389 24.893705
13.197589 -0.87479091 24.889553
13.842339 -0.49204543 24.891371
-14.370464 -0.313593 24.88773
0.1587628 1.0243486 24.812609
1.8027953 -2.7864649 24.964706
-0.91520381 -2.401227 24.933247
-0.50850934 -2.4414783 24.932764
-0.13068448 1.096153 24.961891
2.0998354 -2.8632913 25.006308
12.730909 -0.89208758 25.070812
12.958675 -0.83593339 25.076206
-13.76288 0.56384075 25.036762
-4.1019421 0.57237691 25.03413
3.9542251 0.86352754 25.020971
-13.796701 1.1996198 25.094494
-0.83833241 1.9952483 25.004108
1.1010925 -2.5105705 25.16939
4.1279564 0.372668 25.144457
13.703552 0.52749878 25.176491
0.14827995 1.3094316 25.148823
-2.7908173 1.8356901 25.192825
2.467525 -2.8419986 25.247271
-0.49899456 -2.6138911 25.256187
0.024779838 -2.6923633 25.237734
-12.761493 -1.1392542 25.264448
-13.818494 -0.64067018 25.210808
4.3469152 -0.53745979 25.220438
-14.329043 0.017676119 25.275875
-4.058516 0.56123716 25.233084
-2.7671237 -2.663692 25.318195
12.954123 -1.1741743 25.327526
-4.3586683 -0.84017396 25.399298
-14.355253 0.42380011 25.334419
-3.8792477 0.84617066 25.33712
-0.37007171 1.9138191 25.351179
1.7479837 2.2590213 25.335779
-2.5938563 -2.7390797 25.438946
-0.59349102 -2.6753323 25.451292
3.2114019 -2.3897672 25.474339
13.414731 -0.026800022 25.423321
-4.1143622 0.15474439 25.447205
13.52389 0.70348787 25.410839
1.195238 2.3004701 25.441246
3.6086693 -2.1726029 25.515923
3.9241972 -1.9406729 25.543985
-4.0544858 -1.5977024 25.539047
-13.299667 -1.0864298 25.55484
-14.194802 -0.52837569 25.557783
4.0249958 0.38425973 25.573845
13.884013 1.2049984 25.58625
-3.5339813 1.3165917 25.548513
-0.11187344 1.6331463 25.576752
-0.40754524 2.0315228 25.577957
-1.5895909 2.3151727 25.511675
-2.2984047 -2.859484 25.69206
1.1332539 -2.6362877 25.666435
12.771761 -0.59561932 25.676979
14.198544 -0.33640933 25.65863
-13.119856 -0.29395163 25.642887
13.163513 0.06020784 25.657684
-0.071672127 1.5781519 25.614456
-2.5097151 2.0759389 25.619099
1.6575677 2.3277028 25.623135
13.796844 -0.74759275 25.709288
13.872362 1.1960638 25.742725
0.18026575 1.8157775 25.723814
2.437043 2.1393349 25.738928
0.70396978 -2.8057723 25.817026
3.1706185 -2.35357 25.81559
-13.310551 -0.84807307 25.809601
13.002799 0.40996265 25.871828
0.8890869 2.2726147 25.899765
-1.7859278 2.3391941 25.874325
-13.954674 -0.70491147 25.922659
4.2326612 -0.79038429 25.929138
1.0556674 -2.8289018 26.060837
-1.5298461 -2.7570841 26.078951
-3.8472083 -1.8850197 26.086506
-13.508905 -0.88157851 26.072168
-13.993942 -0.13005476 26.059692
-4.0199442 -0.047448158 26.082088
3.5843539 1.0354211 26.090942
-1.831791 -2.686821 26.179678
-4.1765594 -0.68159425 26.127163
-12.693242 0.18958558 26.191288
2.6253958 1.9727739 26.100113
0.96545517 2.291019 26.158913
-3.9351068 -1.5907544 26.213039
13.528838 -0.76643103 26.266867
13.855591 0.57111585 26.296684
3.2835793 1.4882739 26.283348
3.3204134 1.4636329 26.271826
-1.019362 2.3173628 26.203432
0.89955997 -2.9223886 26.300795
-1.2156782 -2.879333 26.346382
-1.9769177 -2.7046409 26.383896
-3.3474133 -2.1698308 26.312994
13.230632 -0.83859074 26.355427
13.886436 0.3044652 26.310398
0.98951447 2.2860918 26.352959
-3.8250923 -1.7770239 26.433348
-4.0957689 -0.74596816 26.496525
12.478628 -0.038321801 26.451328
12.951568 1.1313953 26.42602
2.2482758 2.1419604 26.482914
-1.224218 -2.9024179 26.580456
2.9525971 -2.3922405 26.548395
12.524483 0.49423343 26.56921
-13.620857 0.59768808 26.59334
13.523429 1.0443996 26.553186
-0.14757994 1.8693538 26.594543
-1.907119 2.2125409 26.570663
2.0724189 -2.6935678 26.678741
2.865479 -2.4519446 26.637259
4.0482588 -0.81102639 26.609634
-12.928556 -0.7103048 26.636303
12.681643 -0.67834902 26.654697
-12.449345 -0.17109123 26.628654
-3.9043431 -0.084108025 26.629398
-12.869698 1.11483 26.663742
0.3187072 -3.0748496 26.766247
-13.300783 -0.54833555 26.760296
-3.8809645 -0.13225903 26.771133
-12.45011 0.79127431 26.774437
-1.3996042 2.2821696 26.769335
-1.1059434 2.315556 26.752228
-0.92367005 -2.9822199 26.813297
-3.708323 -1.7772528 26.84363
-12.309052 -0.02241613 26.888187
-12.279129 0.27227959 26.867002
3.1953802 1.2190244 26.893312
2.7475414 1.6586403 26.881857
2.8448944 -2.4785967 26.988113
2.9042737 -2.4388733 26.953064
-3.8399267 -1.1816857 26.992435
-12.903645 -0.55110824 26.90476
-3.4663649 0.70758128 26.923489
-12.346018 0.88922822 26.940905
3.359324 0.94946259 26.900627
12.320684 1.0185523 26.999897
-3.7901902 -1.3229675 27.003159
-13.145246 -0.35074142 27.050068
-12.980315 1.0970592 27.006855
-2.7995343 1.4785415 27.057922
-1.4755493 -2.8514037 27.197908
-12.227238 0.96062165 27.122337
0.66581607 -3.0760045 27.279293
1.781067 -2.7042246 27.29097
3.8439476 -0.60130662 27.288847
12.954393 -0.33007425 27.273708
1.08764 2.0790842 27.222204
0.33031356 -3.1457992 27.336462
3.2062125 -2.2217298 27.388866
3.5452383 -1.7439842 27.334969
3.6312094 -1.4043034 27.333055
12.280322 -0.27997273 27.369419
12.951538 -0.0730858 27.36018
-13.014926 0.031137824 27.323877
13.023537 0.10527509 27.334923
-11.927193 0.25746363 27.398708
-13.091153 0.48895097 27.301222
11.987093 0.66925114 27.349136
3.2779477 0.74756187 27.320633
0.58253282 1.9005469 27.336266
-2.3742807 -2.7115366 27.429573
1.7959189 -2.7084095 27.469891
3.7159691 -1.0231454 27.426964
12.866102 0.047358736 27.49765
3.1022072 0.84354782 27.493313
-2.7722476 1.2352245 27.439438
2.7519915 1.2611624 27.429464
-3.6184082 -1.2017261 27.527014
2.494307 1.4380605 27.515335
12.789434 0.37957618 27.693359
-0.77490485 1.7731755 27.65811
0.32096729 1.7062757 27.601984
-3.1854658 -2.2114539 27.721638
12.181168 -0.24001494 27.737499
11.667495 0.11426552 27.755182
3.3131168 0.29282099 27.745749
3.3132896 0.31652391 27.723133
12.617888 0.60405976 27.780445
12.563487 0.76914889 27.722355
11.867701 0.94320941 27.742762
3.0193794 -2.2758567 27.857677
-3.3350778 -1.8318893 27.879005
3.5898256 -0.63366401 27.856236
-11.780346 -0.26749748 27.882711
-12.531412 -0.0061492622 27.858017
3.416383 -0.073444024 27.830496
-11.494325 0.45633993 27.854891
-11.64626 0.69967335 27.875826
12.332538 1.0240793 27.819981
2.4611523 1.1766174 27.868425
0.23554723 -3.1851501 27.995354
-0.75937581 -3.0881386 27.939568
-11.565368 -0.27752849 27.990932
-12.374626 0.85273725 27.908398
0.70475948 1.6376517 27.907553
-11.732909 -0.2618067 28.025677
11.327368 0.52730334 28.026447
-0.88886499 1.5397751 28.077774
-0.42174804 -3.1497715 28.153542
0.66365063 -3.102715 28.127222
3.2843757 -1.565204 28.133337
11.68508 0.99196178 28.155485
11.047795 0.1503187 28.268742
-10.966808 0.37147218 28.26762
1.3922845 1.2934234 28.275658
2.2560396 -2.4946539 28.342943
-3.0351517 -1.9578608 28.32642
-3.0621293 -1.7650666 28.386898
-12.171583 0.19276753 28.342319
-11.086387 0.79958552 28.377876
11.028852 0.70675617 28.367702
-12.026786 0.88487065 28.330469
11.91748 1.0173478 28.353355
-2.9342465 -2.037189 28.447695
-3.2551227 -1.0864344 28.452747
11.143043 -0.34211028 28.444426
-10.906107 -0.086179376 28.460245
2.7332327 0.40717989 28.479118
1.5391474 1.0779471 28.476982
-2.7494266 0.29882669 28.583313
-2.0591631 0.80971569 28.518208
2.2808218 -2.3747866 28.601318
3.2440434 -0.85275394 28.627823
2.1174083 0.68258679 28.629951
-1.5740616 0.9630484 28.606998
11.099727 1.0375571 28.627525
-3.1442518 -0.91152817 28.79446
11.246284 -0.30876547 28.700821
11.471828 -0.26491833 28.761435
2.4764073 0.43326998 28.712074
10.47917 0.55576813 28.735031
10.960032 1.0526247 28.791134
-1.6535547 -2.6894462 28.893349
-2.9811397 -1.272303 28.858597
-3.1165147 -0.88403225 28.841009
1.9031732 0.59387362 28.850622
0.54356235 -3.0438819 28.955006
1.8580902 -2.5978248 28.946238
2.1283145 -2.41258 28.902267
10.522711 -0.35830536 28.969875
10.884047 -0.35666338 28.98587
-11.059947 1.0907322 28.99173
10.607396 1.0715702 28.971764
-2.7610912 -0.385445 29.030418
-10.159243 0.061333477 29.023636
2.422652 0.15796778 29.067562
11.450133 0.88320786 29.095657
-2.5964692 -1.933071 29.11264
-2.8369608 -0.66271621 29.109575
-2.6404135 -0.28886813 29.151505
11.282406 1.1355236 29.146753
-1.147707 -2.8345408 29.236904
1.3113627 -2.7712905 29.230377
-1.823409 0.30252683 29.289616
1.1446539 0.62051898 29.259048
-2.7176878 -1.2678264 29.361715
-10.696694 -0.37061742 29.310207
-0.380079 0.64285803 29.367313
10.062763 1.0307137 29.322815
-10.823965 -0.3313396 29.42552
1.8380914 0.15739977 29.472218
11.362736 0.48539361 29.440254
-0.39871764 0.61317921 29.410986
10.093957 1.1188946 29.475044
0.59674799 -2.8814316 29.557289
1.7431031 0.12872836 29.590885
0.91676146 0.48483941 29.525942
11.233773 0.40134114 29.585892
-2.5273151 -0.73042685 29.655287
2.4540787 -0.58448148 29.665657
-10.092346 -0.45840275 29.658546
1.3642237 0.30131906 29.671198
0.4340193 0.46235338 29.651537
-9.6536646 0.95630848 29.608742
1.8131444 3.2015774 29.684059
1.5034267 3.347261 29.60428
2.4689555 -1.3645825 29.757872
-2.5827897 -0.96368039 29.736752
2.2858171 -0.37512174 29.758659
-0.78338897 0.3666997 29.746227
10.951519 0.76859885 29.83954
-9.3799 0.8939814 29.804739
-9.910634 1.1770256 29.8015
-10.318702 1.2363647 29.83897
-1.4981123 3.7001128 29.807446
0.16607115 4.1149635 29.824257
1.3649058 -2.6247261 29.940399
2.1340735 -2.0185132 29.902433
-2.2724488 -0.60159618 29.945028
9.2098646 -0.031279948 29.927296
-1.2517411 0.18738629 29.925838
-9.2409649 -0.32579809 30.091396
-10.757669 0.14958346 30.083279
-0.87782377 0.22065194 30.017328
9.6199284 1.2099844 30.045303
1.5173271 3.2885623 30.067896
-1.2248725 3.7948554 30.004421
-0.42978704 4.0931954 30.036938
9.4865627 -0.53656763 30.155426
-0.73500997 0.2091545 30.174864
9.4001684 1.1990615 30.101126
2.4089856 2.9708786 30.187675
-1.6353486 3.6338699 30.153797
-0.46844673 4.0723772 30.185993
-1.6136656 -2.3284433 30.275772
1.9207939 -2.0590808 30.290276
-10.627249 0.17788656 30.250544
-8.6217079 0.48311034 30.267775
1.917829 3.1641517 30.283663
1.3399692 -0.0083727706 30.326729
0.035391733 0.30476058 30.302464
-9.7778206 1.3239372 30.389671
-1.8204861 -2.0846872 30.451946
1.9660854 -0.5643146 30.498184
-8.5916452 0.11915059 30.453522
10.250409 1.2189759 30.463289
2.6285677 2.8861678 30.423868
-2.4076636 3.0851009 30.489769
2.3340478 3.001719 30.424835
2.1562569 -1.1294746 30.52673
-1.9030812 -0.52101254 30.581091
8.5371513 0.048044831 30.573812
-0.18951873 0.21598284 30.561115
-8.5666981 0.83617282 30.516769
0.8674562 3.6024737 30.515297
-0.75215274 3.9501309 30.551252
-0.36711761 -3.0152788 30.600727
8.4872007 0.088754818 30.60438
-0.47867882 0.15174097 30.668798
-8.2677107 0.49552387 30.670488
-8.5260744 0.93944812 30.616091
-8.8996706 1.2847536 30.675272
1.5566264 3.2932081 30.603174
-2.0695324 3.311482 30.675446
-1.6173269 3.6189604 30.671749
1.9042295 -0.68162334 30.788
8.6304483 -0.27711299 30.70488
-10.010542 -0.16825493 30.785486
-2.7224705 2.8425846 30.736794
-1.9195057 3.4151845 30.714735
-0.095891088 4.080883 30.786324
1.6295458 -2.5400603 30.89995
-1.6672685 -2.4713793 30.873369
1.6665576 -2.4686546 30.858221
10.047373 0.11337896 30.892742
-8.2516203 0.83782321 30.860752
-9.8135338 1.4591758 30.862642
-2.4886394 2.9983499 30.875597
2.5473855 2.920357 30.808922
-2.2271309 3.1849778 30.866497
-2.1089327 -1.0956304 30.95705
-8.9272957 -0.47399247 30.958385
-1.4222759 -0.15757476 30.972628
1.3440255 -0.13411196 30.90332
10.047926 0.96729279 30.907948
0.71150279 3.6311977 30.987232
1.6549368 -2.5712836 31.080982
9.3747015 -0.42602581 31.029919
9.9743614 0.1590316 31.002392
7.9342117 0.45604026 31.056641
-1.6936769 3.5538974 31.003796
-1.3558218 3.7008343 31.070271
8.8011589 -0.44130749 31.110538
-9.6324339 -0.24830031 31.153492
-9.8639584 0.28419608 31.197811
-7.974772 0.86711371 31.185551
9.8046818 1.1010765 31.133415
9.4637003 1.4538186 31.174665
1.9186265 -2.2198737 31.270189
2.0629478 -1.77505 31.200893
8.7621031 -0.39510381 31.296947
-8.1688576 -0.27174723 31.267448
-1.5082841 -0.13182089 31.217541
-9.6350565 0.084483996 31.297098
-9.7634659 0.10753513 31.20373
7.9940367 1.085937 31.274216
-9.621069 1.1039271 31.248688
-9.5916157 1.1357071 31.251598
1.5883093 3.2995303 31.287868
7.9128418 0.10052424 31.328159
7.7241096 0.47836784 31.311197
-0.78383148 -3.1151316 31.498402
1.7935233 -2.5143843 31.474884
1.8279095 -2.4494722 31.43985
-1.1635132 0.12377935 31.429317
-7.6349769 0.70531619 31.478661
8.9886618 1.4165621 31.403004
-1.8714055 3.396148 31.418774
0.37692022 3.7680535 31.447515
-0.72230357 -3.1615782 31.58433
-0.25732678 -3.171062 31.55682
-1.4306579 -2.8492582 31.583302
-2.111799 -1.7326916 31.506472
7.996748 -0.33989078 31.530186
1.5772874 -0.06132615 31.524506
-8.4202709 1.3568342 31.534157
1.8551898 -2.4997983 31.688004
1.9442602 -2.2796652 31.647354
2.1920402 -0.67355484 31.670753
-9.0260773 -0.27393001 31.692453
-1.1073434 0.2352712 31.696152
0.88511032 0.21809429 31.660118
-2.037019 3.2587523 31.67849
1.0526849 3.4109437 31.681395
-0.45352393 3.9552941 31.677496
1.8488886 -2.5487063 31.796146
-2.0221639 -2.1348174 31.772182
0.48816028 0.19099492 31.701874
-0.83307481 0.22369766 31.715923
7.5368934 0.2512899 31.701702
7.3299537 0.4928022 31.787628
2.5814335 2.9129543 31.788912
0.52815455 3.6377883 31.741562
-1.2447586 3.7130389 31.778126
-2.0653725 -0.26211137 31.818142
8.1492519 -0.28259334 31.831039
7.2757821 0.5625869 31.879782
-1.9912434 3.279963 31.828421
-2.2461555 -1.3822054 31.951698
8.6596985 -0.2236374 31.974573
8.8055763 0.11138874 32.026188
-7.1920433 0.78648788 32.072582
-7.4001932 1.2703369 32.04147
7.8785486 1.4462045 32.060448
-7.2940702 -0.017636478 32.136818
-8.7037315 0.18518797 32.144489
7.0382061 0.72930646 32.19458
-7.3155947 1.2287515 32.12912
8.2925844 1.4312352 32.138042
0.64162672 3.5141516 32.152287
-1.3215314 -3.0460777 32.283653
1.960766 -2.5154889 32.26733
-1.975395 -2.4740875 32.264771
2.2219486 -0.35332945 32.223541
8.0394478 -0.17947094 32.29884
8.7583523 0.68269831 32.26408
-7.1939001 1.2875229 32.293461
7.3374934 1.3803548 32.263
-0.22196648 3.8836901 32.222939
-1.1722111 -3.149626 32.365997
-2.328027 -1.2569834 32.361988
-7.3679528 -0.26594302 32.31459
-6.7683001 0.49206507 32.347092
6.713747 0.48410243 32.396046
-6.9073925 0.69527298 32.304337
-1.2814527 -3.0738029 32.438576
1.6144389 0.30042714 32.484283
-8.1280174 1.2708877 32.444954
-2.4376864 -0.90598756 32.539722
-7.5967612 -0.21497113 32.588421
8.2714005 0.15449259 32.548317
0.18088305 0.37032995 32.500088
1.5497377 0.34204102 32.50359
-6.5849094 0.56551522 32.555191
6.6313066 0.61150253 32.531517
8.3051796 0.89074928 32.553791
-6.7549582 1.0206089 32.593899
-1.2999506 3.658258 32.588989
-2.3420124 -2.0429037 32.67857
-2.3641469 -0.35929543 32.646263
-7.8183346 -0.17728794 32.640373
-6.8051615 -0.17456463 32.626526
6.6733093 -0.031308673 32.656673
6.4718037 0.53115809 32.648403
6.787775 1.1834729 32.630295
1.4171209 3.364758 32.646702
0.67813438 3.5026979 32.673061
8.0471687 -0.0021695346 32.756042
-6.3623328 0.58905017 32.778591
-1.9728422 3.2217975 32.77066
0.76721114 -3.2602348 32.830498
0.89450288 -3.2168953 32.856651
2.1208916 -3.1583204 32.815102
-2.3975077 -2.0649862 32.824791
7.954298 0.99058712 32.842297
6.5262828 1.1476432 32.858833
1.3626295 -3.5368881 32.91227
2.5081241 -3.5141551 32.932957
1.2016667 -3.4864628 32.927727
-2.0636108 -2.8056822 32.906975
1.9814136 0.34183353 32.93301
2.1880364 3.0663359 32.904552
-2.2254841 -3.9220414 33.076077
2.628289 -3.6724489 33.042698
-2.4538562 -2.7210565 33.014408
6.1604323 0.023903891 33.064072
-7.8973732 0.15336201 33.016205
-6.0774741 0.25078297 33.067165
-7.9516521 0.38075793 33.04213
7.6670647 1.1365228 33.055676
-6.9175882 1.4365199 33.030731
-6.6903505 1.4486601 33.015198
-1.1608353 3.6901038 33.080452
1.5309681 -3.9809184 33.124405
0.76784515 -3.2541461 33.15778
2.8584292 -3.2241087 33.194115
2.8093097 -2.8179677 33.147968
-7.3387966 -0.33919513 33.127262
7.7805223 0.10059407 33.179585
-0.16573626 0.59065247 33.127029
-6.9605942 1.43613 33.148972
-6.6418104 1.4539111 33.134972
-1.1720523 -3.9539847 33.23978
-0.69059438 -3.2982173 33.204475
2.8359091 -2.4520125 33.261307
-2.5585599 -2.1603053 33.205013
2.6534679 -1.3304594 33.242271
2.5121222 0.024671502 33.220055
5.8864789 0.58973104 33.23035
-1.0349351 0.80044657 33.279484
7.444108 1.2637193 33.215679
-6.7641249 1.449736 33.293678
0.66952437 3.517673 33.272186
-0.5671553 3.7392704 33.253399
7.716311 0.28974667 33.385918
5.7332683 0.46380201 33.34473
0.45830613 0.72713292 33.305653
-6.4806633 1.4638977 33.335487
6.875175 1.4445066 33.356613
-1.7462617 3.3372171 33.366512
1.5338848 3.3333797 33.344521
0.38895458 3.5704691 33.301208
2.6582413 -0.86456555 33.43198
-6.5726299 -0.54640079 33.468994
2.606725 -0.024182342 33.451035
-5.6666236 0.32316357 33.452564
-5.5907416 0.44843069 33.485218
-5.7874122 0.84640813 33.431599
-0.8793695 0.85706913 33.456688
-2.5386586 -4.22996 33.526138
-0.73958439 -3.8612993 33.500175
0.57593656 -3.6481485 33.535023
2.9424529 -2.0565677 33.582722
2.7889764 -1.8948853 33.514278
2.6943376 -1.1974715 33.560684
-2.6157515 0.085175946 33.506226
7.5412169 0.73337144 33.544655
1.7035608 0.83641505 33.532078
1.4126654 0.95268458 33.525612
7.3749514 0.93002021 33.579395
-1.619128 3.4107389 33.597973
-0.81267273 3.6976199 33.538063
-0.73491323 3.6923883 33.583138
2.561759 -4.2565274 33.618362
-3.1237061 -3.346153 33.624557
-6.2962079 -0.49147034 33.604622
-1.9660249 0.7727741 33.694389
-1.054249 0.92997169 33.616985
-1.4792714 -4.5506186 33.785511
1.8383682 -4.5009832 33.723198
2.0666749 -4.4908924 33.742676
2.9045625 -4.0887146 33.730637
-2.6619639 -0.30528221 33.758663
-2.6304367 0.31486073 33.750065
-2.4715133 0.39718392 33.704449
-5.4530592 0.78581572 33.724957
-7.2499609 0.84751129 33.788128
-1.6912067 -4.5419588 33.812447
1.7252696 -4.5646725 33.893791
2.9494846 -1.8547375 33.877613
-5.843843 -0.42915401 33.880295
5.3045802 0.59065682 33.818073
-0.48161316 -3.9147053 33.917038
-0.3146342 -3.6626835 33.999386
3.2441134 -3.3455751 33.955116
-6.5896983 -0.48671916 33.914673
7.2532949 -0.2683154 33.915741
-5.141006 0.34996173 33.968697
1.4501091 3.3701596 33.988441
3.0473771 -2.0019841 34.041458
2.7805586 -1.503055 34.044518
-2.719357 -0.537184 34.078064
-7.179224 -0.050316766 34.036446
-2.7401328 -0.026630625 34.021622
6.7789621 1.2302853 34.035667
-2.6224692 -4.3673325 34.106514
1.7943928 1.1387221 34.154861
1.9362053 1.139843 34.147285
5.4236422 1.4530354 34.176369
0.94984931 3.4849172 34.138786
1.1472963 -4.5644732 34.268269
-0.59868366 -4.2362351 34.269482
2.7524586 -0.73419613 34.231766
-6.6108332 -0.39739472 34.26313
-2.7659872 -0.16083393 34.214584
-2.8388245 0.26646143 34.288887
2.3595653 -4.5654325 34.341267
0.66631293 -4.3545246 34.364666
-5.7628231 -0.62491786 34.395107
6.8743906 -0.21486454 34.337944
-2.8523698 0.04188494 34.356255
1.0206153 1.1280705 34.328087
-6.0130348 1.4836366 34.358505
3.0063374 -4.0925264 34.497868
0.16565545 -3.5108476 34.465744
3.2905214 -3.1990919 34.466225
3.1718395 -2.2401786 34.481846
-2.7950051 -1.0641921 34.424889
-2.4252148 1.0505025 34.43824
-2.2126555 1.2167873 34.443916
2.1224749 -4.58531 34.550644
-3.2942066 -3.3147855 34.513718
-6.2102108 -0.47128177 34.507454
2.8349931 -0.28639823 34.54565
-0.31214669 1.0504429 34.568806
6.5055122 1.0042511 34.543842
1.6607387 -4.6242237 34.667164
-0.81573272 -4.3620796 34.651566
-2.8507977 -1.4857719 34.613766
-4.9222522 -0.42321315 34.687187
5.0533099 -0.4759241 34.693848
-4.653635 1.199122 34.659332
-2.395314 2.7335017 34.662403
-0.66788298 -4.2570596 34.730274
-0.15829481 -3.4491124 34.731144
5.5527048 -0.65479314 34.786152
2.9428134 0.73475128 34.713062
1.1422988 3.3260479 34.793961
-5.147728 -0.58526772 34.867615
2.9375768 -0.26654688 34.884907
-6.4067655 -0.19673033 34.827541
4.2622104 0.2426493 34.881058
-4.4008622 1.125051 34.891644
-1.0757866 1.2895517 34.870628
0.43222266 -3.8117239 34.90316
-4.3625994 -0.22114843 34.921547
-6.3812885 0.67416251 34.924263
-2.9531727 1.0745552 34.942974
0.36523837 1.1669509 34.986832
0.42640084 1.1696334 34.933418
-2.2556069 1.3612565 34.921211
-2.2160511 2.8436716 34.918819
-1.4580398 -4.5116243 35.094341
2.8735902 -0.89738524 35.015144
-4.4403315 -0.38495046 35.040134
2.7246821 1.3715622 35.089218
5.5123119 1.4156733 35.097935
-1.600282 3.2037578 35.006405
3.1433775 -3.1203799 35.149498
3.0847087 -2.5854173 35.196682
-2.9030082 -1.0352374 35.181866
2.8997512 -1.0585922 35.142117
-5.8605013 -0.44452369 35.106728
-4.5053473 -0.44274932 35.118698
-6.0167656 -0.38984206 35.120823
-4.1045322 -0.29187295 35.188122
-3.9553418 0.12870389 35.184975
3.0652165 1.0244914 35.174
1.6773717 1.3977069 35.100525
5.6670604 1.3431695 35.10532
2.1839125 1.4348375 35.193176
5.3062382 1.4843776 35.147888
-1.036216 3.3513293 35.149879
-0.84660459 3.3486981 35.140144
-1.4984235 -4.4048209 35.238205
-1.2257977 -4.3142614 35.203819
1.4255517 -4.3813882 35.236057
-2.7874651 -3.9252791 35.235558
2.9524117 -1.5617397 35.220669
-4.6460743 -0.55321741 35.253662
5.500597 -0.52547944 35.285965
-3.937706 0.69383335 35.224159
3.0946279 0.75922215 35.230061
-1.458569 1.4194653 35.200848
-2.2821789 2.716234 35.239365
1.9668877 2.9470029 35.242081
-0.65912116 3.3186128 35.242764
-2.9036922 -3.5671098 35.377308
3.0085211 -0.6035862 35.390141
3.7545016 0.62452424 35.37534
1.5321494 3.0867949 35.374275
-1.701709 -4.1963191 35.463028
-0.984294 -3.980056 35.442642
-4.2132654 -0.46568757 35.443192
-0.01979013 1.1787311 35.477055
1.1984369 1.4749928 35.459785
5.156652 1.4050498 35.46154
1.5759081 3.0580411 35.423588
-0.77178252 -3.6258612 35.583454
-2.9333882 -2.5431099 35.580429
1.2628095 1.5127039 35.561279
1.8271191 2.9404612 35.504158
1.5487233 3.0363064 35.561836
-0.5998919 3.2493222 35.56461
0.62001157 -3.3578281 35.624519
-2.8853664 -2.1350524 35.646481
4.0770311 -0.44904843 35.661003
5.7052917 -0.077810064 35.602112
-3.4257226 0.73728049 35.652134
3.50226 0.79837227 35.604362
5.2634411 1.2878395 35.610863
0.38946477 1.3289573 35.618736
1.8567917 -3.8153987 35.77795
-4.2824869 -0.6048069 35.712814
5.4569345 -0.32658067 35.749722
-3.3141575 1.2387425 35.796902
-3.6340446 1.5648668 35.71109
3.8086729 1.5483491 35.783306
-1.3704338 3.1323743 35.786736
-0.34761143 3.2246637 35.736961
-0.29363045 -3.061949 35.813179
2.8290138 -2.2006595 35.834808
