# .PCD v0.7 - Point Cloud Data file format
VERSION 0.7
FIELDS x y z
SIZE 4 4 4
TYPE F F F
COUNT 1 1 1
WIDTH 170
HEIGHT 1
VIEWPOINT 0 0 0 1 0 0 0
POINTS 170
DATA ascii
0.2577818 0.49135453 -0.0049342448
0.35300589 0.48009175 -0.0037806234
0.41205999 0.46815088 -0.0037093661
0.27022085 0.52785623 -0.0041024694
0.37475935 0.5232234 -0.0041276696
0.42084724 0.53471982 -0.0033916612
0.29111752 0.6427753 -0.0040337583
0.34265587 0.64885378 -0.0035053585
0.40455055 0.63654232 -0.0038470249
0.26830626 0.45564616 0.022940731
0.35617468 0.46298125 0.027011303
0.43257746 0.46816683 0.0091615338
0.25445622 0.55297667 0.028980315
0.35821387 0.54250795 0.027720466
0.42258987 0.56094253 0.022447791
0.27140769 0.6351943 0.052470408
0.34810311 0.6427899 0.040136535
0.41071734 0.63430339 0.041415345
0.26517746 0.64343733 0.15595557
0.35616413 0.6318441 0.14623043
0.42160234 0.62954849 0.14564034
0.26329935 0.65928966 0.25952953
0.34783235 0.65252811 0.25795299
0.42873102 0.64815956 0.25453493
0.39768055 0.59863573 0.37844792
0.25896299 0.64301586 0.35816321
0.35263181 0.65207011 0.35165611
0.43251717 0.65563762 0.36586687
0.27235219 0.59619719 0.45927191
0.39135045 0.5962249 0.44346389
0.40887344 0.5957855 0.45086208
0.25644991 0.63243806 0.44754788
0.35019982 0.62198037 0.45091745
0.42621908 0.6366272 0.43212977
0.26135281 0.57554722 0.58091718
0.37356633 0.58049822 0.57859164
0.4115715 0.57431209 0.57790816
0.25711191 0.6196236 0.54988676
0.36385611 0.61732733 0.5381577
0.42402837 0.61320007 0.53972179
0.19187982 0.5616414 0.6789704
0.2436381 0.55251527 0.64273441
0.3552295 0.57101911 0.65822673
0.44995403 0.55913842 0.65398395
0.17437643 0.62577248 0.6697185
0.22748502 0.64853519 0.63544327
0.34413183 0.63644862 0.66447687
0.45141745 0.64081389 0.64828277
0.17024159 0.56560618 0.75356972
0.25528023 0.53662938 0.74674624
0.34603602 0.58059746 0.73197532
0.46243331 0.53658909 0.74108887
0.50315475 0.57240218 0.75384539
0.096008025 0.66161442 0.7794807
0.14646032 0.64708853 0.75208759
0.24293104 0.6813218 0.75933659
0.34224418 0.64359295 0.75033098
0.46767968 0.67133427 0.74735779
0.54793942 0.65284926 0.76432496
0.1573344 0.57430631 0.85267442
0.2624999 0.54843038 0.84365016
0.35401899 0.5497213 0.85582489
0.45739356 0.54470593 0.84928071
0.51684755 0.57561684 0.84884191
0.098588593 0.64760345 0.82471859
0.14189133 0.64478219 0.85097617
0.26789081 0.63956589 0.85283017
0.36025476 0.63375884 0.84419715
0.44882011 0.64562613 0.85807532
0.538055 0.6382544 0.83249897
0.29209822 0.71056235 0.8730579
0.35105103 0.71791381 0.87164909
0.32839206 0.4992772 0.90598273
0.17631093 0.56836039 0.93705946
0.24387243 0.54184616 0.94780904
0.36696091 0.52443898 0.94866198
0.44703034 0.55628413 0.95508027
0.50986814 0.57090831 0.93419969
0.090584233 0.67874342 0.96517664
0.12755834 0.65924329 0.93974441
0.23684385 0.65857989 0.94383174
0.44051793 0.65027648 0.94593662
0.5464862 0.65988487 0.94447273
0.26787549 0.71625054 0.95477867
0.3613154 0.72524208 0.94278187
0.41558415 0.71578145 0.99275798
0.23591714 0.57273388 1.0225147
0.35250238 0.57183248 1.0271237
0.43540734 0.58402312 1.031993
0.084473521 0.67001539 1.0457388
0.13704869 0.66764343 1.0624546
0.22949424 0.64709926 1.0571859
0.35313568 0.67054802 1.0823731
0.44784617 0.64197427 1.0474513
0.54319376 0.66689759 1.0513612
0.12232529 0.70084554 1.0288719
0.27324966 0.71596801 1.0119853
0.34141499 0.7113049 1.0283823
0.4152911 0.70513821 1.0386672
0.13116041 0.65934098 1.149963
0.28485313 0.66084826 1.1248856
0.35079205 0.66533214 1.1528418
0.4083966 0.65762389 1.1039836
0.54724044 0.65777242 1.1552281
0.35753307 0.70060968 1.197463
0.25922561 0.47335067 1.2755568
0.36064425 0.46320683 1.2815869
0.41597694 0.47348928 1.2656549
0.14701219 0.59840447 1.2836647
0.25545737 0.55980891 1.269706
0.37712762 0.5511874 1.2864255
0.4205319 0.56144387 1.2539766
0.13895003 0.65059549 1.2529701
0.25865057 0.65468752 1.2611532
0.3559868 0.63634747 1.2520556
0.45133555 0.64800149 1.2552015
0.53815514 0.65332597 1.2388849
0.16198461 0.70267528 1.2565124
0.28236315 0.70773429 1.2723994
0.35194704 0.70929217 1.2462494
0.4371812 0.70771563 1.2862939
0.51440996 0.70457333 1.264479
0.26121846 0.47259203 1.354574
0.33882016 0.4608525 1.3599387
0.4248265 0.48911861 1.3607661
0.16139957 0.59418362 1.3327293
0.24660805 0.55405706 1.345804
0.35251841 0.56154698 1.3275535
0.43669781 0.53460991 1.3600515
0.51524878 0.59404761 1.3203237
0.13097139 0.65567064 1.3591543
0.22695704 0.64974833 1.3505725
0.34213161 0.6384517 1.3353648
0.44917366 0.65119845 1.3469276
0.54341429 0.65685749 1.3461275
0.17045262 0.7053569 1.3404057
0.26483324 0.71582681 1.3388412
0.3379477 0.71702498 1.3346595
0.45550668 0.7086134 1.3382474
0.51430601 0.70469236 1.3522973
0.40266442 0.49818057 1.4025104
0.18668136 0.59575897 1.4522479
0.25977325 0.55897725 1.4463726
0.35800919 0.55309194 1.4443275
0.43458703 0.56438398 1.4244064
0.5032227 0.59786189 1.4349999
0.16144143 0.64186287 1.4437824
0.23057099 0.64622164 1.4515065
0.36108372 0.65154153 1.4893284
0.45632249 0.64974213 1.4566264
0.51779646 0.65240276 1.4318805
0.25893301 0.7058422 1.4101721
0.37070149 0.70830458 1.4361266
0.40437704 0.71336949 1.4045051
0.27356911 0.56934941 1.5977216
0.35399416 0.55096161 1.5748855
0.27784353 0.63193899 1.5296763
0.34107822 0.63200414 1.5465856
0.40965486 0.61400074 1.5046833
0.26665926 0.55867046 1.6484859
0.35228029 0.51802927 1.6507223
0.40946817 0.5685454 1.6750947
0.28371707 0.65016931 1.6470094
0.34561503 0.65748245 1.6315353
0.40374535 0.61565083 1.6761118
0.2737703 0.57265127 1.7255309
0.34769946 0.5373776 1.7322257
0.40699658 0.56589413 1.714237
0.28315765 0.62144828 1.7318554
0.35212702 0.64194739 1.7331002
