# .PCD v0.7 - Point Cloud Data file format
VERSION 0.7
FIELDS x y z
SIZE 4 4 4
TYPE F F F
COUNT 1 1 1
WIDTH 1552
HEIGHT 1
VIEWPOINT 0 0 0 1 0 0 0
POINTS 1552
DATA ascii
2.3421009 -0.21005547 20.858717
-1.2358625 4.2837877 20.823076
8.2607594 2.5665243 20.915033
4.2845025 -1.7766095 21.051878
2.2235155 -0.7159425 21.081337
2.4284816 0.038599253 21.097538
2.3518217 -0.25167781 21.118475
4.3875108 -1.9218969 21.255167
8.8293285 0.43344694 21.240316
8.7310753 0.93455744 21.290125
1.8864232 3.5961204 21.241764
-2.9350944 -0.9147957 21.39324
-0.79573834 -3.0210426 21.440956
-1.0941758 -2.8071814 21.550259
9.0996332 -0.41314349 21.531244
2.5693908 0.40006149 21.554331
5.1480541 -2.5604732 21.691948
1.7576363 3.7226779 21.699024
6.9182687 4.4177346 21.653225
9.1252003 -0.28674513 21.724844
3.4855869 2.3200197 21.879267
1.7361839 3.7494936 21.824064
-2.8209736 -1.3470311 21.915789
2.5938611 2.1735053 21.965046
-1.4427369 -2.6853075 22.012491
2.8573909 0.87438834 22.076406
-0.69848096 4.5410581 22.052914
3.3638337 1.8936905 22.166418
-1.9116199 3.9469531 22.158218
5.5866113 -2.9813192 22.248312
7.9046726 -2.5166585 22.257221
-1.9078034 -2.4125004 22.282972
2.0754168 -1.7315457 22.295597
-2.0435607 3.6395764 22.203655
3.5556819 -0.64659429 22.358624
-1.8872566 4.0750451 22.377701
6.6029835 4.4578996 22.384888
0.077681392 -3.1890039 22.427534
5.6724997 -3.1279109 22.447309
3.1635501 0.95245081 22.524635
6.4072313 -3.5991025 22.69442
4.1552663 -2.351284 22.661175
-3.4191232 -0.43131289 22.688604
-3.0229697 2.1303387 22.662968
-2.5948787 2.8504794 22.755339
5.88941 4.4906063 22.780231
8.8396301 -1.9575162 22.891247
3.4488409 -0.85586244 22.994659
-3.2518563 1.4039893 22.90591
-1.8459303 4.3540339 22.919804
-0.40473291 -3.6352224 23.013386
7.7905111 -2.958909 23.089479
2.2707205 2.9997935 23.015099
-2.045171 3.7251558 23.010052
-2.263325 -2.4877536 23.106361
0.26964203 4.580668 23.206509
2.1496108 -2.0191369 23.307615
-3.4288917 1.4753569 23.382818
4.6796184 3.9520204 23.337452
-2.962754 -1.9543908 23.404543
-3.567009 0.34768641 23.456051
1.1509125 -3.0863812 23.515385
0.87936491 4.2847376 23.545813
9.5438795 -0.86682594 23.615622
4.9746552 4.0985112 23.636667
5.2980261 -3.4314492 23.742058
9.6835308 0.97668976 23.722086
8.5215206 3.3967319 23.823868
0.57675654 4.3881893 23.867779
6.8423533 -3.9680567 23.94767
8.8120584 3.0186794 23.984856
0.11904436 4.4482989 23.915733
-2.3954017 3.3610945 24.051296
0.15426591 -3.7275391 24.108253
0.6630435 -3.5011301 24.131453
2.9948547 0.38895541 24.182108
-3.5654645 -1.1979668 24.351528
-0.069288373 -3.9344134 24.505911
9.4800949 -1.9569556 24.61381
3.0554283 0.96792185 24.655624
3.0111446 0.70176762 24.732317
0.95582652 4.0707598 24.790617
4.3797188 -3.3051844 24.802904
-3.7012751 -0.13371336 24.893938
4.7387743 3.8495202 24.806965
-1.6665835 4.0281978 24.853922
-1.2757901 -3.8111351 24.927174
9.8012915 0.38607836 24.995399
0.39122558 4.2425046 25.027925
3.7083652 -2.5968306 25.222126
9.3141804 -2.5280085 25.26683
3.0002427 0.81858534 25.227005
-1.1527288 -4.0113935 25.376783
8.7828941 2.7540426 25.367229
8.2303171 3.7790163 25.364988
4.8574715 -3.7160449 25.49099
-2.8816381 -3.0295992 25.433449
9.9076843 1.0835605 25.43272
-2.5024517 3.2807777 25.428179
8.6073494 -3.3832808 25.59869
2.0626321 -3.01879 25.506905
-1.2666268 3.9767385 25.573799
2.861829 -0.4780508 25.611753
7.124208 -4.2672534 25.74947
4.3248568 -3.5306802 25.703455
9.7166891 -2.1286135 25.775656
-3.8103554 -0.034465522 25.770649
-3.8841581 0.96903121 25.774271
-0.84152985 -4.3799353 25.88051
2.4701638 -2.5245993 25.85474
3.0015965 -1.4153615 25.832895
-3.2373166 2.0329936 25.897884
9.1130753 -3.2550693 25.937637
9.9358683 0.51458448 25.984312
4.9786444 3.6736963 25.917116
7.3396387 -4.2702875 26.082796
3.0454645 -1.5217056 26.072868
4.6034136 3.5332217 26.027206
9.6057997 1.4450607 26.110756
-0.11998916 4.0385475 26.156733
-0.7542221 -4.4706006 26.247725
2.9652483 -1.5530131 26.203581
9.9308262 -1.397175 26.23815
0.84358948 3.7686429 26.202579
9.2917566 -3.3408191 26.334885
-1.4988548 3.8122532 26.398142
7.7932663 -4.1637111 26.481468
9.4952555 -3.1540926 26.430687
2.8101482 -1.3351328 26.421217
-2.899399 2.9412169 26.555082
1.9661965 3.061975 26.755621
5.5190673 -4.3039055 26.811417
3.2648344 -1.5239507 26.870527
-0.72873098 3.8361778 26.830711
6.9668822 -4.5650172 26.991962
3.3494501 2.0560262 26.955238
1.8864822 3.1471705 26.913948
-0.0083436146 3.9086354 26.95022
6.8636684 3.7254753 27.00296
4.4207559 -3.9252286 27.150063
2.7903352 -1.3676355 27.153549
10.104095 -0.54630297 27.156506
-4.0653143 -0.060857654 27.192131
5.7991805 3.691215 27.191351
-4.0640826 0.0024883747 27.236206
2.7453766 2.0465612 27.280695
-0.46537888 3.7982862 27.227892
3.5418773 2.2348051 27.364525
9.8207111 -2.8507986 27.447514
-3.9299996 -1.7811598 27.447916
3.2429795 -0.66762829 27.451941
9.4052086 2.1254849 27.487011
9.2495556 2.5043497 27.429073
4.2552085 3.1145613 27.426485
2.9485958 1.7866066 27.524775
6.2799139 -4.7133808 27.627714
1.2275926 -4.1485815 27.652439
4.8503938 -4.225173 27.741352
3.5564079 -2.9489641 27.779583
9.6432238 1.4792087 27.725132
2.0742834 2.774523 27.749706
2.0266497 2.8328948 27.717514
1.3103092 3.3008807 27.715683
10.087592 0.23119748 27.832331
3.1359854 1.3400897 27.862577
10.051214 -0.40286607 27.956018
1.5645442 3.1714683 27.957933
5.3370705 -4.4844933 28.02763
-0.84478652 -4.6544895 28.126854
4.5039701 -4.1725149 28.16655
3.8653252 -3.4225812 28.146486
9.563488 1.4915704 28.172798
0.42813063 3.4786727 28.193024
3.147872 1.4648741 28.2157
-0.67065686 -4.7385249 28.313456
-2.7629347 3.1977077 28.307734
-3.4888387 -1.8445597 28.456017
3.330267 -1.8676579 28.469576
6.7921562 -4.7977419 28.502495
3.1440523 -2.1379776 28.585674
6.0096493 -4.7997279 28.69849
8.5096579 -4.0464664 28.67263
9.8424454 0.55763137 28.642694
1.8642309 2.9368784 28.60833
4.8872499 -4.4482059 28.732706
2.6512659 -0.95879734 28.797001
1.6103584 3.0170248 28.7736
-0.4876259 3.4977338 28.715279
4.0596895 -3.7884231 28.890125
3.0289657 1.6510103 28.808794
8.5789671 2.9689715 28.857729
8.2167864 -4.2268977 28.969122
8.6505432 -3.520736 28.938633
8.7587662 -3.4470911 28.925177
2.2918811 -3.3651342 28.926626
9.5648499 -1.2398243 28.954119
4.5953445 -4.4009194 29.077087
-3.2096474 1.1052978 29.157673
2.1563723 2.6196437 29.14728
7.3352423 -4.6863427 29.243649
-3.0182343 -3.1642847 29.221064
2.6097107 -0.69526869 29.277163
2.4215989 2.3266919 29.28862
-3.3046012 -2.4208648 29.392128
4.308847 -4.2105322 29.478821
3.3237834 -2.8414209 29.483047
-3.1808174 1.153176 29.436298
9.4929552 -2.1055806 29.50914
9.6648979 -0.048937213 29.581053
11.849482 1.3101999 29.512489
7.5718718 -4.555408 29.686062
9.491086 -1.967499 29.613903
-3.1025944 1.3490249 29.646004
11.507187 0.88779032 29.780085
7.5232716 2.9724581 29.772724
3.6051531 -3.2820921 29.867714
2.6201634 0.44843262 29.87059
1.8024659 -4.2039495 29.998762
-1.9915271 2.8521008 29.995178
-3.1778684 -2.7112527 30.071527
11.637675 1.3337641 30.022528
2.3350332 2.3759801 30.037422
2.9795837 -2.4451356 30.12326
11.460565 -0.82877022 30.158859
11.148569 -0.44632953 30.120415
-2.3767705 2.7207708 30.186392
5.0166059 -4.8234234 30.280056
8.05546 -4.1134081 30.20689
8.3265362 -3.956569 30.247911
2.5505722 0.22566506 30.282719
5.9023509 -4.9868045 30.34819
3.6004961 -1.066334 30.36854
2.8754673 1.1820166 30.38261
7.7453403 -4.3389692 30.406834
11.504292 2.0368195 30.454578
7.1959066 -4.7065449 30.589569
2.7465508 -2.1750565 30.542835
2.6732106 -2.0699229 30.518255
2.4705544 -1.2961708 30.582644
-1.7552631 -4.1556959 30.627522
3.4918475 -3.2192793 30.604641
3.6214786 -0.8453126 30.613283
2.4741063 -0.56121212 30.692036
11.575495 -0.028137032 30.730003
11.342539 0.22928286 30.755871
-0.82785171 3.0863783 30.715015
4.398839 -4.5077677 30.81769
-1.524226 -4.3777409 30.965914
-2.9451363 -3.3348176 30.964621
9.6406708 -0.96808428 30.925247
7.9939222 -4.3549414 31.076862
9.5500793 -1.7706562 31.022957
3.0676444 1.4106117 31.076117
4.5495276 -4.765491 31.192663
-1.4317579 -4.5302153 31.198214
11.524698 0.03503165 31.175915
-2.7305994 1.5465882 31.279196
-1.2941628 -4.6913099 31.3633
-3.4612257 -1.177431 31.314198
12.070506 0.96827495 31.342417
3.2331874 1.8653274 31.304659
-0.30750561 3.2985759 31.385183
-0.89393014 -5.0249681 31.473167
3.0824635 -2.6596801 31.498329
2.5976303 -0.78886384 31.497955
9.6957378 -0.76256871 31.459497
12.183215 0.45047557 31.488701
8.315731 2.3925812 31.42281
-2.8356578 -3.6243672 31.565948
9.3190966 -3.60496 31.587902
-2.7140338 1.4266431 31.583111
7.397881 -4.9240255 31.600224
12.153197 1.2805037 31.638121
1.7778335 -4.5845962 31.760841
-3.2513063 -2.6222548 31.791498
12.128242 0.10874011 31.730795
2.8426757 0.24891894 31.782173
-3.1566436 0.51679987 31.726902
3.2090263 0.73082989 31.758951
4.3501801 2.3101487 31.7649
6.2052169 -5.4554543 31.881397
2.6988804 -3.5418448 31.878443
11.500032 0.12688845 31.825802
12.220779 1.1386695 31.838238
3.8181467 -4.1556435 31.931194
11.353174 2.1186917 31.984749
6.1807714 -5.5002575 32.026318
6.4622622 -5.585392 32.076923
-3.359091 -2.2207944 32.01852
9.6580811 -2.1805344 32.046844
-3.6738899 -0.50372791 32.055004
2.8755474 -3.5031395 32.157677
2.9501867 -3.4892893 32.144897
3.2120657 -0.35888109 32.184769
-1.0710911 2.8482423 32.199287
10.488206 -1.3106942 32.210537
12.373671 0.4494288 32.255444
5.2484517 2.5453901 32.264069
1.0537467 2.3703589 32.312263
-1.2373323 -5.1162834 32.415298
12.111505 -0.13732962 32.451111
3.9354081 1.3501136 32.423561
12.052327 2.1668241 32.455044
9.7261496 -2.5705423 32.579216
9.8716373 -0.65533578 32.508324
5.5914578 2.6372805 32.527863
7.5876555 -5.1582165 32.659924
-3.693742 -0.88140357 32.61644
5.3182659 -5.4908171 32.71851
3.2684963 -3.9047489 32.781097
9.6575336 -2.8308108 32.750786
-3.5685868 -1.7059985 32.765247
1.1894537 2.153096 32.747311
6.1381164 3.0791636 32.700905
3.6163936 -4.2300344 32.895107
-2.3871782 -4.4416656 32.965321
8.5738831 -4.4427938 32.983521
9.8442745 -1.9616318 32.937698
8.2925997 2.0242734 32.980244
7.3835278 -5.3872986 33.039913
-3.6784589 -1.3464115 33.053787
3.5163188 1.4540454 33.094097
11.231852 -1.1493487 33.151161
0.67861557 -5.6660085 33.299599
6.5770779 3.1801984 33.566433
3.6829555 -4.57936 33.636909
9.5715113 -3.233598 33.693325
11.578059 0.52323884 33.600273
2.2262316 -7.840364 33.797447
-3.6200249 -0.40796605 33.71101
5.130022 2.2068915 33.718536
7.2831612 -5.609303 33.896152
1.0886712 2.0874896 33.801125
1.9086479 -7.6661038 33.921005
3.5243487 -7.6305552 33.98597
-0.052485444 -7.4069247 33.946148
4.5379028 -7.337338 33.989368
5.2035213 -5.7751575 33.921192
2.7896428 -4.5015364 33.998741
8.6189451 -4.5656772 33.903709
10.118971 -0.97077036 33.958275
12.620935 0.25556999 33.907528
-1.0302054 2.8309011 33.971386
8.1309156 -6.2593398 34.05513
9.2147589 0.67623436 34.0541
2.9543064 -7.6687727 34.160896
-1.6979268 -5.173562 34.147469
10.135064 -1.1233561 34.110695
-2.8110213 1.1160551 34.104485
-1.0670698 -7.3793583 34.262928
4.7660308 -7.189929 34.244526
6.3445635 -6.7351213 34.244015
6.7596221 -6.6209168 34.227062
9.6639614 -4.9534535 34.214184
2.702353 -4.618082 34.263309
9.6530523 -3.0826099 34.237358
-3.8274777 -1.5465069 34.2365
10.655984 -1.3859769 34.219604
12.447062 -0.4701395 34.293232
1.6205996 -7.8036304 34.381351
5.4068513 -7.2757516 34.390503
6.6966467 -6.8481212 34.388451
-2.323107 -6.5502477 34.373543
4.8010011 -5.7388043 34.379539
-3.1162708 -5.2195606 34.368591
10.152667 -3.745508 34.378571
10.170794 -3.662123 34.369549
11.432651 -1.2831637 34.317608
-1.146992 -6.9067326 34.429016
6.3633971 -6.6567831 34.47184
7.6725044 -6.2886982 34.4016
6.5304756 -6.0973535 34.47583
8.3255692 -4.8849673 34.456379
10.346645 -2.766077 34.430634
12.377689 2.2899001 34.458118
8.4241085 -4.8282614 34.581856
10.129403 -4.6742997 34.514633
9.8997288 -0.49731469 34.592155
3.9457121 -7.2355604 34.683266
6.1277747 -6.6550837 34.689358
6.9706068 -6.4242716 34.651508
10.859594 0.10018447 34.605942
-1.4447706 2.4796185 34.689053
1.5906646 2.41289 34.677273
-1.2449679 -6.750576 34.706882
-4.1028123 -2.1463847 34.713955
-4.1046009 -1.3873516 34.730305
4.6972785 -7.0000076 34.81126
2.4028964 -6.8727503 34.80381
5.1602268 -6.8781219 34.838661
5.76018 -6.7139769 34.836395
10.144756 -0.91260886 34.834831
4.7106228 -7.7149296 34.983044
6.7089844 -6.4018774 34.957111
5.9988103 -6.056561 34.969593
11.619782 -0.96514118 34.980083
11.986803 -0.73802614 34.987366
9.4215775 0.31745058 34.929871
6.2528276 3.0815325 34.90168
9.0210085 -6.31423 35.097946
-4.452374 -0.34813491 35.092358
-2.1710763 1.8167996 35.085983
-1.9136844 2.0445836 35.00676
8.676178 2.2713921 35.026081
3.7725716 2.4129155 35.0718
2.9646749 3.4226806 35.029873
1.4006419 3.699672 35.076824
2.0330362 3.8435006 35.044476
0.12254375 -7.6499453 35.174084
1.7270509 -6.6265202 35.161251
-2.4157612 -6.4758606 35.163006
6.320631 -6.127183 35.153416
-3.0368695 -4.3091879 35.13892
10.330565 -1.347997 35.182095
6.7167811 3.5302019 35.100212
2.9597449 -8.0554657 35.212502
2.0205922 -6.5485373 35.204212
-3.7755184 -4.7742629 35.238438
8.9924774 -4.4864206 35.214729
10.706491 -0.22616544 35.206242
5.4997559 -7.5908451 35.372253
-0.66373742 -6.4010501 35.35825
8.9673271 -6.3883381 35.392368
5.0312853 -5.9862895 35.362331
2.698626 -5.4006805 35.311958
9.9606028 -2.36376 35.344296
-3.3744969 1.1820207 35.335148
2.9766381 3.6946936 35.316616
-0.28139222 -7.5794024 35.440594
5.5972886 -6.5173645 35.409065
1.9030313 -6.3794107 35.401752
3.0964334 -5.9770374 35.432724
-3.0122356 0.67627913 35.423916
8.600421 1.7663528 35.498623
4.4877839 -6.5682487 35.593147
-1.7837648 -5.3523254 35.562912
12.957257 0.75549906 35.503777
12.283243 2.3791533 35.556126
0.038375616 3.4430652 35.509125
1.2747792 -6.2427087 35.635216
9.6619596 -3.3045249 35.678432
11.143639 0.74327552 35.657509
9.056325 0.89404726 35.680668
12.950893 1.1038183 35.670605
8.7525892 1.3703182 35.674728
1.9752829 2.7743075 35.66877
0.0062187016 2.8364923 35.626701
2.8326662 3.590415 35.602257
1.3394623 -7.8934875 35.761238
4.6987305 -6.5231528 35.705074
4.909976 -6.011219 35.789692
-2.970747 -4.4140129 35.769978
12.167888 2.3566039 35.733688
5.2428408 3.0671906 35.771317
0.83279097 3.6967771 35.799164
5.884007 -6.2323155 35.883747
3.9693687 -5.6767573 35.891678
10.244928 -4.7084141 35.873489
7.4880505 2.4051723 35.885033
6.8311048 2.9954944 35.860252
6.3113632 3.2309027 35.873775
1.6761742 -5.8887019 35.959091
-4.0793357 -3.3299198 35.978302
-1.2915826 2.4540644 35.95541
7.2669029 2.5951066 35.942799
0.26295114 -7.6942968 36.053768
8.3855686 -6.7812047 36.014488
10.585683 -0.62941712 36.080845
-4.5128808 -0.58410424 36.055721
7.3082495 2.8824277 36.089684
9.9853249 -5.9999852 36.179344
10.394845 -1.4874686 36.209633
13.463537 0.78410405 36.253429
-2.027684 -6.956646 36.498165
8.8106232 -6.7539377 36.440472
-4.5215545 -0.78359348 36.46563
13.275065 1.7855626 36.403755
13.044953 0.63562387 36.554943
9.26649 -6.6308041 36.650089
-3.908746 -5.3567958 36.61689
10.921647 -0.94425684 36.640312
-3.4698877 -6.029448 36.781364
12.080333 -0.52054197 36.799118
9.8245516 1.9813206 36.782013
-1.8116312 -7.2006888 36.842537
9.0345821 -6.8173966 36.869846
7.7975168 2.5227349 36.800262
11.786749 3.0512714 36.854195
11.492277 3.6573076 36.832664
11.159169 3.0860677 36.977127
5.2180882 -7.8469114 37.09256
-0.93056715 -7.3783278 37.186405
-3.5428858 1.2335606 37.183712
2.1501887 -8.0913601 37.255165
10.055261 -6.2429056 37.216866
4.0608377 3.7189784 37.225246
9.603508 -6.6372509 37.301361
10.305765 -0.58974528 37.356743
12.891043 1.0222075 37.353649
8.7605162 1.9373784 37.385643
-2.197212 2.3472972 37.316353
10.359449 -3.627948 37.420082
10.376881 -2.7970543 37.490314
10.336617 0.32904816 37.458588
10.039629 0.80176491 37.400497
7.7394953 2.4832458 37.408615
-1.1187618 -7.2934656 37.540577
-4.3825068 -0.79995322 37.587505
12.062379 0.21290798 37.521564
11.267393 1.2193346 37.564209
10.396649 -1.3619705 37.683403
12.555643 -0.28172606 37.621758
12.131747 0.38146132 37.687317
10.793875 2.6917033 37.692223
10.269413 3.3396621 37.637592
1.4218612 -7.8432188 37.782402
-4.2827501 -2.3386502 37.728493
1.6167262 -7.8803864 37.840942
0.87158722 -7.7036676 37.853394
9.3335075 1.9165304 37.873898
1.3567557 3.4133396 37.814651
12.20542 0.46383435 37.957882
-2.5165398 1.86471 37.900078
6.304935 3.1768794 37.929615
7.0333595 -7.5016088 38.059704
8.5605536 1.7738756 38.047554
10.298581 -2.220504 38.16658
11.144284 2.5236874 38.176624
-0.055579543 3.2091699 38.109539
12.630369 3.9710383 38.128731
-0.42488718 -7.3985515 38.206596
10.250152 2.1684718 38.23756
7.1528482 2.4571309 38.253872
10.139479 -5.0402951 38.369007
12.224553 1.0738412 38.304581
11.047347 4.252697 38.386909
12.827578 0.93852854 38.418705
-1.2087115 2.5293391 38.411037
6.6076651 2.6539555 38.482906
13.634596 3.0729456 38.440849
6.6487236 -7.5378761 38.507946
0.062874258 -7.4683619 38.561954
-3.9688416 -3.6755748 38.529339
-4.0270967 -3.1786208 38.57428
12.26957 0.96379137 38.598488
-3.1128082 1.0632305 38.511189
9.2817287 2.2181151 38.608749
3.8525009 3.1794686 38.689892
11.224997 3.139611 38.625977
8.5025854 -7.0009651 38.759365
1.2909293 3.0441093 38.796486
6.4220343 -7.5523071 38.893471
-1.0509727 -7.3490601 38.865326
8.6586475 1.3906767 38.854332
10.031423 -5.1600113 38.900841
13.534986 1.3324172 38.928093
0.30612242 2.8769746 38.920975
9.9780769 -5.4347057 39.085762
-1.4296364 1.993803 39.032692
10.360265 4.2639828 39.064865
11.624455 3.4809766 39.153473
12.533082 4.5904207 39.101078
-1.7813797 -7.0853367 39.251198
13.76038 1.9195296 39.288414
-0.94186115 2.2228065 39.225906
5.9665709 2.6076775 39.204887
10.081852 -1.2541292 39.343143
1.3186896 2.8546915 39.311268
11.482084 4.6605148 39.349602
-1.4213872 1.7279968 39.478851
1.6873995 2.8355412 39.429268
2.2141206 -7.7725649 39.535107
9.0251827 -6.6911912 39.58876
10.066025 -2.7298331 39.591934
-2.3547373 -6.7498994 39.612228
-2.8617411 0.36203986 39.64801
10.03476 -2.7044547 39.767433
4.5708213 2.5566244 39.741608
12.749277 4.5386925 39.776371
12.099103 4.8518138 39.741425
-3.4802163 -5.5901418 39.817482
9.6882687 1.2312742 39.875759
8.8885193 0.39043999 39.937248
7.3190098 1.6686257 39.914593
-3.4778705 -5.3681889 40.085552
-3.5319486 -4.4124551 40.049911
9.9380913 -3.4560549 40.011124
-3.4406159 -1.3047024 40.022243
9.2567339 -0.35183981 40.090973
12.412148 0.48446727 40.092072
3.165823 -7.8645153 40.169792
5.9161468 -7.5219855 40.139137
-3.5592599 -3.9357455 40.197594
9.9144287 -3.4890432 40.120205
9.7617731 -1.2645842 40.103138
9.5353441 4.1877861 40.112236
-3.5928431 -3.3434129 40.208397
8.7669544 0.50204033 40.203857
12.581746 0.7556566 40.276695
10.220914 4.8382473 40.277191
2.3242974 -7.8737879 40.332649
0.86674035 -7.705049 40.44141
10.849649 0.47867912 40.44104
7.9182191 1.1757653 40.49049
-0.3438502 1.980932 40.444496
10.879985 5.2229199 40.480202
11.095792 0.50618178 40.555435
9.4603968 4.2938499 40.537041
5.1314154 -7.6266942 40.619537
-1.8011719 -7.1391048 40.624008
-0.92868555 1.6177076 40.606236
12.750957 4.9278054 40.674843
3.2685599 -7.9006734 40.740555
-2.9377332 -6.3699312 40.745991
12.6999 1.1362914 40.813934
0.59902221 2.1837213 40.897511
10.619099 5.3936672 40.81987
4.1941314 -7.7503829 40.962929
8.9434919 -6.5020685 40.939411
8.6507339 0.53643262 40.901154
9.5406227 -5.592916 41.019814
-0.90333563 1.4846228 41.02322
6.7930088 1.6094298 41.089844
-2.9084377 -0.48522735 41.158272
13.716667 3.7993379 41.175911
8.6536884 0.40955943 41.385616
3.4830647 -7.9442043 41.537731
9.3780785 -1.2181058 41.570827
0.46545717 1.8069119 41.542244
9.0134115 2.9229136 41.550259
13.657085 3.265934 41.542076
12.684059 5.4196873 41.571712
8.4531956 0.5138554 41.723015
11.812864 0.83360559 41.749691
5.6172018 1.9208527 41.703827
11.238625 5.7626481 41.706642
0.29776725 -7.8193316 41.806732
6.9940672 -7.3712387 41.82238
8.3469582 0.54035556 41.829002
3.830195 -7.9208651 41.935394
-3.0283537 -0.8594926 41.91927
11.853926 5.7129793 41.943485
3.0746531 -8.0830803 42.130035
8.9671135 3.2084467 42.18866
12.327084 5.6745539 42.124683
12.046568 5.7390633 42.185825
1.3007517 -8.0006037 42.200516
12.193758 1.2683481 42.333099
11.066579 5.9630957 42.394051
-2.6835642 -6.663425 42.490593
9.3843336 -3.4160247 42.466236
-0.53443527 0.95992768 42.424561
-0.19683148 1.075489 42.460255
11.498693 1.0205221 42.413486
12.084188 5.7890086 42.407333
-3.6475346 -2.7544451 42.553055
3.2015438 2.2335031 42.58173
9.4000216 5.0139112 42.500683
8.7327652 -6.2867126 42.606678
-2.7943563 -0.086080663 42.633457
3.8970695 2.237282 42.647442
6.6989212 -7.4375477 42.752666
8.4260521 -6.441268 42.797581
9.3893423 -2.9752617 42.708443
9.3495216 -2.5447905 42.7859
-0.23453514 1.0931897 42.704514
9.5114002 1.5924537 42.763512
13.521298 2.6771061 42.743702
10.706038 1.1586787 42.887875
0.51373792 1.3482523 42.866219
4.2438087 2.1335866 42.929131
12.437961 1.6353273 43.009823
2.3334033 2.208791 43.034237
13.277237 4.9521704 43.023651
2.8059535 -8.1338787 43.114647
-0.9724288 -7.7115803 43.106071
8.7998533 3.1194077 43.133884
-1.103747 -7.6413336 43.232414
-1.4459853 0.89738667 43.28537
11.780333 1.2671218 43.346024
9.5747128 1.5636737 43.320694
9.0632563 2.6431527 43.314293
-0.70580697 -7.6990833 43.542618
12.040899 1.5119276 43.521431
2.9600768 2.2904835 43.534348
9.2201548 2.3679817 43.58802
8.8493347 0.058647752 43.664871
2.8991566 2.3377919 43.693302
8.8096275 3.6321459 43.616264
-2.1683722 -6.8207302 43.884926
-2.0692036 0.568492 43.898003
10.557644 6.4457955 43.885101
6.019382 -7.4950151 43.919113
1.2003803 1.9087291 43.910069
1.3249848 -7.9132214 44.013107
-3.81703 -4.1094003 44.015636
6.4271936 1.9160361 44.028442
7.7612734 -6.6576672 44.144764
8.0855675 -6.4688406 44.137531
-0.39140081 1.7235277 44.14032
12.00666 6.3450298 44.165569
2.1438308 -7.9874897 44.280952
8.4864664 1.0904146 44.23101
8.1233511 1.245353 44.235218
12.053272 1.7703559 44.299786
-1.9165348 -6.9017978 44.380142
0.92166865 2.1347792 44.386814
2.7537806 2.3197527 44.315056
-3.3007522 -5.5260291 44.429722
9.4781084 -3.9292831 44.418213
0.77134913 2.1728745 44.477528
-1.8799736 -6.9007983 44.542648
12.074043 6.4558144 44.5327
-1.5106173 -7.1133986 44.603951
-3.6352727 -4.9431977 44.630878
9.0940142 2.6574204 44.699509
8.7735443 4.2460709 44.610916
7.7682595 -6.6110125 44.738266
-2.691057 0.16188852 44.790173
8.5690098 1.2434473 44.761486
1.0443116 2.2710652 44.796963
2.2019968 2.3619409 44.720058
1.8032578 -7.8914108 44.834904
8.812027 1.1100917 44.877678
13.355043 3.6062155 44.815685
12.555841 6.3466263 44.885746
3.5883219 -7.9199219 44.930305
7.22997 1.8331202 44.964672
3.6273603 -7.9057989 45.097279
9.612258 -3.2960253 45.036983
1.9206417 -7.8877635 45.189323
-3.7659905 -4.7375031 45.152382
9.5239334 -4.2865305 45.161743
9.0398321 0.23597997 45.115128
8.8625479 3.1073797 45.154888
3.4076514 -7.9448752 45.208858
0.10598643 -7.6404405 45.273819
9.6500502 -3.4363017 45.248013
5.6572132 -7.4941058 45.384853
8.9627209 5.621398 45.324921
8.9219828 0.99732602 45.471321
9.1117954 5.7600775 45.458324
-3.3862407 -0.81852001 45.535706
13.250025 3.4508989 45.506248
-4.0542717 -2.6709929 45.673077
2.4750285 2.521636 45.609833
8.7709227 -5.8546724 45.707569
7.3231096 1.9149495 45.847794
12.172788 2.3746755 45.816143
1.1130797 2.4489989 45.925358
8.8381271 3.3061376 45.927372
8.4081278 3.8595366 45.992088
11.223523 6.7690887 45.962646
9.2742071 -0.20380199 46.071495
10.539558 6.7971873 46.028671
-3.4072704 -5.3309646 46.128349
9.8939247 -2.4599872 46.136971
9.5009069 -1.0530138 46.158157
3.9589124 2.6412852 46.242058
8.63484 1.3549471 46.308685
6.834095 2.1952076 46.396111
-0.1562579 2.2476845 46.333565
-4.1165752 -3.2281713 46.48851
9.5829706 2.3229144 46.475155
8.5571289 3.5063591 46.407921
10.996934 6.7710853 46.418526
-3.5148482 -5.1736422 46.567413
9.9714699 -2.7113566 46.560802
-3.19244 0.58052939 46.550529
7.7634287 1.8224341 46.521515
-0.94850457 -7.2766976 46.603436
-2.3061264 -6.4436979 46.619869
12.798845 2.9501777 46.646614
10.100388 2.023375 46.768166
10.114682 1.9994125 46.841827
4.1069698 -7.7422667 46.900902
10.05676 -1.9581333 46.927971
13.269886 4.8421969 46.924278
11.323435 1.8847408 47.023685
4.8005657 2.7312555 47.090492
13.217285 5.12569 47.078651
2.542887 -7.863205 47.163803
3.5125017 -7.850791 47.148582
13.021294 3.9702113 47.179916
-2.0629795 1.3486471 47.205624
12.967794 3.7487769 47.21648
12.073004 6.4367146 47.205635
7.0568571 -7.0303283 47.355991
7.1215801 2.2009554 47.319145
12.09688 2.4822433 47.353287
10.187329 -1.8350132 47.494656
11.53499 2.0781472 47.411491
12.738974 5.5518799 47.438953
-3.2419806 -5.6315374 47.538948
9.3184566 0.64606977 47.516739
8.3890362 5.742373 47.565937
2.1707575 -7.7885532 47.619568
6.9946618 -7.072782 47.615711
10.021662 -3.6005766 47.692013
9.3346577 0.75403941 47.693581
8.7243958 5.9808698 47.760258
-3.7935855 -4.7091017 47.99099
-3.8554609 0.085338205 47.955765
-2.4147983 1.4192593 47.945335
7.9565206 -6.4051437 48.062401
-4.298018 -1.2420409 48.010582
6.1697421 2.6238225 48.052082
-0.47544992 -7.2506189 48.159538
9.8130054 -4.3038235 48.173218
8.0439377 4.3108492 48.15514
3.2235467 -7.8682861 48.205002
-3.411068 -5.3860464 48.292294
10.333565 -2.1799099 48.244583
-2.779331 1.3282133 48.251297
-1.5532373 1.8904316 48.261963
1.0933836 -7.5573721 48.390968
11.953026 2.5288248 48.34343
9.1795425 -5.5752769 48.449928
11.20915 1.9583364 48.498436
7.0438466 -7.0362692 48.594276
-4.4419703 -1.1388991 48.56813
8.1563673 5.1178093 48.592453
9.631135 1.912864 48.620445
5.0490155 2.923707 48.650276
12.818321 4.632175 48.613323
10.287062 -2.8860397 48.721699
11.256624 1.9452132 48.725758
1.5775914 -7.6115246 48.839375
1.0695844 2.8622701 48.864334
12.53742 2.9731929 48.806591
12.14817 5.601819 48.975937
6.5489717 -7.1770415 49.054836
-3.6787648 -4.9268317 49.052353
12.554221 3.1013172 49.004456
12.579619 5.0403986 49.071712
3.2102425 -7.8360581 49.130653
9.4937134 -5.1876884 49.185295
-1.0099421 2.3374925 49.157738
4.3369484 3.0945973 49.143555
8.4051991 5.3749175 49.160614
12.348768 5.3054504 49.102108
8.8911352 -5.754549 49.248337
-2.6592536 1.6145282 49.209595
-4.5802774 -1.9695386 49.315281
8.2853718 4.763732 49.388756
10.947512 6.49998 49.331047
9.8036575 6.6655388 49.315331
-0.72418362 -7.062644 49.419022
12.625254 3.5235956 49.409855
12.697347 4.7071466 49.485886
12.446482 5.0532675 49.412621
11.138633 6.4427772 49.4617
4.7626896 -7.5112581 49.582779
-3.9034395 0.0066702366 49.500938
-3.8348806 0.13883227 49.552795
12.279988 5.1758938 49.592857
-0.041816223 -7.1891727 49.6786
8.0646009 3.5492272 49.601944
-4.5449858 -2.4657133 49.75425
-1.9301385 2.023174 49.848629
8.5866175 2.2393558 49.884846
10.74839 6.5245743 49.86116
10.400171 -0.61902946 49.915848
8.7992563 1.7992013 49.963898
-2.6033406 1.9140019 49.981972
8.6332436 2.046541 49.91243
1.9161141 3.2906189 49.994869
-3.5447986 -5.0677423 50.097553
-2.2281523 2.0262504 50.046337
-0.41359228 2.7716031 50.047531
0.25691974 3.0580113 50.000332
-4.4234824 -3.4707618 50.113861
12.305035 2.5438509 50.150002
1.7540373 3.3289175 50.128174
11.697215 6.2126312 50.149929
10.376359 -3.3301649 50.233315
-4.2055774 -0.12511957 50.240143
8.3681412 2.5180335 50.211643
10.983277 6.4421988 50.251541
-4.5461988 -2.6863177 50.34124
4.3171811 -7.5354824 50.477325
4.6090631 -7.4771395 50.465889
-3.8115392 -4.517354 50.470417
9.371397 1.6477417 50.492912
12.200794 2.3902574 50.524879
-2.4799974 -5.855329 50.618591
-3.5091386 -5.053185 50.625103
10.350018 0.0049359202 50.67115
10.367855 1.124121 50.612663
1.2942414 3.4577737 50.667351
11.831526 1.7834831 50.793594
2.3176918 3.5795429 50.78688
8.8484001 4.7055287 50.798416
12.178307 4.7864137 50.775608
12.505549 3.6538658 50.841866
5.4193096 3.477284 50.985031
11.446442 1.3684309 51.071934
11.926705 5.6665759 51.038296
2.6965072 -7.6726561 51.151176
-0.92123508 -6.8779564 51.142059
10.458172 -2.4745965 51.197762
2.3786669 3.6906674 51.111439
2.7247024 -7.5402117 51.214729
-4.6347055 -2.2382519 51.257584
-4.7218194 -0.44977173 51.289558
-2.989409 2.2987351 51.255676
0.38708302 3.316304 51.209991
4.1398907 3.7020273 51.23555
8.440012 -5.8307447 51.349358
-2.4687335 2.4728465 51.377914
10.470031 0.35644591 51.464592
-1.8639828 2.6194487 51.403267
-1.5771463 -6.3692675 51.56509
-4.9554105 -0.69569784 51.551758
9.4230728 -5.1083889 51.661747
9.770792 -4.3960061 51.613075
12.210254 4.8395138 51.626122
2.7316093 -7.533308 51.795818
5.5667882 -7.1655092 51.777863
6.418839 -6.9956126 51.704399
9.1246338 -5.296576 51.797054
12.375887 3.4887586 51.847511
4.8179669 3.8308103 51.812202
11.123655 6.1082888 51.879017
4.7251148 -7.3049755 51.914608
9.8832731 -4.0619431 51.914562
-3.2771935 -5.0266018 52.066471
-2.135004 2.8165894 52.068516
3.7751727 -7.4034524 52.141376
9.4092808 3.2842121 52.28862
-0.14827588 3.3363025 52.24992
0.32000852 3.4678552 52.282017
9.6792564 4.598381 52.260006
8.0061874 -5.9998798 52.379002
9.9659672 -3.8046618 52.381805
9.2202024 2.752264 52.335888
12.277498 2.7150428 52.377304
9.7720699 -4.3537159 52.425758
3.5300758 4.0321679 52.459957
9.7669821 4.5639911 52.411339
-3.1975434 -5.0018992 52.590389
-4.5984526 -2.9691794 52.562256
9.2262173 1.3000504 52.551552
-4.1921444 1.5834486 52.533901
-1.7012477 3.1084478 52.56739
6.6768308 3.7320032 52.535675
3.276567 -7.3140626 52.686455
10.508013 -2.1349294 52.632675
9.5635986 1.2951781 52.636787
8.0654707 3.038981 52.625317
9.7378235 3.2492909 52.63488
2.7177918 4.0474672 52.651073
9.9361343 1.1349983 52.787582
10.343941 1.5824518 52.726719
-0.89553994 3.3685827 52.768028
10.457943 5.4459276 52.705219
8.9315386 -5.2914982 52.849083
9.2223692 -5.0876031 52.851894
9.3520288 0.83434051 52.83342
10.140073 1.2355702 52.837051
10.083675 1.5015932 52.827614
3.7976682 4.0689692 52.816265
4.4018064 4.125855 52.821022
5.6583509 3.9973114 53.005669
10.216768 2.6393108 53.267464
9.9270306 4.1563873 53.255539
11.951242 5.2624884 53.227871
1.088499 -7.2474813 53.377468
8.1379108 -5.7067962 53.365604
-4.7018938 -2.445118 53.338989
6.5037003 -6.709661 53.419132
9.7482471 -4.4111004 53.414803
-4.3910804 -3.2322259 53.400711
8.3101835 3.3268344 53.432571
-0.86292517 3.6282263 53.417458
6.1866312 4.1106997 53.40799
12.250305 4.1825552 53.42321
10.148084 -3.2310228 53.558678
-0.20813145 3.8091626 53.502068
-4.9066529 -1.5050334 53.65316
-1.154563 3.6437302 53.62714
10.609709 5.0081201 53.641209
4.1536217 -6.9993992 53.793282
-3.4804251 -4.5864167 53.757141
9.9729242 -3.7897491 53.703072
-5.1660538 1.2304139 53.733578
-5.0338984 1.5146631 53.783432
5.6598625 4.0737481 53.775528
6.4724789 -6.5624208 53.835518
-0.78253597 -6.3416128 53.902412
-3.711658 3.0030982 53.989418
7.3204041 3.7492638 53.920448
-5.5007658 1.2586298 54.078182
10.184963 3.685545 54.027458
3.079474 -7.023777 54.153996
9.9944201 -1.0025942 54.139
11.69953 1.5883534 54.152355
-2.9627812 3.4681766 54.1633
10.087692 -3.5659981 54.2644
-6.8351846 -0.20461065 54.239334
-5.8443785 1.1139908 54.273163
9.3800001 3.6830962 54.384666
3.8272469 4.1497784 54.354771
6.6679854 4.1977777 54.366154
10.438787 -2.5248885 54.404709
-5.4840951 -1.5945156 54.477081
-7.9603186 -0.61927199 54.40292
-5.1984267 2.0006914 54.43055
0.32118654 4.1730399 54.460003
7.0531087 -6.0021362 54.537636
-1.9656796 -5.3442049 54.567398
-6.6308146 -1.6453892 54.544422
-9.0600462 -1.4025249 54.580811
-6.6699305 -1.1049286 54.510719
-7.5530958 -1.0093042 54.56052
10.178446 -1.6491001 54.633888
-0.21661231 4.2571478 54.660271
4.616848 4.2794504 54.6171
10.801149 5.1036415 54.696999
10.437427 -0.25622469 54.755661
-3.2259061 3.6460633 54.770737
5.3785396 -6.3690825 54.887081
4.9943194 -6.4244595 54.951881
-0.074169546 -6.2526851 54.978642
-2.1711204 -5.1476593 54.994667
-6.0872536 -2.0044315 54.92717
11.235182 0.344145 54.987827
12.027472 2.8507535 54.980301
0.80552089 -6.5089979 55.017967
-1.6980546 -5.4183426 55.051041
-8.3790188 -2.4666908 55.033627
-0.24382289 4.4186869 55.091972
-3.973588 -4.0029597 55.148865
-4.5437012 -3.060133 55.114929
10.344341 -0.4014129 55.164738
3.6506267 4.1837087 55.130898
0.62775427 4.3302026 55.161629
11.55125 5.0888577 55.123291
3.6527109 -6.7347817 55.263531
-6.0046835 -2.4093447 55.272804
12.096515 3.4396095 55.211254
12.05618 3.8311081 55.274799
9.1465607 4.1556635 55.277081
4.2133708 4.3302422 55.216801
3.5841038 -6.7118449 55.391537
-3.037497 -4.5772791 55.318314
-3.193644 -4.471323 55.394699
-10.400489 -0.36644948 55.363701
11.222805 0.25465843 55.359474
-8.2077446 0.9552936 55.362598
-4.9493618 3.0785861 55.335915
6.9757557 4.3241506 55.341057
2.4748282 -6.5636601 55.479649
6.1117244 -6.0272284 55.419189
-2.9228983 3.8884745 55.462833
-1.8370392 4.2307405 55.493652
6.4246707 4.6073165 55.493896
11.241642 0.27516931 55.516933
3.1413074 -6.7388959 55.62495
3.0695386 4.1625185 55.612942
9.8098583 -3.9693201 55.714592
-9.2364273 1.2290404 55.782143
-7.5367203 2.0116332 55.702545
11.956215 3.4941804 55.857792
-6.425333 -2.8775251 55.958782
-7.5792184 2.192215 55.927277
-1.5395026 4.3917031 55.968201
5.8873558 4.6868329 55.941002
-0.023619264 -5.8797302 56.088448
-0.78119951 -5.5349445 56.089478
-5.0080967 3.2590108 56.032921
1.2458862 -6.029603 56.18148
6.7464533 -5.5560808 56.133312
-11.331401 -4.360393 56.149559
-3.2669156 -4.2948828 56.155243
2.9218194 -6.1106868 56.244061
1.0391912 -5.9740353 56.221176
-12.447254 -3.6739092 56.234451
-11.726697 -0.85226494 56.282021
11.543795 1.0267321 56.294724
-7.3648334 2.3764892 56.287205
-3.0854464 3.9506965 56.245422
6.0767908 4.8072705 56.220604
-4.5193453 -3.3791068 56.500946
10.207018 -2.9847293 56.534943
-8.7956524 1.6744643 56.587879
0.092019081 4.8616962 56.585888
-12.679895 -1.8011326 56.67091
7.3323746 4.6181097 56.637402
-4.2343359 3.6279936 56.718025
-0.0052308291 -5.3946838 56.889572
-3.3812957 -3.7277424 56.822834
-10.772821 0.37676215 56.894138
-9.4252081 1.25915 56.872803
-4.5380311 3.5624728 56.843765
-6.8907909 -3.1450639 56.993523
-12.806761 -1.3766718 56.983273
-4.9106851 3.4969745 56.933975
-9.9353571 -4.6129456 57.009201
-14.676324 -4.4663401 57.02116
-14.423745 -3.8871729 57.097496
-3.0193503 -3.6815588 57.083839
-4.0566697 -3.0890417 57.066036
10.430332 -1.8779489 57.007336
-0.23378626 4.6223927 57.055492
-13.441526 -5.3703737 57.163609
3.1234469 -5.1505899 57.121899
-11.292546 -5.0799179 57.1642
7.1480274 -4.800529 57.100159
-3.9244576 -3.1025977 57.126289
-3.9149055 3.8037889 57.170212
2.1420259 4.5246034 57.165253
4.3200922 4.5538774 57.109528
0.19441228 4.8000855 57.134495
-2.7969298 -3.6943817 57.208981
-12.76213 -1.3334821 57.283173
-8.5767879 1.7437807 57.272278
1.9185534 4.5518122 57.220253
0.86018026 4.8056631 57.261444
-13.799765 -2.2848656 57.358459
-11.6334 -0.39579785 57.32766
-4.0981107 3.7759414 57.315811
9.0691729 4.0592551 57.379517
0.45468149 4.9024706 57.34129
3.0900187 -4.8043242 57.456871
-8.0796995 -4.1346416 57.479309
-2.6769209 -3.4330935 57.496643
-12.53138 -5.5770998 57.50388
-10.147339 0.72278821 57.574043
2.2825227 -4.3014073 57.641045
-2.5605524 -3.4197955 57.610107
-13.268062 -5.9468617 57.720535
11.370392 0.83667612 57.719723
-1.3669801 4.286201 57.73452
4.9349856 -4.3330226 57.863327
11.40534 1.3034871 57.862843
1.5418472 4.6651201 57.82457
-0.0073319674 -3.8636088 57.956635
-4.5590277 -2.0860639 57.937962
1.6849498 4.6414437 57.911282
-7.0769286 -3.1473968 58.035915
-4.1928253 3.8043549 58.082664
9.4176378 3.9190481 58.022743
-15.410852 -3.7351904 58.176239
7.597332 -3.5193768 58.111046
-15.372211 -3.1597822 58.103306
-1.9589322 -3.0446124 58.113106
-13.392 -1.5684339 58.189789
11.260818 1.4612402 58.165192
7.6923451 4.2424669 58.151482
6.1092863 4.5055547 58.138924
5.6855721 -3.9709339 58.251167
-11.435725 -3.7734756 58.242676
10.999223 2.6009946 58.250542
-2.303314 4.0135255 58.280479
-0.45567513 4.2093043 58.214695
-0.041069642 4.397727 58.22472
-9.4092884 -4.955503 58.33886
-2.2759876 -2.6568923 58.341309
-11.521298 -5.6248589 58.461903
-11.507774 -3.7162442 58.400421
-1.8507078 -2.712265 58.433556
-11.212584 -0.18273622 58.451416
8.3504362 4.0691252 58.405289
-10.664008 -4.1118884 58.534615
9.6650677 3.8168931 58.525238
-0.43226707 4.1128664 58.506187
-12.703427 -4.8292904 58.654907
1.3477292 -3.2082081 58.680157
6.3296309 -3.2691355 58.68782
10.500261 -0.033964694 58.629089
2.7141356 4.7598119 58.633087
3.5629263 4.7775478 58.6353
-10.087676 -3.9045777 58.742622
-6.8799982 -2.3160429 58.702579
-8.2325144 1.8072619 58.779106
10.595294 2.5682054 58.753311
0.69443953 4.722868 58.787933
-12.247118 -4.0202494 58.844261
-0.90616477 -2.6302752 58.833576
9.0207758 -1.8296297 58.824059
-8.1663208 1.8397367 58.884285
-7.2234616 2.3365359 58.843311
7.8572664 4.0082426 58.85997
2.5267401 4.802228 58.89846
-11.438662 -5.9888172 58.906303
5.9818335 -3.3553019 58.986603
-13.707045 -1.5470822 58.985428
-9.4816151 0.97610033 58.962532
-3.9743683 3.0829706 58.976833
7.1426945 4.0767574 58.988998
1.511881 4.7809734 58.948853
-2.3311546 -1.7934046 59.047569
-2.6262 3.4075336 59.013275
-8.1704941 -3.8267269 59.131847
7.9659004 -1.8304904 59.116436
10.197241 2.3338435 59.104187
-7.5126877 1.8490256 59.289589
-15.835372 -3.9761157 59.383247
3.1949584 -2.473315 59.349678
-5.980854 -1.4846287 59.372162
-4.2275586 -1.2816133 59.315361
-7.4508605 1.8421941 59.330017
3.9756887 4.745615 59.345451
-10.865319 -6.1413813 59.419159
-15.578705 -4.4236565 59.598839
9.0663939 2.7669001 59.552017
6.6645994 3.9817636 59.551376
2.0502269 -2.0244341 59.608269
-13.0863 -1.3762772 59.643925
4.6041737 4.6539297 59.688965
-15.496359 -4.4376297 59.726173
4.0967288 -2.2291431 59.718151
1.09663 -1.6902003 59.789192
2.061512 -1.6165825 59.72789
7.0636926 -1.4746976 59.757851
-4.5460849 -0.76133454 59.748657
-5.3876829 -0.35539106 59.762276
-9.8602381 0.41392004 59.785492
-3.6427717 2.326787 59.767174
-11.398248 -6.4740381 59.8638
-11.396419 -5.4715271 59.875351
-1.4180149 -1.2022011 59.800945
-3.2378397 -1.0539086 59.835434
-4.7338324 0.74786627 59.841965
8.3006086 2.7879519 59.873901
3.5376415 4.8426452 59.815582
-8.9076385 -3.5993211 59.901215
1.3904499 -1.5138927 59.960213
-4.8073168 1.1758158 59.969688
-5.8637595 2.0282371 59.92577
-10.460485 -6.4580312 60.052284
3.3749232 -0.8989749 60.094585
-3.9348142 1.5551916 60.01141
-1.4487476 2.9116702 60.099087
-11.256572 -5.352541 60.108025
-8.1376724 -4.8239012 60.163956
-15.318042 -4.2550583 60.158234
-11.770865 -4.2914739 60.184509
-8.7302399 -2.9623365 60.102486
-7.1100698 1.2662201 60.173332
-4.8678627 2.0099497 60.195229
-12.521635 -6.6169801 60.234943
-10.398907 -6.4783931 60.209373
-15.089273 -4.686307 60.223732
0.079099 -1.0556004 60.207935
6.9183273 -0.6047231 60.24733
-6.3540626 0.43213922 60.273048
-5.9410658 1.7214944 60.251232
-1.223377 2.8714139 60.249149
-6.8778319 -0.43017665 60.307281
-9.9036341 -0.057054967 60.311615
8.3757381 2.123538 60.316807
5.6534557 4.0053997 60.370956
-9.3875141 -3.1377239 60.448765
6.0442533 -0.44253984 60.489365
-7.1009111 0.25218123 60.475262
8.0239191 1.0308892 60.451385
8.0859728 1.1915929 60.496834
7.2076192 2.7486143 60.498413
-15.014472 -4.4269266 60.539246
-15.349072 -3.6467912 60.553173
-9.3487911 -2.953197 60.536674
2.2656379 -1.5081136 60.526741
-9.8977795 -0.29354382 60.589951
7.0645857 0.12906699 60.553467
1.0593108 0.21636967 60.540947
-6.8009925 0.76360643 60.501274
-11.95138 -3.7409406 60.672401
-12.997842 -3.0580142 60.632027
-8.356286 -0.58451253 60.647121
0.80209696 -0.58941519 60.655037
-1.0057433 0.094717234 60.694557
-2.1384435 1.7136953 60.643211
-0.48422062 2.983552 60.663605
-10.154804 -3.3262148 60.772339
-7.926424 -3.2401052 60.708836
-8.310605 -2.9648609 60.748756
-1.2399807 2.3530746 60.780579
-12.752184 -6.3831625 60.818459
-15.099709 -3.0514853 60.858635
-14.264488 -2.7649336 60.828846
-9.9631166 -2.2081628 60.821484
5.2992325 -0.03831917 60.831825
7.1879082 0.92553306 60.868355
5.1850491 3.9668374 60.811031
-8.7544956 -6.336966 60.950073
-8.0943012 -5.8033924 60.942741
-11.108168 -4.0651379 60.935108
-10.387993 -3.2395883 60.956398
-11.500391 -2.8328588 60.995949
-11.351745 -2.5171371 60.99437
-8.9903345 -2.5892162 60.986351
-0.068555176 0.48184794 60.953812
-0.35504031 0.66783035 60.957161
7.1163473 0.96292138 60.902954
5.2761569 1.2923601 60.994461
-8.8371105 -6.4260387 61.057056
-10.857157 -3.1907485 61.0392
-9.0699825 -2.5144567 61.005699
-1.162151 1.3879905 61.0303
5.2391539 1.7035047 61.039268
6.9659805 2.4258962 61.025612
3.8691514 4.2711034 61.033276
0.3246851 0.67794895 61.139748
5.8815961 0.67987496 61.102821
6.188786 0.96761316 61.149849
6.8536081 1.5115709 61.166321
0.36126366 2.8327625 61.18642
-8.5460882 -6.425806 61.267532
-12.387385 -6.3346405 61.260994
-13.07604 -5.997026 61.239304
4.4281812 -1.9984174 61.316151
5.7741594 2.8515675 61.314888
3.5855074 -2.4675965 61.402168
-11.289523 -2.3933046 61.472786
5.4653058 2.4650173 61.467678
5.6044936 2.547682 61.439388
5.1668267 3.0074461 61.436134
4.8466911 3.1814301 61.431747
5.0266981 3.1358366 61.430271
-13.391334 -5.665349 61.586754
-6.4081917 -4.6479573 61.541855
3.5514884 -2.6598506 61.535343
1.3683186 2.9446981 61.511444
1.9300638 3.5670116 61.530941
-12.212662 -6.1857042 61.694542
1.9014608 -2.0886478 61.680939
2.196584 3.5683875 61.668785
3.7645085 3.5559897 61.698471
-6.25109 -4.3787622 61.773949
4.6135645 -1.9831511 61.705605
2.8169417 -0.8254807 61.70113
-7.5892887 -6.2338557 61.810383
-7.46737 -6.1904984 61.831387
-6.2398605 -4.9727449 61.984959
-6.4221087 -3.7153459 61.911804
1.6888405 -2.8097794 61.977592
-8.5447693 -2.6303954 61.915176
0.78034186 -0.44526517 61.92968
-6.6416569 -5.8016162 62.197979
2.2287972 -2.1508543 62.152637
3.759593 -1.4641532 62.155228
2.829747 -1.2865376 62.139626
-10.559048 -6.3702164 62.226444
2.5371907 -2.5854263 62.282181
3.5251191 0.22935601 62.295006
-10.481673 -2.398715 62.34927
5.0325937 -1.6777401 62.352242
-7.6946654 -3.5851371 62.449585
-9.2180433 -2.5701804 62.49921
4.12042 -2.3743641 62.417046
0.79303539 -1.6262691 62.44582
-12.174501 -3.1528683 62.563854
1.964922 -1.30062 62.590553
1.5280404 2.8041456 62.57719
2.4179955 3.3218369 62.515343
0.52447909 0.92345554 62.626907
-7.1778302 -6.0059462 62.772308
2.8983932 -0.76362395 62.74934
3.1875746 -0.67701322 62.784767
2.8666725 -0.55629593 62.784683
2.5804701 3.3028607 62.72694
-8.2044353 -5.2402987 62.846123
-7.9909601 -3.228265 62.874592
3.5678318 0.62532383 62.854053
-6.8467073 -5.4447889 62.974571
-5.367445 -4.8911829 62.970711
1.3012908 -2.6284456 62.974281
1.6715361 -2.009877 62.910492
-11.687733 -5.1101308 63.060303
-8.3452387 -3.1748309 63.071205
4.1876678 -1.8322561 63.085709
2.838351 -3.6591983 63.172523
-11.011876 -3.275948 63.181526
-10.68586 -3.0340943 63.148163
3.4800506 0.63600188 63.186176
-7.7369003 -5.1627998 63.28389
-6.0919242 -2.6634099 63.256348
3.1943297 0.61822397 63.225582
1.264285 2.6208305 63.243824
-6.2843075 -5.7048321 63.342594
-6.0004721 -5.6841078 63.385315
1.8599696 -3.0759251 63.327507
5.0795135 -2.1755996 63.358521
-10.771966 -3.5734835 63.473831
3.983073 -3.109549 63.403893
2.7844987 -2.7846875 63.480217
3.6406634 3.2937868 63.472874
-10.461765 -5.5519471 63.568913
-7.0974956 -4.9522829 63.661896
-6.0969133 -2.6341748 63.647453
3.47368 0.41090402 63.661144
-10.327856 -3.7706714 63.779312
2.1370206 -3.4383202 63.705868
-8.3086987 -2.8716373 63.881416
5.2875681 -2.1100965 63.833557
5.4432807 1.3840296 63.828979
0.45339283 1.4320374 63.864632
-6.6888185 -6.1096535 63.999634
-10.086876 -5.0544319 63.985413
-8.4927998 -3.1649492 63.974186
2.453248 0.17975321 63.992229
3.3274875 0.28343809 63.930725
-8.4398661 -6.0998306 64.070084
-9.7433195 -5.5562105 64.008423
-9.0178099 -4.8697929 64.036346
1.616474 -2.9920282 64.024078
3.1122999 -1.9713924 64.070259
3.1860023 -0.80548698 64.054756
0.18473725 -0.47280973 64.053757
5.1576748 2.3047247 64.054153
4.6797552 2.8110585 64.075623
-9.8597012 -4.1250939 64.19899
-9.0255575 -3.9443414 64.143867
-7.8102798 -3.0070314 64.267151
0.25189984 -1.0300163 64.291054
-9.0294256 -5.628901 64.309845
-8.2534895 -5.3951011 64.39045
-6.5886993 -5.3154507 64.316048
-8.6921129 -3.91995 64.369202
4.5372825 -2.9145741 64.350723
1.1585555 -2.7844048 64.322868
0.18042728 -0.65086663 64.316071
5.2070379 2.3158851 64.334175
-8.2222471 -3.5620904 64.467567
-7.3981094 -3.5127425 64.420624
-7.3710675 -2.9058871 64.435448
-7.3914652 -3.548172 64.561584
5.4467902 1.8834548 64.552254
3.4699359 3.5543988 64.589958
-7.7466435 -3.8081408 64.661003
-6.1106467 -3.8397243 64.607185
4.7144918 -2.8891788 64.641098
0.31455511 1.6772903 64.641777
3.9750702 3.4058008 64.670242
-8.0999622 -5.0928349 64.713913
-5.4759951 -4.5984879 64.725677
-7.5896592 -3.3210378 64.756691
-0.11146493 1.2460117 64.79174
1.542264 3.2903452 64.769699
-6.8475189 -6.0578036 64.812439
4.0809708 3.4369721 64.857246
-7.3893003 -3.4629025 64.985611
-5.5858994 -3.3397791 64.935188
0.24740905 -1.3272724 64.999191
2.4598966 3.6862867 64.920135
-6.1137619 -5.4279699 65.035629
-6.9189711 -3.0980098 65.096092
4.3365464 3.380826 65.030853
-7.3195071 -5.4471006 65.111008
3.498179 -3.2493184 65.195099
2.020761 -3.0990744 65.141724
1.2857696 -2.9090157 65.111816
-7.5340619 -5.2286196 65.279175
-7.3034573 -4.2706099 65.290619
-6.5196943 -3.908134 65.254005
2.8505921 -3.717557 65.370659
2.5441451 -3.4933372 65.337471
1.1521434 -3.0092547 65.381454
-7.2218657 -4.639215 65.462685
-5.7586598 -3.7679389 65.499184
-4.0880365 -3.0877817 65.407806
-5.9212098 -2.583657 65.496605
-5.3713489 -5.5660715 65.507896
-5.2398767 -5.572361 65.522652
4.1993661 -3.3687935 65.519615
1.0310725 -3.0733392 65.516708
5.8336477 1.3467585 65.523468
-5.9120445 -5.2797947 65.694717
-4.2763829 -4.3933516 65.685059
-6.7809038 -4.0353799 65.639786
3.920208 -2.9940476 65.686943
-3.4221971 -2.1892612 65.73214
4.0294981 -3.767684 65.905899
1.1003492 -3.3401341 65.930908
-3.7870107 -2.9783888 65.944092
0.65090472 -2.6516974 65.922409
5.200798 2.8362851 65.970512
2.3660865 -5.5053282 66.049042
-3.1211605 -5.2711563 66.013527
-5.4561853 -4.9702163 66.096115
0.80605072 -4.3297596 66.097618
5.858079 -0.03154099 66.067017
5.8200197 1.3345912 66.079002
0.14818712 1.7418762 66.089676
1.509859 3.6339259 66.044884
2.1554608 -3.8656301 66.13604
4.5103626 -3.5478449 66.164688
1.6727338 3.7165732 66.160156
3.7827554 -5.1888833 66.241104
4.5450239 -5.0070796 66.209717
-3.7955675 -3.7299528 66.234711
5.8517389 0.40908864 66.247353
-3.3788807 -4.8577309 66.353935
3.2645071 -4.7176938 66.477364
-3.2139895 -5.1498003 66.548325
-3.5688305 -5.0388198 66.55751
2.7825055 -4.550252 66.572083
1.5532985 -4.3549318 66.572861
4.8840709 -4.3434668 66.569771
0.20838073 -1.2291816 66.520073
0.32758999 -2.8079674 66.694695
-3.2133393 -2.3004503 66.677353
0.086121134 -0.32556301 66.643394
2.1738973 -4.6121235 66.700089
-4.6125269 -2.5475931 66.704254
-2.1247351 -2.0590723 66.755806
0.46492332 2.4603415 66.763771
-3.1005645 -5.3790326 66.899475
-3.2328439 -3.6222289 66.844772
1.5095469 -3.6428285 66.895363
0.33413166 -2.4661484 66.864914
-2.1765604 -1.5150007 66.821152
0.20035021 -0.9245978 66.82872
1.5025591 3.520236 66.874382
-4.536437 -3.291815 66.970154
-4.6186728 -2.9056683 66.975586
0.58828771 -2.5374508 67.046906
-2.0732021 -5.3594289 67.154381
-2.2179663 -3.7416277 67.143311
1.0312487 -3.2804413 67.100784
5.5832324 -1.5703968 67.147835
0.25282806 -0.8653003 67.145462
5.6648893 1.0762471 67.173172
-2.3128068 -4.9801669 67.279732
-1.9617846 -4.411149 67.23085
-4.0972247 -3.7150569 67.22908
0.27111575 0.78106111 67.406418
-1.7159435 -4.2563457 67.524239
-3.1372368 -3.4460807 67.528893
0.29193798 -0.36461234 67.548264
5.4090762 2.1486623 67.50032
0.31314248 -0.55840719 67.698318
-2.3926291 -3.7681985 67.705948
0.42361528 1.7667003 67.757027
5.2133369 -2.3574483 67.821106
-0.3421813 -3.8260045 67.997581
0.3886587 -1.3393691 68.133789
0.33188051 0.64190304 68.14978
5.1418486 2.2246709 68.154343
-0.60037315 -5.1162639 68.294487
0.062761799 -3.8976853 68.223984
0.51419747 1.8571737 68.232559
-0.55077606 -3.0513058 68.423996
0.025754798 -3.2208238 68.573502
0.23602685 -5.0527401 68.602646
1.7777967 3.0884085 68.610291
0.42941546 -3.9277191 68.743294
0.3528803 0.19928482 69.124878
5.6115689 -1.7746007 69.276016
5.6624761 0.4384582 69.382782
