# .PCD v0.7 - Point Cloud Data file format
VERSION 0.7
FIELDS x y z
SIZE 4 4 4
TYPE F F F
COUNT 1 1 1
WIDTH 1595
HEIGHT 1
VIEWPOINT 0 0 0 1 0 0 0
POINTS 1595
DATA ascii
1.8079822 74.139359 6.3330598
-1.3950212 75.491882 6.3330598
-2.6966143 77.174377 6.3330598
2.7296019 77.649994 6.3330598
-3.0280478 78.746483 6.3330598
-0.87522829 79.166168 6.3330598
-1.7983843 80.173325 6.3330598
1.9275935 80.439285 6.3330598
8.2910805 92.013321 6.336081
7.9244924 99.94474 6.5043507
7.1251683 97.540802 6.6649022
5.7190776 102.42935 6.833806
-1.366838 92.985504 6.9305229
8.748106 95.612434 6.9411564
-3.4112601 96.755356 7.1868367
-2.1781483 94.35656 7.206336
1.8601745 95.468498 7.3562698
3.9373579 99.379761 7.3562698
-1.0206777 81.929276 7.5531178
8.1695538 81.508911 7.6408877
7.8488564 99.058311 8.0207062
-0.08161068 72.108803 8.5720387
9.6327982 78.102539 8.7928543
9.0936184 79.512848 8.9536476
-0.55363393 72.932671 9.2474022
5.2702723 71.868782 9.4719973
1.6103077 89.616966 9.6720085
1.3872582 70.716965 9.9111671
-2.8919175 78.622253 9.918499
-3.5362351 96.905716 10.957348
7.6468124 74.004715 11.101764
8.8330183 95.74189 11.147102
-0.5360477 84.052589 11.322705
3.3075659 85.179604 11.350539
-1.0241113 90.659103 11.607532
6.2695642 71.422455 11.963369
-3.1486917 94.943619 12.534025
4.5781927 103.48718 12.835203
3.5171924 70.599213 12.998203
-0.24022982 85.078903 12.989744
1.9398198 85.811996 12.925323
3.7021763 89.315643 13.253637
7.0768843 84.403412 13.340155
7.8143172 93.126465 13.360426
-1.6539915 74.750443 13.860146
7.840373 82.777107 13.988607
-2.8368213 93.808052 14.211456
-1.4005516 101.76666 14.402989
1.2838475 104.32899 14.599588
-3.5807629 78.457352 14.600963
4.5591612 104.14277 14.889969
3.4686265 85.811996 15.151608
3.7224224 88.948898 15.388571
-1.4565901 101.7981 15.441126
6.9035115 85.122482 15.912709
-2.8217652 80.511795 16.144846
-1.4604192 90.435242 16.1045
8.4435253 75.358124 16.490017
6.2959251 70.574265 16.644627
8.4038162 75.224167 16.677387
-0.41574025 85.193611 16.821831
8.654274 97.708008 17.006737
5.4925671 85.811996 17.436893
9.5386324 77.799263 17.628012
0.58015627 104.32899 17.851929
9.2605152 77.282608 17.951036
3.7026596 70.432297 18.324068
-2.3449497 82.218582 18.604296
1.2414515 85.811996 18.696392
-2.8349757 81.544601 19.94273
4.8185363 70.432297 20.276989
6.706399 103.80724 20.48391
-0.97198015 103.69756 20.526707
-3.3162735 80.785583 20.910038
0.92715049 85.811996 21.014378
-2.5634949 75.350891 21.435404
7.3681192 102.28146 21.48188
9.5893393 78.550049 21.541452
7.3328285 91.375389 21.614157
8.8899899 97.907928 21.875744
-0.28071991 104.32901 21.889507
0.21602082 104.32901 22.264494
8.6916523 98.652878 22.302296
7.8144951 72.061913 22.400249
-1.9175348 83.624504 22.522369
8.3090801 73.432411 22.66687
8.6552963 98.902031 22.688038
1.8207219 70.432297 23.290913
-1.7818005 73.592979 23.260857
-0.81521177 85.236557 23.227133
4.0927305 88.948906 23.321457
-4.3411145 79.302544 23.446293
9.4202366 96.447357 23.662615
-1.8347667 102.2111 23.748096
2.4789896 70.432297 24.045794
5.868526 104.329 24.068054
9.1666288 80.174042 24.506973
1.7105943 70.432297 24.60861
9.6533079 76.68866 24.671467
-4.7787805 78.7444 24.79859
2.898242 85.811996 24.776638
8.7378807 94.664139 24.782871
-1.8434861 90.107841 25.286505
-4.8055344 97.714287 25.28907
-4.2860036 93.73008 25.583246
-2.794028 82.730644 26.082138
9.3375664 79.980614 26.168873
-2.0582669 102.08505 26.260193
-4.1168585 76.575119 26.336313
9.5665255 79.390701 26.351854
-3.9764111 80.887558 26.327995
5.0335484 85.811996 26.346645
-3.0310369 82.500343 27.165865
9.306241 95.506073 27.432707
6.7982855 70.432297 27.551804
3.4626877 85.811996 27.537855
7.9099288 71.390671 27.950378
-5.785255 96.938492 28.35951
10.482748 77.762543 28.463192
-4.9518704 94.344536 28.480732
9.4966555 74.804199 28.548613
5.8231478 70.432297 28.665339
7.2185459 89.829651 29.250488
4.7422595 88.948898 29.356976
0.45403844 70.432297 29.632715
-5.5851054 77.93869 29.790234
8.1334009 92.232025 29.701763
-2.9942853 74.379044 30.281212
4.3031974 85.811996 30.342113
10.205151 96.377373 30.375669
-0.13726115 104.329 30.418509
-3.8843863 92.450684 30.79775
8.6836205 101.72878 31.026608
6.2747993 85.811996 31.197298
-1.3096138 88.948898 31.231468
-1.2395642 104.329 31.330503
-5.8293953 95.332764 31.660439
10.643721 77.043785 31.731564
7.5571556 103.55486 31.96863
6.7340269 104.329 31.961666
-5.8116894 95.120102 32.286091
-6.0157504 78.072266 32.323975
-6.2582831 96.008492 32.524624
0.20198882 88.948898 32.870972
10.031256 95.576698 32.958885
9.9080019 98.957245 32.995689
-1.5028577 104.32901 33.44746
-3.7956378 92.059563 33.630096
-6.5057349 96.200165 33.732712
-6.1420054 97.406662 33.762878
-2.2711127 72.719109 34.222397
-2.4369483 72.867966 34.641949
-5.6359253 77.152908 34.665291
-3.3087072 101.38438 34.783165
-4.0854416 81.786598 35.288101
-3.6789141 91.74749 35.206245
0.018695951 104.329 35.467319
8.2346449 71.184067 35.613075
-5.9725471 97.977997 35.727383
8.358674 84.203285 35.888737
3.3836484 70.432297 36.011803
-4.0011544 81.974625 36.029854
-6.6550903 97.138016 36.15662
2.8917224 85.811996 36.239895
9.572135 94.144318 36.37999
1.303593 88.948898 36.481853
-2.4690237 102.9826 37.47961
9.2288485 101.51638 37.838554
-1.2403975 104.32901 37.833176
0.89841682 70.432297 38.019535
10.601595 74.603813 38.147285
-2.7875485 102.73736 38.517693
9.9532108 73.51429 39.106552
1.8314757 85.811996 39.212818
8.6554976 71.483643 39.402832
11.34924 97.116013 39.652214
-4.8076177 92.905159 39.720078
11.252653 75.859497 39.903473
4.4597197 104.329 39.962593
9.8436928 73.223923 40.419632
11.528604 96.941017 40.628544
8.9574623 102.19145 40.610664
10.74813 80.413689 41.061279
2.9941721 88.948898 41.108696
-2.4885697 71.645432 42.016636
-0.59309113 85.811996 42.082886
-1.9102511 85.485893 42.183155
9.4878416 82.695961 42.225094
1.3298334 88.948898 42.326511
7.5677981 88.948898 42.398201
-5.8344221 98.879471 42.42366
9.0090342 71.711533 42.843636
-3.6757431 102.15134 42.822182
7.9558401 89.60434 42.962425
-7.2918644 96.644577 43.041061
10.017859 93.415894 43.626678
-4.4821172 81.597389 43.908913
1.1890612 88.948898 44.120693
-5.8008447 98.796417 44.261932
7.7956214 85.811996 44.441463
3.3826785 104.329 44.599022
10.783094 99.742378 44.608711
1.885247 104.329 44.619205
1.608748 70.432297 44.894344
12.106731 96.82666 45.003639
6.3465266 85.811996 45.190941
4.2373495 70.432297 45.224388
-3.2631519 72.901939 45.536411
-4.7361846 92.951935 45.612564
9.3041925 91.839264 45.703342
12.209795 96.536148 45.837353
9.9807482 92.893097 45.933067
11.412919 95.202744 46.026333
-5.2642899 93.805878 46.24752
-2.6354096 72.020027 46.602692
2.1224031 73.129082 46.763901
0.84896976 74.010475 46.763901
2.9182987 76.101898 46.763901
-0.72407216 78.598099 46.763901
1.1555495 80.278214 46.763901
11.876561 98.158348 46.774616
9.1909628 74.533653 47.005352
-2.3755431 76.257164 47.065128
11.797236 95.606567 47.128376
3.0644536 104.329 47.198845
-1.3140799 104.09547 47.235619
-6.2633452 77.569473 47.577236
10.586685 81.997078 47.648911
8.4818373 85.779366 47.680202
11.937407 77.677284 47.812279
-5.4092321 94.136444 47.846172
10.722553 74.876709 48.253643
10.024999 101.24738 48.230965
3.8596032 71.45472 48.35841
5.767714 82.935692 48.471428
7.0993772 70.432297 48.543839
5.6102586 104.329 48.542969
8.6585808 82.735466 48.646679
9.8781796 101.52116 48.740936
-4.1898909 74.557693 48.801224
-0.66826659 80.451782 48.892532
-2.8208652 76.837395 48.98531
11.169985 94.19178 49.098537
-2.5382698 84.188614 49.121288
2.3584068 91.217484 49.273899
9.8250179 92.957664 49.273899
9.003583 93.181076 49.273895
7.1198854 94.942902 49.273903
5.6994715 96.903061 49.273899
-1.154439 99.127533 49.273899
10.509332 73.414619 49.478432
-0.85296124 80.537903 49.426487
-6.9867854 96.701004 49.575153
-1.2074957 100.05116 49.641602
12.129473 75.034325 49.885567
9.1800718 102.69679 49.800503
-3.0084717 77.204933 49.97366
9.0443811 84.961525 49.928307
10.674956 82.336716 50.058411
-2.8845506 83.588783 50.08316
-5.5411563 79.563873 50.552696
8.2209501 89.088943 50.575489
-6.1595554 78.645386 50.602661
12.605892 76.538216 50.700218
-6.5039086 97.347336 50.708633
5.8790841 83.782707 50.811348
3.7969859 90.510208 50.946575
1.9924536 102.40401 50.973991
1.0090849 102.83524 51.088192
-0.34449577 85.241348 51.196587
7.1315012 90.536369 51.176899
8.0284662 85.743645 51.294353
6.5278306 83.990402 51.385105
4.0595975 70.42131 51.40731
8.9359226 72.926231 51.486637
8.8276577 99.199318 51.584511
7.8526859 70.515541 51.755745
-3.1939054 73.551254 51.723434
-4.3821912 76.046997 51.777828
12.875352 74.68441 52.086052
13.643978 79.386009 52.027878
-2.5598338 100.44157 52.334122
9.1538811 90.733109 52.524124
-2.9878006 83.244682 52.630032
3.1047914 84.45649 52.672707
9.3471746 84.225281 52.772652
5.5736423 85.30455 52.991386
11.491114 83.474312 53.03904
-5.3733039 98.217621 53.01268
-4.389205 100.33353 53.09943
-3.3917019 73.659172 53.212467
12.545856 74.154823 53.221561
-3.7066982 99.907234 53.27169
-2.8612034 79.853333 53.343056
14.181767 80.059357 53.356331
4.5137033 69.841057 53.595528
0.58284211 68.963547 53.657425
-5.783287 79.020691 53.607101
9.1930447 72.019104 53.847843
-3.5224316 101.57631 53.89386
6.0675502 70.814529 53.933205
12.106661 75.57402 54.089569
-3.4548063 79.391388 54.176895
5.2925086 85.126595 54.220596
12.390805 94.289375 54.221077
-3.1671166 100.972 54.274891
13.121712 73.989014 54.469753
6.2222824 70.373436 54.548981
0.41056892 71.136833 54.684128
-6.2549505 78.249672 54.810242
7.5854869 89.577477 54.886406
4.9957261 85.011696 54.926842
5.1312408 85.008636 55.054413
0.78746945 89.808212 55.182022
-0.075183325 104.43491 55.398586
-2.0554316 90.343483 55.588482
-6.1565781 74.667816 55.614811
-1.5250763 89.383659 55.672512
7.1640887 101.5607 55.919998
6.9922824 85.064255 56.015285
-5.3296099 79.540855 56.110886
-6.3002334 97.425278 56.218212
4.388083 88.562378 56.327465
9.3284492 92.230179 56.432945
12.954202 73.848137 56.556728
-4.6012239 80.595383 56.504082
5.5427637 71.195473 56.620853
-0.66407645 84.828423 56.896248
-0.59342682 103.44176 56.803398
-0.73066342 104.75169 56.979031
14.25242 83.013985 57.363735
-4.5678921 80.587357 57.452591
10.774794 98.935562 57.452061
12.042193 79.411476 57.593552
19.744698 120.40837 57.536049
3.2474737 89.989532 57.685085
5.6144195 103.42159 57.638481
8.3577871 85.159203 57.785057
1.2026842 90.004807 57.895847
0.28741926 68.698486 57.949677
6.9385242 103.29061 58.028378
5.6511393 90.024673 58.170033
-4.4862356 99.882126 58.187336
9.5805817 72.094673 58.289085
-7.3636608 98.669418 58.24218
-4.6240969 73.248215 58.340736
1.551915 90.045692 58.460266
2.2421677 85.159195 58.667015
5.8973188 85.15921 58.64645
-7.1321349 98.903801 58.676079
-2.8845968 71.636848 58.882195
11.345275 97.6362 59.021088
5.4124589 85.159203 59.130322
0.25343668 90.097 59.16848
10.993101 95.281754 59.181599
11.915295 96.894028 59.170029
-4.1057429 101.7071 59.115639
15.243484 120.88702 59.278362
7.3960986 101.88917 59.38644
5.5958996 85.159203 59.41291
-4.3274307 100.04193 59.432251
15.81702 121.53394 59.575729
-6.3358283 96.846603 59.676746
4.4180307 103.43695 59.655327
9.5031013 81.617203 59.736519
-6.0091357 96.900497 59.871063
-5.5358696 74.092827 59.903492
0.11785424 84.347893 59.981873
3.3707993 102.86853 59.976124
10.367055 98.413185 60.032616
16.680607 118.89403 60.008133
-4.5204973 98.523392 60.193325
0.01444 84.202293 60.216824
-2.8339016 92.817146 60.503849
4.7288566 72.287682 60.613419
-4.0346627 79.137192 60.685448
12.869516 118.64041 60.690681
-1.9175832 92.125504 60.872639
-2.8913441 102.83199 60.945557
12.095388 121.03075 60.947845
14.234314 123.56568 61.024151
2.3294952 88.274002 61.159481
5.1668639 91.188934 61.234108
17.199106 120.94382 61.249847
4.2781372 83.497284 61.354454
14.690899 75.614792 61.447941
1.715474 85.159203 61.442955
-0.77072072 91.537842 61.488422
-2.2066908 93.550812 61.425842
13.566 94.622681 61.429054
-0.40603626 105.13409 61.443623
12.395341 120.27711 61.467155
7.2357492 73.189758 61.646305
3.6918139 91.424767 61.614655
-3.9802227 96.690125 61.653797
10.689098 119.73389 61.651302
12.326639 120.48421 61.601826
12.103013 120.8271 61.698143
10.73204 95.974556 61.748177
6.6346402 91.694168 61.822853
17.770313 116.81525 61.829002
11.705139 117.54625 61.881966
18.182426 119.36499 61.939407
18.677341 121.73814 62.07201
9.8308144 79.957222 62.374729
5.9560375 101.4143 62.322563
8.7239618 85.159203 62.458637
10.938506 96.666328 62.697067
19.457731 123.24777 62.65765
3.1892476 73.589348 62.71384
12.198484 123.68304 62.75177
-0.50013661 99.098877 63.175484
-1.8293278 88.854538 63.260838
-6.4964161 99.492661 63.509235
16.285786 116.178 63.504684
-0.2301991 94.766251 63.723045
8.860033 98.081398 63.732964
19.905792 121.50256 63.733269
8.890831 101.11232 63.826347
18.037258 116.178 63.811039
7.2237363 81.543358 63.960831
8.7653685 101.17752 63.943741
5.3336706 102.96106 63.914627
5.4433169 102.90408 63.94149
-5.7715235 75.592537 64.006264
1.6786959 81.384491 64.130455
3.9407253 81.769012 64.14328
11.936958 116.591 64.223572
12.022648 123.81743 64.34697
1.5810337 75.529076 64.421555
1.6501043 93.897194 64.785011
-4.3144417 78.176575 64.850021
1.7393199 93.798828 64.803711
-5.4664392 76.133591 65.082649
-1.3647821 83.4076 65.01358
11.79213 116.53404 65.126648
8.9412155 119.97574 65.126678
14.6909 78.235016 65.23439
9.1583929 118.84235 65.285255
-2.0557415 82.182236 65.507172
2.7116945 88.274002 65.522888
-4.8075571 94.136292 65.603027
11.61273 116.54143 65.600967
13.566 91.853958 65.846619
2.1275878 95.154083 65.87429
-3.6876154 79.288216 65.998283
-5.9716287 99.97876 65.93306
6.1610312 75.652458 66.042976
8.9748802 88.74025 66.023491
14.6909 82.168297 66.139015
3.9940619 94.241982 66.160645
-6.6679645 97.435631 66.142899
15.083817 116.17799 66.150215
18.518032 117.03893 66.102074
3.8345625 103.7402 66.263412
9.4426527 117.85968 66.201393
20.06888 119.40341 66.290695
14.690901 81.964554 66.494705
-5.3593698 73.929329 66.754272
3.5294595 79.374313 66.765251
14.6909 74.936592 66.998917
8.2156315 101.46324 67.050056
15.448836 124.179 67.181778
-3.8417149 72.523468 67.575104
-2.0158246 89.18528 67.504318
18.612516 117.93005 67.565636
-1.1360638 88.274002 67.74913
6.4069109 79.497688 67.808395
7.5061917 85.159203 67.882393
6.973711 85.159203 67.947495
8.1922798 118.77297 68.063423
9.8942871 123.52136 68.563957
3.2665799 88.274002 68.763023
13.566 96.652748 68.789062
-1.6803634 70.521324 68.803329
6.7998471 96.644127 69.074669
5.8783941 78.503998 69.176857
3.6132402 88.274002 69.102379
7.0375915 102.0755 69.14743
12.696196 83.643196 69.323036
17.558693 117.04523 69.815651
14.829946 116.178 69.904396
17.857534 122.67058 69.917397
13.566 91.809029 70.015556
-3.8049254 72.489388 70.119606
19.085966 120.15443 70.271027
17.664169 122.88002 70.293762
19.272861 121.0994 70.313759
12.762791 73.74865 70.588158
12.660643 99.153046 70.568016
8.3759079 117.4962 70.736481
5.022747 88.274002 70.882904
17.973419 121.10863 70.945084
7.4565997 121.48113 70.942924
11.744257 124.179 71.09433
-1.2745228 104.32962 71.167488
-0.99678004 104.58689 71.147621
17.864128 120.26176 71.352951
16.76922 123.81902 71.384048
14.241117 124.179 71.302483
7.2234855 120.45178 71.49041
1.2120596 105.10319 71.58432
-2.5268574 103.1696 71.791618
9.4329576 116.68743 71.746262
17.322586 117.61212 71.890831
14.6909 78.39859 72.390671
-2.4169126 89.896591 72.351646
8.5279179 88.559532 72.497688
11.552883 89.782631 72.438179
-2.7438593 80.961899 72.794937
8.6403875 88.605011 72.742134
8.7668905 88.656158 72.788765
-2.3031373 89.694817 72.732941
-5.4266915 73.991699 73.150345
-3.4134631 79.774399 73.123795
-0.27175128 69.216469 73.435387
4.8714881 103.20128 73.488968
8.5435562 117.23756 73.416138
17.270176 121.39459 73.569595
7.154644 85.159203 73.650597
14.27125 83.006371 73.708778
-2.9356997 90.816643 73.792587
17.160086 120.44451 73.980453
4.7964706 69.608109 74.3545
-5.7864103 75.566139 74.434616
-2.5235493 81.352608 74.454964
3.4424481 103.94398 74.592484
10.984257 116.21684 74.501717
13.563522 116.178 74.677345
7.3153563 121.2422 74.604149
7.0856447 85.159203 74.72789
11.250599 72.962677 74.83577
-2.3704319 89.814163 75.03907
11.117536 116.19472 75.088379
14.690899 77.901978 75.104721
14.6909 77.542633 75.340935
17.956694 121.11433 75.521637
13.566 98.401886 75.666794
1.0035484 88.274002 75.782761
2.6625142 105.40778 75.766533
10.26858 116.29542 75.771904
14.690899 81.568985 75.833565
12.093375 90.001167 75.943092
13.932276 116.17799 75.931633
-3.4686375 79.676559 76.031052
2.8566737 104.24843 76.096535
16.587797 120.31387 76.116257
14.690899 78.880844 76.243546
14.067358 116.17801 76.267548
-1.0979764 83.880768 76.325066
7.9468822 117.81912 76.361259
11.862141 124.179 76.31929
-5.2771606 73.85318 76.443069
14.690899 76.723351 76.441681
-4.3374686 93.302605 76.648392
-7.2123241 98.829529 76.760223
7.3478689 119.51007 76.718834
4.6135869 88.274002 76.923454
-4.7896342 77.333855 77.138229
-5.5820761 75.928505 77.227646
-1.8844759 82.485962 77.36908
11.274716 84.217918 77.326675
16.654539 118.64306 77.391724
17.611219 119.10364 77.459328
17.511517 119.22952 77.463181
11.577184 73.132431 77.559166
11.886972 99.555145 77.532173
7.6029644 109.07761 77.541176
16.203526 119.53146 77.550354
14.933743 116.25485 77.752838
8.9357367 117.0752 77.706497
2.1730616 88.274002 77.981094
0.056587279 110.153 78.104858
14.690901 76.690895 78.23629
14.690899 80.453728 78.329285
3.716094 88.274002 78.417969
-2.0690837 89.279732 78.419342
13.566 95.778107 78.452248
9.9519777 108.84573 78.433472
13.751558 116.178 78.404732
13.327145 124.179 78.407547
3.1264012 110.153 78.554283
-0.73042172 109.11935 78.711105
12.937509 99.009148 79.007568
-4.2969518 78.207588 79.187393
11.921711 104.40997 79.181694
14.31227 124.179 79.198051
14.6909 76.005554 79.375481
9.7934084 117.48762 79.472992
15.698614 120.49397 79.4347
-4.0366492 101.77111 79.533531
-8.8965578 153.13919 79.559372
-7.7583008 152.53317 79.613014
4.1959715 119.20116 79.766953
2.5945983 103.91743 79.921333
-0.97796088 105.78996 79.948318
14.690901 79.75058 80.004677
16.619509 118.51485 80.063156
14.05286 83.094666 80.234337
1.627665 104.52922 80.282021
4.9003048 106.47292 80.205093
13.6199 108.6637 80.263916
9.5808878 118.26111 80.266113
15.185256 117.86135 80.351501
6.6005177 103.923 80.407906
3.664505 109.905 80.519432
4.670836 116.9145 80.588501
-6.027245 96.299347 80.795181
9.4469585 122.14349 80.76593
11.883775 110.153 80.873001
7.3258057 121.73162 80.838394
13.566 91.022202 81.095612
13.751912 108.46753 81.171562
7.2021475 109.905 81.114815
13.566 97.281868 81.227478
1.2503653 105.21619 81.275269
11.011227 116.178 81.23156
14.247541 82.947762 81.34111
6.8736658 85.159203 81.301788
8.6546078 110.153 81.687912
9.2068024 122.23083 81.662209
1.817413 121.94407 81.764809
-2.5460429 71.200424 81.805542
11.319996 103.923 81.854324
6.2557058 123.81435 81.80629
6.8952765 123.60043 81.944092
-8.1719103 149.06796 81.910805
-4.9366069 77.29306 82.009361
2.5261014 85.15921 82.034447
8.1005421 85.159203 82.202393
1.452577 104.17 82.313499
10.476624 104.83936 82.323326
7.2235775 119.89509 82.332535
7.8950429 88.303642 82.41642
2.6495285 103.67564 82.431992
8.5095844 109.905 82.4151
13.957968 105.08621 82.588303
12.068378 116.178 82.501984
4.7677059 120.17715 82.591705
10.998479 84.128563 82.684341
1.1734722 104.17 82.626068
16.101995 121.8179 82.667793
11.572858 109.28604 82.739754
12.156982 73.815529 82.821022
1.294788 109.905 82.983307
14.741784 121.61579 83.005608
11.837484 89.897705 83.119064
12.277865 103.923 83.110512
0.55252713 109.5681 83.143272
-6.5863142 97.290833 83.220032
2.6674161 104.17 83.276733
12.920943 104.35433 83.251839
13.542709 93.131187 83.355789
13.250883 105.74339 83.377167
8.7618923 121.45172 83.322617
8.764432 122.04362 83.313187
-3.1829519 91.225456 83.456863
1.0809262 119.97485 83.472885
1.4917841 120.77975 83.412949
7.1746726 101.92837 83.696617
12.815475 98.992905 83.71685
12.961195 90.413872 83.866264
10.187462 73.004135 83.955368
4.8907251 119.37431 83.920517
-5.4870896 76.358971 84.078751
2.2100403 104.4486 84.017365
-1.214783 110.526 84.174103
5.6979966 120.47442 84.194817
7.0927329 85.159203 84.215897
4.8746767 119.45897 84.211067
5.0983133 70.30616 84.319839
15.554623 121.1066 84.333206
-0.75454628 123.31874 84.541275
13.275187 109.905 84.620445
14.998096 118.58784 84.667969
12.283747 124.179 84.693787
14.023513 106.84716 84.746468
13.233281 76.326141 84.829468
-3.640336 80.022621 84.89241
9.7231674 124.13208 84.877281
2.181072 110.526 85.076279
8.3058863 121.34217 85.024498
13.080335 82.661835 85.254257
3.9209576 119.87532 85.205025
-0.93543953 88.274002 85.525192
0.42053449 88.274002 85.550468
8.2094498 123.68964 85.60672
10.72697 103.65109 85.75296
12.622304 96.352333 85.912109
6.711556 101.72652 86.061508
0.085299373 110.526 86.002693
1.3554643 124.41807 86.113129
-2.703568 75.016083 86.334503
-0.82763016 76.098907 86.334503
3.8716402 76.302353 86.334503
7.7846274 76.51622 86.334503
5.9362655 78.499977 86.334503
-1.3603933 78.523842 86.334503
7.7883058 79.176712 86.334503
10.360987 79.962143 86.334503
1.5245223 81.081177 86.334503
-1.8026401 87.475601 86.352676
2.4884667 87.994446 86.334503
0.8842802 90.801155 86.334503
7.5308208 91.554901 86.334503
9.6334114 91.733353 86.334503
9.0189438 93.050781 86.334503
-2.3685255 94.408615 86.334503
0.029077947 96.113144 86.334503
6.0642052 96.839684 86.334503
3.1809921 97.217209 86.334503
-1.7001181 98.206703 86.334503
5.9768267 98.551895 86.334503
5.1833191 99.092682 86.334503
7.3385072 100.67325 86.334503
1.8104271 101.11797 86.334503
3.0038829 123.80222 86.349602
6.7133307 120.74157 86.477142
7.5392566 110.526 86.508171
-2.9046445 119.59027 86.559097
10.337648 70.713509 86.620049
-2.7562594 105.38297 86.669258
-6.9054527 97.64679 86.74202
11.068398 103.26962 86.765793
13.716129 120.60666 86.833405
-1.0391917 85.096039 86.988083
12.245206 98.123665 86.959457
13.151309 106.88266 87.04258
-2.3906121 122.8046 87.06739
-3.3153751 102.89883 87.125298
5.1979589 119.68835 87.124336
-3.3033323 71.769119 87.24527
-2.8748598 89.993073 87.289375
12.661681 108.53668 87.269501
-5.8332663 74.526855 87.318977
-1.7284727 88.274002 87.332535
12.090601 93.293213 87.388855
1.1491246 110.526 87.305489
0.49515802 117.2159 87.388885
12.680778 123.73869 87.391426
10.247218 70.91449 87.405304
12.980549 107.00973 87.492111
-2.3188117 70.708618 87.583481
-3.6112962 74.103035 87.550064
8.9909534 84.339088 87.530022
-0.17088926 85.159203 87.510101
10.982763 103.79236 87.510406
2.1038461 110.526 87.538658
1.7680961 104.17 87.682281
6.8458905 121.65434 87.627319
10.94959 76.997711 87.798843
-0.44053406 109.905 87.749985
3.9230499 119.03883 87.779129
2.4018278 109.905 87.866867
11.992357 81.713234 88.039383
6.6300111 110.526 88.013214
10.904056 82.64151 88.194786
-0.84482276 105.30882 88.139297
12.313603 109.14912 88.185814
6.243175 71.491005 88.286331
4.5403647 102.68692 88.205353
4.9679747 105.95263 88.204369
5.2672443 105.90928 88.470787
4.393012 120.72976 88.460953
10.921311 73.62709 88.555702
1.9906235 84.865311 88.544769
7.4395971 109.905 88.594315
12.348182 117.38849 88.577377
8.9474621 73.311859 88.766106
-1.6642317 88.274002 88.762878
2.837399 103.64893 88.777977
9.1957293 105.57558 88.717773
-2.7638047 110.526 88.793709
11.615417 123.65138 88.732788
11.853383 104.17 88.862282
3.6288009 70.256699 88.95105
1.3517644 109.905 88.96283
-2.513454 82.388397 89.161079
11.949093 107.32561 89.145386
2.2254219 122.89846 89.10936
-5.88307 75.760567 89.325302
4.8775659 103.549 89.332138
1.3717716 104.47216 89.332207
6.5165157 105.77062 89.357056
12.268543 108.25983 89.366493
-3.6046679 73.762665 89.415176
10.532496 86.621239 89.452866
9.0667343 103.54901 89.454437
-3.6103637 90.612587 89.512558
10.093915 116.93459 89.503159
1.2817473 70.197105 89.761337
-2.957608 110.30688 89.842667
3.7193971 121.40865 89.872665
11.154231 95.335091 89.98951
1.7729461 104.18192 90.0298
-3.609935 117.86703 90.004944
10.752636 103.549 90.343185
11.142236 100.16046 90.443886
4.2536664 102.50161 90.691483
8.3941145 70.347198 90.720688
-2.3818071 70.927658 90.715897
3.7572308 105.55788 90.716545
9.8080778 117.99818 90.892235
10.597001 120.93007 90.822845
-5.4285822 100.53351 90.946129
9.5218372 74.708633 91.035034
0.061110139 104.79487 91.069534
0.9542408 110.526 91.065445
-7.8040643 143.43077 91.019028
9.9170055 78.429626 91.165436
9.6458702 90.461235 91.128014
-0.31889501 109.905 91.187225
2.370661 70.685638 91.292542
-8.5521278 144.15715 91.368706
6.3638663 73.032898 91.441513
-2.974299 103.549 91.694283
10.395037 103.549 91.699295
8.757061 110.52599 91.70298
9.5899029 119.38279 91.768196
11.401712 88.066978 91.812752
4.673769 104.17 92.044792
0.29488039 105.35605 92.006439
8.8021708 121.87199 92.043549
-3.7658501 82.090508 92.170662
-6.0122972 74.890976 92.21833
9.1780605 79.059357 92.278488
-0.65905792 83.489143 92.224197
9.7993469 87.39373 92.296425
-2.225606 104.17 92.230515
-3.7745028 92.942856 92.318581
5.2167726 70.630905 92.534065
5.4643698 70.637802 92.578163
8.0970535 121.78769 92.584213
11.158253 76.295654 92.606567
10.053123 103.25432 92.784584
-4.3056159 117.30641 92.829613
6.5411744 120.18555 92.845985
1.0085105 89.272522 92.938599
0.45796722 105.214 92.914284
4.6722918 89.33963 93.082397
5.6832714 100.4745 93.229271
9.7112579 103.549 93.228981
10.401649 106.11432 93.219025
7.5212631 81.61985 93.519165
11.292736 89.5644 93.573334
-2.3654389 123.0723 93.552078
-3.8508573 75.981827 93.623894
-6.297101 99.492424 93.706062
-1.7882199 72.885712 93.864601
-1.939507 73.432541 93.864609
10.487959 73.466187 93.835266
3.3685637 74.786278 93.864601
0.19758478 75.839195 93.864594
1.8581697 78.949051 93.864601
-0.2119019 81.045204 93.864594
-2.8153739 107.47266 93.823395
8.4867687 70.866959 94.042862
-3.8767157 83.514557 94.065948
-3.9578393 105.20643 94.015739
-3.8847556 91.058716 94.2034
11.322587 100.61863 94.298035
-3.3500009 117.50266 94.209702
-2.0952303 118.32169 94.209702
-1.7647825 118.54932 94.209702
-1.3526708 119.00001 94.209702
-1.9422204 121.65018 94.209702
-2.3130243 122.52658 94.209702
3.1434069 104.17 94.306107
-2.3386724 103.86898 94.498367
7.5432363 70.959503 94.63443
5.5369172 109.905 94.635384
11.228708 86.468109 94.863708
-1.7804354 110.526 94.824203
-0.13682476 115.33874 94.944252
1.7642478 71.029922 95.084488
11.303808 80.668678 95.095062
9.7195482 106.15232 95.014656
9.1893263 104.8432 95.284012
10.130444 102.74709 95.3526
5.5419893 71.103683 95.555969
11.692181 92.325623 95.531036
11.6633 88.147743 95.885864
6.6093817 104.75846 95.825569
2.4010351 109.905 95.898804
5.4979601 71.183487 96.066086
-3.3451765 86.586082 96.023056
10.996765 89.190659 96.105255
4.7186317 109.905 96.128876
11.773186 87.284081 96.275688
-8.1726084 139.23302 96.251282
1.4218113 90.533836 96.310806
5.1659012 92.658806 96.374603
-1.6420134 93.789871 96.374603
-3.8422651 95.037788 96.374603
-4.8361712 96.79039 96.374603
-3.2096939 97.458618 96.374603
2.9056721 97.403191 96.374603
-3.1116195 102.04946 96.374603
-0.77818465 102.19302 96.374603
1.7331825 120.42632 96.38485
11.43429 81.434486 96.422394
11.583097 86.313202 96.412537
-4.0227656 90.765419 96.562729
11.800241 92.170944 96.530632
0.55047846 71.306152 96.850113
-4.0404205 99.232826 96.864555
11.532166 89.521385 96.931824
2.0284266 116.74547 96.988297
11.421597 86.754921 97.186798
-0.22315919 104.55347 97.135696
3.4068201 104.54794 97.171097
11.282776 86.499039 97.32576
7.4378781 88.860771 97.33268
9.2331133 90.150681 97.32045
0.1619921 71.405205 97.483261
11.819053 85.053162 97.465912
7.9003525 109.905 97.531944
8.9508324 103.54901 97.608139
6.8194685 104.17 97.669662
-4.0899882 91.139633 97.711929
-4.289556 116.87334 97.796463
-1.8375841 71.459152 97.828064
7.6762018 109.905 97.894241
-1.827301 88.300133 97.915314
-2.3510959 104.17 97.933189
1.3059998 104.39963 98.118851
4.7547822 71.519318 98.212631
0.24984673 71.544998 98.376808
7.1022654 93.988869 98.395584
3.0651088 71.56144 98.481865
5.738585 104.17 98.668251
7.6659117 104.17 98.6185
13.946921 87.731674 98.784782
8.2700872 105.69962 98.83036
-2.6294854 121.68962 98.864449
-2.2312245 122.04943 98.948029
4.7204838 88.856934 99.058388
9.5581064 92.676491 99.125397
8.1586208 105.22459 99.123795
-0.00032389164 71.683083 99.259422
8.496542 105.6617 99.296432
4.2602134 90.591843 99.350677
12.086591 92.408585 99.763283
6.9892287 96.413361 99.858154
-5.1484833 118.83951 100.02441
1.9747072 115.33503 100.13431
7.5019417 109.905 100.5081
-0.92164314 71.916588 100.7519
6.904942 103.96796 100.87757
2.3615372 77.086922 100.98518
7.3327584 104.17 100.98409
7.8729472 107.47981 100.93806
-4.2836032 85.36647 101.02187
-3.8393636 89.513763 101.08381
-2.9770265 73.973526 101.19844
3.5713158 103.9068 101.26843
3.0513191 118.28183 101.31557
-4.3023634 78.178719 101.43973
7.1838017 110.526 101.45138
9.361124 77.641151 101.71042
7.4889393 75.5159 101.86583
2.18806 97.989639 101.85748
-4.1065516 119.79222 101.82204
-3.0433819 74.332733 102.07713
-3.6951418 99.8731 102.22252
-8.0347576 123.87804 102.28569
12.13982 82.09549 102.41626
-0.62746513 91.258179 102.45444
-2.9157269 101.79531 102.45821
-4.5762224 115.71968 102.55486
10.44557 101.9166 102.60904
2.0269153 113.97995 102.6666
3.7457681 74.511185 102.72513
-4.0874772 98.740997 102.72375
-4.701242 116.03109 102.76958
5.3690567 72.233139 102.97404
-4.1998267 79.766335 102.93536
-1.3587214 82.652145 102.91879
7.1217375 108.69451 102.91566
0.94888091 112.86391 102.99857
10.1717 73.180634 103.13213
-1.0372951 96.002403 103.27971
4.1905107 115.41335 103.48127
-4.1586137 84.413963 103.53652
12.445713 95.432327 103.67166
-7.8165398 129.56241 103.68939
-4.1440525 95.2696 103.74892
-8.7547598 123.29353 103.84561
1.3366637 112.68158 103.93488
14.843261 84.031944 104.04407
-3.1976469 89.168983 104.03121
9.2497387 100.78825 104.06308
-5.0594931 116.53777 104.01127
14.655344 83.655853 104.14057
-1.4245068 87.864471 104.28363
-8.7547598 124.8256 104.22206
4.1388655 72.896736 104.4241
-2.4552915 79.104767 104.40536
12.252609 80.608444 104.43394
-2.7392535 101.71994 104.43473
5.9273705 71.074677 104.61783
-2.1942954 121.35941 104.62622
5.4400625 103.14335 104.7209
-1.7636163 112.37614 104.87631
2.9908738 72.50238 104.94286
9.1692877 101.88885 105.09599
-3.3317742 75.869873 105.10133
12.46742 92.227554 105.14131
-4.5163841 84.593231 105.28156
11.650838 97.22776 105.26147
1.9974076 74.196846 105.39489
-2.8312707 88.96991 105.30518
12.311707 96.238258 105.60118
4.6463475 114.22299 105.68602
10.995272 74.711586 105.83791
-7.8165398 122.16347 105.93582
-4.5506077 113.8428 106.04774
1.1655354 111.29182 106.18054
16.739223 87.787819 106.23848
-3.9719982 97.001999 106.25857
8.0063982 70.40918 106.362
12.516605 83.204109 106.44523
-2.2668231 77.369812 106.53093
-3.9527829 92.631653 106.53886
-3.6195083 86.392212 106.62289
3.2342687 103.12196 106.98682
1.464608 120.15707 106.98926
12.507925 79.25959 107.19905
12.337661 96.271416 107.11978
13.397036 94.368179 107.66055
-3.0803967 120.03619 107.61553
13.562404 94.078667 107.78616
-5.2632217 94.928894 107.72234
10.745458 102.2558 107.8802
4.5026379 117.86699 107.84128
15.880063 89.73172 107.97462
-8.6690063 122.24387 107.9651
10.921432 74.054466 108.07921
14.837595 83.619339 108.00322
11.266796 98.471008 108.07072
2.3178275 72.958115 108.27534
12.585957 90.762077 108.28372
6.3018465 102.94299 108.29491
-5.4462066 92.619019 108.32036
-3.8245931 96.997063 108.40868
-2.2022934 101.99106 108.5639
12.600483 82.262299 108.66881
12.60143 96.72438 108.6939
12.60378 85.745102 108.75618
14.839951 91.837341 108.73088
-0.84040397 73.049698 108.94513
14.891127 91.772659 108.90517
6.2773466 102.84734 108.99401
-8.7547598 127.08626 109.06316
1.2626189 109.73908 109.14046
-4.8589268 113.30237 109.12976
12.623909 94.918007 109.28979
4.2573152 119.13189 109.26093
3.0920339 70.891464 109.45448
9.6285343 73.206375 109.57091
-3.7304854 90.978828 109.55733
-3.3415616 85.585625 109.68932
3.1639781 87.834808 109.71138
-3.0909877 96.227699 109.77435
10.083193 74.337135 109.8298
-2.6437485 83.444054 109.92612
10.888062 98.25499 109.90985
-7.8165398 117.48727 109.99836
11.26351 93.931442 110.01701
-6.0060487 81.299057 110.14999
1.0810266 88.424141 110.19341
4.8366776 100.39203 110.16258
7.5551529 75.731461 110.2189
10.158691 94.165787 110.39191
9.6469517 80.306458 110.4319
12.768744 96.061287 110.4052
-0.83532482 85.528549 110.53981
9.5698185 85.536552 110.59174
8.1383514 88.793083 110.69473
3.0569839 88.853348 110.77663
7.7401562 69.658844 110.81594
5.5847063 78.305214 110.807
7.628377 80.583099 110.807
3.9794543 83.318222 110.80701
1.8379229 83.815781 110.80699
0.47783291 90.024948 110.80699
0.67396182 90.488914 110.80701
2.4144864 93.396606 110.807
1.8671708 94.261086 110.80701
0.59554917 94.775833 110.80701
11.457886 76.989861 111.0793
3.8942885 119.03933 111.08871
-6.3238912 91.392921 111.18875
-7.8165398 118.9276 111.14214
6.0287704 113.84104 111.21655
-4.9662037 98.26255 111.39864
-2.4949098 100.60292 111.42426
-1.1869005 101.68788 111.61343
-6.4886913 82.502228 111.72734
-6.5493965 83.418358 111.92574
-5.6207256 113.69691 112.32445
6.2558441 105.14841 112.48582
-7.8165398 115.71626 112.49614
12.245752 78.461121 112.76949
-2.606504 119.82414 112.80686
14.542242 82.360909 113.15531
17.287062 86.694397 113.15485
-7.8165398 115.55504 113.20171
-6.886034 76.698669 113.36674
15.415049 83.702293 113.39308
-0.5367139 108.51781 113.48181
4.0845704 109.57465 113.4293
-7.2011886 84.475204 114.05629
2.8648181 108.39278 114.05952
-7.8165398 120.3383 114.08958
1.0382013 114.44704 114.33833
4.0849795 113.51343 114.4355
-1.9207349 114.65826 114.70326
-7.8723302 122.79149 114.75607
5.7450051 110.56668 115.0192
-6.4676571 115.52295 115.09462
15.609121 91.578575 115.22365
2.0078375 119.55733 115.2177
8.0621147 70.053535 115.60651
-1.6702563 119.53675 115.62067
-2.7970531 100.88747 115.77528
6.6105342 111.14427 115.77301
14.56326 81.939117 116.11452
-6.2812862 115.55778 116.18813
11.289864 99.374672 116.22086
5.740211 116.06602 116.57345
5.8865061 116.69906 116.56242
9.485528 102.40964 116.9108
1.9355917 120.42975 116.97147
-0.54576486 120.69497 116.95561
10.238543 74.280785 117.04036
3.8779507 109.2247 117.07758
-0.45477888 120.80293 117.2795
8.7682247 113.88248 117.34301
3.2317894 106.74736 117.50375
5.0208488 108.25672 117.50909
13.493252 80.016052 117.63519
5.7424231 108.39566 117.63097
8.4969788 104.09317 117.77747
13.051882 79.287338 117.84276
14.340368 81.326904 117.80763
3.8488085 103.96159 117.89327
-4.3046269 116.95723 117.84309
-7.7582054 96.649597 118.04181
-6.3844867 115.19788 118.05548
17.016346 85.469818 118.3393
-8.7547598 117.8049 118.4312
5.0888538 107.42615 118.57927
7.1658072 117.13385 118.56245
-7.8011246 97.498367 118.70366
5.4533587 119.05251 118.71083
-7.8119431 87.612747 118.87038
-5.3581405 109.53009 119.02879
1.6831262 118.09726 119.07805
-7.8355284 80.322998 119.23418
0.23027182 102.25766 119.27505
0.65848923 118.29313 119.49039
11.042513 75.742714 119.54739
-7.8653851 77.685684 119.6946
17.25201 89.287857 119.6511
-4.4359837 100.11244 119.73309
8.3722429 104.38307 119.7105
7.3926134 117.9442 119.74559
16.314342 84.111465 119.96587
4.5022802 115.30173 119.97977
5.9839811 119.59225 119.94651
9.8936691 73.446236 120.08269
-2.857147 106.37523 120.59946
2.3274429 117.51025 120.5502
1.3144143 117.7747 120.6936
-3.3493474 112.05522 120.80462
4.4115548 109.40635 121.07732
-2.7207546 73.725174 121.12272
9.3721008 113.79398 121.26495
-2.7812686 115.11102 121.26109
-7.9727092 79.976784 121.3496
18.391611 87.184052 121.31134
8.9767761 114.60338 121.32279
14.245613 94.691643 121.8808
3.4252849 107.64406 121.90725
-1.4452527 114.51086 122.04588
16.628872 90.732597 122.13452
-8.0436583 82.967247 122.44369
-8.1326809 107.4482 122.76063
2.5431368 115.44772 122.73888
1.0074685 110.62252 122.82227
4.8845038 120.18405 122.89845
-2.1426001 106.43737 122.95151
0.34784269 111.30505 122.92072
-2.6405969 108.36172 123.09035
-4.0275879 118.80794 123.24757
1.9972792 106.75574 123.7449
-8.7547598 113.29174 123.7932
-0.49100614 72.709663 123.80482
8.0209665 69.548798 124.01246
-5.7675209 74.928307 124.1908
5.2660656 70.057571 124.58749
-8.1780376 80.803246 124.51591
-4.2065134 74.257462 124.60544
5.0685558 104.44988 124.66539
5.7261209 104.75714 124.61485
-8.7547598 104.81989 124.67893
14.090872 95.07338 124.79964
-4.1411109 118.18333 124.77113
3.4811008 119.52383 124.73869
10.367786 73.978111 124.81337
17.444139 85.149109 124.81793
6.435339 105.63583 124.83085
-1.1439164 108.17001 125.03735
8.9237614 108.44535 125.0354
-3.7821519 74.064026 125.12187
10.663578 100.79861 125.18251
3.1399665 105.20546 125.11591
13.142843 78.29213 125.24954
-4.2002759 100.36357 125.26437
2.5552728 105.44861 125.3922
-7.8165398 109.72021 125.37407
-0.86766934 72.82309 125.47314
-8.2390566 91.090599 125.45686
12.190784 76.740265 125.56705
-8.2502251 83.072891 125.62907
9.271656 103.14513 125.8382
10.596533 100.94598 126.02284
-2.2426364 101.21322 126.08749
-8.6817951 110.78172 126.15231
-5.9651375 99.647858 126.35663
9.4198914 102.91837 126.31309
-7.8165398 109.43579 126.47562
1.4497895 102.78899 126.66292
8.3730268 70.105316 126.771
0.64381933 105.84286 127.00749
-8.2251549 107.03693 127.11422
0.80450523 118.70289 127.15733
13.771442 95.708084 127.21565
12.814706 97.313797 127.4998
10.605987 100.99068 127.44579
-8.6786337 109.33451 127.42665
-4.9250202 114.53706 127.42418
-1.4767251 73.016312 127.81266
-8.2938557 97.942421 127.89435
0.39283562 105.52422 127.87801
-4.951798 115.3131 128.29362
-0.30690765 118.30982 128.29155
8.4932432 104.54927 128.36786
12.266965 76.404236 128.53481
6.2352304 103.21941 128.55641
-5.0283728 114.45929 128.77658
6.6279058 116.87955 128.84184
8.0947723 113.65402 129.25613
-8.4911957 90.497192 129.345
12.297767 98.144547 129.38991
9.6567945 72.149773 129.40434
11.908695 98.90461 129.42215
-2.0381365 101.39346 129.51257
10.691042 107.82452 129.64992
-8.7547598 106.44293 129.78705
1.8225256 103.38247 129.95258
0.99957806 117.58467 129.91415
-8.5494022 78.531921 130.24258
-8.548543 89.973267 130.22934
-7.7619448 98.995537 130.25763
1.4798098 117.42444 130.24586
-5.1163692 115.09602 130.38635
-7.8165398 97.349983 130.4541
7.0698805 69.287445 130.5645
14.727747 82.02478 130.5027
-1.2808828 72.855118 130.67601
12.669419 96.707947 130.78278
-8.7547598 98.731133 130.73366
12.354919 77.255394 130.81454
1.6731679 102.80434 131.16116
-8.6158295 85.190163 131.26695
8.2435846 69.618561 131.35637
2.2737985 102.29416 131.34023
-4.4970045 100.40797 131.46631
10.912626 99.971519 131.57306
15.355169 83.882423 131.66739
13.632044 94.321075 131.60132
2.9467788 116.68205 131.88919
0.52265573 72.059494 131.90504
-8.7547598 102.85695 131.97072
11.735317 76.541367 132.00687
-4.9997625 100.21246 132.08133
3.2651231 116.55602 132.1586
-8.3934374 93.799759 132.2778
-8.6842632 90.544647 132.32224
-1.1329522 72.745361 132.40094
11.654147 76.599762 132.4807
-8.6937304 95.413017 132.46809
-7.8165398 96.780365 132.49759
-8.6981468 79.88208 132.53633
15.598142 89.770531 132.59479
9.4973326 102.42245 132.58224
-8.7086325 83.998222 132.69803
15.358053 84.358994 132.65125
-5.6196108 108.14592 132.68736
2.345361 103.33472 132.77908
14.546383 91.84333 132.81914
8.3547955 104.57674 133.02988
-8.3798294 104.82793 133.36725
7.0616746 68.742348 133.4921
9.0216179 71.595757 133.42725
0.60243571 102.61687 133.45862
12.645494 95.428879 133.56059
-2.3577394 104.16891 133.61989
-8.7839422 95.863579 133.85902
10.46375 105.07623 133.88779
7.2607365 106.62215 133.85011
-8.7871714 77.264091 133.90909
-8.7914867 97.671455 133.97531
2.8032837 100.39773 134.06952
6.8853369 67.549232 134.17114
-8.8110161 86.287773 134.27687
5.085114 104.53245 134.24213
4.3497086 99.206184 134.31367
4.1114283 70.473892 134.43878
7.859004 104.91924 134.46533
6.3637438 99.836456 134.59399
-8.841033 77.09549 134.73965
-0.23445666 115.63564 134.93958
-8.8686419 84.5896 135.16548
6.9734964 113.87941 135.28583
3.6953421 115.30104 135.22362
-7.4708838 75.341797 135.36526
-6.5811958 74.964958 135.40053
-8.8855152 91.377518 135.42567
4.9148865 68.616623 135.59285
-2.9617591 73.428436 135.66983
11.492197 96.767624 135.75958
10.167711 99.389503 136.01804
3.5782962 69.332329 136.15454
-8.7547598 93.808029 136.38095
6.842701 113.77409 136.36201
2.0472755 114.91956 136.40361
-2.1272774 101.55014 136.61926
-0.52884364 102.2252 136.6095
10.471603 98.388908 136.79294
-7.8360047 75.454803 136.87085
4.912961 108.91536 136.84955
11.925537 79.302475 136.955
-5.4244447 74.427116 137.19397
0.76624936 114.6954 137.14056
4.0807199 61.630035 137.28691
7.2423592 99.806229 137.2693
-3.3016438 113.78897 137.25378
-8.1095123 99.045151 137.42758
6.9125733 68.941841 137.51057
2.9677725 71.001678 137.53586
10.784826 97.359238 137.58864
-5.9933338 107.74723 137.59665
-9.0320835 96.571945 137.68561
3.0884645 107.35167 137.91969
4.633069 60.641003 138.05956
10.032096 63.429985 138.03229
15.289457 87.795364 138.06197
-7.8165398 98.632782 138.07083
5.6713185 114.00789 138.16788
2.581547 107.05927 138.27782
-9.073699 79.854218 138.32761
-9.0724802 87.966415 138.30881
9.2182322 100.22342 138.38919
2.0424356 70.838989 138.41669
12.307643 66.7658 138.52036
10.19028 98.137573 138.53757
6.5556297 71.784233 138.66449
-8.7547598 95.587067 138.60664
1.0843841 99.656448 138.60797
6.1947699 106.77195 138.68349
1.4411566 70.040756 138.78702
2.6702933 72.704971 138.72803
-5.1425204 112.42992 138.85274
-0.075737387 65.66687 138.93341
1.2888526 68.291817 139.18893
-4.8600397 103.37752 139.22247
-5.6815515 107.77141 139.24553
10.575788 96.953644 139.34258
0.26295125 104.28979 139.30263
0.16423452 70.21434 139.43805
2.3505731 73.604378 139.46609
9.5021858 70.780861 139.72314
11.718912 80.380295 140.10376
-7.5935183 99.337555 140.14438
11.485717 69.906639 140.47443
7.5599012 100.41447 140.43777
-8.2072964 86.798943 140.58026
13.679158 89.949097 140.5376
12.246738 92.888962 140.59897
10.513379 104.57564 140.59106
13.447604 68.334152 140.64044
10.542835 70.979912 140.65353
-5.7464848 111.06336 140.60146
-9.2302952 97.777824 140.74226
15.499287 66.733749 140.84996
6.6575365 104.58315 140.95142
5.5224447 107.24602 140.95168
-8.7547598 87.903259 141.0589
-8.7547598 93.136505 141.11812
16.94845 61.579144 141.28442
1.0507246 64.05442 141.29028
7.393507 71.873772 141.21848
-4.8911228 100.51261 141.36276
8.7120094 99.774742 141.52112
13.222672 84.259819 141.69777
4.9253311 100.21836 141.67282
9.651701 102.32207 141.67429
-2.5035152 103.65925 141.66985
-7.8378506 86.486542 141.79921
5.6672049 100.2092 141.74182
17.843071 61.049004 141.84273
6.8988848 59.989632 141.92491
4.5810184 60.483402 142.00853
10.312711 96.220711 142.01511
0.49424469 110.83419 142.10863
7.1954575 71.897141 142.22177
6.5720205 76.386108 142.25073
-3.8170166 105.50842 142.2366
20.558535 63.969086 142.33014
-4.0077453 110.00156 142.36986
-4.881423 74.054962 142.40347
-1.5010132 66.80854 142.54713
20.3405 60.891731 142.77522
9.6534224 59.358688 142.85847
-3.6121752 70.550926 142.89426
-1.1836946 111.74205 142.96545
7.3435316 72.709671 143.17799
7.6261406 109.42533 143.22379
14.850054 70.356926 143.32477
20.07761 59.076134 143.54428
-5.4183574 72.922012 143.60112
8.6361752 76.502441 143.74878
-2.7381706 107.59028 143.85068
19.269114 67.292778 144.08824
-1.9092278 65.300133 144.18427
-9.4623756 79.59819 144.3212
-1.6242726 73.131241 144.54837
12.421614 58.68985 144.61031
-7.8165398 89.829674 144.74974
20.923063 66.747032 144.86406
3.3687003 109.36047 144.94542
24.831301 59.36964 145.03857
-9.51472 85.154312 145.12843
4.8832555 105.85797 145.15759
1.7404156 76.086937 145.46573
7.4739652 100.46916 145.47159
8.1639194 76.297119 145.56969
3.3437183 108.42117 145.67194
4.7094245 68.165298 145.71121
5.0455856 107.838 145.74236
12.704833 85.174713 145.85464
5.8979335 70.674408 145.96645
9.3522291 78.252853 145.91245
12.494362 84.780968 145.94356
-8.4761791 100.53292 146.14778
21.83354 67.570694 146.20746
7.2162676 100.608 146.42868
2.5996506 62.537708 146.54369
27.683498 62.713631 146.56535
-8.3108635 90.571327 146.64493
4.8509898 61.77816 146.82819
-0.54124653 66.652618 146.87714
17.823637 72.208214 147.02853
19.21125 57.118469 147.29036
1.2141149 66.752289 147.36273
18.202847 72.310921 147.39212
15.077665 58.073174 147.46153
4.8377156 62.014069 147.42514
-8.7547598 80.418633 147.41302
5.2026353 75.802109 147.50009
0.7241534 63.685001 147.63763
17.178482 73.419632 147.75609
26.914469 65.172928 148.00256
-8.5039434 76.339149 148.0992
-8.2477951 82.172081 148.0365
18.540522 72.907982 148.22778
-8.5612812 76.636497 148.20491
-7.8165398 81.085129 148.26683
13.810041 58.92466 148.39763
21.025326 56.680168 148.43835
3.6382737 68.336922 148.76669
12.789745 59.492027 148.8459
1.7784857 63.795353 148.97636
6.1360264 74.810997 149.00121
9.597518 94.359756 149.00468
11.765672 88.026711 149.24104
9.6595678 73.980209 149.31525
28.715715 62.201511 149.40829
28.940931 60.62764 149.57298
9.1861086 94.952797 149.54778
8.541419 96.164749 149.80807
16.512913 58.4743 149.93298
25.884506 66.119644 149.91411
5.2908154 102.50693 149.9296
3.7530262 63.801525 150.0219
21.753498 71.305977 150.06709
4.0113716 65.850182 150.27431
2.6528025 71.081673 150.21094
17.674639 71.978416 150.23553
5.0169649 72.099442 150.25482
10.67882 85.094299 150.32135
6.2686415 100.46739 150.35031
10.775855 89.063225 150.42014
25.624939 69.547394 150.61685
24.028557 69.649864 150.63861
28.701912 61.999992 150.75494
4.1337438 72.316246 150.79985
18.399889 71.486755 150.88985
7.4758658 73.493004 150.96341
28.524183 63.021244 151.09305
26.833376 66.095634 151.05849
-2.0343404 69.440697 151.04233
1.6757519 104.15155 151.19278
21.620722 68.344299 151.29857
21.754282 63.101768 151.3472
21.189617 65.877609 151.39517
9.4442787 83.152061 151.38359
-5.9566984 75.826553 151.43076
19.926762 57.795055 151.58647
-0.89188069 69.674911 151.62827
7.9079142 95.598305 151.61801
10.484735 87.84211 151.72455
-3.4068351 103.33289 151.87006
-2.5812411 70.263824 152.12941
1.8570802 73.727936 152.64272
-7.9872165 74.838135 152.99812
-8.7547598 82.364586 152.91357
6.9210954 95.593048 152.92419
25.432858 58.450005 153.06039
26.976881 65.684914 153.09854
5.9517593 96.07003 153.11124
12.800434 67.664497 153.5004
-3.8600044 100.09367 153.57384
23.599478 58.465157 153.81613
-5.2605963 96.570671 153.82268
14.277148 66.371231 153.91623
17.112366 70.05619 153.96404
-8.7547598 82.091858 154.00316
14.94534 66.842476 154.18784
-0.83820891 100.80534 154.19597
16.803486 65.972618 154.26288
4.9537382 95.136475 154.24297
4.8470297 95.219574 154.24335
17.655266 69.74334 154.35231
-8.6678581 82.67308 154.33069
-5.3133755 95.037994 154.32095
-8.7547598 74.971222 154.43549
-5.2190862 90.429466 154.49789
17.618391 68.186333 154.74046
-3.1567252 75.067383 154.76714
-5.1020379 82.129585 154.71799
26.490301 56.974335 154.82249
25.39924 63.950893 154.92929
-1.4163687 81.57328 155.414
5.4986129 86.496445 155.414
3.6118491 94.13797 155.59535
20.318314 65.745621 155.98582
-4.4044204 81.731247 156.02855
22.299925 63.211582 156.15135
21.960983 58.937313 156.60405
-3.1370459 80.790787 156.6788
17.082077 70.50782 157.16049
2.9070196 82.342506 157.19989
27.383406 62.401958 157.68976
-2.9444256 87.141632 157.73743
25.12405 71.922676 157.90158
22.256191 58.32114 158.19646
12.0887 82.660179 158.76608
1.6849852 87.964142 158.71754
-1.558621 85.239113 158.97163
-1.0983498 86.962715 158.93552
7.979919 89.636414 158.94183
24.843201 59.475494 159.28653
27.155155 64.074471 159.63919
-8.3243046 70.537773 159.6707
-2.6075003 85.448402 159.74684
-1.1698589 88.282471 159.9572
-0.3588922 81.392998 160.10577
19.890043 59.785381 160.20264
18.709099 61.477821 160.30914
11.128833 89.608894 160.37614
19.067915 61.003109 160.43976
26.707645 62.574455 160.76067
12.611859 82.075417 160.81741
3.9389071 88.96563 161.01773
20.885477 58.795204 161.17943
3.7502534 88.940277 161.12883
-8.2914352 75.198784 161.39629
11.817732 81.098625 161.67587
4.0626078 81.927773 161.61526
5.1481552 90.413795 161.66408
6.3815808 81.098846 161.83336
