# .PCD v0.7 - Point Cloud Data file format
VERSION 0.7
FIELDS x y z
SIZE 4 4 4
TYPE F F F
COUNT 1 1 1
WIDTH 1621
HEIGHT 1
VIEWPOINT 0 0 0 1 0 0 0
POINTS 1621
DATA ascii
155.27742 118.24412 14.648527
90.227921 41.504295 28.367733
216.30087 40.8815 34.762161
132.70993 73.98587 13.18919
204.98401 62.8815 33.85704
87.136078 77.03196 16.440939
177.74474 87.662453 33.516674
88.482811 123.665 22.289021
96.313675 110.39622 80.704376
31.389078 67.071487 33.526184
143.50769 75.591408 13.887433
25.434271 95.777847 65.729469
71.872787 69.266647 73.910782
225.9874 123.66499 49.128342
-0.58642149 42.813713 73.34906
174.43089 41.504299 18.443619
93.313034 87.103775 18.245287
195.97563 52.683823 65.274277
110.38573 118.715 74.984116
34.149307 99.581284 39.96146
199.46436 103.217 48.172436
173.48407 82.375893 15.825868
136.49872 44.739601 73.927986
216.68307 50.753578 65.092499
151.83826 98.607758 14.426132
83.274742 62.121323 36.510498
125.66118 73.774918 12.73338
136.16226 123.665 55.270576
106.81048 123.66501 52.309673
227.19443 102.15459 60.81105
93.941635 98.991463 15.090054
189.01596 87.6763 64.824219
87.58345 57.854652 78.769341
0.34078863 41.646301 77.798752
45.501381 63.615501 42.158569
97.156639 87.284584 11.169367
171.95837 123.66501 23.508862
233.69945 111.19922 56.60891
178.19193 88.653854 64.124336
100.88897 41.504299 32.291824
122.43119 111.46904 84.97245
101.06031 92.762993 81.480087
228.20885 98.671768 35.322136
72.748428 98.390564 72.349892
85.315262 94.063683 76.857079
2.998491 85.762329 71.17717
-1.1700232 103.48046 77.754333
91.197342 66.02916 9.963913
15.105161 88.94442 28.428959
99.856964 100.06287 15.257828
77.283478 121.46336 45.883549
179.99112 66.741966 45.441887
7.0248604 83.79628 33.583878
144.19379 118.715 69.517784
6.2627625 67.096664 62.254314
226.26038 41.185764 36.420589
87.983704 96.496635 78.893127
198.34497 40.8815 12.853971
146.87396 103.00049 61.728729
25.713264 71.8582 23.255165
139.41426 93.327553 60.588131
75.220352 63.534283 74.94603
165.00061 89.731125 63.271301
48.096973 100.27979 67.296059
102.00835 67.951149 81.634956
138.43387 41.504299 31.703423
112.57382 105.45952 11.88708
47.709541 44.115501 23.434116
177.57138 77.526413 25.223972
1.4380966 62.827549 75.442451
6.8386679 109.52727 33.921982
166.27266 94.269142 15.359539
241.44194 67.360039 51.034698
136.28026 123.66499 19.516117
100.23503 101.10827 81.345215
177.51756 77.072342 22.651953
110.48922 41.504303 21.848873
100.60677 118.715 73.020233
87.030617 48.827858 16.283426
5.0961976 103.86111 55.128403
88.53643 70.465202 79.064056
17.448032 114.68494 64.496361
8.5840387 48.62492 31.609438
134.49809 41.504299 37.364784
39.300018 41.615501 34.998711
227.93518 67.26432 39.553562
186.19308 57.783726 64.641739
50.300896 99.365509 47.122395
50.183727 99.979645 4.7772737
43.140808 67.236183 49.412872
69.322571 51.009087 73.122124
95.812195 123.665 29.829113
230.38165 118.60963 58.752205
33.364735 100.90502 38.49707
175.18341 57.283329 15.935757
237.36397 72.903557 54.241859
67.529694 41.615501 13.9638
78.561218 93.114029 44.273289
170.04395 65.768364 15.603411
28.837645 123.66499 41.052345
187.32555 122.76434 64.714912
76.165276 79.090515 73.929871
19.864285 62.514858 64.902596
105.09796 123.66499 39.147125
2.5592222 83.531425 72.377899
148.06757 41.504299 35.151997
81.399391 41.615501 25.256168
222.15114 66.469093 52.007416
144.21281 47.735703 71.172783
207.91895 114.71729 4.7841625
202.90236 65.130249 65.466179
180.16858 99.058907 64.252106
100.18613 107.77293 14.11533
235.30058 62.585968 55.574707
2.3433599 57.012115 72.967934
56.173561 63.615501 25.23954
143.94511 41.504299 28.697052
166.65198 123.665 18.956686
108.34995 76.007851 82.671341
51.393536 123.665 64.063431
62.104683 99.365509 41.00983
90.59993 62.038349 18.425312
141.16563 69.587769 13.735982
43.986595 121.366 12.345535
227.39212 96.079002 42.294598
90.341782 87.780968 16.716002
16.567863 82.883896 27.715542
131.94989 122.40309 13.140042
130.63777 99.295029 13.055193
48.212551 101.50162 67.295097
179.01082 114.82721 37.775894
235.57643 58.606632 55.396549
85.800926 96.292847 20.043161
16.756752 52.428341 64.380135
179.37381 56.772751 44.167542
1.1655979 45.531307 68.559952
227.79778 121.33215 29.49992
219.32501 40.8815 24.698429
178.80916 95.814224 64.164246
107.99935 44.739601 78.846069
204.101 123.66501 63.337769
236.74532 88.890762 21.746647
7.0151014 43.53186 33.601604
114.72072 123.665 40.383778
50.020767 63.615501 51.019012
33.804253 94.837997 39.389923
135.31891 95.210617 13.357902
187.67946 66.861221 64.737862
223.24185 103.217 29.924099
191.12305 51.900524 64.96048
126.64452 123.665 48.896889
178.85524 125.217 25.960239
19.514507 108.23027 26.278439
6.1446047 55.961174 35.182381
177.43364 59.743763 18.64171
6.3575029 91.586983 48.647392
80.502487 41.615501 25.932293
27.428402 95.16909 22.418667
105.88145 57.132195 13.89632
183.9893 50.31258 51.769524
45.466713 114.8167 50.65097
178.48103 60.479927 64.142982
176.29526 41.504299 35.867207
34.739079 60.589455 19.770784
82.723068 67.086876 37.968796
83.893555 76.08168 76.319824
184.32379 51.995453 11.459789
66.903046 63.615501 30.555037
85.005081 95.015816 30.927631
97.33905 68.585449 11.119116
185.2596 86.632645 64.581375
132.73312 44.739601 62.682854
203.07034 61.48806 65.47081
123.09332 123.66501 31.328304
64.168274 85.551376 71.528152
53.6017 41.615505 11.507919
116.26357 43.117844 58.737797
75.155869 45.753151 47.992638
44.274963 90.118248 50.016594
93.443283 49.764969 18.231752
181.26001 103.84178 48.061268
96.065086 123.68513 13.259856
119.27684 41.504299 41.43148
176.64197 106.80721 64.024109
95.286621 97.252182 80.536545
210.02263 44.601517 65.906097
87.700218 64.411835 78.80545
29.998955 41.504299 42.148342
224.54419 84.88356 48.59964
149.46149 57.07299 65.188736
74.031532 46.279724 48.320171
22.911804 41.504295 31.434563
81.15657 70.406464 40.821537
164.27945 53.142868 15.230647
60.682121 84.008446 70.45005
207.79141 43.3815 24.891163
121.43706 123.66501 53.194202
122.99091 115.4164 85.063957
123.28753 118.715 73.98909
60.815895 62.227695 53.44825
89.189064 123.665 29.54496
66.205505 93.074387 70.326485
139.1288 67.052917 13.604269
241.05099 100.12193 25.61278
50.971954 65.380112 52.751328
127.33438 123.665 31.661295
93.333084 47.08202 16.195187
182.75693 103.54926 50.262695
243.09668 123.59949 40.737381
226.90001 110.10527 36.017628
199.45119 92.454971 60.275375
67.231659 102.09463 51.943783
79.287994 86.048187 74.372261
228.68982 115.83122 27.884422
37.298344 69.206238 66.91449
71.478668 79.760857 50.232986
56.323521 44.043156 5.1196494
177.81467 94.783203 36.852276
47.90028 53.274406 51.946373
50.882542 117.39172 52.732632
113.22638 64.959724 11.929278
98.66259 61.643265 12.060202
209.55817 100.80524 59.694939
53.927853 99.365509 13.292271
128.35251 115.42055 12.907415
-0.014963225 85.445175 71.786995
194.90018 62.8815 29.540512
241.52528 81.424393 26.277981
114.82406 85.796616 83.729263
94.864037 123.665 27.869204
118.49577 55.019936 12.270026
177.4536 57.508316 24.358377
243.06981 120.02361 30.347849
223.58244 124.79984 43.290546
88.365982 114.28835 17.352007
162.85233 70.251251 63.132347
95.084579 88.549171 17.994276
198.03519 112.15636 60.015045
117.76849 123.66501 48.610577
84.299789 123.66501 41.852364
224.6622 41.504299 59.970318
100.77646 110.80218 12.697108
138.9021 65.038109 60.509872
78.685211 113.87354 76.017548
32.572258 60.680191 30.982277
141.51695 87.402 74.246292
104.3116 118.715 65.918213
177.1972 73.274879 64.060005
30.704987 61.775124 30.637228
226.67075 114.91229 21.708479
123.75415 115.72018 58.193703
192.70561 42.47908 65.062813
228.62744 113.57353 28.849403
183.04623 52.45121 50.616409
158.93478 123.66499 47.375076
201.40224 90.775024 65.625259
182.38815 121.43345 64.39563
138.66469 50.313801 77.497681
243.25247 119.06124 33.160656
37.620712 43.306206 66.934502
131.73894 104.08897 13.126402
78.321648 99.365501 17.861271
36.66959 99.365509 22.724266
99.572571 76.792183 11.446465
64.14286 61.24622 70.473633
177.57661 56.529205 25.496243
144.88815 110.84836 70.403107
19.35392 41.504299 32.822243
65.627197 64.257164 52.547703
171.99191 101.96753 63.723358
152.12628 123.66499 19.234619
87.345383 42.980316 14.623601
7.4255819 41.504303 44.685135
243.21634 96.671051 33.896397
177.99652 91.426712 38.557461
43.346127 41.615501 14.025608
189.16934 112.49835 50.407631
214.52432 41.504299 61.291626
177.44855 44.090084 19.364798
97.493675 123.665 38.61301
-1.6360281 86.897499 77.438065
5.729404 81.356567 51.874775
4.5166602 52.166321 67.027252
141.76097 41.504299 60.494423
89.839027 123.665 23.456402
188.83032 43.155834 64.812218
83.025574 48.93288 37.169178
90.774734 68.686134 79.756256
108.16553 46.555412 12.310177
124.0997 41.504299 15.451398
147.41342 43.213379 61.811241
228.71167 41.504299 29.495049
41.16766 113.97694 48.215919
182.92569 54.677959 50.469032
6.9778013 67.210175 62.311329
120.28102 123.66499 41.575737
189.2177 120.42191 50.437634
197.26749 41.504299 60.391556
94.670731 58.074921 18.066177
228.4529 89.33345 31.548328
6.6879067 89.233856 46.949669
167.92867 41.504299 54.096519
132.90273 41.504299 49.021812
80.53064 106.18401 76.588226
18.894659 83.4758 64.739578
99.194565 44.739601 69.79747
100.18507 85.542603 13.966554
197.0433 78.110664 59.832699
127.01312 41.504299 56.443909
54.926708 117.35483 68.670265
61.929672 103.38162 4.4111681
92.305031 65.647728 15.771792
217.19464 60.320518 49.335274
65.192703 99.365501 46.357178
180.76324 101.67913 47.035801
133.02907 41.504299 28.762478
54.156162 61.045918 55.032715
13.706238 99.735718 29.111244
87.412254 72.491356 16.685375
101.11459 49.518677 13.766118
2.5422254 77.473404 64.796982
221.20256 68.911499 52.901981
177.14078 123.24152 16.062332
78.525146 42.103699 65.36055
81.7351 107.7746 28.128399
107.069 78.881302 82.462021
77.842941 108.41393 42.31649
103.12382 89.650177 81.817268
148.80663 91.323318 62.02425
140.03876 55.547657 75.931213
214.81387 52.192867 57.662594
166.4704 107.51227 63.36631
141.96678 42.076897 60.978409
49.268784 116.83272 67.286346
21.790155 41.504299 52.98748
181.0533 80.09639 64.309372
75.12471 64.193344 74.916443
223.89287 48.092617 49.593239
194.63181 62.579624 65.187439
223.26697 94.631088 50.548038
141.42094 117.34697 60.894958
97.208351 122.43897 12.121009
59.4198 50.666435 5.0213218
67.912437 107.84837 72.686043
196.41768 81.986313 59.717682
104.89464 123.665 30.609932
83.903038 117.1804 34.849689
60.025146 121.366 53.058506
18.455612 121.33727 26.794846
114.63998 85.348381 83.699257
94.583656 41.504303 33.453953
184.75893 41.504299 58.092255
56.266037 78.424614 53.79908
227.15793 115.24977 35.164673
230.67561 123.66501 39.517708
-0.11644154 67.24881 72.064369
143.75439 123.66501 17.066853
189.98227 51.457764 7.2508111
37.460331 117.40309 12.65995
211.32959 89.452484 59.171783
153.4095 104.25929 14.527738
16.531734 123.66501 52.510971
243.38164 47.888695 44.334549
7.3006353 43.632206 33.083088
232.68793 63.980145 57.262337
225.60962 60.845779 46.974365
211.29077 62.8815 36.780273
76.166588 47.323406 46.9156
31.650574 104.43624 27.856548
148.30345 98.952362 66.509575
22.671616 96.149109 65.347404
97.997742 57.4412 17.186028
193.16702 125.217 47.077618
208.18771 62.881504 24.716473
236.2663 123.66499 50.587997
81.147079 43.390354 65.053276
191.14662 122.71701 26.453224
129.73199 77.176834 12.996621
69.92482 118.715 68.861198
176.90633 57.735802 64.041199
36.491516 107.84943 44.0611
149.31129 121.33455 14.262726
109.94998 49.897007 82.932846
87.825607 118.715 71.200325
102.11285 93.967728 81.652061
175.96527 79.241669 63.980301
228.9366 43.314945 24.068428
29.756573 44.703491 66.244736
102.70594 89.653778 81.748985
58.472618 107.98167 69.766762
30.531134 120.35889 22.879278
166.42342 123.66501 51.065689
92.153259 97.154343 18.365799
228.23662 80.282845 34.892662
205.05064 84.833527 65.584579
4.0453887 49.324234 60.527836
93.794487 117.72554 12.191139
63.574913 107.47383 4.9084921
92.324402 123.665 40.609612
111.43697 118.715 75.699966
36.085518 99.914413 43.575397
99.888367 87.219177 16.593472
88.161133 85.244209 10.356618
167.58461 67.293716 63.4384
135.97409 122.21156 60.062134
88.428726 77.754272 11.444039
231.47952 52.986595 58.042908
77.076576 105.03758 43.551609
76.637207 41.504299 47.146973
234.43102 71.44136 56.136459
136.29739 121.51198 60.111561
33.59726 76.398788 66.620972
32.069607 70.005859 36.328789
211.27042 40.8815 11.71677
89.238426 41.504299 23.823996
170.93002 41.504299 29.811398
173.48938 111.79615 15.826212
204.08261 62.8815 21.743769
90.028183 123.66499 56.04229
88.193405 123.66501 34.999218
9.9187937 67.62925 30.958458
164.37782 103.12431 63.231026
27.128977 61.435108 22.564703
37.954979 41.504299 49.652988
42.197479 45.151066 50.010414
52.783745 99.365501 41.229061
192.57306 109.63287 65.054245
213.52377 106.16835 58.403992
6.4099836 46.274139 34.700462
232.48892 121.71207 57.390976
91.764587 41.504299 20.469826
243.27357 41.995174 46.588905
178.51346 92.568886 40.908024
90.155121 56.655071 18.440916
85.843155 109.42488 19.390074
177.56461 51.185406 24.923147
115.25972 123.665 28.631531
48.686069 99.365501 39.163361
115.24269 44.739601 80.972633
93.643234 78.348114 15.696508
10.003035 95.158607 30.917374
155.51047 123.665 26.248859
177.56091 104.10173 24.723232
110.4224 123.66499 33.778542
203.46088 62.8815 53.121368
100.20694 76.34288 11.929276
182.43054 65.664375 49.863625
100.05757 123.665 55.165276
96.493683 123.665 43.052528
183.51559 51.477901 46.54837
77.456802 68.496597 45.74213
149.50055 68.713364 65.144249
123.71007 118.71499 79.030319
94.286652 120.34785 18.132908
174.19116 123.665 49.26284
6.6431451 52.008595 47.179668
33.2327 58.49202 24.351471
82.420036 41.504299 39.922752
131.31926 41.504303 55.752853
69.593842 92.97197 73.206009
209.0864 111.07642 59.834259
184.70644 42.781395 52.646351
165.04973 80.711578 63.274475
197.79593 109.86023 65.392052
134.02896 123.66501 42.09465
109.28162 87.113037 11.674189
200.66428 103.217 15.159848
80.203194 61.745937 75.440323
30.402737 79.899796 25.417784
157.87527 123.665 56.030853
32.618969 41.504299 59.013638
92.158081 48.584831 15.939672
93.923378 110.00307 15.127158
165.00482 109.6044 63.271572
36.515965 47.716892 16.454241
3.193542 97.650902 63.016617
100.35944 41.504299 58.170929
100.55223 44.739601 76.687294
73.305428 119.53725 66.347992
181.89363 90.663239 64.363708
166.39969 99.078705 63.361732
157.32915 123.665 25.95472
200.04906 61.271072 65.387604
27.166981 41.504299 30.351856
164.61047 42.532806 15.252054
67.286537 119.12514 66.791817
96.779465 42.564938 17.655006
133.06888 83.115273 83.87693
135.16251 123.665 24.589657
40.000763 41.504299 65.275253
166.55801 41.504299 20.221949
213.63664 52.875805 65.943916
168.64642 41.504295 34.336788
63.795311 63.615501 44.718002
22.384775 123.66499 57.473873
30.403255 112.8181 25.407509
159.67026 83.049393 14.932592
108.97548 48.261066 11.692856
42.744934 96.431282 49.202148
242.12096 123.665 39.413769
242.98759 59.326393 39.360363
2.7586925 94.995369 71.832657
204.78517 51.709354 65.567413
206.888 112.90692 65.7034
219.66977 77.411087 54.347488
177.83211 51.934124 37.684685
120.05965 123.665 32.331219
86.447014 91.22374 18.221352
232.9962 80.562965 57.063301
241.55754 75.55835 50.87006
62.421509 117.0037 53.333942
141.07324 41.504299 53.65387
196.79791 67.837189 65.29808
3.5150971 97.895744 62.137653
89.262909 107.3457 17.676378
69.254478 91.923035 73.101059
214.66809 58.530472 57.746365
166.46834 41.504303 59.501175
101.08063 99.082977 16.308601
23.009777 123.665 61.207661
205.19727 62.8815 16.634794
4.9315333 76.328194 55.974522
52.471283 121.366 10.698844
127.83939 84.805298 12.874234
48.741257 123.66501 65.01384
219.89931 91.513397 63.802513
24.034422 123.665 48.209835
145.92159 101.88123 61.583107
147.89673 44.891205 14.171251
19.262617 41.504299 56.692661
110.9062 77.368401 83.089043
78.753326 48.705742 44.017788
89.933113 100.62888 79.495987
227.97426 117.75253 38.949509
181.21857 91.402313 64.320007
191.89009 40.8815 8.2536278
59.580719 104.16997 53.543495
242.21339 119.90453 27.672941
142.95999 41.504299 52.705074
50.24855 46.126572 52.600082
140.52884 89.65377 75.372658
220.65961 40.8815 32.044701
99.164955 84.03373 16.991337
100.19778 44.739601 66.962555
91.598755 52.834286 16.345428
28.862026 110.06524 21.719471
101.01261 41.504299 44.220631
146.05859 118.11584 69.068832
243.23067 59.739979 33.604904
25.816811 83.735916 65.782372
170.45851 60.201977 63.624245
100.07819 110.47363 81.319572
213.78307 125.217 45.68185
203.36769 59.4646 65.752365
213.05055 71.982498 58.663528
199.81305 103.217 14.540518
131.64243 41.504299 28.648026
5.0841794 89.399406 65.475998
11.912765 55.841915 63.425179
99.407959 112.9874 15.780024
224.93768 63.206127 47.999393
206.9249 40.8815 46.625153
167.05679 71.760239 63.404232
59.341225 123.665 64.117233
85.384529 96.685745 26.110535
66.531403 66.893982 72.258957
228.82367 99.967033 59.758625
210.43904 111.2198 65.933029
67.077187 107.18744 52.00193
131.56604 54.39846 85.110199
207.04138 41.504299 61.394695
59.901978 41.615501 5.928103
184.43365 66.525475 52.312824
69.257355 51.758102 72.870125
69.963539 76.019768 72.011993
77.31015 41.615501 44.196587
64.606094 99.365501 32.929775
74.56411 82.032333 47.921116
33.529819 116.35622 38.805199
77.518539 98.579597 45.660027
84.138435 59.898598 34.227421
2.8059609 77.857079 71.703445
193.35001 122.71701 31.222507
96.497208 71.35379 15.595313
217.14545 107.78918 50.066219
85.873352 66.116402 18.923197
177.79346 48.279457 35.840836
138.29317 70.209259 77.921478
7.4127769 116.85248 32.879436
83.721252 112.01455 35.330219
141.7253 118.715 64.80014
102.34444 113.99672 81.689957
125.24702 77.800964 58.421959
131.12958 41.504299 51.726616
190.35629 40.8815 50.852654
127.93401 41.504295 28.883713
4.8478198 117.7259 66.12204
85.484848 97.985741 76.308693
90.214333 46.949562 18.438837
78.724472 55.782257 44.056152
29.808952 111.83862 66.250435
17.238293 81.352936 27.388559
90.080582 123.66499 28.572208
107.49234 82.464653 82.531174
140.13194 105.68871 60.697865
92.963074 119.23203 13.014706
225.02606 44.042168 19.567295
108.80519 88.959213 82.745735
115.34745 44.739601 70.719017
43.062187 76.540634 49.371025
54.442505 107.61489 68.520477
222.21179 47.041088 62.875004
179.79449 53.941299 17.741762
48.638981 63.615501 16.483309
234.4783 118.43898 20.810656
30.110645 123.66499 46.155037
127.44637 92.704956 58.758244
78.758621 108.00235 17.205685
226.40274 61.948395 45.041695
154.76996 103.49156 14.615711
211.89185 103.87576 66.021606
244.66832 94.366302 41.168026
216.45869 40.8815 39.570847
-1.8490027 107.98529 77.202614
5.8942213 100.12247 51.027893
113.33706 41.504299 42.417862
100.11246 106.43222 13.556117
87.349396 59.763885 14.635392
203.28693 120.84149 4.3462524
132.89835 91.096252 13.201374
166.42307 101.75792 63.363285
161.82053 73.545929 63.065628
140.30267 68.913406 60.724018
177.40247 61.603661 17.150986
128.84241 123.66501 53.293056
94.472298 56.811172 80.403488
0.49547175 95.24472 70.391731
82.102379 54.703732 76.027649
201.84929 123.66499 62.3419
63.311707 112.30067 4.8289289
160.22519 71.072113 62.962463
85.249718 62.76783 27.821917
70.343979 123.665 64.88031
62.538143 101.52723 53.306629
108.81734 92.97229 11.813381
70.739456 44.541229 66.139038
5.0448213 57.825378 65.583534
115.46521 92.901596 12.074053
232.12271 116.06924 57.627361
9.2906322 70.635513 31.264822
168.40939 123.665 53.483009
162.4032 49.36652 63.103306
96.471642 102.33693 15.570097
26.701521 77.217407 22.773178
86.462883 109.73374 15.29711
228.60805 77.934052 29.14901
61.997612 99.365501 36.276588
148.00011 90.312347 66.855057
133.05957 78.27552 59.616497
5.6150532 47.917511 36.14399
74.668579 116.64532 74.775421
143.19873 83.263458 61.166813
7.0375161 120.9465 33.560886
231.34682 61.008251 58.128754
199.8681 72.360687 65.526054
228.60626 101.52587 29.176363
203.03099 97.263275 60.563065
113.37439 41.504299 31.378799
5.5455971 116.64077 36.270145
239.06561 123.66501 38.581814
213.96414 62.8815 25.2568
153.0941 123.66501 54.771427
51.258087 61.75919 52.811146
139.18559 44.739601 71.996597
226.35757 102.007 45.167088
2.5616701 42.290581 72.371185
95.291107 123.665 49.713966
206.83607 119.65521 65.700043
78.089012 121.366 21.811047
143.7036 117.50409 71.753723
233.509 41.504299 29.319258
25.407063 121.27081 23.404518
125.12279 105.16609 12.698565
204.36032 95.36972 65.816551
226.01311 55.027672 46.123497
230.79437 123.665 27.894541
172.66386 57.383434 63.766815
239.0134 52.379059 23.295895
37.655914 63.615501 27.99752
4.5065365 115.10686 58.158272
4.1779823 119.10067 59.846523
169.94633 66.671585 15.597099
61.648308 99.365509 22.874117
19.880838 81.127472 64.90538
4.8728161 65.354446 56.27623
96.614166 83.103592 80.753502
214.57286 43.306149 7.6092563
181.67323 45.84137 48.914268
111.54079 41.504299 41.93502
91.067192 57.064758 11.011028
194.96201 103.217 34.362427
242.78171 106.11595 36.216393
221.50691 41.504299 59.375828
95.52269 94.243958 12.329362
95.636253 118.715 69.726974
164.91342 54.625477 63.265633
192.7515 117.26216 65.065796
86.905449 97.083664 16.096478
214.34946 123.66499 62.19368
146.30305 64.796715 61.641479
4.5478425 76.251663 57.946056
180.89084 112.48041 47.299156
177.14676 123.66501 43.231945
-0.92036629 67.122383 74.261848
110.49726 41.504299 22.603876
111.37012 87.239639 83.164902
190.82706 103.217 33.946297
75.694511 98.702026 75.092659
127.30953 44.739601 61.128384
111.52983 86.659378 11.819571
192.66107 104.04643 65.059937
177.71594 43.479263 32.142761
117.95482 96.285194 84.240868
6.3264265 41.565693 48.807076
138.81114 41.504295 60.349258
194.43341 62.036255 65.174545
33.327347 114.23992 66.599571
101.35858 62.660194 81.528778
167.87247 69.996689 63.456974
59.557049 99.365501 14.746777
189.63654 103.217 21.632496
78.196297 109.24594 74.557953
185.79587 41.504303 61.310532
35.886814 113.89396 43.065033
200.91492 85.609924 65.59375
128.7347 41.504295 43.70879
227.10837 123.665 52.909794
91.679985 82.271957 79.947136
-1.8307394 50.801861 76.750366
194.95863 102.5723 65.208504
99.451416 41.963745 12.492064
175.07631 78.040977 15.928832
30.669151 92.369392 30.485889
147.10643 123.66499 53.589577
156.47914 123.66499 58.410652
177.5574 87.75708 24.556656
6.3878469 44.497231 48.49147
240.55659 41.504295 31.480412
231.72845 113.01543 57.882027
62.024471 41.615501 12.310095
114.47282 41.504299 43.748898
227.94923 114.24255 39.336468
142.98534 41.504299 42.035767
60.13018 109.46169 4.0350308
242.95636 81.314888 47.955444
111.5321 110.22857 83.191368
91.990768 54.56118 17.349537
128.00104 123.66501 24.525291
30.519461 41.504299 47.773144
184.98393 56.01973 52.985664
183.45767 83.659256 64.464851
184.12868 88.060287 51.939926
50.696331 113.63941 67.362038
94.554138 72.466408 80.416862
227.4662 109.14687 25.105175
43.276268 99.365501 48.932182
54.606586 45.414318 53.511219
80.365753 41.564255 65.15255
223.02194 81.896034 50.921814
122.52312 69.690643 58.005478
209.21313 50.749905 59.796829
107.08418 81.042618 13.103305
28.018751 41.504299 28.264919
121.98274 70.574661 12.495512
238.84032 104.66068 53.288197
158.17332 115.43268 62.836109
123.50877 44.739601 74.193604
137.51733 43.709057 13.500064
215.79054 103.217 24.006145
93.435257 121.80373 11.575116
177.45538 94.15033 19.680317
84.849297 41.593658 32.348358
124.63493 46.407555 85.332626
100.1871 62.887077 14.252309
41.287609 121.366 33.10611
122.45949 76.463608 12.526342
143.00801 123.66499 51.424347
76.191849 51.006382 75.24646
20.472111 83.992447 65.004784
98.166634 41.504303 35.477062
5.8048258 91.563995 51.487244
101.65128 123.66501 23.055531
91.101547 123.665 46.645565
2.1750035 71.296371 73.428154
64.752388 47.498295 52.87698
228.04643 120.12492 37.833614
137.42778 109.04172 60.284393
6.8602438 110.99123 46.064144
31.366013 58.885635 33.428772
209.15466 125.21701 13.77711
149.94653 104.29272 62.198532
124.94402 118.715 62.736801
146.3828 51.013489 61.653667
39.741905 80.325859 67.040657
182.61877 93.749695 64.410545
5.8361149 104.34517 51.326462
121.98695 123.665 27.150208
227.88658 52.892033 40.305408
89.457916 41.504299 61.885738
193.81787 123.30701 65.13475
71.902321 123.66501 65.663849
171.27173 106.46914 63.676785
72.68718 104.36379 72.854279
43.364643 94.419861 49.532021
137.3716 58.100147 78.972054
219.65382 88.412926 54.36253
191.24338 106.36742 64.968254
46.700138 107.1244 51.307529
232.33493 71.270103 20.357513
1.2615608 122.60184 68.297646
164.19067 123.66499 36.035057
5.0294213 82.675827 42.26857
243.21855 72.047173 33.851173
131.2468 64.925461 13.094576
27.067196 120.23983 65.952324
227.96799 78.741943 39.046532
2.8257947 41.504299 71.396889
233.04675 64.305527 57.03064
196.41231 78.947586 59.716694
6.6880827 122.14695 46.948769
117.41891 41.504295 54.6549
204.50977 125.1813 14.95669
142.95361 123.665 52.204865
14.694933 123.665 28.691315
170.24496 42.915714 63.610394
232.30603 72.892532 20.35413
81.591064 41.504295 53.771206
235.02345 108.51276 55.753704
139.24016 47.057148 60.561611
161.83351 42.691418 63.066463
243.12794 106.84715 41.13205
27.72715 41.504299 54.850479
116.87106 123.66501 46.574837
109.86249 86.17421 82.918503
96.129349 119.99651 13.146687
227.89929 69.087257 40.108818
220.02324 40.8815 37.215004
29.606377 41.504299 62.845818
177.64026 106.7664 28.515501
119.95035 123.665 40.554012
173.6763 62.73452 63.832283
156.19604 120.36164 62.727192
177.66821 120.62973 29.85186
43.469009 65.740189 49.587578
116.01431 74.175041 83.923851
104.58295 120.11971 61.658489
232.90271 78.52636 20.424032
201.65776 48.218185 65.431908
72.189667 53.113831 50.529694
99.035843 106.77699 81.149239
187.40811 88.113731 64.720314
153.26309 118.94537 62.565632
137.59944 68.057625 78.71273
84.749001 100.45335 32.613491
205.23999 117.40431 65.596832
98.315018 74.339043 17.183792
67.932846 67.437958 71.384003
5.7556009 106.30946 51.74017
32.653473 50.009377 33.539841
131.96291 118.715 69.578072
172.30031 73.860573 63.743301
232.57271 87.838234 57.336864
92.919945 94.16288 12.888048
30.912722 113.65504 31.514507
6.0289941 94.414253 35.392319
112.62978 123.665 37.786278
122.69141 49.605389 85.014992
6.7551289 58.845264 46.604256
182.75221 103.217 42.477634
131.85999 74.977661 59.433086
190.68839 80.954041 64.932434
83.562584 80.582809 35.74966
113.25291 115.63409 11.930993
120.63263 123.665 42.283379
87.373985 123.66501 28.725819
1.3103732 108.09331 68.164215
21.894936 117.061 65.23999
45.492599 56.440079 50.664749
123.4494 93.136093 85.138855
177.62769 89.848755 27.915102
144.72476 70.589226 61.400169
119.01735 123.66499 29.765774
150.50163 47.224419 62.283398
96.453789 41.504299 40.195469
233.57683 63.498306 56.688171
71.781075 41.615501 40.649467
4.5552673 99.988678 41.583916
84.373177 118.715 71.081329
226.31969 74.369392 45.272312
218.11623 112.24964 64.517685
205.53448 103.21701 37.880051
121.82884 75.551491 84.874001
144.96758 123.66499 35.783539
58.284065 50.568573 5.0573883
4.363306 59.099686 38.417088
221.49487 52.261902 13.681193
22.79932 62.93708 65.365059
48.714401 99.365501 34.608635
70.634567 105.1102 73.527863
239.6786 77.639183 23.960052
47.945541 121.27198 51.970467
143.15898 113.62017 72.374161
235.58017 41.504295 39.625839
221.75272 123.66501 55.415092
64.751419 70.380836 71.708481
225.19896 40.8815 38.343914
119.06754 123.665 49.117535
210.71806 43.3815 24.796301
116.47262 107.22141 12.139197
166.3277 123.665 21.763435
147.92799 64.514069 14.173273
212.43588 46.794189 58.845055
190.99146 125.217 40.437088
180.67755 86.606728 46.85886
181.49654 76.907379 48.549496
112.78159 92.063309 11.900515
184.53497 46.934311 11.203234
118.57045 118.715 59.023071
203.98041 76.216705 65.791977
37.335678 103.4308 44.483852
179.12178 87.080368 43.647278
98.225395 120.18471 16.253222
135.61972 62.381077 13.377354
130.35704 123.665 47.042862
100.0992 64.611298 81.322975
157.12639 72.241066 14.768093
151.56029 94.430038 62.445259
88.121819 112.75499 78.935837
208.7567 57.013115 59.931629
47.487835 110.82621 52.351074
207.3299 68.630615 60.336491
185.92757 102.0492 53.92466
126.44822 99.501961 85.628952
95.074074 101.5395 13.322975
93.439423 112.63409 16.0737
226.71904 42.352249 44.16346
4.3889871 57.078514 58.76231
39.626434 102.89867 67.034882
60.948277 99.365509 30.911438
63.790123 67.323112 70.102875
-1.5708108 82.978279 77.501587
88.465584 44.02993 16.208775
5.7626982 99.886169 35.8759
123.395 88.055008 58.13879
229.08528 82.071533 21.769577
177.79868 83.739731 36.090061
114.28529 47.21191 11.997752
159.43982 95.742424 14.917691
232.32077 65.520607 20.355858
147.75024 106.02907 67.140106
4.9545984 90.299721 42.16053
116.7016 123.665 49.919834
71.012802 41.615501 10.632679
5.5263438 62.695534 52.918179
68.49176 61.608093 51.469482
32.500793 41.737171 28.731632
105.67506 121.89312 14.032398
29.341505 75.652664 66.199615
169.23428 110.39449 15.551053
116.53325 41.504299 46.643417
210.97076 105.75385 5.7067537
104.37055 95.62915 82.021049
183.31325 115.73734 13.290117
243.5737 67.751801 40.155457
107.90379 103.95724 82.598473
39.164219 63.615501 43.995476
80.062737 50.201515 18.859886
78.252098 113.03761 41.657066
6.0823269 57.287643 35.295471
181.01727 104.00323 47.560177
152.43784 80.340385 14.464904
35.149719 102.82378 66.744095
7.1547499 83.331818 33.348007
183.46933 104.44498 51.133743
91.460312 102.68087 10.023992
234.27396 41.504299 37.381172
22.013279 121.46564 25.059719
214.7634 40.8815 11.114911
49.454315 56.239559 52.434032
166.47824 59.654297 63.366817
98.189423 77.968384 17.306379
211.38828 56.340664 59.154446
101.08459 61.588543 14.63139
205.0403 62.8815 26.940689
121.82671 41.504299 20.426361
131.38928 44.739601 84.424522
136.14392 123.665 57.669876
100.24269 42.149025 62.127228
64.707901 116.79453 5.250968
79.391129 43.331413 65.267052
6.3889656 47.108158 48.485733
188.70193 60.106651 56.036919
47.718937 41.615501 49.246288
142.71498 101.04818 13.836171
178.48685 41.857285 20.722771
94.128288 96.07412 13.800393
91.063606 53.642139 17.687246
158.4725 82.117584 62.852592
100.67951 41.504299 30.000664
181.67993 63.621201 48.928139
101.9825 83.015457 81.630798
11.989674 52.866894 63.44043
236.04359 79.078323 21.407068
87.172531 58.843761 78.642258
159.34218 123.66499 27.65346
93.741341 123.665 54.905361
150.7513 123.665 35.338627
152.8958 41.504299 50.998981
139.10757 118.715 61.436291
242.83154 91.123215 37.390396
230.01724 63.830364 20.293453
177.69907 66.192253 31.337433
89.846878 43.257 63.869164
203.64536 61.08823 65.770317
181.40753 101.45558 64.332275
88.343414 55.468292 17.340899
241.16483 75.303703 25.772451
231.60825 49.461777 57.959862
174.61357 104.97653 63.892887
48.219078 122.25581 67.295044
113.22717 120.01527 59.639576
204.23569 125.217 44.838772
221.68909 59.264496 63.084648
97.451385 77.803268 80.890289
56.600285 123.665 62.112648
52.513435 99.365509 43.115768
30.463226 81.65419 24.221836
30.408464 104.45244 25.304544
228.29175 41.504299 40.851521
90.05423 47.218506 10.885712
63.72113 104.19733 71.38987
67.062828 121.5303 66.803795
130.85791 123.66499 55.998734
77.585808 73.982666 45.570564
86.504364 104.49755 12.217781
90.548805 107.49029 17.756981
61.603409 41.504299 57.89724
32.309517 109.11124 36.752159
190.11975 52.047466 57.116383
222.22691 47.391678 51.935951
242.84909 93.090424 37.612133
126.02412 41.504299 40.381042
169.4675 41.504299 25.356222
183.88922 109.96855 64.492699
135.69406 51.695786 60.019386
151.95326 57.515804 62.493481
142.65784 94.968025 13.832476
114.9738 65.254837 12.042276
239.85382 77.837135 52.633514
60.863712 114.57779 4.0889521
37.069477 105.05097 44.676979
105.89334 106.26077 82.26989
148.51675 48.558083 66.265846
180.73024 112.32339 46.967625
187.09821 93.422691 64.700272
178.19302 59.614052 39.450996
229.11427 114.63749 21.321011
61.549797 64.369049 70.718384
1.1559336 49.710861 68.586365
175.02538 123.66499 30.663996
26.603485 80.465401 22.820992
94.96965 110.49974 13.935343
85.968765 112.8269 18.172459
177.53772 61.509087 23.624928
220.67813 84.477432 63.490135
186.87878 97.367165 64.686081
145.4305 69.15242 61.508076
193.84732 103.217 14.331749
150.64494 103.45902 63.84016
238.92111 123.66499 32.141312
88.475021 123.665 50.265549
30.384617 107.41257 25.775997
228.49628 59.36998 30.877552
100.95525 88.701622 81.462891
207.67325 68.720718 60.25161
128.14445 97.215462 58.864979
176.771 41.504299 45.558548
115.63939 41.806793 58.890102
144.93236 64.047928 70.352806
177.02048 59.044807 64.048576
218.34297 47.940094 64.426743
122.75099 54.291206 12.545192
202.42046 122.717 15.691149
65.98951 109.87853 72.09137
10.966353 104.90372 63.223656
101.22079 110.47951 16.253036
119.27512 85.2164 84.456741
184.83698 76.660385 52.805962
21.496105 41.504299 41.518642
81.421326 41.504299 42.114624
2.8362312 93.856262 71.620682
195.86861 122.717 17.977287
188.0844 79.067993 55.566757
243.34677 74.851257 43.894287
5.9350462 103.23783 35.562904
63.518852 41.504299 65.944969
194.0206 43.3815 31.843346
191.11638 44.263565 57.579163
123.19352 46.361 85.097061
228.8412 88.547249 25.543682
127.36219 94.144127 12.843376
26.645592 105.66293 22.800478
79.689743 120.49306 39.3088
45.876167 63.251102 67.254425
80.412872 41.504299 47.27721
238.32007 60.174995 22.765326
68.131874 108.10448 51.226723
104.18056 41.504299 25.885601
185.67596 109.25713 11.072578
103.60246 41.504299 37.822723
93.829163 45.301823 15.318642
30.29203 77.735062 27.606499
82.038246 113.52057 77.054466
183.90283 43.14045 64.493584
210.29108 110.12748 66.200073
228.93222 64.433052 24.136459
13.657229 123.66499 55.791183
73.337143 123.66501 54.35273
231.32986 51.506958 58.139595
88.979904 78.273087 18.410648
5.697865 86.799141 52.036835
33.941475 41.615501 26.24456
88.009567 97.395409 10.458094
104.39484 123.665 29.747395
28.626131 82.797539 21.83452
175.19406 114.52541 63.930428
207.62982 94.067871 66.027977
177.24747 97.330551 64.06321
133.94897 41.504299 23.987122
242.98975 101.07619 29.980738
48.239506 121.366 44.68874
225.46616 100.08949 47.193214
228.88519 92.416595 24.863604
136.32947 46.140877 60.11655
156.04617 90.409058 62.718937
134.76805 98.757919 81.939941
4.7857046 82.527122 41.916656
122.93661 108.27742 85.055046
146.10411 123.66499 34.603939
228.34021 112.06964 33.290913
204.28685 62.929649 65.535194
90.638306 78.604065 18.423967
244.96704 75.909393 36.555149
228.77925 110.74863 26.501724
86.175301 64.056633 13.889025
6.2636976 83.239273 34.96611
69.043533 118.95898 50.738274
179.8345 94.193024 45.118565
97.27803 55.347557 16.126352
28.572784 62.275627 66.116028
140.52856 91.254349 75.372902
19.928795 120.11282 64.913437
228.6293 62.209976 28.820349
6.8924026 75.371658 45.898903
224.86496 60.971306 39.63303
122.92752 41.504299 28.038778
91.243256 46.460785 9.9730062
177.38206 105.10715 16.176115
11.694289 76.289276 30.092522
136.07097 44.373436 13.406534
93.476425 82.582733 80.240692
5.5630808 77.771385 36.238396
174.97598 102.67043 15.922344
200.53781 74.035934 65.40107
122.28666 111.91212 57.969322
117.85219 86.0783 12.228408
94.973579 84.137375 14.493433
41.71225 113.72715 48.652443
97.993134 55.885605 17.186062
230.65094 49.148525 58.578133
6.6979961 84.562019 34.177437
211.46281 40.8815 15.513572
126.52679 81.305161 85.641792
233.07901 56.128563 20.444685
122.03931 86.35701 84.908463
231.10709 89.014023 58.283607
139.48866 96.261269 13.627541
163.49815 123.665 43.399399
241.5722 60.700596 50.849174
75.907242 83.972229 46.914745
205.29352 117.59859 60.443821
181.41946 100.88168 48.390434
120.36755 117.23248 84.635239
197.13586 117.08666 59.849716
202.87137 73.288162 65.465332
200.89407 47.02264 60.540638
166.155 116.32473 63.345913
87.667946 121.0217 16.909216
85.24424 79.136566 27.891386
90.988029 41.504303 32.909073
85.357056 84.397514 26.45932
191.98767 125.217 13.68455
179.59818 109.94586 64.215271
73.295631 57.966 49.843468
187.77795 106.2804 64.744225
41.084087 41.615501 23.64226
79.760773 81.760452 42.677917
17.78878 97.635086 27.120113
46.015659 95.439644 67.257339
218.30746 125.217 38.018974
79.376175 110.25691 43.189415
87.276688 90.26799 13.286603
43.583397 103.10248 7.5778751
60.013947 73.927887 53.510086
130.73187 123.665 54.305016
231.9088 62.537201 20.307594
30.242134 61.942379 28.592958
87.140465 87.331909 78.632347
6.0729713 92.262497 50.109409
54.53907 114.34258 53.497101
226.515 59.634037 34.753044
150.40221 123.665 26.734907
213.06696 55.401577 58.658684
34.48698 41.504303 54.038269
231.47577 115.98136 58.04525
107.53074 41.504295 25.642063
204.68585 51.486774 65.560989
173.01141 93.330002 63.789288
161.99472 119.30023 15.082905
187.2912 102.5504 54.96286
3.168452 59.605286 70.712555
227.78879 123.665 56.530552
231.04474 41.504299 44.302647
120.34373 116.65881 84.631371
135.0168 123.665 36.509853
189.32799 77.434814 64.844398
6.1048384 43.109421 49.945663
110.89545 58.158127 11.778547
221.94299 41.504299 61.730328
20.486689 48.661057 65.00724
239.05939 41.504299 24.724274
97.332649 41.504299 16.964594
149.614 118.21593 65.015495
62.74649 111.99926 53.257832
91.156044 109.94067 16.544022
72.195229 70.383217 74.010498
224.14142 117.38545 62.101067
-0.38517907 84.067451 72.798965
16.568031 66.621193 27.715456
177.3772 103.43193 64.071594
95.886337 112.1338 16.300695
45.996925 54.010788 50.933201
228.50597 69.461617 30.727562
43.968655 60.489681 49.853542
26.309736 123.66501 27.222025
231.82808 70.585266 57.817871
165.07204 67.583626 63.275883
4.4937582 113.44351 58.223927
181.65504 115.38303 15.899923
1.2920293 117.29903 68.214355
32.568951 53.614311 27.185543
76.112778 51.758099 74.430542
157.79181 109.90625 62.815094
92.629402 123.665 50.891052
75.529251 86.667908 47.19796
3.3825099 89.520012 70.127464
133.45039 44.739601 71.994217
207.08911 103.217 45.861187
119.55928 60.10202 84.503113
110.3689 41.504299 38.035114
85.004608 85.654152 30.933592
79.313614 54.58292 42.591469
47.615749 50.667618 67.290749
181.88248 41.96479 64.887459
36.093529 101.48833 66.818939
126.57568 80.849022 12.792517
120.31528 117.5116 84.626709
88.320419 99.268494 17.329584
62.905666 104.88538 53.287113
145.5195 78.776894 69.683006
14.646044 123.66501 61.080978
231.97397 90.608185 57.723637
202.69208 102.46851 65.460388
95.364815 42.478561 62.989403
54.735275 61.964764 53.538124
5.7265348 55.403885 35.941574
109.85635 123.66499 52.543041
103.7283 80.634796 15.119849
4.8082604 57.050423 66.230164
177.41302 44.834259 17.659065
138.01074 111.0946 13.53197
86.502792 104.48566 18.227053
182.10426 123.66499 53.982483
90.548477 123.665 31.349783
76.016106 54.700127 13.085226
164.32037 41.504299 37.324303
59.495705 99.365501 22.782944
86.451591 41.504299 47.361824
174.74173 123.665 18.128689
196.72145 103.217 12.9554
215.28912 43.3815 32.262543
39.849133 59.519829 46.93177
104.03896 123.66501 54.794701
72.071007 41.504299 64.510696
243.1611 68.79599 47.17366
121.16228 49.959763 12.442457
116.81369 44.739601 66.219376
101.05159 96.396713 14.7581
223.01543 80.049927 50.931744
60.984261 48.132088 70.543533
142.21504 118.715 70.273178
173.28256 104.4855 63.806816
177.69711 68.07579 31.244244
64.453781 121.366 51.319279
3.7786949 115.38523 39.478756
33.591248 117.6989 18.775179
111.01172 109.96768 83.106331
177.51147 98.647598 22.361191
88.763519 41.504299 33.824078
224.84093 68.858879 61.820492
97.310738 41.504299 31.520296
229.27086 41.504299 47.68375
229.79153 111.50861 59.133415
219.94551 118.86436 11.111338
23.898075 41.504299 34.928238
35.096401 101.22644 41.670189
177.77539 115.416 34.973938
31.612186 88.66951 34.468384
133.59657 123.66501 29.844757
177.35963 44.626465 24.974335
231.79623 91.417603 57.838428
128.2641 62.357487 12.901699
103.38943 118.715 81.610245
228.28534 112.23371 34.139252
92.555328 83.321815 10.633368
87.403473 86.39888 14.794192
59.708336 51.238804 70.148911
10.897893 51.963917 30.480938
150.43831 46.206802 64.075829
67.584038 100.62435 6.2870855
111.02983 41.504295 39.706703
80.178345 43.727901 42.122555
98.565994 41.504299 56.405685
6.3448381 114.56091 34.818748
239.03055 106.16689 23.313026
95.000069 41.504299 19.141756
81.637772 116.42353 31.193434
131.47269 123.66501 24.484264
149.82149 93.228081 64.77906
50.323803 76.740952 67.277611
108.16376 47.026371 82.640945
107.43336 86.95932 12.868201
40.017025 123.66499 47.698051
69.861992 95.283333 50.953735
146.00912 105.44051 69.125
228.62067 55.708923 28.954067
3.7999434 60.086761 40.493259
60.116249 117.866 29.29019
125.97049 48.557285 58.5326
99.21331 89.799835 15.909903
85.278145 103.86727 27.461067
99.820236 78.443718 16.633444
5.5178957 120.81334 36.32045
82.261078 41.504299 54.354919
156.70261 98.991135 62.755096
143.0226 99.80201 72.529816
242.20203 56.290421 49.799957
78.895836 121.366 27.677797
17.818342 123.66501 55.991058
3.9996517 87.860542 60.762848
204.57307 115.79022 60.481789
44.05867 41.615501 45.044353
132.71466 70.179443 84.280838
104.65292 57.130077 82.067146
73.487976 41.504299 63.483505
228.9288 77.313911 24.188904
56.288116 118.866 39.237404
54.6693 118.866 40.538322
42.365746 63.615501 16.519722
213.37234 62.8815 36.64246
83.59523 50.483734 77.535965
81.750496 41.504295 58.02327
226.27495 112.12367 45.396465
119.3055 45.940323 84.461685
141.58368 44.250565 13.763015
100.9785 107.54788 81.466705
47.017391 107.3036 67.278252
145.47353 87.292542 61.514633
22.138575 84.773148 24.998638
176.88559 121.70461 64.03981
89.978462 54.574821 79.510017
118.38421 75.696266 84.31115
177.63045 54.050873 28.065346
178.1286 124.46257 34.008797
51.092514 81.402863 52.776531
126.44448 118.715 80.036194
114.279 41.504303 51.33519
98.012909 66.723724 11.039516
207.02185 119.57763 4.5129671
219.88011 103.79674 54.149128
176.92354 123.665 39.96611
179.26019 95.931351 43.933002
104.80016 41.504299 30.284855
205.93311 68.494911 60.41011
111.05803 118.60747 83.113892
96.062759 123.43287 14.96822
179.53908 117.84311 19.658953
10.044647 43.206013 63.012825
9.1835823 123.25363 62.815868
38.141041 63.615501 43.725662
95.991379 107.61587 14.725953
243.27737 83.588676 32.089642
1.3816637 84.858955 75.596718
145.4901 118.715 62.653732
187.31935 62.8815 37.472702
193.10468 120.09407 65.088638
212.94707 62.8815 8.9896088
100.48628 69.718765 12.204645
21.127583 86.763573 65.11499
79.352661 42.92997 65.27121
31.661013 110.0464 34.674576
125.05287 44.739601 81.8629
131.09584 41.504299 50.111423
-1.8438371 77.785873 77.209534
177.91238 116.73291 64.106209
42.889091 123.665 57.597248
83.187393 44.739601 67.735367
163.10948 46.34782 15.15499
228.74957 48.960121 26.9606
193.2511 115.53837 65.098106
224.9873 105.92522 17.862894
93.759537 51.343121 15.460125
128.81291 123.66499 49.277954
123.53585 98.14595 12.595945
239.05339 104.24319 23.335825
5.1038694 71.172195 55.088997
198.30719 60.527161 65.339638
128.32977 118.715 79.853607
4.0487285 105.48285 38.988388
192.52588 114.33996 65.051193
134.29211 70.166389 13.291502
51.180851 123.665 54.260941
91.039429 75.3452 17.695478
1.6428864 96.591438 74.882675
10.387385 78.800049 30.729921
177.64465 124.14891 31.942345
41.397591 78.723885 67.12352
28.903461 54.764378 21.699261
183.86977 77.637642 64.49144
120.36404 109.60157 84.634613
52.899208 121.04413 53.154251
179.68994 62.881504 20.471485
114.44365 41.504299 34.500492
134.37677 55.106495 82.386177
108.36555 78.640427 12.157717
142.72208 86.419998 72.872345
86.177666 55.439465 13.41848
19.154274 44.689186 64.783218
227.49246 90.224403 60.61853
184.17159 94.013245 51.992401
177.43492 112.56938 18.702269
172.61072 123.66501 47.517273
124.26129 106.68333 58.271244
68.908081 121.366 7.4228449
226.52991 79.384598 44.688633
98.06633 79.030258 80.990784
228.82092 111.72382 25.857388
223.24774 40.8815 31.528843
109.71448 81.062454 82.894333
177.73399 104.79141 32.996529
137.53346 111.22555 13.501106
122.78126 74.170982 85.029663
96.515671 53.705772 16.778566
3.1251247 59.087154 63.203598
35.733509 117.10371 66.79039
48.235413 64.893112 52.124767
226.88669 49.186531 26.692245
6.4429884 82.590454 48.208145
206.69991 53.173225 54.099129
33.685532 90.080864 66.627975
222.00525 102.08795 62.957851
86.009705 84.839142 18.176643
69.740509 41.504299 52.42308
40.412243 121.366 14.085723
85.073029 123.66499 54.683601
1.067204 72.39669 68.828903
88.694923 120.08321 18.401136
239.09576 64.225609 53.123184
234.5032 123.66499 39.770725
85.670944 118.30656 22.053331
87.364525 56.582748 10.956792
37.191963 41.504299 45.923927
89.772575 114.0219 16.704437
92.392624 123.66501 19.224564
128.27415 88.043503 12.902349
168.21025 41.504299 22.77367
95.146233 121.40192 13.04585
148.22479 86.821838 66.598663
93.044861 123.665 45.304169
68.400612 118.866 22.566595
7.4578705 86.691437 32.797546
191.17789 103.217 31.660398
79.228767 73.6688 43.385471
132.14101 102.08191 13.1524
228.83105 49.3825 25.700615
236.98267 114.14233 54.488174
86.297707 41.504299 37.921413
100.12964 97.540611 14.603722
97.055542 117.82716 16.014332
98.185684 41.504299 44.54541
5.7943645 102.46353 51.541
228.90741 85.811531 24.519939
79.498192 110.45487 43.027138
52.594276 56.768082 53.0905
205.96025 76.728287 60.408676
137.0916 70.419685 79.291321
139.30603 42.234241 13.61573
243.25197 80.754051 33.170692
51.505417 78.17926 67.612228
119.20718 119.12117 12.316029
30.2132 41.504303 31.978317
177.43668 107.70631 18.785635
7.7168703 80.36499 32.327221
235.42172 106.2339 21.106146
102.58057 44.739601 67.793289
222.79636 67.798622 62.640549
61.944977 63.615501 39.595428
59.318481 45.115501 32.914661
27.481136 114.19578 22.392958
124.03548 47.331406 12.628254
126.35966 123.665 33.732258
196.89427 87.855705 59.805302
221.69728 91.190842 52.435432
205.68864 57.04961 65.625839
143.89197 99.562271 71.538742
159.49179 99.948898 62.915039
243.33478 93.740356 43.742928
226.93999 73.563789 43.550011
197.85054 67.912895 65.395584
233.58147 123.665 36.574268
33.404289 43.482479 23.618824
177.52213 114.87248 22.87064
203.09225 54.14666 65.471405
177.59439 101.64704 26.32317
62.900826 99.365501 25.057316
8.8352747 79.420609 62.736198
77.176018 62.387543 45.964073
85.447632 72.708565 78.108826
104.34578 123.66499 55.409813
141.37088 73.538986 60.887348
170.9675 65.191605 63.65712
97.794693 123.665 34.379765
85.814651 59.801468 19.830778
29.999578 41.504299 50.125515
134.42537 118.715 64.459877
130.64642 45.450943 59.247585
120.90878 123.66501 30.222507
45.751953 63.615501 45.146416
93.537392 89.666817 80.250648
32.843239 41.615501 28.377192
89.030037 41.504303 44.959602
18.372562 41.504299 39.596062
185.41324 115.83365 11.319147
151.63193 116.71898 14.41279
183.48605 92.871826 64.46669
-1.4770957 111.29732 75.783691
82.70475 57.997238 32.680767
65.8993 55.777245 52.445282
241.71271 50.879234 50.64854
-1.2470384 63.420967 75.154831
3.5794148 86.1465 69.589233
71.210129 108.44045 73.705856
173.32193 60.914417 63.809364
18.714254 115.68755 64.709244
200.66507 61.782406 60.498539
90.980072 80.5009 10.993773
53.044846 109.80363 68.088272
237.08575 123.66499 40.735931
243.21448 56.674301 46.936039
174.61864 70.853149 63.893215
183.46643 87.275581 64.465363
233.93082 106.52232 56.459564
82.398582 68.150406 77.165901
33.725822 58.014339 37.691296
56.678932 67.547768 68.636276
-0.58182085 112.39995 73.336479
30.392906 77.535919 20.972839
198.33261 72.703636 65.426758
202.15393 123.66501 62.445648
92.693863 118.17328 10.754627
152.81908 123.665 52.798679
141.23329 50.05043 74.56945
230.15767 93.133789 58.896885
165.48615 59.638474 63.302666
93.816635 63.619907 15.344093
153.14061 83.343124 14.51035
127.57129 91.847351 58.777344
7.0155768 77.604897 45.265991
100.04663 111.95812 13.317492
177.49498 80.616379 21.57268
43.472641 123.665 52.990536
224.64867 103.217 17.474686
90.751213 121.02357 18.420008
61.130192 68.08046 69.280296
15.789942 55.839546 64.193855
95.192184 81.530182 12.911128
105.55399 123.66501 32.390205
134.63411 113.49901 82.092628
-0.08564847 59.406788 71.980171
38.777512 119.50092 45.888092
66.42321 41.615501 18.017563
184.75935 67.484512 52.71106
178.07074 104.61395 38.894928
230.61502 123.66501 24.443043
96.413879 68.929214 15.513137
147.19971 71.350998 61.778564
94.750832 123.66499 47.57692
38.445267 89.561455 66.975769
223.98096 112.35089 49.458866
140.54178 82.366043 60.760551
79.343002 123.66501 48.172459
