# .PCD v0.7 - Point Cloud Data file format
VERSION 0.7
FIELDS x y z
SIZE 4 4 4
TYPE F F F
COUNT 1 1 1
WIDTH 1685
HEIGHT 1
VIEWPOINT 0 0 0 1 0 0 0
POINTS 1685
DATA ascii
475687.66 2713231 236025.23
5814463.5 2063297.5 1844675.4
3023872.8 2606602.8 326895
-1284137.1 198534.47 610316.5
2996475.5 1663687.2 326895
4792642 3026580 719621
4337353.5 3147987.2 215921.77
6407614.5 1909012.8 1129535.1
2621220 1138640.5 2398170
2105594.5 1688080.2 326895
2690462.2 1742589.4 326895
5576688 2642520.5 384284.62
5815686.5 -106551.55 1033540.8
1485505.1 3117285 688552.88
3578626.8 2298863.5 2332128.8
5259290.5 -75955.758 619068.62
-1353165.8 633153.25 1174060.8
-1023924.5 2509670.5 1171851.1
1571317.6 -46208.047 1577418.4
3665005 1167303.2 326895
-469824.66 2897276.8 1122673.1
-753035.44 2839542.5 326895
-1156061 428996.12 1223757.8
4711055.5 2351082.2 2065090.5
704567.12 950050.38 1731309.5
654837.62 -30102.867 943690.5
-27516.285 3203214.8 1102141.5
3556140.5 1199547.8 2380619.8
3015369.8 1102252.2 326895
-1298725.9 1121283.1 326895
954472.75 3170736.8 610208.12
6103494 477870.91 2000730
-1506943.6 609760.69 326895
6008193 2651825.5 702252.06
683015.25 2091214.4 326895
2760768.5 1104697 326895
2418859 2755234 1973729.1
1287299.5 181334.34 1717790.5
4739.2451 -200141 705229
6071223 625318.94 617821.06
581787.25 3030421.2 1062448
2273551.8 -138438.17 639124.38
4860182 490608.12 341510
4855061 2692100 798725.75
-899617.56 420334.62 1168445.2
300762.62 2824664.8 1595839.9
1896274.1 -40721.168 1590435.5
1458020.1 33860.207 1666794.8
184967.06 2713924 1335298.1
5863006 1696831.2 1855688.5
4519936.5 -172695.91 1054124.1
5005688 3051771 702345.44
-588783.19 218224.39 932774
3054769 2973677 326895
5211742 3056261 1218750.4
705316.94 -189329 433074.25
235710.45 -189329 1356410.2
6077856 794282.88 534472.19
2755444.2 736865.62 326895
6209369 231386.06 1089022.8
-1119898.8 2961052 678213.25
-1502118.9 2290926.5 736012.62
-1472085.5 775533.81 639807.19
2659717 -6441.3115 1643595.1
-437555.19 3132619 814811.75
5075640.5 2654271 1866458.8
6362844 804787.06 1391748.1
6042171 1485441.4 521956.81
5914544.5 2640749.2 1815510.1
3470293.8 -88194.258 847313
2685716.2 3061611 1225237.5
915918.25 1016868.9 1809403.4
2163726.8 1894558.5 326895
4692385.5 3197820 709086.81
1344179 269434.44 326895
4116788.5 2924829.5 849149.88
-693085.88 182641.34 579110.94
1676766.5 1441270.4 2146557.2
2826250.8 2601653.2 2242696
2880951 -68617.945 1228891.1
1855054.8 2415169 326895
232599.77 2457304.2 326895
415814.94 174985 1186932.4
-1153284.5 1594019.5 326895
-355537.12 392463.25 1564027.5
103898.9 -234688.72 537002.25
897828.44 359778.06 1726715.8
2000990.8 1183076.5 2263037.2
2116377.8 698910.44 2250740.2
2009432.6 1647999.8 326895
151695.48 -28898.699 876295.38
-742168.12 2579505.5 326895
5589782.5 -152111.72 1147935.5
550731.38 -87223.219 297888.69
-706874.12 1441652.9 326895
882270.25 2634754.2 1725833.6
5250048 2767961 778035.75
-878269.5 2575997 326895
-1631568.1 1342629.4 346846.94
5243334 314446.78 535834.25
925620.94 -179306.48 579546.06
6259195.5 1744049.8 1688349.4
4685201 2680188 73869.703
2270115 2597069.8 326895
1680383.1 1283507.1 2150793.8
694515.25 3017708.8 429627.56
5813733 2275115 413750.03
2188668 3129474.5 326895
4004904 2219960.8 2277130
-1209923.5 454552.94 326895
654612.38 -174595.42 1236435
-198513.8 -86164.5 704382.38
1563091.9 2216964 2048551.8
1649375.8 1739531 2137537.2
4086332 -107176.42 696882.88
438960.84 211849.34 491228.75
675248.5 -165861.12 1322468
5810963 692837.5 414709.38
2975720 331150.97 2133789.5
2701820 1528485.9 2429609.5
3587028 1838432.1 2372295.8
-407546.88 3112301.5 889925.31
-1032515.8 3008311.2 601996
-681179.5 3135270.2 486542.53
5249086 2354787 1888996
5879300 2353892.2 598677.62
4387825 -230683 992242.44
2465594.5 830471.88 2346227
110507.95 2168541.2 1726248.6
1128504.6 2214837.2 326895
490932.31 -11334.865 1117151.2
3642065.5 429579.28 2234295
3204819 -70332.094 1122384.2
5562630 3049264.2 1658486
715200.44 -82179.094 699982.44
785999.88 254391.94 326895
2460769.8 335073.5 326895
-916095.06 3033172.8 326895
550326.12 2088523.5 1753371.1
-1497768.6 1682046 326895
3424737.5 1838998.5 2387116.2
4083519.5 215100.84 1923567
-1382863.5 2373816 326895
3077041.5 2261676.5 326895
807038.5 -157789.48 326895
4905426 1661586.2 342437.25
-1462601.6 2520402.8 969490.62
6083218.5 1426729.9 1845078
5167793.5 2046743 1936538.8
-854232.62 3138811 499654.81
2465415.2 -29542.533 1614001.2
-360548.41 3011836 963830.38
2736210.2 2646901.2 2164828.8
3107611.2 2057243.8 2374828.2
2978185.8 1752603.9 326895
637588 729601.75 326895
4232291 3129564 1438283.6
-19602.016 3114260 863481.12
3854616.5 2075904.4 326895
330982 1581768.2 326895
5570700.5 1462658.8 1878201.9
4637473 -134450.88 1509778.1
5672784 -14140.051 1691872
3822344.5 1833980.5 326895
4089385.5 2991070 598402.12
4372682 2928023 1174585.8
6131993 656988.38 464761.47
5325917 2692100 814664.75
1065014.9 902716.5 1802885.4
5302355.5 2927713 1137974
-1522538.2 747843 962928.81
490542.56 1709886.6 326895
4636810 -82827.625 1310268.4
4627441 2692100 1303604.8
336734.69 301825 456860.53
-51159.031 8379.9062 6951.2178
6187866.5 371548.09 761968
6013140 878226.38 482301.62
4792922 -23318.375 1138465.9
-360977.59 -176101.48 1361520.5
489955.62 969919.25 326895
2548068.8 444787.25 2273543
4354231 326750 879732.06
-608724.88 296345.56 565777.56
4080301.2 3027867.8 326895
-462856.47 265075.03 644199.25
4741244.5 3083850 833762.25
4089438 2709604 596704.25
36396.355 3221341.2 981135.12
4984098 301825 1060597.2
-1002955.7 2271731 1435082.1
5711857 151467.14 426640.06
1936361.8 2538050.5 2151129
3373908.2 201602.59 1885440.9
4386989.5 326750 912269.88
311133 2692100 589611.5
108948.51 -120376.22 756188.5
3731052 271408.03 2022423.4
4657891 3221460 1251946.2
1037389.2 2768727 326895
6177947.5 278031.44 761968
16260.719 512848.56 326895
765677.12 2185957 1730977.1
5018586.5 -218335.42 450609.56
5892279 1350690.8 420730.38
5485193 -82614.5 1602177.1
-374379.5 183724.5 1247423.2
886784.69 -182815.94 731038.44
1097945.8 2840967 326895
1917895.2 3156941.5 417694.91
5432310.5 44849.371 952790.56
410327.66 248805.31 907929.75
4173233.8 1012500.6 327431.41
5162322 2368886.8 347702.19
1486650.2 3165202 388305.03
-349430.91 2413639.8 326895
697379.75 2743768.8 447441.38
1250333.9 596789 326895
6248970 1094297.2 1635237.9
566918 221705.62 1086621
-87683.336 -56454.195 948603.5
2452380.8 1406855.6 2407661.2
5261746 3094758.5 669775.69
-506093.06 1705005.2 1614973.9
740332.19 -189329 639807.62
6398884.5 2275170.8 1196565.5
947852.62 688741.06 1748523.9
5191907.5 70289.859 137785.27
-1453551 1958681.9 1227444.2
-415489.66 1014868.4 326895
-295965.78 2817652.5 1027556.7
4099690.2 1477389.9 2300707.5
507235.41 824958.25 326895
5372341.5 2752976.5 1050278.2
-1611800 1656801 831120.38
5437583 -119599.84 532371.19
5928963 3049535.2 625563.38
6109042 2712242.2 1475494.4
4548185 3082197.5 815313.38
250712.61 1516413.9 326895
5840082 1103670 412876.53
2553069.8 -139110 618620.69
524149.81 -66260.445 1133635.5
2701495.5 640752.44 326895
6009142 2805956.8 481334.12
3678473.8 264359.88 2037156
397365.91 -130669.77 409657.88
6308848 2243178 603875.06
3880225.2 332660.03 326895
4331852.5 301825 995063.38
-1465184.9 2160480.5 668461.75
3348281.5 612846 326895
5644932.5 -113347.78 1478805.4
1630112.1 2994904.5 1637117.5
-641069.88 3117619.2 739683.75
3533039.5 2520580 2256776
5075529 151352.77 1294253.4
1246638.4 3138178 793690.81
-717625.56 2682958.8 1332595.4
901630.56 3175331.5 578381.88
1287833.8 1331011.1 326895
177103.47 3083850 788980.44
-147611.38 3210012 406877.12
5947414 1761963.5 429375.25
-126588.21 2671117 1119310.6
2842975.5 2653414 326895
6441157.5 2112307.2 918761.88
623341.31 84410.625 893618.31
5495400 -189329 849604.44
5490749.5 -171923.19 511108.69
4482345 752744.12 333766.44
3752990 1812479.4 2352315
-1323663.8 1563549 1332772.2
-602625.75 2048908.5 1590181
4776114 3009754 832974.81
1824490.6 2219145.2 326895
2264486.5 2629406 2186440.5
3213262 1371516.9 2418164
6255688.5 2473800 1452408.5
3670887.8 1150119.2 326895
-1404288.1 2488079.2 1107333.2
6217293 381057.91 761968
-1382873 557753.12 1129892.8
144416.19 1949803 326895
3637696 -110741.3 1118337.6
3377915 1804120.2 2395746.5
1483139.9 1516598 326895
-222421.23 846522.56 326895
-309994.97 3226896 823221.56
1001420.1 1319159.8 326895
6159081 2101067.5 731857.19
4733568.5 301825 1034886.5
473062.72 2931442.8 707991.94
120233.41 2727471.8 1305452.5
157776.97 1548520.2 326895
1000601 2165083.5 326895
-1061079.2 19693.658 697947.56
6031406 2220961.8 761968
-117610.3 -229725.56 792691.94
-40845.277 3057864.5 206169.55
1552698 3166872 382285.78
4371366.5 3128213 878278.38
4381264 2792978.8 893841.75
710047.88 2995.0791 533895.12
611161.75 -147276.2 1390750.8
5191547 20730.297 419716.31
5978813.5 1299307.4 1990445.8
5500071.5 1559535 359233.97
4470621.5 2692100 509961.59
2427689.2 973672.31 2358224
-944320.44 1890491 326895
-1324232.2 150519.22 412684.47
953239.69 2024723.6 1757418.1
2448190.5 2351464.8 2330555.5
5258388.5 -126080.15 723970.88
6367508 1001415.4 1450920.2
3285868.2 2444448.2 326895
3625482 668923.69 326895
5457042 2523449.2 353742.31
608635.81 2832717 1018800.6
-398472.62 301825 496172.5
273155.97 -230683 1139788.9
2295546.8 2286334.5 2305995.8
4311561 2434829.5 330266.38
4577150 2773582.5 1085510.6
-1333221.2 209955.08 691278.06
4152447.8 -15811.888 1670808.5
1338452.4 3052902.2 1374630.9
-386866.03 3035716.8 150651.17
712850 3060640 624217.25
1111692.9 -81570.016 1442467.5
4362173.5 3218605 776456.56
-1101773.5 265026.5 1151318.9
5963413.5 1663586.9 1989393.4
517968.31 2073714.2 326895
-284086.75 2692100 604158.12
5596990.5 1997550 1866684.5
140773.41 3196450.2 1112061
4538023 2731113.5 1307815.2
3040947.5 3064283.5 963371.88
4612328 2794540.8 1862214.2
684390.94 2924558 366664.75
3334497 1133208.2 326895
212842.62 3207029 778841.69
4504938 3233775.2 818317.56
-1463089.2 499726.75 1052171.1
6264362 2621604 1033136.8
4908589 301825 1095503.9
-449690.44 -189329 1260298.4
4495082 3106484.5 1287764
3468580.5 2744081 2015321
5670174.5 -150326.67 657145.31
446394.66 -178732.38 1372412.8
4329553.5 212338.25 739558.25
2836969.5 271173.66 2028131.8
4656941.5 2135486.8 2103678.5
927677.38 1991202.2 326895
119151.41 -230683 1138099.8
2855925.2 3062537.2 1141359.2
6155001 485074.19 506424.25
435940.53 2726451 863838.75
6306699.5 603488.62 1392041.6
5200681.5 1862293 1931517.8
-195426.41 1727116.2 326895
-593160.62 2964156.2 393157.06
-3373.9961 3026580 422648.88
1667275.1 -59917.633 1414876
-364934.94 2670930 1045968
-151982.8 2478302.2 1626753.2
-317674.06 108827.92 93446.086
4957425.5 1146694.9 2032335.4
6164257 1546720.4 766670
-604643.81 212591.97 441815.12
-664633 2899984.2 855357.75
5377848.5 158109.7 380867.25
5214558 2320665.8 1897153
6437915 1621667.5 1045186.3
4522192 3108736.2 1300423.1
135467.05 323081.44 1238168.4
2126974.5 -64179.484 1377785.1
-1577586.5 1931612.9 836986.38
6201304 1056085.2 1778809.2
4545706.5 866204.88 335065.03
2155232.5 2886627 1718637.9
2077279 1065808.4 2282271.8
4868504.5 3104675 1560328.2
-282693.53 1257588.2 1657285
470099.44 95335.992 755809.19
4296062.5 1235729.4 329948.72
5897300 535112.19 541486.69
2812873.2 996695.25 326895
-470805.97 2703407 1164818.8
-127995.6 754952.5 1682471.6
211110.69 35151.117 1331463.8
-665903.62 153523.05 429908.19
1587045.2 1257672 2104543
5923780 423044.72 761968
4613056.5 2765203.8 239968.62
4904476.5 2984935.5 1722149
-1625342 881207.75 404952.81
5886131.5 196384.69 668334.38
-674018.19 11423.181 459992.62
-644696.12 413710.94 326895
5465098 775654.94 1866603
3780424.2 -184699.92 486563.69
-680788 -148924.28 794683.56
5928100 558040.81 609022
3618546 -89585.969 326895
51233.734 154731.66 205703.75
324733.34 3009439.2 95686.805
525764.62 1212329.6 1755444.5
-641223.88 19956.275 527686.88
-1381660.6 594566.38 326895
4091838.5 2534989.8 326895
4376826.5 3225540 827135.75
113479.08 3068761 1504087.6
255233.2 301825 332890.81
-137263.02 2900070.2 225678.12
1044152.5 673951.56 1770539.2
771779.69 1469428 326895
-744878.62 1345685.9 326895
-721880.75 1881331.5 326895
4089944.2 72141.938 580374.19
524697.5 965502.69 1753004.2
4737990 1619397.9 2110294.5
5352334.5 -15372.588 324102.44
1135850.4 943927.25 326895
2497163 -28409.111 1616054.2
4663317.5 -28898.699 531620.5
4343425 326750 437903.25
-447234.16 121653.29 558965.75
4417256 320423.38 214260.95
-44473.344 355992.75 326895
5922641 2750485.5 448809.19
5410989 3143120 877677.81
5549604 1057970.4 1878639.4
4314436 2679515 307442.53
-682911.56 3045558.5 492964.25
2808885.2 211163.59 1923355.9
-1501054.2 670951.25 554579
2141590.8 1056417.8 326895
1510867 3055842 1262446.4
373828.03 2548645.5 1703841.5
413123.19 207488.7 1624742.2
5976602 279564.81 1734609.1
-1175958.9 2695815.5 1138472.8
2884270.8 -139110 563287.44
2697065.5 -67728.688 1239057.9
2382931.5 2962569 326895
2605357 15373.918 326895
2545917.5 468254.47 326895
-864315.38 2165752.5 1500570
25965.812 2567858 326895
4417094 72770.172 1251347.8
3175159 3125912 587432
-457376.06 3212956 1066573.9
653151.25 2915232 1576046.5
-1500616.2 1253434.2 326895
4545091 301825 1009137.9
-383545.03 1970384.4 1631170.5
2989163 2021691.5 326895
4684963 -86164.5 870854.25
-713413.19 -189329 977074.62
2568597.5 2100047.5 326895
1483903.6 3056021.2 1065486.9
5965048 2110490.5 421541
295538.22 3020897.5 303033.38
-1202948.8 1250244.5 1381279.1
4012057.5 2652345.2 2133981
-620940.5 2692100 631496.19
5992940.5 -37711.449 1327300.1
2519337.2 -67022.602 1113756.6
141033.05 -54750.316 1513436.5
590224.75 3221196.8 517922.94
-77462.031 2968110.2 1530071.2
2496441.2 -161779.91 421816.97
2069481.5 3065089 772759.38
700392.19 2692100 514664.72
78590.281 1083735.5 326895
759814.31 2536569.8 326895
282389.88 301825 1066337
259522.25 2692100 638665.69
3951821 2904313.2 326895
-647444.88 2863539.2 326895
3382786.5 2808759 326895
-456429.91 951271.25 326895
-1213599.6 473941.5 1204414.8
1135008.8 855934.75 1834427.5
-821013.25 264769.09 1205379
4908772 2777072.2 1343990
-568528.94 3058819.2 970640.25
-1308787.2 827511.94 326895
-130551.08 40386.125 1118297.5
5232556.5 638697.62 349141.59
1179383.2 1229654 326895
3497034.8 1481980.9 2403282.5
4767415 2998540 944175.75
643095.88 945813.06 326895
285110.38 1077130.2 1742853.2
-1473470.8 768538.62 645634.38
4035714.5 2946728.2 1719992.5
4117959.8 3048922 853549.44
3769354.5 3175217.5 496556.56
-1007643.8 370288.31 1299433.5
6050126.5 477987.94 594467.62
498662.25 2670930 657352.25
6026396 881265.5 1997275
2873828 2421806.2 2315627.5
3400863.5 2580016.8 326895
4896148 2623608 342247.09
-957691.75 2307687.5 1444912.6
5943555 275444.94 555914.25
4693340 96025.414 1127905.8
772460.75 3183250 336068.97
4187885 301825 675083.88
2964576.5 -138413.48 650220.38
4363253 128619.36 1169843.4
-1284847.5 418127.88 326895
119999.94 269163.59 1607310.5
1333626.4 2464636 326895
1961655 80479.109 1850043
4687540.5 814914.25 337971.81
3990096.5 2471296.5 326895
5908560.5 110315.46 1752075.9
5310451.5 2142055.5 1906688.1
-651082.5 -54525.117 675735.12
-1515489.2 2034885.2 786120.5
3196803.5 2058071.5 326895
5993253 2402627 429860.53
4396941 301825 1147148.5
620703.31 2887739 1584896.9
4639311.5 3225882.8 593563.5
6421956 1218143.5 1295960.5
5476791.5 -131968.73 421558.78
4297678.5 301825 970482.62
4567636 2692100 382769.56
5827526 393874.88 1995775.9
5336390.5 320496.38 910435.94
6033958.5 258343.92 747568.94
124601.84 2670930 1124031.8
-495614.94 2692100 908420.44
-229719.3 -191029.95 307931.12
2913426.5 -139110 584152.12
-1183796.5 2598950.5 1182680.9
4669328 32286.928 1736970
6436517 1350854 988995.62
3375836.2 1268168 326895
4090213 2947518 571706
4457105 2789891.2 110872.31
2021322.8 620641.88 326895
1744644.9 1969811.2 326895
1508702.5 -68384.875 326895
1813623.9 -62720.23 1342344.9
1522721.8 1279151.5 2069776.5
4250721 3154146 1380169.1
5416046 2720150 979229.62
3087776 3133030 547876.88
2822678.5 1185271 2413429.5
4040411 62902.234 326895
-529592.94 87430.352 1061018.2
3556913.5 330505.09 2156460.5
4970752 326750 217261.34
3872994 1557872.2 2345373
1724535.8 751697.56 2127212.5
3963187 -33028.055 1649960.6
4539240.5 2865099.5 1308383.9
2467554.8 72094.867 326895
3632553.8 3049552 1614623.9
2679702.2 3022597.5 1619557.5
656170.88 2724845.2 941523
129476.05 301825 1343156.8
-291414.56 848424.31 326895
129912.89 2692100 482365.62
3378773.2 323682.25 326895
3191849.2 -27973.578 326895
6076043 262037.88 761968
-1469551 2540221 672125.75
-864110.38 2687512 1277055.2
1182925.2 -168347.69 326895
2809998.8 2186799.5 2365376.2
5181745.5 2908366 1244652.5
5710658 3109700.8 1351354.8
4567290.5 -52126.797 258138.41
5879300 2370872.2 750583
2633874 -54162.477 1564654.6
-733437.75 3083090.8 326895
4873741 -136128.2 1349127.9
3818402.8 2426232.2 2259506.8
413865.38 2256493.8 1739264
-648386.44 2692100 383868.47
2400614 432846.94 326895
-1389827.4 194871.73 372349.53
-491364.06 275604.81 1506132.8
275407.22 1306567.8 1745135.4
-548836.88 2741805 1429563
3668831.5 1181538.4 2364910.5
4190599.8 2880923.5 1015222.8
5529012 -25652.061 383308.06
5088135.5 301825 491591.56
-1160151.2 2403522.8 326895
-786188.31 844302.44 326895
-934893.38 2497489.8 1232327
-1591186.9 1319228.5 1000925.2
6284214.5 1876554.2 1583104.8
5261305.5 -91493.375 676885.12
5903524 2251184 696540.56
1160316.6 -99233.148 1366454.2
-598697.12 2692100 717592.5
2223250.8 38479.922 326895
5707977.5 -125258.73 510430.91
4885407.5 -230928.19 668231
4681979 3217229.5 707389.44
-389131.5 -76714.133 1193340
4201371 3183250 1072022.4
-136099.09 2692100 1312649.9
5533923.5 2767994 378825.34
3858915.5 257634 2000641.5
367910.12 -209602.2 741015.06
1213614.8 3078741.8 1105027.1
-198389.88 2769775 1091421.8
5361866.5 2366084.5 1864187.2
5221957 -230683 1013477.4
4605158 3216384 727216.25
4316712 2692100 342782.97
6217656.5 1542638.8 1838565
4952236 3228370 196190.12
5261122 301825 562275.25
324489 301825 956636.5
1294552.4 1544046.1 326895
4331335 2835272.2 599792.81
2058452.6 -63771.02 1376748
-1396104.4 2659898.2 564179.19
5836302 -84296.617 636888.62
2037674.6 1513154.2 2291822.2
-1501660.9 522187.44 326895
-1215978.5 1878200.1 326895
-696393.12 162688.48 685699.19
3176509.5 2248106.5 326895
-605015.44 2692100 615553.38
1785687.2 545474.06 326895
4373246 2050660.5 2192294.2
6291737.5 2330116.8 1428097
-398218.78 1032352.2 1628778.6
5256185 431310.5 1843609.2
-1601531 1520069.2 982871
1515092.4 -67477.32 882303.94
-102735.92 -15582.797 214047.06
5480262 -12182.93 1710419.8
2938236.5 3116792.2 666485.62
4118844.2 909262.94 326895
443884.59 3221432.5 259578.31
5176436.5 -42561.18 939843
4184426.2 301825 788343.81
3061002.8 -139110 584602.75
4212238 153596.72 967427.5
1742375.2 1019235.6 326895
6252741 1680542 1729970
5175065 2962975.5 399258.5
-1268569 1259383.8 326895
2599645.8 1967921.6 2382323.2
5004966 17222.699 1327199.2
3495985.2 2718621.8 2057788.1
4249004 2692100 469459.5
2284512 1705719.2 2376491
4742784.5 -230683 190703.39
-1472414.2 2215296.8 582285
6297724 524510.62 1344324.5
4149541.8 196948.92 562559.44
5476641.5 2692100 686166.25
4814319 -136004.39 1525555.8
1271468.2 2066137.9 326895
-595136.44 2729000 893997.75
1306058.5 3138307.5 716034.12
5791443 2598081 429366.62
4060667 3088878 1527483.9
-1573898.1 2377072 340910.78
828992.69 39362.43 1587786.5
-661672.62 -186773.61 414222.28
4724176.5 2099290.5 2088626.5
-1244884.8 478679.88 1147629.9
4616509.5 3203805.5 790031.88
15970.688 2692100 423311.25
5629793 -30571.457 1687962.8
1553060.5 2583284.8 1951593.8
-940189.12 1759225.8 1502813.9
5573127 139562.38 393246.53
-853196.88 209942.34 1303809.9
704324.88 2803476 490632.75
5227928.5 3128422.5 1204321.2
3062672 -8104.731 1647290.5
4840518 2568757 341107
371686.97 321405.19 1668204.2
-403153.84 1766159.2 1633461
-869636.12 338968.62 1377555
4424765 2692100 656704.62
-186476.11 -236453.47 468353.12
5994725 2865215.2 489959.94
3385394 1788564.6 326895
-1197958.2 2243034.8 1332053
-163313.06 -28898.699 789180.62
4209983 301825 466455.69
6151238 1764243.5 1840247.6
6182819 849890.31 690049.25
6391699 2288735.5 1225940.8
116027.66 1888996.2 326895
4353995 510564.88 2151884.5
-660068.38 301825 440707.28
5906021.5 2918940.8 1709832.9
6137749 2878809.2 678722.81
5497308.5 3134026.8 668865.31
466901.06 326750 838478
3340867.2 1436341.5 326895
6273090 1412941.2 1974411.2
-1219523 2578642 1119548.6
1126214.8 907613.75 326895
4329136 2730559 611377.25
6013185.5 1635682.9 511790.91
6179434 1880719.8 1832785.5
2936975 3063119.5 1063346.4
2657368 2391745.8 2324988
154830.73 1484786.6 1734841
3661402.5 1195465 326895
-944421.62 435104.22 1192819.5
151297.95 301825 1038301.6
-694833 2932508.2 635420.81
-778038.5 186694.98 326895
5492637 241639.27 523218.28
-1404550.5 534825.56 326895
-1602471.8 1414053.2 332622.84
3045724 3063225.5 1290799.1
4919433.5 737210.81 342724.34
-1590443.2 1532158.1 867720.94
-164253.62 1920696.8 1675810.5
6185099.5 2418584.2 574747.12
1675278.2 848921.88 2115934.5
886584.62 144246.61 326895
3913729 1762990.9 326895.03
-1613391.5 1542226.2 337269.09
4412588 2670930 265993.91
-1420436.9 2377947 1121306.2
6118646 219058.41 608623.88
4848381.5 -83384.297 1352847.4
1707036.1 2202605.5 326895
2844078.2 653914.94 326895
4804506 149192 1138455.1
1106677.5 385976.31 1763604.6
6097581.5 2750668.5 761968
6363430.5 2378450.5 1051941.6
-1473322.4 652187.62 326895
3086488.8 1841443.5 326895
4838533.5 323390.19 92747.508
5061544 3178147.8 1425211.8
2310750.2 776167 326895
3880765.5 1093455.9 326895
5379367 -153123.95 935666.25
4024280 1107218.9 2303356.8
6120404.5 453817.69 690580.5
4873826.5 2974917 210252.28
5355305.5 1768911.2 1909675.9
3550120.2 1207349.9 2382145.5
5559935.5 538789.88 1825524.6
4033329 3183250 756453.94
2907523.2 3103640 326895
-255148.7 444486.66 1592321.2
6216641.5 259917.66 840665.5
4879263 -22817.109 1348318
408806.56 159059 910331.56
-1526238.2 612251.44 544350.5
4837620.5 -53123.266 1327892.8
5332267.5 507031.31 1843597.1
354780.41 268355.47 985703.12
6412889.5 1473837.2 1145646.4
2629700.5 200055.86 326895
-668171.31 -3706.1558 438315.59
1475801.1 1781887.9 326895
2897422.8 2635010 326895
-520916.69 311347.62 357953.59
5249620 301825 796831.88
3918521.2 2213973 2290302.2
3022509.5 718430.38 2357970.2
5016553.5 -66243.055 1081778.6
5443047.5 2792550.5 761559.31
4852959 3201383 833244.88
3412426.2 387436.94 2220977.2
2357320 2654273 2146104.8
1875328.9 1138595.2 2232626.8
3646587.8 -46888.246 326895
355842.19 -164825.41 1426032.9
2800067 2537514.5 326895
5280470 2870129.5 1808439.9
2739409.5 2671356.5 2120294
1509622.6 900227.56 2035372.6
2388608.5 2057007.2 326895
5003572.5 3230044.5 331501.69
6335425.5 523885.75 1137292.8
2092737.2 2804000.8 326895
5384416.5 3158260 1369375.5
-571500.38 60767.594 1049317.1
2706459 -70610.711 844504
1743036.2 1312943.5 326895
-1557638.9 529019.19 342769
3729198 1965464 2337714.2
-449464.78 -195295.8 643959.25
723833.12 3077501 326895
1666795.4 675473.94 2087199
329429.47 49298.34 1248416.5
1425396.2 -29820.121 326895
1499935.8 127288.52 1742918.2
-1338569.8 1113595.8 1324713.4
4532055.5 1501801.8 334785.25
4139018.5 66706.539 1740348.2
4388731 2780671 1913340.2
-163533.12 1657225 1681927.1
5209510 2267368 1898740
5191317 2670930 1058836.6
-1189608.2 235488.56 326895
4550741.5 844833.5 335168.22
-713133.5 293748.91 1438746.1
5638902 1118415.8 1863794.2
-762823.81 1579032.8 326895
-711737.38 1601003.5 326895
140344.42 159688.88 1309066.8
6119108 677178.5 1624103.4
2243220 1917480.1 326895
126807.4 928433.31 326895
4876774.5 1716626 341850.06
-1036570.6 2827317 1176825.4
-790371.69 217108.17 1211494.5
805296.62 -189329 490429.19
6348051.5 1357477.9 766670
5379351.5 387833.41 352150.06
5493923 3139499 559877.75
3205007 2346746.5 326895
4611962 301825 863515.5
4547139 3026580 706406.5
2545174.8 3137343.5 326895
6210520 2752818 851637.44
3565054.5 -92755.172 754707.31
-611529.94 2927581.5 893465.25
358519.56 -58310.098 1224367.5
-1460723.6 1987495 554604.06
16383.242 3017744.8 1517698.6
-691627.25 -166591.55 532099
-117593.89 2781881.5 1342486.2
-82133.18 -28898.699 742116.75
2054318 1448796 326895
-1298526.4 871853.44 1319678
4866005.5 301825 656890.62
234077.19 2414303 1702707.2
2463259.5 3055327.5 1493622
4323450 2793067.5 644049.06
6241939 2442332.5 761968
5886805 -71827.422 669037.5
1435000.6 2922102.2 1691514.8
3300139 3106128.8 659991.44
-1588684.6 1209930.8 1005868.6
4842356 -35351.047 1353731.2
4335874.5 265190.88 575876.94
2062118.5 1407697.2 326895
-1599560 1246867.8 801750.88
2977234.2 2132380.8 326895
467581.38 210920.77 1133359.8
32034.594 301825 654154.75
-1210516.2 365886.66 1127799.9
5255214 2987400.2 762085.62
6195011 619791.25 761968
3037743.8 2205553.5 2360790.5
1744598.4 1207765.9 326895
2324774.2 657676.62 2309101
3801301.2 16792.104 1686023.2
-552345.88 2921588.8 1418642.4
5760046 589854.88 1821614.4
1672894.9 -68975.75 850020.44
-1415275.8 2534599.5 326895
3344126.5 3062150 1571146.6
208990.5 2692100 656104.19
5977500 560637.5 602947.94
-676252.69 61682.797 811716.88
4231310.5 -227784.28 797592.44
2955744.2 666222.25 326895
5551625 802520 368163.28
-1217861.2 2648045.8 1129528.5
4128951.2 301825 725088.44
2669649.8 -63586.68 1491983.6
2576882.5 342966.25 2156243.5
4673105 2853095.2 1832593
-259088.59 59669.969 1058123
-688720.69 3175743 1052174
5182406.5 -2474.4219 930416.5
4466416 323282.16 1147056.5
1812945.2 -47403.34 1578904.1
3952139.5 3173814.5 740816.62
2988161.2 1703123 2421981.5
2250975.5 735090.38 326895
4168839 3127374.5 512225.34
5344696 2644722.2 351439.84
-153017.88 3183250 1415573.6
1794144.1 1156629.4 326895
3806781 728888.12 326895
5537757 1707801.8 1883092.9
1691635.5 1198213.6 326895
4041898.2 2539800 326895
-11552.562 2600139.2 326895
4439200 2568355.2 2101987.2
226754.08 3112175.5 1324931.8
5413720.5 -160441.12 1362191.1
-883648.5 293428.25 1239194
653424.94 3058693 592336.19
-216236.91 409097.75 326895
5160328 810124.75 347661.34
-12955.994 3031521 1335407
1515515.2 1725362.1 326895
6048199 638838.38 584276.75
4054459.2 2136105.8 2267321
1236146.6 954871.94 326895
3171846.8 2077880.4 326895
-887973.31 2546657.8 1207624.4
4883900 2100837.2 341996.12
5641616 2946185.8 427659.03
5623888 1274710.4 1870306
2511669 1736130.6 2408583
6014114 2550873.5 451616.41
4606055.5 112605.59 40502.758
-269832.47 2968338.5 294744.97
-349732.69 209405.16 121361.48
4107897 1222586.8 326895
-13948.797 3197820 736343.56
169039.09 2160608 326895
4290820 2670930 422212.44
-292255.56 2763491 311068.31
-386690.91 301825 933552.56
1716935.6 2785043.2 1915187.8
1377454.9 471608.5 326895
3292039 -117093.88 630216.5
712806.81 2961090 743399.5
1549634 3056337.5 1066960.4
2459044.8 341766.38 326895
3492393.5 -113292.66 603469.81
-29265.477 3228370 1169157
4931438.5 2815168.2 223208.97
-488553.06 166961.5 1475703
2926851.5 -168983.19 395327.19
-200115.84 2772098.8 1328795
2882099.5 -160661.77 425491.38
5709933 -124640.53 1259014.9
-80743.789 -106319.6 953607.56
5467873 286122.88 848580.31
291252.56 560971.44 326895
1454708 1637792.4 2032109.2
6073400 1194343.4 648260.5
4841734.5 2820932 1138420.4
1203111 3144857 784272.56
-136260.91 -185177.86 45081.066
4464118 2670930 265407.47
5467281.5 1297950.4 354092.72
1718261 -68411.852 867660.25
2556667.5 3138773.5 482891.25
-1192658.2 2900488.2 654175.94
805384.12 2196366.2 326895
4270914.5 2692100 1020615.9
469688.31 3228370 974258.25
28334.695 -234514.47 1049843.5
3316907.5 179312.75 1821771.2
4246524 2736786.2 2002531.2
201804.38 2692100 560293.12
4323409.5 2692099.8 1109898.4
4423868.5 2295076.5 332568.03
5311332.5 2692100 841084
-1000661.1 -39133.703 352478.47
2347916.8 2674195 326895
6128380 350676.91 587098
4072577.2 1480566.2 2310448.5
4387367 2692100 1047992.8
4906626.5 -233160.59 651376.75
4316617.5 1363068.8 2232251.5
4944530 16597.43 1338745.5
4966378.5 2557406.8 1922354.6
-861841.94 1546791.8 326895
2575055.2 1118302.1 2393513
1071953 3159097.5 420324.78
6134369.5 1520891.5 1842600
4536656 2692100 429940
6269549 2583953.5 992692.81
5231466 735140.69 349119.25
2340261.8 1004263.9 326895
1303982.5 -189262.23 324079.66
2335785.5 1502146.6 326895
3903082.2 2865271.8 326895
-855896.88 2212628.8 1496549.2
5593045 -52646.117 1658518
-644233.06 2751356.5 349566.19
-1064979.5 1094123.8 326895
6073400 1734318.5 675216.81
4417038 2797679 1205503.2
5887775 23378.365 1644150.4
5462916.5 2486048.5 353862.69
-1242450.2 168957.27 1075397.2
-12098.697 3114260 846618.81
-1522035.8 880703 788592.94
2269545.8 2810382.2 1856848.5
-483576.28 2813008 1430258.4
729382.69 2987967.8 1538114.9
3085536.5 2438355.8 2305827.2
4125807.5 491260.78 326895
2289210.5 1815388.1 326895
2296837.5 1903703.6 2354907.8
2425357.2 -67613.781 996457
4599715 2669185 2009054.1
-927695.62 -57811.895 911451.62
4172228.8 1783998.2 327410.81
1225883.8 3171560 365835.69
586950.81 -42487.148 995418.38
4110644.5 3022200 1658786
846173.81 -164509.84 1123631.6
470408.47 282564.59 750822.75
4915786 1857988.8 2049104.6
5236744.5 2908722 1787138
6110413.5 1525232.5 766670
6109595 2519962 761968
4927487.5 2780344 1858958.8
5509467.5 1871990.8 360707.34
6325415 1317021.5 1554088.9
927608.12 1013158.8 1755152.2
4848137 3197820 691134.44
472795.44 -18365.766 618129
5445496 24646.289 525811.31
-255145 -155630.95 1256590.2
4648323 2898506 1797638.4
399341.62 -2162.4209 1244342.4
4967970.5 1267322.4 343719.06
-9147.5703 326750 1200450.9
2093122.5 3062652.5 882271.56
-847303.5 411272.53 1298909.5
5344895 1401048.2 1908960
825011.56 714834.38 326895
-289522.19 3023720 707212.5
2939585.8 3162789 326895
5258173.5 -230683 359620.16
865784.06 1305878.2 1752605.5
-1251502.8 2556106.8 1113751.5
-1611800 1584923.5 945567.94
-505400.75 2928063 262505.12
5879300 2416639.5 707311.94
4550854.5 246237.2 1951153.5
-855733.06 433430.03 1345027.4
-245938.94 508603.53 1607345
5199051.5 248038.66 1230062.8
4571050 13008.09 1713371.1
3436630.5 212060.83 1947334.5
4919242 -26625.734 218393.73
2100483.8 680255.31 2241261.5
783597.38 3183250 773532.25
3819885.8 1966266.6 2324920
-1644563 1883625.2 441914.5
4878741 -153365 764798.75
3307311 3064486.8 1268464.8
6422507.5 1478964 1167163
1431466.8 2199102.5 1982138.9
3136379 2815486.5 1822202.6
2047413.9 3132572 635007.94
1438934 2539554.2 326895
3496836.5 646845.56 2311952.2
6274273 1977618 2000730
6073400 1512070 583091.75
1039586.4 763258.44 326895
2976103.5 -180543.66 353266.12
4786311.5 -161755.03 794321.5
3913359.5 3158139 1004255
-1134952.5 152503.73 1115392.9
5021193 2692100 532898.88
6181759.5 2400309.2 696912.19
4345481.5 3175772 525710.94
1047417.8 539619.56 1799043
5780987.5 1831082.9 403280.44
3676401.2 1484726.2 326895
-1471915.8 521178.44 972027.75
1809911.8 2801983.5 1921347.5
593471.81 3001025.8 1043452.6
2050483.8 3110818.5 1699498.6
239901.16 2678047.5 1219372.4
1649171.2 1404640.2 2134938.5
6368655.5 627607.75 1054245.5
6156093 94171.242 1082566.1
5007090 2692100 604524.38
5993012.5 -40693.613 1298627.2
-1435454.5 1325670.9 1106356.8
801061.5 383404.91 326895
5235567.5 3159952.5 513041.56
4939893.5 2710154.5 53371.621
5126383 -129010.73 1515021
421226.75 3183285.2 847450.44
5944099 1471332.5 428855.47
2859827.2 2013919 2387664.5
504507.78 671930.62 1739769.2
5893984.5 2840985 630378.25
5846977 2712674 1926166
4346373.5 -78951.156 523811.88
1097161.9 76287.984 1646187.2
2142216 1895789.2 2313591
1867157 -66102.375 956021.5
5125294 163066.84 1839334.6
5323130 -66941.195 1119451.1
2882896.2 2352884.5 2341599.5
2029431.8 1642083.6 2287632.5
-31297.225 221703.67 1355143
2400791.2 1564236.5 2400197.8
2075153.2 326704.59 326895
1439014.5 3060042.8 904731.12
-791515.62 2700540.5 1240512.5
4693173 -16105.523 1346548.8
3805630 3137030.2 781169.88
6377123.5 1925339.4 766670
1553695.9 3057525.5 973259.62
5943837 2368206.5 1942120
2823349.8 727065 326895
4843784 2473435 2016308.4
1282698.9 3083480.5 326895
-81430.5 -69785.766 951915.5
438369.69 3094939 489975.53
647170.12 2830627.8 832281.38
5883687 2536875.2 1809505.6
-226091.39 2692100 888928.44
-1023998.2 84220.422 1163250
4041531.5 3040527 1630102.2
1957040.5 3064815.8 788896.25
-920082.25 363150.38 1157098.9
2293387.5 3058699.2 1420135.8
-1197719 2860735.5 603664.94
3217398.8 2402550.2 2308528.2
-580295.25 2786185.5 956360.75
5220860.5 259741.19 868154.75
5136678 3021584 1265702.8
4842075 2671686.5 341138.91
5655818.5 1439954 383654.5
643364.56 2508105.2 1732119
-694818.69 2874134.5 634957.25
1218685.4 2797512 1714470.2
555400.38 2238035 326895
124673.43 -28898.699 754834.12
3593735.2 3092796.2 695104.88
1063343.2 -99066.594 1314503.2
-693608.94 -104270.82 595968.25
769573.25 -3148.8623 326895
1548690.8 1801338.1 326895
3665538 2750888.5 2002050.5
707449 3159867.5 510061.72
-620785.25 336392.75 1415624.2
5879300 2748588.5 658719.25
5246897.5 3056156 554425.06
4592678 2692100 534988
3603012.5 -80959.805 1516801.2
-839168.31 1367458.6 1536225.2
2081142.1 922664.75 2266142
5248420.5 2895947.5 783059.94
2260091.8 -86436.922 728475.75
2178781 2929402.2 1697730.9
6083957 234924.11 1540663.8
332878.69 2692100 433285.44
-1489654.9 1136693 1068940
1636410.5 3034060 1587281.4
-25200.098 -86164.5 483327
-167385.55 -190332.59 1086509.5
3864164.2 155376.59 1812621.5
4477852 2614475.5 2071103.4
4575646 664217.94 335678.62
6046965.5 2091421.8 1828525.6
2165907.8 1269805.8 326895
6070272.5 2558796 1578346.2
5335657 1395285.9 1908960
3085201.8 -108025.87 326895
-546528.5 -177552.73 1234344.4
5742900.5 -107354.16 495369
3452967.8 -70929.094 1449216.5
4135799.8 209200.81 1935278
1262530.6 -65161.961 1335020.4
-139735.58 3206652.2 68584.352
933789.19 -174603.55 886281.56
4985658.5 2817099.5 1098802.5
-426958.5 2808010.8 1472015
4006635.2 1674200.1 326895
884992.5 1670803.6 1753604.8
4942866 -99289.391 1576724.8
2071312 396900.41 326895
-63828.711 3083850 837861.12
-958989.5 2136743 326895
334548.66 301825 427922.31
849204.19 2636942 326895
3040566.8 430344.81 326895
5894322 599377.5 425022.25
1305704.2 -145645.78 490559.03
1977541.5 -35577.762 1598461
5718277 3049548 431030.66
5287239.5 222420.36 236886.59
760336.12 -188232.58 972214.06
6147059 2197327 1704988.2
3955670.5 2453985.8 326895
1059735.2 510942.06 1770105.1
285576.69 1467457.8 1749118.4
6154873.5 485519.06 544242.25
4885902 995221.62 342037.12
1744567.8 2137671.5 2147848
4976559.5 -54463.855 1103815.9
6238621 2521410.2 1457196.4
2111573 1637344.6 2325737
4011298 2038358.5 2290538.8
-1248424.5 255902.12 1105350.8
5929011.5 -73936.523 891242.62
680571.56 -56230.688 864466.75
4091511.8 185461.25 529817
3020392 380546.34 326895
932358.31 3103323.2 1365141.2
6411776.5 1208280 1200391
4308810.5 1762165.5 2233504.5
-139168.16 871233.44 1654558
-17070.1 3221473.8 803171.12
3076657.5 425803.75 2268906.5
-1300856 2521260 326895
6039879.5 461346 708754.62
4325741 296621.56 1081739.6
713081 2915171 631665.62
4143017.2 2885416 792874
-1417182.2 1159371 1194979.6
5801269.5 2305315.8 1824291.6
6013140 808455.56 434969.72
6048378 193060.83 571393.31
3743117.8 1280989.6 2363585.5
5093928.5 2692100 492913.56
1343206.6 -61459.492 1075712.9
4594843 3083850 733590.19
2550377.5 3138604 483503.06
2476340.2 1005826.2 2368663.8
1698383.2 651216.69 326895
176671.83 1765838.4 326895
3497207 2267009.2 2337269.5
-336019.38 1761201.4 326895
4138363 506586.62 2198768
3441722 937534.38 2360333.5
329887.06 2436380.5 1714728.4
-1286295.8 2805946.2 940544.75
5255271 962303.38 349607.12
-367461.88 676281.94 326895
655236.69 1339883.6 1764590.4
48843.543 301825 355529.97
-340127.44 -177755.52 357752.69
6131801.5 299599.47 723556.31
-440746.69 -120109.03 1357947.9
-92009.25 3078454.2 437054.44
-193223.23 2400398.2 1630456.2
4842291 2670930 148389.34
-1587740.6 1386339 836361.19
4997570 3193035 262730.12
262623.09 2762109.8 1308182.9
-269008 -31819.535 294144.81
2566999 413927.38 2250903
6441821.5 2116974.2 926422.94
4695447.5 -230683 138342.5
1039246 3052083.5 326895
271292.75 -198320.05 1050830.8
5377564.5 2617226 352113.47
6186252 1014819.5 1807971.1
607846.88 3043225.5 403951.94
4440867 -68068.867 1604511
-350377.75 1780405 1643308.6
-1611800 1464849.1 763242
66908.82 3028425 938451.12
-936021.44 2397035.2 1434905.9
255408.94 2124318 1747344.2
4224214.5 520866.81 2186314.5
881961.38 2875752.5 1639712.2
5280264.5 8610.1025 1726603.1
3139151.5 2596294.2 2241049.2
3860308.5 2404903.5 326895
-1095203.8 1548794.2 1446871.8
241142.12 1743132 1742238.5
-1445972.4 691163.69 1117531.1
2091221.5 1093721.8 326895
3882066.5 3183250 457740.81
5067882.5 2679784 1053495.6
1948094.1 -68281.273 890897.31
627077.38 301825 365401.56
-127886.48 211504 1340976.5
5938662 548103.94 1800363.6
2893069.2 967697 2385275.2
-594739.69 2716659.5 1412239.8
3090497 2873132 1753049
1374426.9 572843.06 326895
-405962.56 87691.344 1455680.4
5454870.5 -70375.516 648308
146468.94 3086827.2 676671.25
3525920.2 2830810.2 1819102.5
2792241.8 952706.19 326895
4501391.5 301825 1213651.6
5477917.5 -135942.14 428783
4390441.5 2606293.8 331882.97
185121.72 2692100 1239262.9
2070398.2 1135403 326895
4676921 3125827.8 1123707.2
831454.5 1139629.2 1753245.2
2678967 -67558.211 1319229.2
1991701 2028425.4 2238328
4333929 3181800 643118.31
4244799.5 2692100 829378.44
-144688.83 2692100 919756
3425816 -82139.664 1070871.8
4594955.5 -147081.33 1286204.8
2108675.8 509180.19 2222843
2742187.5 1086520.2 2396149.5
1258468.4 1480929.2 326895
1062751.2 1536304.4 326895
3092978.5 2914889.5 326895
1421316.1 -67993.477 866905.38
-1293738.6 2382094.8 1217309.4
6237810 324984.72 815319
904683 720745.19 1744244.1
5026938 2927771.8 1282966.8
5172153 1692999.8 347903.69
4800660 330001.16 340290.12
-288524.72 2352434 1618671.2
4662523 1795367.8 337459.12
-1363630.9 244609.61 326895.03
2384511.5 1199536 2381835
2804458.8 811488.31 326895
4955355.5 1515676.5 343460.53
-416054.44 2705868.5 472914.25
-1029870.1 750897.5 1423865.8
-1443785.6 2333796 1112962
-312517.88 633930.25 326895
384894.25 301825 670129.88
2412860.5 3172945 326895
2531965 -69049.648 934966.5
2216904.2 2274874 2287154
466836 -19171.562 768448.44
5669594 3070637.5 420718.44
6031656 2130116.5 518268.81
-702884.56 1091004.9 1563990
-1189456.6 2880048.8 907370.25
6364453 721328.75 1346850.2
-968430.81 405738.97 1199120.5
5389298 1978546.5 352353.91
5205391.5 1343841.8 348584.88
4368790 1338201 331439.22
5052014 -59422.66 748450.62
5064478.5 3213377 696710.38
6386569 1978154.1 1214836.8
1678978.9 3056959.5 1071083.6
-470781.59 539335.88 326895
6203609 543852.5 755924.19
259202.16 -76779.211 1309780.2
3939017 694547.06 2288339
4733570 2692100 700327.06
2355139.8 -85485.898 725909
-1049819.1 175082.86 1173494.8
297045.59 850146.88 326895
6431619 1344014.4 1095030.9
-445568.53 263791.31 1493628.4
5235933 2090082.8 1912336.8
5188781 3058898.5 920350.25
6368365 638087.94 1223518.4
4358651 68419.602 1754483.9
-56865.254 2743853.2 1351393
376770.59 3143329.5 960916.31
4302981 2672547.8 612334.88
97760.086 3107826.5 1487951.5
1126295.4 1718800.6 326895
3104908 2584855.5 2252645
5183847 301825 958866.88
4336933 3181800 619126.19
5396555 1058601.6 352502.62
4002121 -183045.12 874105.06
5217337 72612.945 474391.59
2028346.1 3053093.8 1480755.2
4246592.5 1230373 328934.88
-945836.19 1761589 326895
6066528 302252.91 601010.75
528748.19 2092201.8 1752251.9
-1534283.8 1203172.1 786317.44
1119688.2 2922455 1646423.9
5090546 -137874.23 1500067.2
281184.94 729583.69 1725921.1
5011960 -230683 250108.75
2937937.8 1042916.4 2392196.5
4748224 1409350.2 339215.5
416759.5 -187750.97 488809.22
5325495 3052491 1117342.6
447932.5 -12083.71 1201581.5
2709934.5 -178067.23 362593.59
2510155.2 976578.25 326895
2062536.4 2723171.5 326895
2194667 1913505.6 326895
906989.81 3173670.2 430544.81
4688754.5 -200151.59 632162.75
-525695.62 179384.88 1051987.2
-1588485.9 1920201 530939.31
2624542.2 -139110 633760.94
-96380.766 3026580 653359
6322252 2409392.5 890593
-928262.81 -100735.34 512485.09
3337580.2 1142565.5 326895
3934444.8 -136171.09 1339992.2
-407662.16 2746119.2 889744.06
4016555.2 -163928.22 1181357.5
-1611800 1447416.9 745180.88
2757286.8 2239767 326895
879127.25 1912019.6 326895
5388126.5 3112455.8 1024617.3
-715948.75 986708.12 1555052.2
5498191 -110025.63 697312.25
5153648.5 2670930 338282.66
3375413.8 -71187.797 734470.88
3037618.2 891362.62 326895
654196.75 78649.883 944732.31
5451441 210941.95 910294.06
5252467.5 36173.977 770564.56
-185143.36 3050913.2 38396.727
4774583 -138404.16 796899.25
1817243.6 692811.06 2159411.2
-1564642.5 1488829.8 1045092.8
5497541 221966.33 676360.88
297132.25 393141.69 326895
4604465 -212170.69 518405.72
2755477 -69993.695 904478.12
4209379 2992445.8 1045753.9
5404765 2406097 1845830.9
5409890 88098.031 1779622.1
5110762 2670930 1133992.2
6263465 2420339 761968
1058340.5 2727697.2 1709291.6
-886998 332646.25 1158491.9
-17728.258 -147916.02 1316203.9
3104546.8 3102673 679956.94
2468974.2 1614456.4 326895
593346.44 241826.14 951090.56
-65475.715 2939871.5 209304.53
581805.31 121639.98 1062418.8
4546886 2800919.5 1068908.2
619985.44 276168.59 466711.88
5532134 1568926.5 1883927.5
1927853.2 181049.86 1857057.6
3692015 3183250 412573.12
-493748.75 1526032.6 326895
175651.56 3194551 1101305.8
1128399.8 -143505.42 950271.81
375852.88 64605.445 1255310.4
-1517999.8 1194034.8 554579
1878554.8 -63959.301 1207438
-274378.84 -174742.81 1047789.9
1900814.9 2578132.8 326895
2159978 2081383.6 2293362.2
6000476 759754.19 416606.28
2783519.8 3062187 1144592
4408096 26965.117 1211648.8
4587800.5 -206504.08 439868.72
-283532.38 784216.56 1653925.8
5928883.5 1283440.9 1980627.8
4180413 29682.949 1710597
-134073 3083850.2 637583.38
5925330 2246922 703012.44
5534176 2260474.5 1847510.8
92666.258 3229291.2 622526.44
5486123 3148520 1292376.4
5926977 203993.61 761654.56
4901232.5 2809851.8 22990.037
3810106.5 2010963.9 326895
-56193.574 1489123.4 1702699.8
3356148 1155961.6 326895
4561068.5 2692100 1163268.5
4189446 985105.88 2244549.8
213194 3016595 1290135.8
98837.789 800837 1724105.5
1334306.2 2781056.2 1754547.5
5258609.5 1381013.6 349675.53
1434170.9 2533931 326895
69524.734 -133572.14 1352229.8
941426.88 2057987.6 326895
-1125982.5 2955352 708352.44
-861581.19 804720.81 1498112.1
6082154 1126333.2 1998642
-1337264.8 235881.25 916470.44
90850.094 301825 491109.06
3089067.2 211399.88 326895
-512989.69 -48809.324 1366945.9
-1121982 278124.53 1165935.8
3513823.2 -2127.3481 1660025.2
6395905.5 1132832.4 766670
-1099007.1 490214.06 1289530.1
3820402 -146086.89 1043736.9
5182988.5 1838074.8 1939898.6
6026081 3021579.2 1319619.5
-553755.31 266457.19 1431971.8
3824222 -105666.41 1438344.2
1631342 2662881.8 326895
4408605.5 53461.719 1209636
5802215 2718770.5 1809772.8
6381796 1078972.6 1434243
466023.16 3227245 498256.44
4296362 325689 947886.06
-1069422.9 2127307.5 326895
3562835.2 3164415.5 491519.56
-1178753 2880379.5 738403.88
4821512 301825 1204550.4
-641041.25 2878047.2 1362849.6
2600583.8 2039990.5 326895
2772059.5 599569.5 326895
5203629.5 3117001.8 160655.98
-1147108.8 961853.75 326895
-1084273.8 2485562.2 1214547.9
-1423580 812052.25 1174634.1
4465866.5 -103876.91 333926.81
6157294.5 2264579.5 1562522.6
4199471 1361642.2 327969.12
6399709.5 1589934.6 1406046.1
4667874 -230683.02 1122929.4
4539330 2153208.8 334934.31
4583569 -86164.5 727726.31
2789690.2 3112178 326895
5191619.5 2949217.2 1191996.1
3224082.5 2218695.2 2353729
4609106 -28898.699 819381.88
-1309331.2 1756480.6 1335098.2
282440.94 2962715 59909.531
4361260.5 2746145.2 853145.38
-494388.88 160047.78 1143794.8
5716756.5 -133609.38 868976.56
2846124.5 936519.56 326895
2783354.2 3063640.8 936640.38
1934479 2707908.5 326895
5523985 3183250 618588.69
-552933.25 -130243.33 340947.75
5622838 418366.94 1821866.9
-736239.12 2979905.2 326895
-404499.84 72370.078 1223932.5
5224074.5 3020138.5 488676.31
-1362417.8 2599854.5 1103890
1003698.7 2534787 1745137.5
6032103.5 2987785.5 1477353
811722.38 2082999 326895
-645817.38 2920925.5 1379117.1
3501875.8 1595922.8 326895
4976605 3204956.2 800169.44
323861.16 2568935.5 326895
4818750.5 3233156 861245.06
-1303142.2 241582.16 326895
594260.06 1074934.8 1758068.5
5963794.5 3038890 622965.31
4764295.5 -62281.043 1138492.6
-1329384.5 182532.3 550674.88
2602207.8 2885116.5 326895
789171.25 1375410.9 1735907
615849.25 3172585 888742.62
4724160.5 -233883.86 790501.25
-612435.62 2692100 636837.25
-565806.62 2673055.5 1444622.5
1795379.9 519591.16 2114987.5
5291035 1544851.4 1909184.4
3578473 3088101.2 749043
1432770.2 -87331.875 326895
46195.438 301825 331081.94
2535229.2 -140173.72 499775.91
-955294.88 2763999 326895
4756624 273538.59 204750.09
529417.56 2937762 1559066.4
-1465026.2 2171422 704082.06
2650347.8 741883.75 326895
-106017.95 1368598.6 1692480.9
3366887.5 361712.38 2197933.2
-506494.53 -139788.62 1314030.8
1901226 -67363.078 914274
6252574 332949.88 1063915
3471144 20798.055 1677985
-922406.88 374912.31 1363322.6
4139026 -50831.961 931374.81
450552.12 2748083 818725.25
5033230.5 -189329 1390774.5
2500899.8 3116126.5 662342.75
6036890 1610401.1 520104.5
1863200.4 89567.719 1825396.6
4267004.5 3008806.8 1675441.2
1304847.4 2591158.5 326895
6050715 1607637.8 524953.38
4199689 2823366.2 950936.75
727980.56 793155.62 1758124
-409723.31 749627.56 1622335.9
-779721.25 -177026.38 838237.81
5349370.5 1691016.9 1908960
3924439.2 -149798.5 1185328.4
-357654.03 13577.298 1224757
2927802.5 163914.14 1781403.2
2155726 129520.45 326895
2539670.5 2543302 2274394.5
-976638.75 411514.75 1195831.8
694144.5 301450.25 813490.5
4699123 2692100 978194.88
204984.42 -18871.424 1529289.2
5497103.5 3007926.2 738803
-731915.12 169312.72 1301110.1
469250.06 -127119.09 599637.69
5748026.5 1990904.5 399421.81
3256908.5 -71187.797 872611.44
6113871.5 109383.91 1414272.1
-455517.5 -189329 1265339.8
-293970.31 3204599.5 737814.5
-349173.88 3176569 368708.88
3204303.2 2035835 2373952
-1417976 369341.34 563249.69
2675674.2 -133183.45 326895
3106789 7964.6997 1662497.9
543493.62 2082900.2 1753118
-1027292.1 -25299.637 585520.5
2114608 211208.08 1925321
357793.41 2817779.5 1603083.5
3407634.2 3069573.2 1122582.6
5221042 3170196.5 867594.31
621826.31 2702980.5 797063
5263088.5 3177763 648094.44
6147501 729090 556118.88
4583358 297911.34 251759.23
-770670 1955993.8 1545100.9
4715152 1759791.8 338537.69
5008040 -117942.14 1546757
2271076.2 1479168.8 326895
4432762.5 55179.5 1747617.8
-237316.67 3122610.2 1275522.2
451685.53 3005398.5 815225.75
4819831 2294783.5 340683.03
3238112 162120.62 326895
1252892.1 -187429.78 326895
5091932 446936.59 346259.56
4966273 11276.555 236961.95
-1368158.6 1828077.6 326895
1803970.8 3053826.8 1427088
1047657.7 1177493.1 1817358.4
4410029 3066274 1597801.2
-911544.88 3027916.8 1082059.1
2705389 1498424.2 2431106.5
5153184 -194786.59 949007
-828367.88 300666.5 1384785.9
430864.66 2635715.8 1692478
5444007.5 154607.39 737879.81
1639386.5 2306448.5 2074916.8
4521243.5 1413897.5 334563.69
-966100.75 2547455.8 1343616.5
732257.12 3003108 326895
2733088.5 23076.379 1670807.4
1448376.8 889031.56 326895
1905466.8 734930.75 326895
5461117 3038338.5 1665768.5
595432.62 2735640.8 943665.25
3068574.5 -69592.609 1169695.6
186362.5 -204800.97 737780.31
6146807 2887528.8 1216568.1
5353323.5 3226456 529674.12
5291788 151954.72 1815607.1
2879912.2 732357.75 2359852
-35810.137 94991.344 1329974.2
1347687.4 583694.88 326895
5223973 2812593 488460.69
-1459993.8 2611013 789348.31
4510162 2870097.5 1808587.1
256668 3196724.2 1248558.4
-466717.66 326750 485926.31
-233112.38 215448.45 1072373.2
-541836.31 3228370 693517.69
1605809.2 2449442.5 326895
22183.717 1576711.6 326895
174946.44 2828855.2 234984.62
-907822.88 -100862.21 364762.59
5180354 213624.75 933657.69
1514542.6 814363.81 326895
1249625.2 2481577 326895
655458.25 2507502.5 1732775.5
3551127.5 2779558.2 326895
-1249607.1 1100172.2 1344936.6
380119.12 2692100 1137161.4
6192113 807528.38 648828.62
4929999 1688648 342940.88
5383578 110549.06 355519.12
5999483.5 3019791.8 1439514.6
-1415062.2 1760630.2 1277812.8
4481917 2506379.2 2107890.5
4184341.5 1792870.2 2261004
6141880.5 2864299 676823.75
1996254.5 2359583.5 326895
6154068 2520962.8 724040.25
-345695.5 2835605.2 980945.38
269816.25 2415560 1708018.5
