# .PCD v0.7 - Point Cloud Data file format
VERSION 0.7
FIELDS x y z
SIZE 4 4 4
TYPE F F F
COUNT 1 1 1
WIDTH 1569
HEIGHT 1
VIEWPOINT 0 0 0 1 0 0 0
POINTS 1569
DATA ascii
-33.315479 70.34935 63.97673
-33.514835 -3.9449422 17.043976
15.374201 18.822189 36.6175
-38.835587 -55.13483 47.501827
-11.054446 107.62758 61.366776
-29.70055 60.28455 71.2481
-0.39617321 56.805431 41.105839
33.866802 44.332405 49.139866
10.969166 28.527891 26.473532
-29.404087 94.296387 67.804077
24.105801 -53.687614 35.069492
29.524664 111.43277 48.593094
-29.875198 41.980362 72.033272
28.25794 -17.452656 64.395691
-14.818495 113.23531 17.227295
-45.084656 -17.865959 54.865356
22.775034 118.04797 40.937038
21.197748 118.16771 38.36702
33.968052 90.654144 59.84972
-14.859091 20.376204 41.453903
-34.68544 51.972759 47.867817
-23.114038 82.623878 17.302309
28.739641 73.125626 36.60183
5.5620651 91.886284 35.7687
-36.090431 6.851295 17.127541
33.300507 -34.002285 24.211002
14.919368 19.318291 34.615807
38.972649 96.039505 17.118294
7.3212299 61.232597 49.029282
8.0233116 24.355459 26.301544
-3.8561478 88.103081 43.039036
20.674109 26.027239 17.334221
8.257432 50.033073 75.024841
-32.11306 92.524811 58.338463
-18.017071 -23.65937 16.925842
20.00572 58.27364 36.089622
29.39036 58.390938 67.430969
34.074371 93.179779 25.934414
29.452724 9.0387945 71.230118
-22.727947 15.568662 35.238525
3.8141599 35.402161 33.808178
4.3892345 70.686188 73.989594
-31.864349 12.670902 25.911694
-26.463293 116.92073 20.568897
-43.339027 81.75647 17.629795
28.332087 39.932373 26.984085
31.121365 82.210945 30.95491
25.230976 14.107034 73.667618
40.344429 54.984268 21.31089
-38.923298 -36.216881 19.87389
-26.268316 -15.601505 65.719719
-35.698101 73.747559 54.373833
25.934345 -17.174498 43.566109
37.231773 22.338879 45.642933
-28.173836 26.358505 54.405006
23.467054 108.4568 35.7687
-31.175066 -59.669605 27.535942
-42.179771 -73.325195 34.647472
-22.038729 118.11777 38.071712
-36.543388 98.187523 49.245728
-18.484119 52.248688 72.997757
25.186554 67.005806 35.833073
-41.509422 -62.742306 43.80407
-35.071312 115.5447 20.308846
31.478422 -46.365788 14.640205
-14.958299 92.783951 12.895698
41.300766 -21.729206 36.171001
-34.403748 -16.38356 16.967365
-19.778988 -33.688183 24.210999
-6.1867943 8.2995434 38.270855
-16.081215 98.826431 71.268051
28.942163 48.498085 32.134575
-3.515727 -54.039635 14.395517
-40.805695 -70.929306 12.977045
-36.927109 65.64772 36.704372
-9.9392872 96.376892 61.094982
33.621918 26.15383 60.473846
-39.232071 66.788132 35.826897
-27.092714 56.661049 37.370464
-10.341407 -32.298561 57.668015
-3.4859805 39.221779 75.421883
23.793877 -57.552044 51.557278
-29.096628 105.88089 35.7687
-24.37549 63.504658 71.147247
17.284935 27.032112 64.403961
-31.333199 69.463837 6.5750093
36.322598 -41.438454 49.914234
-42.11237 64.40509 4.6807022
25.145456 58.064007 18.404808
-7.1549315 119.7935 40.318863
-32.906322 71.44194 65.056389
-43.715405 91.092468 17.165493
40.544315 -63.186829 2.6196904
-19.727987 38.36961 73.25811
-12.290508 101.01162 69.542786
-36.471889 -53.052193 0.37672246
-21.892483 114.40012 38.07267
-31.395664 -43.393768 52.612442
19.382164 -5.9138041 70.395905
-36.723244 86.671463 54.873695
3.9703383 56.162033 73.102341
-14.270153 78.014168 36.044319
1.5177618 57.658352 40.398006
-13.610123 38.76366 15.307337
35.909382 -69.793755 46.586449
35.149311 -26.368679 24.357628
-35.041576 105.45561 36.077141
32.744171 110.77121 39.875103
-28.758276 94.737183 67.601799
39.130093 -3.2134185 25.384483
-32.604168 23.051489 64.198135
3.7249942 94.36908 56.310749
39.411621 1.5705322 48.47768
17.072287 89.312958 35.84446
-13.722366 93.604111 71.010635
33.681976 -9.6236725 33.780403
-39.300541 -30.462486 49.391258
3.3399522 23.058853 16.463186
13.43276 -16.228088 52.867008
40.707413 -38.755363 12.15373
32.928108 -58.659546 13.360932
-37.272865 23.372059 50.095749
4.271019 -97.666153 16.772297
-27.977264 60.45105 34.039299
34.104439 43.450909 59.496391
-6.1070385 -2.5869403 71.333199
-34.758724 64.742065 53.917332
-8.4501104 118.88876 42.496635
24.105801 -51.465252 24.262293
13.085612 68.365364 36.839863
36.095062 108.6441 39.846996
-20.457645 -59.148243 51.435997
-24.539719 -10.139205 17.00786
-6.764915 -26.981005 37.233711
-5.1621885 73.717552 36.254089
35.44339 24.479847 34.969635
30.751667 77.712311 68.510254
34.094753 55.464352 59.57922
-30.826208 12.854578 71.301117
32.291561 69.423134 14.933351
-33.142242 -57.553806 0.59257376
-23.219538 53.1082 72.259987
-6.172894 4.29638 30.151421
4.6936984 68.101776 74.141624
-10.393127 -72.949532 12.087442
25.231621 99.362961 68.397919
-38.481213 -59.896156 36.278061
31.414764 21.676609 61.841896
10.12384 20.451632 33.434864
-33.268364 -14.573139 61.714851
-32.078758 -56.381474 1.0934671
-26.876219 96.132469 17.310286
10.774033 23.842953 16.700678
7.6608424 87.968521 39.712681
-11.292116 -12.310559 16.997025
-18.739841 56.740257 35.855614
-29.881069 104.50056 56.813522
19.630589 34.46043 16.384674
-37.877029 106.32112 41.206238
-23.724876 94.169479 68.837769
22.242809 88.529831 72.375443
-7.5533772 -26.232611 16.911766
-29.39385 68.237312 39.531693
35.600597 66.473297 55.588169
-19.184286 -5.0096064 27.307051
19.945948 90.310173 72.312225
27.79702 45.120323 31.534401
-19.890547 61.15403 72.264336
13.405008 23.648489 43.044624
-3.8616028 -5.3024526 70.996811
-30.217983 67.782639 71.036095
4.947711 -62.475334 51.119652
18.154093 -94.599571 14.716597
-35.213692 -2.5898976 44.049622
39.169636 -70.934319 29.184849
35.24485 97.874496 42.949421
39.182163 56.086636 50.134071
-26.012737 102.07958 17.146101
-38.433113 -27.579374 16.898014
-24.770779 28.853853 74.605988
-35.345085 34.938812 40.18232
-24.971813 -81.035339 13.608919
-20.471935 -52.837402 14.54226
-31.092766 23.284533 62.658058
-33.952507 43.80352 62.332695
13.031565 97.877075 35.7687
-33.121399 80.578506 21.920265
-26.866573 -53.015068 52.021278
-21.173281 53.922932 74.540855
-35.839664 67.552986 57.153591
33.916336 90.695557 30.547932
-8.0801516 42.299015 75.393143
13.498373 -94.957916 31.822969
41.893791 -65.077118 23.13588
-35.518482 60.128273 22.953671
-37.14098 16.684124 26.10746
10.205556 56.035942 73.10775
25.27689 6.735785 35.930382
-42.801716 -37.482571 29.962368
16.764942 31.54899 73.535629
25.166727 78.159943 20.995819
10.031584 61.534248 42.376183
42.098637 -56.548359 1.1217309
40.674793 36.507698 31.884384
-35.882069 -72.063698 27.157486
29.531361 16.298084 35.398952
4.984777 -28.116089 53.879562
-40.860264 20.97818 46.176556
14.670897 -96.687073 18.508221
18.019781 42.318367 73.373184
2.7602139 73.74794 13.425424
24.052336 90.613037 39.843857
33.78672 62.915318 47.665428
10.051661 17.247368 26.517828
33.521244 80.729385 48.924759
-37.429031 -17.273727 16.961376
-29.137106 42.292812 27.152073
7.8838129 110.32331 15.907553
-34.983349 -4.0789561 48.337318
1.390514 -1.4829736 17.035995
-19.218533 18.663506 36.102417
6.6157656 -30.27874 16.833941
-24.105881 -51.152641 14.7479
-22.341072 -48.529472 52.747646
6.2457571 110.9006 16.15769
-20.846281 71.919212 71.482735
39.592056 -57.800289 0.64160067
-16.375658 38.942753 15.292158
10.662819 17.722736 35.415764
-17.576178 92.245033 44.30011
36.422211 -83.105865 32.086899
-31.320236 59.096283 69.877579
-6.5360508 28.031017 73.648041
9.1323128 97.792816 35.7687
-38.662415 111.69826 22.922382
-30.099474 -30.036264 53.408958
-12.52198 123.19208 22.649017
23.592098 17.906771 26.05085
-29.469688 22.085239 68.419006
-30.160782 -7.9562306 67.798302
27.809013 61.464153 42.007805
4.8539901 85.623558 41.414631
-32.8349 72.481491 65.241982
-25.927988 25.97913 17.333567
0.76328027 115.84788 53.91605
-24.8943 -62.964939 29.105671
-1.3909373 88.422203 72.94632
-23.912031 -16.323786 43.791046
22.971991 89.303864 50.266159
-0.89180052 42.173992 14.930363
-11.559903 12.239744 74.644264
31.597792 15.720605 26.007862
-10.033717 -26.09963 53.892899
-32.679558 62.538372 32.980865
-24.894302 -65.729271 17.73703
31.264635 21.579206 67.759308
23.743027 64.090408 73.710197
-35.191113 89.340561 51.104069
10.557665 65.28952 72.577347
33.837101 32.350212 49.959534
-16.279104 -9.705966 69.167458
-31.841227 13.06499 17.184029
-32.937836 -0.15208006 37.733673
-10.138304 26.077772 55.414558
-41.379551 -28.108891 41.994617
-2.1599815 40.470203 75.433769
-30.237104 38.890419 26.880159
-25.701973 -15.267283 45.352375
31.541389 -71.219772 19.577408
-10.889329 7.6946182 17.106152
-31.404346 37.42448 69.922241
34.391319 -29.020302 50.107094
-2.9088049 -75.264671 11.804863
-35.117142 59.598541 41.078796
17.525284 -63.383923 13.25499
29.995388 76.593887 67.427887
-15.194366 72.715042 13.50091
-35.531796 92.509888 49.991974
-10.241534 20.778919 33.501678
21.525309 20.845066 43.53756
-40.889446 27.029564 45.024544
25.148241 63.504993 17.579466
-38.672134 43.162678 52.299892
-24.594442 60.76268 36.676666
-19.917 -24.257961 53.841484
29.244318 89.760094 31.518932
-28.525753 24.557722 46.0909
-11.091734 58.085236 35.876469
-34.791599 -84.145226 35.112236
14.488936 96.379852 61.365707
-40.323982 -30.23584 29.265791
0.68595397 92.914536 70.498718
19.279125 36.627209 39.703594
22.145067 -22.413994 42.112175
7.3894277 20.277845 40.066143
29.205925 31.446615 26.56786
-36.809547 -43.871788 49.869381
-34.568119 -53.038193 19.771547
39.367065 84.746666 48.526367
15.993896 36.090973 32.211895
-25.8141 63.477531 49.783974
31.480074 -3.7705708 41.208523
13.403196 51.56308 38.239063
18.308762 61.105659 54.396904
24.842903 65.148018 55.486565
40.398396 -5.0296998 26.944618
-41.552307 21.674135 21.132391
34.970715 -81.608963 39.635422
-24.894302 -56.144951 20.024265
35.978882 104.95556 52.590122
-34.625484 -4.0532389 25.299809
-22.567501 24.583336 17.311676
-28.04929 -89.690079 27.460495
-14.721146 -67.179604 50.33783
8.3342505 8.5539846 30.476252
-26.486504 55.554573 20.245169
8.8199463 15.657583 39.205963
28.02853 78.988998 67.300766
-19.658199 91.246452 69.636871
38.474133 21.281242 44.935417
20.408974 80.379486 70.62101
0.67301816 -50.591347 14.816405
-27.807922 57.751926 35.603825
-7.1719623 -2.2795768 71.937424
29.280165 104.69064 58.37558
19.662472 20.013165 74.766693
-30.607166 -35.544647 16.628557
-39.796989 90.893845 24.550844
-5.2220721 114.70319 35.7687
3.5563812 21.457504 33.277634
-32.97868 101.95245 52.874992
-42.648212 63.746838 36.752972
40.938553 56.237312 31.011675
-32.136597 -39.514008 10.650229
-10.897329 111.16951 35.7687
42.890198 -49.680656 3.0265865
-25.725266 -41.56847 53.227867
19.80698 56.674946 37.823177
-20.050911 -27.972713 40.547432
22.043413 114.16123 48.776657
11.354734 91.694626 57.416641
23.413013 -71.557571 12.257347
-41.09005 -20.655222 54.686497
-33.80024 100.36491 17.111292
-0.52459121 45.372601 14.594767
-29.087952 -28.646048 57.800453
8.5470161 -34.027 56.500721
-25.945202 69.026711 19.635374
-32.438061 -18.714119 58.988411
-34.792374 93.980156 53.148399
-40.501472 63.631577 47.856102
-6.8152366 -27.518856 37.042595
5.5114288 -25.506153 32.861282
-18.271669 -18.595142 16.957045
-9.6182919 -61.53952 51.216309
-42.06424 15.604006 33.794716
17.157055 97.070335 71.526077
-33.650146 71.086113 14.470941
23.44945 40.025055 39.437477
-39.488361 51.594807 51.398422
28.181576 116.27045 18.648481
-30.022812 22.249603 68.589821
39.089394 2.483201 17.426933
-26.423494 20.830261 29.733255
42.30088 -46.49382 37.338516
40.611244 52.276432 21.757549
20.562992 91.499771 39.373505
-43.62529 -61.69323 29.686878
27.108629 60.116974 30.091513
3.3497634 100.88737 69.453041
-38.51091 9.1159363 25.848972
-14.864689 -94.856422 33.034946
-19.588232 26.095795 16.693415
26.936941 95.775269 17.308344
33.562336 15.951171 60.45541
-35.372272 29.26421 41.155407
33.807579 -3.6446118 58.663048
41.096794 -76.030472 30.993938
-17.657177 -1.0473604 25.272034
-6.5280447 -14.929396 67.245872
-28.276764 26.334515 17.339172
-8.9492779 -32.48999 16.747696
-2.4439962 109.03137 15.077626
-41.151272 -22.39529 42.486938
26.198082 70.981384 70.441643
11.461451 94.307793 71.379623
35.763855 -40.778297 26.041004
17.428417 66.027908 64.126053
-10.233626 2.4530087 17.068775
-39.769375 -50.427963 36.24646
5.412416 -24.708445 32.779678
8.6118412 11.577585 25.735846
16.309729 75.646454 36.226173
-0.25067198 -13.629635 47.778713
-42.95327 66.708885 16.486889
21.629766 5.3851681 73.153282
-16.836336 -33.775204 53.823502
-34.964874 -26.958874 48.550186
-38.920197 100.41478 50.085007
24.105801 -48.204742 18.714657
4.376267 8.8017149 72.654533
34.036453 80.4907 59.86525
20.825645 -14.525681 46.543865
-12.616184 104.56186 35.7687
3.566468 77.959602 13.315474
21.374437 69.488304 36.716965
-17.539694 89.441109 44.306061
-2.7679007 -32.611217 53.840752
31.219099 -70.090034 14.241942
-32.722427 68.580124 14.837259
-37.635658 3.3053744 25.650517
30.410635 -52.769737 36.531708
-10.055992 120.40294 19.726778
42.198219 -73.790154 22.309383
3.7398865 21.359852 35.77029
-16.645624 60.931351 53.537392
36.132446 -84.185577 21.468315
22.035233 17.411518 26.037739
-5.28549 117.22837 52.609257
-42.689259 -74.753883 20.19161
-37.051872 -26.209211 50.942879
1.184514 37.479912 73.714027
-10.753417 20.977058 48.546883
40.573833 1.8220129 41.955704
40.294136 -8.4644737 43.095821
27.618427 15.716446 36.7346
30.195683 56.379585 70.888908
3.7179923 -39.033958 53.752361
-23.87723 -5.2513027 70.308105
11.603373 10.450088 35.640594
-41.650887 35.32671 21.893421
31.342121 100.87115 53.594681
32.781902 -0.3712455 34.477402
6.4736953 35.959351 15.602287
-24.796062 37.69215 27.574131
26.696247 54.996506 41.508766
-16.74836 24.857609 61.762394
33.74691 84.149246 44.36871
31.661638 0.1621573 40.214905
34.240128 2.5519695 49.24905
-34.06488 80.08535 54.497715
40.532326 29.085314 41.360901
34.563217 -66.841385 28.886297
11.753432 21.124975 30.409533
31.148321 -45.426373 18.652184
-24.276306 18.992201 34.676353
-19.699009 108.96007 35.7687
20.430237 20.882507 33.522823
14.68603 87.305115 36.886963
-38.349373 58.323738 29.385965
-4.8981423 25.839046 73.632721
-33.79969 63.320862 61.296051
-0.3318181 82.559845 71.06459
-4.6931877 66.695549 74.224335
8.0561171 61.019894 38.560787
-10.437338 -16.324362 16.972404
19.705116 93.233765 47.655388
-30.423012 59.952705 29.861126
-4.6612129 4.4205146 42.11261
29.874924 -3.6597486 67.251755
15.386331 89.437828 12.9966
-30.581314 108.55568 52.419521
38.956017 31.568235 50.861664
32.640793 67.012291 35.972054
-13.925421 -12.587554 16.994862
35.917122 22.925486 41.804855
-33.753727 59.529099 14.07351
-40.824257 54.136929 44.941936
29.64501 67.727921 39.798336
20.489922 88.781502 16.700211
24.105801 -59.134109 17.996105
32.158558 10.067646 64.673111
21.79904 9.0425968 35.749695
-26.133915 29.615133 17.390404
-17.057596 3.2046337 25.448338
23.801395 92.508537 45.172714
-7.9001455 -68.509705 12.629351
-33.811306 13.728047 25.949234
12.856158 -31.197826 24.211002
-28.062973 -67.173248 33.264435
-1.0479217 105.31056 35.7687
4.9903889 -94.03595 38.66053
30.535908 -78.573341 45.923744
-9.5872116 -42.969078 53.508675
-31.680782 84.239456 5.7700248
-10.718179 -16.206175 16.973085
39.051552 -13.493185 17.252645
24.527336 21.890413 48.691841
-35.705368 59.448883 36.796223
31.278034 60.603065 67.733704
-19.392939 22.938025 39.700703
12.705209 65.080322 62.249573
-38.038857 -38.823963 11.808845
24.972378 114.90402 37.005402
25.325771 93.988434 70.374329
18.465332 -4.9040308 36.277649
13.127317 9.5083208 17.132206
-17.53941 21.706892 31.744862
-3.7985082 88.690933 36.745773
34.937889 -12.979519 29.76749
30.090591 20.685011 70.805717
6.8455887 94.459839 51.838364
-15.003767 -44.653076 15.54121
-42.176544 -1.8876016 34.40538
6.6407828 20.949795 16.74575
22.834259 20.128975 74.391098
-28.635384 -3.2246861 35.062695
-35.535458 106.80862 53.054604
40.393555 2.4989398 27.793663
-29.684734 13.74403 71.375793
-42.986267 -63.820877 16.816734
-42.976147 -63.801289 18.52664
-26.838917 -59.075836 51.178055
19.009584 91.917618 42.529377
30.623243 90.849518 30.383514
41.718533 67.934303 2.6439328
-23.645966 22.375456 35.486977
-5.1286488 -95.408691 22.30928
24.71488 58.48465 35.532547
13.702165 117.1144 52.411079
-21.091814 -5.0528064 36.133034
28.65963 2.6550362 30.174112
35.834442 106.61295 41.018646
-18.376114 -22.097319 63.403503
-27.481993 29.719692 17.392067
6.9663153 6.4163594 34.092808
8.518549 24.356554 26.30159
38.873367 79.099854 0.67022854
-34.816486 59.25486 45.116745
1.2786725 75.34436 13.373722
11.426392 118.72502 42.401672
-29.784208 -25.76947 24.325377
21.915596 21.025858 33.55209
-25.529285 -74.617493 48.797024
-38.327202 105.72391 37.278103
20.59067 27.472252 61.149017
-25.202759 65.759834 58.164497
-32.825882 105.59621 35.7687
42.149429 87.804832 20.459663
3.4494262 91.861572 35.7687
-34.589882 47.43821 50.854393
-0.68096536 120.33573 35.775944
5.4284368 4.5463343 27.054562
-36.609314 -37.950539 26.293015
16.66366 -16.967041 43.592209
16.283859 -19.200205 56.060032
31.780916 -30.888676 16.824732
-36.108215 21.007469 39.143745
-30.462317 106.0289 57.578117
11.798428 105.18994 63.222004
-39.341679 77.254089 36.954266
-11.772121 -37.34016 53.893532
30.467073 67.744072 24.731653
-33.382984 -18.351967 60.968636
-42.048229 -31.216413 36.137833
-19.727501 118.76216 47.938835
-5.546381 -14.498478 33.05159
-41.670822 -5.2218666 22.795815
6.0775251 69.947655 13.547322
37.865097 -14.73475 16.976728
-35.028763 1.6027135 48.959297
-21.955872 -34.582226 24.211
-14.035789 97.421463 35.7687
32.069969 62.724754 63.333282
6.2859125 40.328712 73.733932
-27.493464 62.026375 32.600163
-13.075935 59.411327 74.578247
-6.6962352 -26.112144 37.731277
-24.8943 -49.460182 15.257016
-17.954374 21.197197 26.154999
39.16209 34.450817 18.046677
10.250431 64.177887 35.610313
-7.1625285 -18.080301 43.251621
9.6133575 -36.491787 28.405251
-40.987633 64.57695 43.863419
-31.4272 65.97683 12.658512
42.127831 -59.422249 24.584906
5.9205499 -26.914743 36.513569
38.999981 45.726608 27.124138
34.307533 51.924034 41.617973
-10.27361 71.4272 72.201706
-16.834099 -2.8935974 37.626194
-24.894299 -41.083519 25.421724
-35.159035 55.360531 17.761763
34.14328 109.64621 40.581184
-37.507854 -30.177483 39.18924
-35.630028 53.955444 34.660294
34.122307 -7.7848182 50.579247
3.5903656 99.516106 12.716061
-1.0664208 106.55889 62.546604
40.83736 47.982063 25.405174
-5.9071803 1.3953128 41.303402
13.078753 18.310192 74.958633
-33.555984 61.847099 63.53653
32.0854 -56.332497 0.34964556
-5.4859653 46.454826 41.098785
-28.58198 63.04771 69.455574
-1.9725564 -79.14946 11.330696
34.313267 47.332626 42.899597
35.548573 -15.073092 24.844337
11.713157 -8.1598816 48.823116
-33.317963 44.721565 27.182133
39.957722 61.245506 45.370392
9.2647123 13.569569 36.791325
-10.294724 73.70816 13.464345
16.104509 84.617233 13.141971
-39.412884 56.309925 20.793402
39.125683 -72.721642 43.77243
38.488079 64.164871 4.8412037
5.1717844 -0.31576639 71.697594
-34.425854 77.426659 46.435272
39.835403 20.755381 29.784986
40.851654 -31.414074 27.717178
-37.805313 -30.498791 35.142273
-28.732796 119.91467 20.791286
-11.87695 61.267277 56.252605
-41.278717 57.898296 38.219463
-29.745052 -1.4899983 17.060009
5.6982636 18.555157 26.441477
-40.61137 28.187304 48.134094
23.745466 -33.301121 53.923641
20.527668 26.132055 17.335857
-22.442566 32.914635 74.918747
-36.904003 -8.2119055 26.502781
25.226406 20.688309 43.060932
-34.408382 73.944321 20.059013
-21.143707 96.630295 67.518959
-12.984135 9.4895658 74.290771
-1.0690007 96.401237 71.797363
-24.783615 -31.890745 39.832001
37.450615 107.74043 35.103218
-33.452282 -63.176071 48.130646
-27.186447 55.25515 40.279758
33.783401 85.020157 47.630527
42.439426 77.507607 10.563273
42.266914 -52.889595 22.958401
23.370131 -33.250626 55.474709
-6.8585749 24.139824 73.61055
30.391064 80.859871 6.4755654
22.069223 60.002895 74.077576
-36.837223 -30.948685 24.513407
36.526615 -43.017952 32.931019
-37.2878 66.810272 35.855286
-12.910874 22.631033 52.343037
-39.583931 12.231522 25.955385
7.8677931 57.257759 73.055344
-36.920227 -8.621542 26.516556
-5.9151115 4.3611755 17.071163
-10.226217 -40.761623 16.016188
39.104408 -58.503376 36.575466
-39.257431 21.408005 47.49662
15.03195 97.000191 12.777076
-31.184387 -43.261833 15.727889
-7.5066404 10.687636 25.67988
-21.056755 -45.945354 53.070366
36.746735 -61.848854 32.289234
-36.139763 -11.013397 25.016123
42.233696 -39.593517 32.745907
32.33276 17.154243 64.295815
-29.105022 87.437042 64.941208
0.48702273 19.867477 16.580387
1.4985136 35.469841 35.641361
-11.641012 4.5208826 73.693062
-14.00156 45.951164 75.219223
35.685349 60.83633 34.942837
30.46804 -66.628548 18.2477
41.432411 69.267296 37.377617
38.928207 -10.60855 49.324905
13.171984 95.942635 57.328495
41.396622 91.854736 35.759945
41.873901 79.465637 26.58387
8.5496931 -34.111076 38.323494
-18.347244 23.449314 42.350529
-41.706009 85.085564 41.207375
-35.428261 104.64774 37.916954
20.10272 -7.639328 45.940735
-38.246399 89.315498 7.101953
-38.564602 112.11955 28.395557
-21.280697 96.371239 16.922693
22.432842 100.87337 65.120468
-7.7819467 -7.8192863 70.096466
-9.6663666 22.555338 36.773235
5.4996433 122.62997 33.031708
5.5395203 7.8329482 25.885807
14.613285 64.073761 51.825211
0.91618133 66.764656 72.561172
25.142929 -42.786175 32.736069
-21.78763 122.12595 29.781982
30.54594 -46.644329 24.479675
32.884754 20.906631 57.433426
-23.194525 118.2293 35.83992
-11.356055 114.82896 51.52552
34.354446 15.13966 58.018326
11.75513 -50.129959 14.872721
-18.650286 66.01889 63.303001
21.427275 43.230484 17.585945
-39.675598 -13.342599 49.302917
-23.78146 114.15047 46.695744
30.954752 69.234238 29.711208
38.336544 69.383362 37.390709
-15.670993 93.388336 48.199009
41.885235 76.216362 4.9863915
-13.927107 112.45374 17.027437
40.830524 7.7428746 30.289974
42.598446 -61.652157 3.1627607
-20.944492 -95.124077 19.78092
-25.033484 67.09816 36.559818
-27.44338 -12.604153 16.99197
36.482964 31.331799 17.407108
14.847244 -31.705078 54.430649
-25.61393 18.707304 38.390091
-32.886757 -11.099564 24.982471
-29.000917 47.839397 71.781921
7.2994871 58.375885 34.148388
7.7284203 91.167107 36.845043
-36.66116 53.742733 29.374277
37.988667 89.636635 31.730167
-37.756512 -38.030083 26.44548
41.936165 94.535553 23.46829
41.225342 -23.687231 33.019138
-30.740101 30.073086 71.904053
-16.340031 62.585926 72.767273
34.852676 82.816429 32.414902
40.73695 3.3784792 24.014664
-27.747677 16.957657 26.035482
30.421289 92.520256 27.460709
42.001968 75.260239 37.072876
8.3485365 96.364113 63.997307
34.054214 7.1663361 58.641151
12.580395 59.73362 36.008377
34.128349 30.122253 17.393217
21.100002 100.24095 68.924896
-20.296705 87.516312 35.7687
-28.256893 62.691845 35.038998
40.406155 -1.4588706 27.478928
-22.842342 -4.981914 27.164587
40.622494 20.966055 20.821243
-17.216251 59.875549 13.879138
19.428675 21.319582 45.876595
14.728899 -61.887512 51.10405
-24.390562 92.217171 17.301579
-5.7238765 -43.077335 53.514484
30.528282 70.424675 6.0300536
-27.8867 53.783409 38.18943
24.611309 21.781033 33.318844
14.532579 115.6163 42.519455
36.737595 -71.298172 28.701641
34.691204 -25.40918 37.923832
37.271515 22.977715 31.632687
17.207331 95.678787 60.631905
0.93024123 -31.416105 16.789581
5.0026417 33.650337 73.687286
4.3854547 8.1101789 72.592392
-4.5884571 28.427181 73.650803
37.337921 4.1443872 17.102896
-32.466259 -0.46539354 25.433342
5.4495707 10.344083 17.114416
-33.622356 -88.694298 17.398289
-25.607494 23.516254 56.017284
-41.181778 33.274734 20.838463
-14.465912 91.21479 37.207733
-41.819603 -17.227051 30.836454
-19.199167 91.975822 12.920048
-10.008844 16.754591 35.356964
-37.554256 67.410942 45.505585
2.2962008 120.02727 38.716698
-13.367062 -36.115417 53.806831
41.873901 -47.672531 25.99229
42.003021 -58.738514 10.231015
-35.666973 15.44091 27.983568
42.792191 -68.397575 20.908628
33.51704 -17.560555 38.558117
35.484863 -67.006065 28.639824
27.424927 -87.530334 36.181976
36.180958 102.94231 45.51503
17.681837 19.219481 37.841568
-31.648952 67.621101 5.9392247
3.95906 90.163651 51.518028
-32.710449 6.8020611 65.276382
36.057434 80.96312 1.040851
2.6849041 100.74158 71.057472
-21.95882 91.718628 41.036953
-25.970373 84.534348 26.127266
-9.6480131 56.909164 73.070297
27.200157 41.458672 30.483587
28.428827 103.5621 60.748669
-19.381901 21.237421 34.259468
-28.400436 47.609856 27.914364
-33.077187 -2.9469218 63.363621
-11.344568 45.914597 38.761639
7.5935159 21.890255 43.696144
-35.17709 13.558811 43.565247
27.923149 89.506851 31.781731
24.529934 93.812447 17.33493
34.768982 14.295618 56.705887
-31.613186 22.453941 69.144485
-28.035522 22.21954 51.230057
32.246052 108.22165 35.7687
-38.216557 63.323753 5.8938599
4.7409492 39.209751 41.090176
-32.070213 71.824402 8.7245026
-9.9278994 109.90095 59.342609
6.6469622 8.4225655 17.101274
-36.351318 23.978889 53.675907
35.613586 85.209778 35.093227
-28.704706 87.565033 65.319008
-8.4432926 -65.877357 12.950645
20.535269 26.299114 26.367411
11.713949 -10.257008 53.422028
6.2856588 20.590023 26.146334
31.574894 72.96344 66.522789
-35.988995 53.333893 32.597073
-31.849689 56.459808 24.233864
-4.6776366 -31.479115 16.787123
12.162558 1.0235218 71.955643
42.785255 -41.03471 13.757244
20.449402 62.697762 47.144112
39.136417 -42.636391 28.821903
-4.6103387 -39.811642 53.710815
-19.437515 -39.504967 53.651417
25.862103 47.400032 17.589909
39.876888 -61.370663 32.608727
5.0579987 -2.9354956 37.028572
-10.697959 92.10424 43.803635
-10.223014 -5.6240754 70.821381
34.107216 -9.2628126 50.321861
7.5134873 40.936161 39.214996
41.88229 -44.024208 11.938929
26.739479 26.923773 54.516014
-21.140493 -95.015793 19.904345
35.977425 84.47126 35.391819
-11.675245 -35.185001 53.815941
-13.704564 66.001892 61.75185
1.3194385 1.4086051 73.17672
-41.57579 -1.1703668 23.515287
33.523102 -16.440346 58.646652
-41.406723 -28.23143 41.774487
-10.912295 104.72176 35.7687
39.435707 95.918869 43.065399
-27.469154 91.637695 70.242043
17.18001 15.728237 35.226025
-40.197083 88.127991 33.217182
-36.944405 -34.805946 28.361469
38.184589 103.60948 38.492599
-0.20496389 11.502237 72.897186
28.225521 118.3685 19.962608
-4.7799397 91.317261 37.934399
3.3477931 14.867596 17.053919
31.326796 85.801613 29.770409
-31.728798 -44.838779 15.79603
-30.327749 -20.69351 16.941656
27.604624 -24.469759 53.970108
4.4801135 -11.788328 68.621567
-3.6749306 -18.573776 65.872124
23.820024 -31.373013 54.169071
-27.510635 -24.143429 53.660709
-42.902824 -50.898746 7.7927485
-27.658817 -86.091057 43.363091
-3.5315871 118.53189 51.53548
-9.1544428 23.113113 40.882645
-25.763885 -15.192235 24.741558
-42.357143 -63.043179 35.48867
15.363021 55.582504 13.989851
28.131569 69.391037 68.605515
-12.370566 99.739807 67.508499
-25.173878 -91.02346 27.343332
-41.642746 -30.437281 33.781803
-35.002254 -36.376781 37.859898
-35.329323 46.320854 40.008629
-24.895596 -36.337917 20.915436
0.73868465 105.23659 13.136335
-2.5797048 11.206486 17.25625
-16.439232 -9.84904 24.882526
-0.96057343 90.966141 35.7687
-39.415718 -30.165089 39.325035
42.926037 89.280151 23.845148
-21.304001 58.089745 16.556782
-32.510422 -52.364674 24.809591
30.871025 82.942917 28.985542
34.463997 -70.902222 21.173702
37.022606 -70.531128 23.039192
41.689857 -33.762993 23.38735
3.2330852 -30.590466 16.821783
-16.92997 115.06322 38.92144
34.355942 52.094685 53.671516
-25.340504 25.025911 47.695446
12.283834 -5.3583322 32.953342
-41.175407 18.551727 28.122589
18.689325 70.508224 73.871918
39.128696 108.17734 23.592196
-34.714676 -56.6161 0.40605414
23.469654 119.82359 34.483788
11.860606 20.763279 43.949524
-18.632229 33.938492 37.256195
25.187355 70.257713 34.897053
-6.3820601 59.228016 72.970825
21.244856 -10.471471 55.929462
-19.475077 -22.491076 42.079651
-1.2468227 9.8300285 72.746933
-39.45583 -15.771935 54.944954
34.257416 -0.027893364 28.82016
7.71452 53.781265 73.204475
-28.496521 39.19622 26.935644
4.8633723 57.862209 36.473167
14.013181 115.60523 41.947701
-41.134544 24.318687 28.148712
40.547546 25.461975 41.938408
-33.559025 -29.439728 51.708015
-14.110077 21.516071 46.844978
-33.966877 73.550476 62.223335
24.159767 13.22404 17.185757
-41.428234 54.925606 30.731918
-0.72363842 30.545338 75.339371
-35.788261 107.47124 50.159081
-26.248262 112.61983 35.7687
-42.15427 81.847862 40.74913
24.105801 -42.914833 27.231819
-42.245003 95.950668 22.678026
26.336115 2.2731862 71.597488
-18.087414 86.171646 35.7687
-19.151033 25.865057 50.555408
-0.086337358 16.106316 74.905441
30.944992 -36.309761 20.673149
2.2600665 -21.99942 16.935503
29.195198 -36.843899 24.171841
37.137524 -24.540823 24.450449
-27.172157 86.336166 35.846603
14.672983 -19.360205 16.952808
27.995541 62.542011 68.910683
15.67151 101.56261 35.7687
-0.26282161 49.733124 14.147877
-36.871292 76.598236 54.485855
21.273977 -77.138596 11.576146
-33.350594 29.566805 63.973083
-0.12853658 70.218674 13.505144
-29.822685 114.65282 18.38098
30.553808 -1.8812206 68.134956
24.583208 -51.815136 36.524429
5.1286554 -1.6341987 35.49012
23.74185 -13.83481 47.652958
-17.486855 -12.471067 16.994967
-40.792892 -2.1219318 19.105915
28.362507 2.2877352 70.021187
-18.107233 -95.969421 16.211988
39.810081 63.92067 46.696552
-11.745892 53.298061 73.225204
30.066633 -4.9297967 17.038523
-25.727058 22.611629 37.281967
29.178921 58.245232 39.055595
15.417059 3.6426899 17.087608
-33.430496 43.584644 63.896942
-42.935059 84.671021 3.7672858
7.3452168 -75.520233 49.094528
36.762146 110.6161 34.927151
-26.930798 -27.613945 58.944843
36.926464 105.66277 44.680016
20.202219 86.18869 72.78051
-43.393974 88.372635 25.961802
-16.39164 -5.665915 25.061766
34.416 57.243073 38.121365
28.043961 3.3693736 29.531069
19.275734 122.62192 25.677528
24.682795 99.330536 67.66597
12.506141 -94.376701 36.369717
-36.036453 -20.209593 53.316177
-21.199066 -92.282303 30.998394
10.244261 54.969482 73.153503
-32.654587 -50.40591 10.561661
-1.0599846 104.14824 12.606032
34.879753 25.201696 56.741844
4.6972561 -50.91716 14.776638
-5.6026344 -74.525215 11.895118
-16.661896 72.381958 13.510946
37.920998 10.643115 51.633244
40.26165 31.606106 43.328102
-24.818838 97.317192 66.896156
16.775051 16.673546 35.106873
14.04985 -24.353947 41.551498
12.389228 46.882893 73.500397
35.994202 -28.88199 31.945509
41.944218 84.786018 10.832878
15.724461 79.928429 71.202431
18.50016 -21.915569 24.391254
-41.790176 13.944453 39.15667
34.493294 2.9910145 52.513794
-40.703461 -7.0178056 45.738808
16.2066 80.549316 71.11055
4.0812278 83.828621 13.158842
-17.329603 -79.247307 11.318762
-26.594145 67.09951 70.533844
-40.006912 84.080299 31.570419
-13.292906 114.82221 51.271935
-25.174198 60.911896 73.795555
21.502298 -14.840421 24.723686
9.9721651 -56.976536 51.865265
30.229902 -74.856773 15.096759
22.378567 85.233612 42.487427
33.20126 -68.415695 7.4848347
-24.8943 -42.580891 22.266146
-31.804953 -39.943531 16.771194
26.106171 100.70085 62.621078
-13.38203 28.95647 73.654495
6.9734325 -36.826096 54.53997
-31.877411 -11.262746 65.077713
-34.839848 74.007729 18.854179
-43.435589 -40.349396 22.896248
-25.965469 67.840141 30.541286
34.834816 60.166603 10.868512
35.577785 99.746712 46.257874
-43.638714 73.894547 20.115919
-14.653671 91.325798 38.051334
14.484264 -14.062385 24.690458
-15.950521 18.39509 34.586517
40.643528 -18.766066 26.533371
-28.451555 -25.878506 59.860374
-36.290493 31.306963 55.007305
30.653759 18.145893 69.513969
-31.360132 -43.421654 11.673392
34.450417 -38.340469 19.775389
-39.632851 31.910053 51.131123
6.7923532 116.03651 46.183731
38.956955 -19.897888 48.764404
32.881794 0.21765161 61.792885
10.528286 63.620316 72.694603
23.469872 -36.402916 35.711399
17.139542 -72.793495 49.482548
20.887562 -18.783175 56.117981
13.862222 91.219315 37.241795
-8.1420717 93.99575 35.7687
35.363281 37.327103 32.941315
37.111938 18.999447 28.442932
33.816853 22.425629 17.278212
3.1130564 87.298973 45.422562
-39.653961 15.092135 26.053085
-23.229628 37.414482 72.726791
-24.503136 71.211098 70.997574
-38.486008 91.57032 10.476458
7.5132318 30.704239 73.666702
-33.650314 -68.722794 26.070583
31.126198 -65.359596 34.4655
-39.005692 21.406603 39.769367
22.945019 115.19556 36.990898
-25.036066 114.67101 37.232277
26.353951 9.6601686 71.151161
21.286551 59.935444 72.136368
-10.452445 95.228355 35.7687
34.322941 -22.871136 47.647968
24.150183 -91.125214 28.624666
11.12766 94.512291 12.843592
24.26071 2.6866729 36.247536
38.851913 21.182928 29.33268
-24.071177 95.192825 54.315205
14.531713 118.21085 18.56777
-11.49487 -0.81266654 36.900703
-5.256588 -36.067772 53.813786
-22.625538 9.571331 71.882782
18.498619 115.86825 36.930412
31.420561 64.184044 4.9238305
34.010036 13.516089 59.040794
-32.33337 95.252594 63.068249
-25.461908 32.012951 72.356331
-32.503357 -46.808064 15.281719
42.607967 -45.063095 7.9947472
33.225311 91.319321 10.100814
-12.333386 115.90398 43.910095
-11.130411 89.580826 12.992312
-42.217503 93.514961 33.182472
-39.013065 -20.955307 24.608515
-42.821648 64.264473 36.446686
-34.468452 -23.441498 45.981552
-17.341602 -24.993565 24.240543
28.561775 -85.016838 14.9292
12.127046 42.530865 39.100555
-33.325218 0.67421269 35.730526
-24.138489 69.46759 36.719234
-24.02109 76.790146 36.298531
32.843487 -82.773956 14.9292
-16.098354 59.740871 36.009842
-20.149244 34.678902 33.146568
13.603816 59.758564 47.75444
-19.07782 32.756531 75.265472
-21.196308 98.703613 68.462494
-13.116531 21.781492 33.624107
-10.822607 55.839043 13.952987
16.773563 117.55791 51.984074
-20.238031 -36.442867 32.427048
-32.693878 -54.598442 36.54567
37.964333 -66.384293 29.258797
35.447796 -14.12581 52.933987
8.969799 123.51685 28.288065
1.037822 65.569817 74.284981
25.82885 42.867546 39.153458
16.536808 -41.056587 53.581993
-42.752411 62.563278 8.0334682
-6.8914342 -96.649353 20.833345
28.519379 -20.985191 16.940046
25.165873 82.337677 18.829914
29.326794 55.388737 32.9688
28.564781 36.74839 34.722557
18.158016 35.772728 39.634556
37.402626 67.12883 35.913799
-24.8943 -61.396019 16.800667
-28.367018 6.4984736 17.125433
-25.925587 83.681084 72.294106
-39.712093 87.314537 49.906925
-7.0311193 -28.515455 38.524902
-42.993969 -65.281494 5.0308342
40.142918 28.56341 27.521158
-26.811975 80.030228 36.17841
-24.8943 -64.188873 15.776061
20.049938 33.950485 34.741772
-10.360077 20.03376 47.776367
38.567467 21.111645 35.861092
6.3321962 -24.130873 24.211002
36.270561 66.115761 52.10318
26.617487 95.147202 35.7687
-21.28673 117.56723 18.6019
35.795013 -40.879044 31.131969
0.81079292 68.536247 13.556141
10.079546 34.738693 75.37925
-31.490822 72.26902 6.9966731
-15.471695 -5.3215036 35.210987
-30.506704 94.684067 17.348495
5.6487341 28.098783 28.684736
-41.366341 17.383383 42.345203
25.17572 93.477669 70.579155
-29.751352 59.238609 40.046127
-33.287857 87.280884 33.749031
-24.02944 17.340452 72.160805
-32.557125 -7.0241675 41.203804
-40.769905 -24.876274 46.301323
10.308485 119.77486 44.642395
32.79163 -58.225761 48.840042
-42.662399 82.815147 7.5355153
27.903347 18.274157 46.741058
32.69109 -5.6697636 17.03334
-8.5558662 49.677773 38.3759
-43.667324 -40.292759 14.712162
40.298019 -34.279129 45.2272
-24.116478 -66.386429 50.31432
25.488853 113.92862 39.017097
34.50322 -74.107315 20.990356
-2.8565726 47.895863 14.385482
-6.6422992 -17.309134 66.267418
34.814083 109.02209 41.614861
33.088486 116.10765 34.567581
21.979715 88.528908 69.524521
-17.529568 39.112923 15.275451
-33.636459 -14.286896 46.994476
15.622496 22.404663 35.708958
-17.525921 22.022284 33.755501
-31.345205 13.217526 69.616875
-13.738974 109.53979 35.7687
12.079868 43.527618 75.334633
-10.368859 25.531683 49.427029
-31.539196 -18.984991 43.077682
11.786133 6.932497 73.98024
-19.789001 8.9073086 72.259323
35.01276 117.03504 27.250507
-24.8943 -41.301327 16.410196
24.105801 -72.174171 15.702782
-40.664967 -47.73172 45.748657
-39.76767 20.207548 50.735249
-16.834087 94.017708 59.175331
-41.245617 1.7482489 42.736088
6.5493793 92.3908 35.7687
-30.695198 -70.818138 29.339136
-27.102245 -7.7861891 25.070869
21.504307 -3.0408225 70.836311
22.422113 -24.589567 61.381741
2.7830133 88.06945 44.962296
-35.124352 91.50721 23.6329
-42.662399 -61.349766 8.6403179
-13.942576 16.941069 17.198334
-30.026985 -23.678921 60.665718
20.397614 -92.108116 34.374718
-38.096809 46.85685 27.192165
30.303322 76.359871 36.992622
5.1701608 -23.095387 63.436737
-3.7387674 54.860332 13.939852
42.099583 -55.136189 7.7017694
-32.745026 104.38211 53.108704
3.211024 83.92144 73.211067
-30.715557 68.755646 70.581329
-18.457857 -88.839882 45.317703
13.631283 -36.45808 31.176359
40.061352 54.799889 20.523453
12.227732 62.862289 47.724678
-31.077681 -73.401657 23.461908
-14.711176 -94.92775 32.059284
31.355129 78.373146 36.813042
-37.198635 -68.610001 32.271629
34.336281 69.433212 54.253063
-13.650352 -16.945501 16.968018
-16.124477 60.867744 37.474792
39.908577 -4.9333138 45.939369
-31.534649 -36.484409 29.011515
-18.359821 30.271885 26.54542
-1.0554483 21.20266 39.782684
-7.43749 -94.999878 34.56176
-34.746498 15.062717 41.586151
-36.519085 -19.341524 54.328133
30.501404 73.60891 36.948082
-30.426819 16.494703 70.672287
-45.359489 -18.964844 53.03611
5.1719899 90.373367 35.7687
41.031837 33.786472 34.76218
17.482246 -94.542549 14.664683
34.534313 -84.302856 32.334541
25.709087 61.520493 34.516418
0.14669913 110.25434 15.663026
33.640743 2.4417217 30.027096
-20.419735 66.022247 63.609962
13.708611 20.533749 42.001217
30.582457 90.047348 66.662704
-8.6145697 -0.33525944 30.232452
-6.2676172 5.8539062 26.04138
-24.8943 -74.805862 14.614419
-42.591423 -49.627655 1.4317397
41.181194 -14.882298 54.525475
34.026722 11.684008 49.466148
36.038506 -39.097267 10.489808
15.267982 11.000998 35.596619
41.126934 -14.004436 37.558334
34.487003 18.867405 28.517849
5.3760905 2.9061549 27.376659
14.092423 -29.784203 54.664951
-31.88599 67.066422 4.9082289
-20.961397 57.828571 40.448654
36.182236 -33.958847 29.306892
-36.510693 99.217506 47.447407
33.204014 -17.81773 43.704266
-6.024435 -21.146385 36.393108
-21.277414 88.985298 14.159218
-8.9099102 87.519127 38.095642
27.828205 54.031662 73.055191
22.867548 64.51532 53.319782
35.875473 23.29195 17.291798
30.570179 -67.341156 17.239096
12.911965 41.71447 14.986766
31.365772 93.796051 63.74464
-42.638103 60.532368 11.191063
-33.939308 -86.68087 21.239943
-41.963467 -41.932819 32.018307
33.441792 37.399742 26.799967
-0.010124236 110.61124 15.840179
38.577366 49.901588 27.28886
-25.910252 -70.113403 49.631416
-29.090273 116.54422 19.458235
-39.50494 45.783344 51.281288
21.391043 5.0118532 71.550797
-18.316481 -35.288406 24.211002
-24.040623 13.562838 17.188816
-27.69162 -2.7087941 25.293425
28.654823 40.342289 71.068649
-6.4056525 13.223852 32.80611
38.564747 19.466465 35.871609
-6.91642 51.085564 73.320114
28.710312 -21.097265 16.939325
26.745602 65.33596 56.326134
-40.178299 61.368755 31.739759
-42.019775 -64.142509 30.756702
32.707146 -24.142509 55.502258
21.971107 86.978432 37.276318
21.177094 43.3787 17.586555
31.483492 51.431137 27.314976
-13.775203 -5.3691216 31.688801
-7.0424252 3.1162994 33.917816
-13.380256 -52.679882 14.561485
30.612619 22.616903 61.761787
-34.937164 90.140778 52.765713
25.549595 -74.314697 19.525965
-28.971083 22.785189 71.856438
19.208015 111.45485 16.720526
-5.714694 87.80127 49.595848
39.823837 31.949276 48.239269
-23.606869 21.364328 46.097973
32.968193 -5.5521588 17.034
-5.8837605 -23.089472 30.873993
20.929792 22.443817 51.419853
-11.381638 -0.030395508 72.510651
-43.421429 64.428703 23.60128
17.931152 70.663269 71.781525
-23.209164 -20.970024 42.510601
-28.530872 -45.678864 52.658138
11.574207 17.9252 73.277367
35.438843 59.582458 13.80525
-25.841385 22.49221 26.192383
30.121365 90.544991 60.894768
-37.232063 104.83612 43.879887
40.151054 42.411713 45.094193
-35.838482 40.524979 34.896755
14.277714 22.029583 49.377201
24.105801 -52.581757 18.182842
-3.7413433 10.510985 74.513206
-41.958328 28.578079 34.694984
-43.267273 82.118355 13.972275
-25.967726 90.06105 22.480074
34.541557 -60.193146 1.1175673
34.523445 78.132065 36.851448
-42.662399 71.30809 6.8278699
-43.561726 61.788246 17.879639
21.614834 79.870529 36.101784
20.999664 104.92813 62.160355
-6.7154589 -26.303654 37.682785
-9.207037 24.194519 54.48098
-13.154229 -49.96167 52.672211
-6.2620373 7.9206462 31.681202
35.928024 -9.5501451 26.954193
-24.417339 19.634094 27.622282
23.264854 31.171495 17.414684
27.49831 -74.671783 16.517807
12.034603 72.90023 72.090134
-18.614578 -53.007103 14.521547
10.356541 92.095749 43.750648
-28.351055 108.56447 56.097916
-13.266233 95.14975 54.173523
20.49855 78.65863 17.175808
-11.454559 -4.6720018 29.394964
15.760254 120.63797 20.294796
-32.906559 90.07225 25.780455
-4.014822 -58.479969 51.722309
-27.907841 15.60895 37.874332
-42.72998 -36.298416 26.15197
-17.602747 90.516632 49.608402
-17.940506 62.705563 47.181519
-25.971411 79.94986 28.564552
33.909958 45.961731 48.383533
-30.169264 20.02075 71.712311
18.919365 -23.765646 62.378571
-6.8338289 -27.504654 37.345947
41.096306 -4.5017376 32.000309
-25.97373 75.774498 31.494225
-37.416981 16.893517 26.056372
-18.065035 81.083252 35.952785
-14.769128 -4.9364238 26.930569
35.838669 103.19779 17.003773
-7.7206697 58.898407 39.247787
15.17195 -17.139967 56.241898
40.52636 16.73143 28.72484
-25.952488 75.051788 20.877371
34.573326 62.376564 7.3114414
40.728165 23.467318 30.140978
-33.005676 78.2173 10.380358
35.679489 75.420509 33.87944
-10.645684 123.14478 31.340565
30.206757 10.383108 70.707954
-36.126724 2.6170278 25.600025
-26.009764 21.093168 72.056137
-20.461727 12.041083 72.411598
-9.4059896 91.29512 37.81802
-38.577873 109.97258 20.827728
36.76582 61.519264 33.16613
12.373813 78.139656 71.459618
6.6833277 -3.7284429 17.033531
35.174313 54.589073 32.605007
31.006907 37.774639 68.749207
-24.354885 -52.002022 52.264065
17.512156 -94.264793 32.779461
-4.5099616 -17.609474 53.927773
20.653399 52.962284 17.790922
-4.8131862 12.837294 17.227034
-31.952345 17.824585 67.927872
35.635166 -31.264477 51.081699
-43.144958 83.294426 37.485596
9.7063074 -76.700157 48.832443
22.871841 4.8504329 17.11124
-13.759195 115.55613 47.647636
24.105801 -67.570007 25.603264
-38.583305 44.677795 17.591122
-40.703625 -19.192898 18.709166
37.409786 4.9717579 25.70743
28.764206 78.524223 70.655609
-39.815411 59.292503 15.262967
-6.1052036 32.932747 75.362076
19.681286 -36.359951 39.24387
-5.6852946 84.621117 39.084019
15.281693 61.438282 41.724571
-32.126232 89.882271 25.188946
-31.960329 79.975342 36.675331
8.443821 -38.72147 53.74472
-36.904377 19.640102 17.242357
-40.541775 63.439362 47.418633
35.119396 -19.752707 24.64027
-28.463188 27.819347 17.362387
-6.7254519 103.93173 64.40834
14.906183 -22.485664 42.068283
16.222036 -94.835754 32.287613
-28.516926 48.168839 71.767838
-21.81497 57.139721 17.786905
-27.912704 31.624596 71.996414
33.260365 90.743988 30.496637
13.32105 40.610203 15.107419
14.803984 -29.096653 16.889563
4.8260241 78.107277 71.558846
-28.633299 68.627121 68.853668
-26.883024 -30.551474 24.211
-22.705669 -94.282959 20.337475
41.118519 -78.6931 20.882687
13.385212 13.293779 73.029053
-5.9725847 88.437401 13.026819
-42.890034 -64.144806 20.727472
-17.245037 -0.13282585 25.307344
38.633934 -25.135296 49.590893
30.834534 85.238037 21.446875
24.105801 -37.35038 21.03479
-21.561575 -76.748894 48.575169
34.865337 117.18071 23.56823
14.610072 114.50459 52.039852
-14.858232 -20.522575 24.409016
-16.516479 101.86429 12.647749
-32.478741 90.581207 59.213814
12.270979 87.22039 35.7687
-37.288338 -6.5605068 25.217123
5.0701585 -21.511976 33.268677
-5.6293945 -20.866152 30.969936
12.874285 17.917158 26.023438
33.098309 61.423088 62.59491
-37.411572 -45.638165 34.844437
-36.650284 -67.888962 46.804977
21.4121 108.25295 59.013729
9.8909292 119.66161 36.037342
-41.875965 3.6918666 38.529144
-41.331959 -65.300171 4.0317998
-20.427923 91.707809 40.954666
-34.24334 -12.30039 35.754856
24.105801 -74.762909 13.624549
-8.0255976 4.5352912 30.879803
30.697906 -60.458282 49.544952
0.071234837 102.31049 69.845482
-4.0155945 -44.850327 15.517134
-29.635998 112.52451 52.892052
-24.8943 -39.660736 23.916691
-31.619473 70.395279 4.2598834
34.227283 105.36952 35.969154
-24.8943 -52.889645 23.88689
-27.74983 94.106842 35.7687
23.006083 64.037514 63.21352
27.654968 84.741501 66.708046
-22.130638 60.873421 34.227745
25.167664 73.985573 23.203705
33.910538 24.229897 53.415173
-37.558273 28.039165 17.359562
-35.985516 37.832401 34.125134
-25.949747 68.50325 22.184006
-24.946302 46.661484 72.271896
-6.4613333 17.951405 39.922581
3.1010981 91.66687 41.450665
9.374918 15.620648 74.850868
27.397886 121.26888 20.317007
-16.120762 55.825691 74.749001
-25.969128 93.787842 21.652166
-28.455273 -26.604233 59.353992
-29.836349 -28.681944 16.892765
-13.31064 44.852818 14.756588
7.3740764 77.199486 35.970043
30.628382 50.13958 69.769234
40.156418 50.342064 44.255959
-4.4456291 -51.931698 52.505634
-15.116226 24.837254 47.076538
34.227856 10.206704 17.157885
-41.749798 15.255051 21.617859
-9.413269 96.196983 58.390766
15.447867 -24.045382 62.442879
-6.0322142 -34.758522 53.824055
14.427222 -5.1120272 25.074392
-31.981548 -51.562851 1.8943642
36.429195 -42.115334 28.042068
-11.291386 -95.024788 14.485865
20.560131 -77.034218 48.528492
40.144611 93.177261 40.864632
10.160935 -56.030418 14.152531
21.780285 72.274704 73.448166
31.863358 18.865726 38.823322
-21.281445 84.003174 13.811496
39.835976 87.358154 4.6347446
36.053139 -1.307194 25.913904
0.51948965 12.484531 45.049995
-38.485672 56.432465 27.852404
-8.2380276 -30.794016 28.99626
24.105801 -51.354553 19.547586
30.521183 80.594727 6.9543781
-25.654808 67.762009 70.867523
-40.555668 28.845392 19.36146
-38.627411 68.074844 42.953201
2.5357795 34.052876 30.174011
22.340717 104.17744 17.095179
-36.919895 -34.688881 27.481434
3.8193736 -66.612526 12.860914
-43.376175 -64.800552 35.999821
36.361176 -22.137627 53.241608
-39.677795 28.320467 51.090611
11.721693 122.64515 32.176994
-40.316807 15.400616 48.674755
40.412716 44.225159 30.071274
-25.057804 114.5592 35.7687
17.267742 -46.686703 53.020924
22.995255 52.951077 38.182476
-42.481426 -64.303268 39.724266
-33.708664 25.874168 17.332096
-33.838955 27.189947 17.352665
37.423096 -79.371338 38.444965
15.78631 16.517534 35.135838
-14.23245 25.99332 50.989552
-5.5722179 34.469658 75.376694
19.077198 39.768635 15.207805
-25.28336 64.42939 73.61657
24.105801 -66.970253 17.963343
34.47908 20.327377 51.628231
-8.6962671 88.937752 42.734352
-20.899494 49.123833 16.52063
-24.894299 -46.486267 31.461538
-8.99051 62.275177 45.737446
-40.281506 -74.635193 16.844379
-28.496319 113.25216 44.218376
30.846886 -10.391901 64.705467
-41.762108 -42.95739 32.880085
28.17976 -72.032227 27.245869
-31.68965 2.7275937 17.091038
5.8607459 -5.6134424 70.895996
7.824708 -91.550301 44.12149
30.569317 -36.475124 29.77491
32.096722 -1.726745 64.045471
-34.059196 -34.214455 52.010201
29.847841 -58.815205 36.549206
-24.581444 -0.27043366 36.482342
36.093536 98.751686 17.100773
36.054764 61.225784 9.0337124
-26.270201 -34.26897 54.231991
-35.451469 43.952976 38.665882
4.8608422 56.2976 41.111656
-23.790195 -83.62661 46.746876
31.26631 76.621841 1.0314608
-10.80781 90.180214 72.761848
-26.895229 39.366135 26.977686
7.8457251 15.684798 31.041265
41.066555 25.805416 33.311455
-30.164963 77.62587 70.229515
17.380413 25.548977 49.485558
-5.8089576 -38.347019 53.781567
22.223412 58.288521 17.703312
-34.604149 -22.999548 57.340134
34.01321 21.506865 49.969452
20.041889 -72.109192 49.533649
-9.6433392 57.712353 73.035835
-22.463385 121.3525 20.828644
-27.250553 -74.5354 48.573677
-30.372478 -46.926514 35.22155
-42.361687 66.74704 30.783741
40.482857 22.778635 25.488827
-10.697857 33.9328 35.303066
-1.1196563 100.66517 67.207092
-13.0965 59.889938 48.402229
-5.0059986 46.139648 41.097759
9.8566456 -77.97644 11.473875
17.658009 -93.865356 36.767708
-36.709766 -8.9091415 25.111359
-34.502602 58.262169 52.246124
-4.5080805 -2.4883327 71.379791
12.232629 -37.629017 16.398544
7.7526608 55.246769 39.255787
10.87612 -53.957909 14.405494
-1.2907971 66.473175 72.5821
0.52010429 14.161688 73.075584
20.392693 19.083815 37.42358
31.321482 83.775391 12.451187
-32.208935 -70.764389 29.410515
-32.020054 52.016617 27.322826
-8.9387779 57.250034 35.50135
