# .PCD v0.7 - Point Cloud Data file format
VERSION 0.7
FIELDS x y z
SIZE 4 4 4
TYPE F F F
COUNT 1 1 1
WIDTH 1539
HEIGHT 1
VIEWPOINT 0 0 0 1 0 0 0
POINTS 1539
DATA ascii
-7.2842484 9.3541126 0.23946716
-4.6840849 9.8898182 0.23946758
-2.3974533 9.9677896 0.23946901
-4.220129 10.150886 0.23946768
-2.2149353 10.288145 0.23946899
-2.5358276 10.32971 0.23946902
-2.4032254 10.363921 0.23946901
-2.8645105 10.490588 0.23946857
-4.3393512 10.610518 0.23946786
-4.3359075 10.800745 0.23946796
-2.2817221 10.801329 0.23946902
-2.3193531 10.919459 0.23946902
-3.7780614 11.035419 0.23946804
-6.8803062 11.143795 0.2394681
-2.7047584 11.181144 0.23946902
-2.5195825 11.21721 0.23946902
-2.0290544 11.226547 0.23946901
-3.7224655 11.358878 0.23946819
-8.3671646 11.487261 0.239467
-6.9749174 11.646825 0.23946829
-5.7942114 11.656693 0.23946831
-7.4029222 11.676403 0.23946795
-6.594799 11.845238 0.23946838
-7.6697578 11.886129 0.23946804
-5.8131404 12.125607 0.2394685
-7.3114195 12.303408 0.23946834
-2.4890223 12.395657 0.23946902
-7.1254182 12.482088 0.23946863
-7.8343048 12.635866 0.23946853
-3.3530004 12.806463 0.23946877
-1.9722986 12.868395 0.23946901
-6.3672204 12.963964 0.23946883
-2.7441711 13.120199 0.23946901
-4.6496058 13.137753 0.2394689
-4.2772632 13.138433 0.2394689
-3.8398194 13.169735 0.23946893
-7.3210111 13.254064 0.23946892
-5.861712 13.260733 0.23946896
-6.6341457 14.582106 0.23796791
-4.9208922 16.208118 0.23878619
-4.1494269 6.8614812 0.241235
-8.6051226 9.3582382 0.24324661
-7.1188798 13.488959 0.24714224
-6.6630421 14.703826 0.24446923
-4.6363111 16.077297 0.24132499
-7.4909701 2.0562768 0.25590953
-6.7158976 3.2424421 0.25809664
-4.7002277 11.795403 0.25061011
-4.7049575 13.021921 0.25576374
-6.1937323 14.011128 0.25159374
-7.4909706 1.7405059 0.26830342
-8.5949211 3.5014758 0.26119649
-1.6274111 8.9764471 0.26296136
-3.5877919 2.9721799 0.27731889
-1.5743979 9.010457 0.27628207
-6.4979134 13.756771 0.27498507
-1.952885 1.8055309 0.28153402
-4.6863594 2.7954669 0.28988752
-7.2459602 2.8324945 0.281964
-1.5367366 5.1035781 0.28257215
-1.5110469 7.4751596 0.28675741
-2.4179978 15.354479 0.28918734
-3.6357586 -2.1534977 0.29469407
-1.5521479 11.237378 0.29796836
-6.635428 13.838999 0.29531503
-5.6763744 16.268744 0.29310259
-3.9306302 2.5173018 0.30967188
-4.6888704 2.6315808 0.30154383
-4.751204 9.7445173 0.30614051
-1.5239941 11.063915 0.30358383
-8.7822208 11.606786 0.30739638
-6.2947569 2.4817729 0.31219885
-8.2461958 3.5012717 0.31801558
-5.246901 6.5185986 0.31103125
-4.0303173 15.077458 0.31852704
-3.3402414 -1.0156822 0.3288174
-7.4651213 -0.1263752 0.32849702
-2.8259697 0.035674311 0.32051769
-4.2668118 1.0636874 0.32356548
-6.697557 2.3327992 0.32279456
-7.8697548 3.500855 0.32848847
-7.7994971 14.994127 0.32586613
-4.5033512 16.147291 0.32399169
-7.3345957 1.3437994 0.33231443
-5.2298241 3.0810983 0.33501059
-4.7768497 3.9841309 0.33407551
-2.5470254 15.066635 0.33525345
-8.6205101 15.771768 0.33321813
-4.0141535 0.30541462 0.34288692
-4.4423032 1.6868654 0.34290037
-6.9112997 14.15525 0.34019306
-2.7860675 15.252956 0.34276882
-7.8135357 15.508138 0.34935823
-5.0438929 5.7338223 0.35766113
-8.9226322 6.2241569 0.35301781
-2.3489151 13.39384 0.35305512
-2.8727465 15.872389 0.35877556
-6.3346572 16.33251 0.35023445
-8.3675289 1.804262 0.36050284
-5.5135732 4.0472822 0.36296713
-5.5135779 9.6337376 0.362959
-5.6201754 13.089235 0.36775047
-3.6757376 13.439501 0.36216196
-2.6592965 15.210284 0.36864287
-7.6849566 15.232344 0.36003318
-4.0992093 -1.6612825 0.37064034
-6.8472109 2.261492 0.37549007
-5.0429759 9.0856342 0.37063906
-8.4191999 15.514519 0.37978989
-3.4461939 15.970009 0.37523472
-3.8088624 1.7131345 0.3877103
-3.0709901 -0.66132402 0.39835644
-4.3925781 2.2482412 0.39551169
-5.2545624 9.1239691 0.39275497
-1.5093627 12.368519 0.3943854
-4.3256931 15.549382 0.39850196
-3.3975384 15.880718 0.39874297
-5.0503864 7.7862978 0.40372041
-8.9454241 8.2135468 0.40403312
-1.4988558 12.260948 0.40300983
-6.5266113 13.955524 0.40864921
-8.6641502 15.09362 0.40524492
-2.4846382 15.300329 0.40112329
-6.8220367 16.454247 0.4052242
-5.4612589 5.4036813 0.4199585
-5.0574846 7.6023331 0.4188813
-4.8479333 12.379337 0.41152197
-6.9883041 13.863196 0.4182356
-6.5396972 13.932861 0.41581547
-8.4191999 15.05312 0.41780338
-5.5492072 16.54781 0.41909283
-4.7073445 0.77100658 0.42721462
-3.2890167 1.4944357 0.42507315
-3.421556 15.056195 0.42122102
-5.3512545 16.566631 0.42188275
-6.8246002 0.66942155 0.43358582
-3.0580044 1.019974 0.43358374
-3.6308134 1.477972 0.43527734
-8.0946045 1.567583 0.43275821
-5.1433678 2.953109 0.43952525
-4.9932213 3.085855 0.43952531
-4.9412751 4.9526353 0.43952599
-4.9041719 6.7711296 0.43952662
-5.4517097 6.8753448 0.43036044
-5.0660686 7.7970257 0.43952698
-4.9730577 9.6444645 0.43952763
-5.004981 11.07756 0.43952817
-5.4090867 11.831326 0.43952841
-5.1326761 11.983557 0.43952844
-4.8819475 13.009069 0.43952882
-4.8241429 13.534892 0.43937933
-4.940743 13.59481 0.43952924
-5.6009359 13.646573 0.43952942
-5.1008368 13.687369 0.4395296
-4.3871527 13.722692 0.43952975
-4.8013721 14.076963 0.43953115
-6.8535748 14.291962 0.43953195
-8.2269506 15.239432 0.43800917
-6.4265823 16.640129 0.43277714
-5.1500793 9.345274 0.44798613
-4.5074124 16.689768 0.44013512
-6.8661418 0.26283252 0.45908597
-4.9156566 0.29732603 0.45692262
-5.8559604 0.33667287 0.4544549
-3.2370386 2.2162328 0.45450813
-4.3172598 15.15061 0.45952719
-6.86097 16.708832 0.4568316
-6.5736198 0.19350962 0.46343368
-4.6788034 13.974551 0.46420598
-3.4409666 16.110228 0.46190348
-2.9729943 -1.0772773 0.47488227
-7.4909697 -0.52316093 0.47241676
-5.0814281 6.5682068 0.47646493
-5.0850897 7.2635264 0.47197244
-1.3390099 8.9202566 0.47021341
-5.6309505 12.69635 0.47421026
-2.9011507 13.398215 0.47030199
-6.6094489 16.910442 0.47284558
-6.3539495 -0.1217308 0.48320469
-5.2530122 0.97017384 0.4802731
-3.5437369 0.97215772 0.48536545
-2.16401 1.9127903 0.48435387
-5.229197 5.972259 0.48580444
-9.0060158 7.5092936 0.48799089
-5.3204451 16.4088 0.48108906
-6.4945674 17.002533 0.48649606
-4.2765317 -0.34780812 0.49738353
-7.0397978 -0.25798663 0.49175033
-5.620317 12.198747 0.49083638
-6.3667254 14.320643 0.4922061
-3.3375218 14.321995 0.49577448
-6.0324841 0.97864294 0.50199383
-5.066679 3.0529788 0.50569493
-3.381427 -3.2014449 0.51707894
-5.5863314 1.7232039 0.51888168
-6.4013033 1.7566127 0.51867962
-8.3997107 3.4918249 0.51972187
-3.4562235 -1.2776994 0.52017558
-6.0102596 -0.76137811 0.52744943
-7.5297928 -0.70426464 0.52322644
-5.3877382 -0.6696136 0.52066433
-5.0169291 2.1761856 0.52004886
-3.1980574 2.6003568 0.52246487
-5.0854025 4.1587253 0.52089471
-5.1326599 4.2191739 0.52786261
-7.9714336 15.072039 0.52348655
-5.5525784 17.187956 0.52346987
-3.6755469 13.424379 0.53290242
-3.5188227 13.459347 0.53386682
-3.3386185 15.991045 0.53459984
-3.583389 -1.1411097 0.54464585
-2.1035385 -1.0012167 0.54937321
-7.2459602 -0.99681604 0.54848903
-5.5163488 -0.98755503 0.54417294
-8.6641598 1.5860107 0.54636914
-7.8191462 1.7345366 0.54509461
-8.3821564 2.25582 0.54535079
-1.2859536 5.3654518 0.54069173
-3.6845975 13.914841 0.54642922
-6.8942289 14.927164 0.54301882
-6.7691102 17.272854 0.54990649
-8.6641598 1.7894924 0.55501032
-3.8525567 -1.4080719 0.56471425
-3.1589832 -1.3186122 0.56865114
-1.8097451 -1.195931 0.56927478
-7.327157 1.742197 0.56543052
-2.8599386 -1.4214495 0.57817781
-8.4741869 -0.36395147 0.57879317
-4.2055244 1.7495755 0.57216996
-9.0060406 3.6818135 0.5750106
-7.6469207 14.535368 0.578632
-6.6505938 14.536317 0.578632
-3.6198587 15.093762 0.57894331
-1.65277 15.244552 0.57751709
-3.7176111 15.790748 0.57432848
-4.7159071 16.4088 0.57330328
-8.6205301 1.6644653 0.58689702
-8.0462484 13.402311 0.58004159
-3.4114814 17.392771 0.58671582
-5.3772755 -1.6885859 0.59600723
-4.6546936 1.6933546 0.59976155
-2.7441061 3.4903955 0.59114814
-1.2783504 8.1405506 0.59082347
-9.0320616 8.4124708 0.59886026
-3.19805 16.722103 0.59766662
-2.3512883 -1.7182745 0.60423416
-8.5138836 -1.6013994 0.60680777
-6.8035135 1.52305 0.60419059
-3.8587065 1.6983529 0.60550159
-6.5004601 14.921645 0.60755175
-3.9794002 -2.0039952 0.61932844
-2.9852653 -1.9310659 0.61815959
-2.4406435 -1.810227 0.61113048
-3.19805 13.925313 0.61881948
-4.9132757 17.48237 0.61686146
-4.5855813 -2.0913098 0.62578458
-3.8954818 -2.0883121 0.62634695
-2.592 1.3783398 0.62102509
-6.619 14.372412 0.62893248
-4.4165092 -2.2705853 0.63904023
-4.0435634 -2.2437663 0.63802004
-4.5569696 -2.1994448 0.63378
-8.5280628 -0.34751204 0.63984156
-4.5326476 1.0296248 0.63275808
-3.2175283 -2.2447987 0.64203483
-8.7561493 -0.83535141 0.64206183
-7.2419796 14.46266 0.64409018
-5.5591459 -2.5367374 0.65871954
-4.2684994 1.8502388 0.65620965
-8.5726385 1.912505 0.65296525
-7.0846887 -2.5966299 0.66997766
-7.339632 3.8493719 0.6669274
-1.6484982 3.8572216 0.662669
-5.4659662 3.9423666 0.662669
-5.1458755 4.0743709 0.662669
-1.5716195 4.1491852 0.66266894
-5.2901344 4.207396 0.662669
-3.6691887 4.3480005 0.662669
-4.5708103 4.4343848 0.662669
-3.5047426 4.4369287 0.662669
-4.0906601 4.4994969 0.66266906
-7.4051437 4.5043602 0.66266847
-3.5253191 4.5038929 0.662669
-8.4952888 4.6345258 0.66266781
-6.4479089 4.6733456 0.66266853
-6.2183433 4.6804757 0.66266865
-1.3414111 4.7517519 0.66517818
-7.6124868 4.7602654 0.66266793
-6.1233587 4.8211756 0.66266841
-8.2375212 4.8482084 0.66266751
-5.0139313 4.9039783 0.6626687
-6.4772954 4.9409075 0.66266805
-1.842585 4.9642525 0.662669
-4.3452992 5.0025144 0.66266882
-6.9288769 5.0396838 0.66266775
-2.458499 5.0512743 0.66266906
-3.0585265 5.0919714 0.662669
-6.3109121 5.1451635 0.66266775
-8.0510159 5.1889625 0.66266698
-3.7912138 5.2391911 0.66266859
-4.007226 5.3144836 0.66266835
-8.9231071 5.380085 0.66266632
-8.0658817 5.4289865 0.66266656
-3.8807137 5.5991278 0.66266799
-1.8866591 5.6254401 0.66266882
-6.1793985 5.6647983 0.66266716
-2.2810988 5.7408834 0.66266865
-3.7407849 5.9761953 0.66266805
-7.214623 6.0072293 0.66266668
-1.5552974 6.1832652 0.66266888
-7.3282509 6.3113794 0.66266668
-6.4628286 6.3830757 0.66266704
-6.8208904 6.5133858 0.66266686
-6.9775424 6.5601864 0.6626668
-2.8419499 6.5782905 0.66266841
-8.5051079 6.617671 0.6626662
-3.6595592 6.7169709 0.66266811
-3.1534188 6.7136908 0.66266823
-8.6600819 6.9145832 0.6626662
-2.9380314 6.9219527 0.66266835
-4.3490582 6.9671946 0.66266787
-8.3361444 7.093915 0.66266626
-7.5143275 7.7079592 0.66266692
-8.7428265 7.7979126 0.66266698
-4.6950173 8.1096058 0.66266775
-6.7300987 8.1343861 0.66266745
-7.8543458 8.14221 0.66266745
-1.7218332 8.2076101 0.66266888
-8.0282698 8.2431612 0.66266763
-3.5153553 8.2683334 0.66266817
-1.5634469 8.2707233 0.66266894
-4.3048472 8.3712511 0.66266787
-8.9533491 8.4816656 0.66266787
-4.6295948 8.5383129 0.66266799
-3.8539214 8.6929417 0.66266823
-2.1478329 8.69067 0.6626687
-8.6857586 8.7349195 0.66266829
-6.049634 8.7402201 0.66266823
-6.953896 8.8948116 0.66266847
-2.5412173 8.9302378 0.66266853
-2.956449 9.0453243 0.66266865
-7.0890584 9.0721035 0.6626687
-5.761373 9.1743145 0.66266888
-8.9402237 9.2737999 0.66266894
-1.8772743 9.2750692 0.662669
-7.9874382 9.287816 0.662669
-3.9080172 9.3133812 0.662669
-6.27596 9.3286953 0.66639423
-6.5839639 9.332263 0.662669
-2.2626753 9.376956 0.662669
-1.3792402 9.3943739 0.662669
-4.925261 9.448637 0.662669
-4.132452 9.5572672 0.66166043
-8.3275976 9.5944157 0.662669
-7.1401701 9.6529818 0.662669
-1.2969434 9.7343884 0.66595125
-8.5849934 9.7840385 0.662669
-7.8928909 9.8176556 0.662669
-4.1764555 9.8985233 0.662669
-2.0123117 9.8953247 0.662669
-7.7596035 9.9732008 0.662669
-8.1469841 10.026858 0.662669
-5.5581865 10.063539 0.662669
-8.0685024 10.1089 0.66158527
-1.5902536 10.513457 0.662669
-7.2103224 10.521564 0.66266906
-1.8336633 10.544868 0.66266894
-1.6264884 10.571428 0.662669
-7.7433124 10.608417 0.662669
-6.6662717 10.646812 0.662669
-2.5358381 10.649308 0.66266894
-4.9822569 10.874165 0.662669
-7.6897035 10.88273 0.662669
-3.4462197 11.319437 0.66267067
-1.4253095 11.357579 0.66267097
-7.7167611 11.554365 0.6626696
-6.4183846 11.644787 0.66267031
-3.8861217 11.77071 0.66267169
-5.20474 11.788261 0.66267091
-7.9789944 11.856384 0.66266954
-2.4775045 11.887819 0.6626724
-3.7456243 12.014652 0.66267174
-2.521457 12.314862 0.6626724
-5.3065248 12.323462 0.66267091
-4.7861776 12.321615 0.66267121
-2.9340742 12.422779 0.66267216
-2.2341843 12.454674 0.66267264
-8.4343672 12.575482 0.66266924
-3.7871304 12.709158 0.6626718
-8.6990089 12.738563 0.6626693
-2.7571011 12.751595 0.6626724
-4.149188 12.831499 0.6626718
-2.3388329 13.152658 0.662673
-7.5262566 13.327 0.66267174
-5.4781008 13.342751 0.66267288
-7.2638297 -2.6938834 0.67857397
-5.3615789 -2.6967127 0.67054814
-6.8427391 -2.6217749 0.67082822
-6.7415833 1.0622426 0.67934108
-6.27596 9.2401638 0.67284018
-5.7643547 12.165324 0.67627382
-4.7247329 13.3616 0.67024243
-3.7554719 -2.8251081 0.68568116
-5.8901663 -2.818964 0.68199533
-7.1188798 16.548004 0.68810099
-8.1012993 7.458086 0.69849598
-9.0538521 8.4171791 0.69615209
-8.0828161 8.4618473 0.69849598
-2.1906865 9.9611816 0.69849902
-9.002758 10.517792 0.69369632
-5.9331884 16.259737 0.69144571
-8.9687452 4.4793329 0.70346761
-8.1788158 13.406919 0.70350623
-2.5893047 17.646145 0.70543551
-8.9218416 12.531959 0.71707499
-8.9061728 12.807635 0.7186355
-3.0785193 14.63287 0.71863556
-7.1812825 -2.9136739 0.72038281
-8.7285175 4.2050576 0.72325295
-8.9246578 10.946805 0.7204197
-5.7558174 12.173483 0.72969675
-3.8785951 15.346645 0.72864926
-2.7890022 -0.36189756 0.73021388
-1.3529776 4.2855124 0.73634648
-1.3978615 11.119922 0.73216921
-5.7574782 14.413166 0.73657066
-7.6490946 14.501884 0.73553628
-7.6488733 14.51195 0.73553628
-3.9867933 14.571493 0.73553902
-8.5429411 7.3504119 0.74251401
-8.9579115 11.992587 0.74891293
-5.5865068 13.3616 0.74136186
-5.4880123 13.3616 0.7401917
-7.1092877 1.9603496 0.7588836
-5.5774441 14.024059 0.75410181
-6.8794832 14.421291 0.75803053
-1.8697422 0.99200135 0.77545673
-1.2384982 5.2499914 0.77913207
-1.317229 6.1607285 0.77164793
-1.3167377 6.2418003 0.77045995
-8.8971615 12.149933 0.77990258
-3.0830557 17.778702 0.77035171
-4.9094219 1.915228 0.78399432
-8.7472582 3.8186026 0.78539836
-9.002739 6.6617785 0.7807911
-8.6293974 7.7266512 0.79810852
-3.993041 7.3256612 0.80655372
-5.7436929 8.8556108 0.80121893
-4.649477 10.694632 0.80657685
-8.6205101 15.471178 0.80301613
-8.587451 7.9315147 0.8170085
-5.0700064 16.4088 0.81748015
-2.12535 -2.8769984 0.82229686
-1.5895667 -1.7987907 0.82529736
-1.7748328 1.4948971 0.82304859
-1.3154298 6.45749 0.82594752
-1.3861736 6.9647756 0.82609051
-8.8994293 11.616322 0.8279863
-4.5206976 17.927143 0.82665336
-1.3109334 11.515415 0.83575386
-8.7640247 -1.5423491 0.84798932
-1.69642 1.5234612 0.84744501
-1.6587701 14.639407 0.84979606
-8.3081331 17.108753 0.84787023
-1.69642 1.204464 0.85000229
-4.1713839 1.4966967 0.85636359
-1.2470279 9.8922043 0.85537618
-6.3383799 18.013098 0.85227644
-2.6640131 3.7978485 0.8652761
-3.4847074 16.148781 0.86967766
-4.6879568 1.3564682 0.87922037
-5.7593284 1.3879454 0.87894523
-4.3160677 1.6395392 0.87674618
-3.2674274 1.6385453 0.87675488
-1.3567202 4.1051006 0.87314624
-1.6494901 5.423337 0.87236649
-5.8416991 7.3125372 0.8705132
-4.2819977 7.3107867 0.87904328
-9.0640211 10.286757 0.87896371
-8.4629126 17.098751 0.87113523
-8.4752846 17.603672 0.87774628
-4.4070387 17.917315 0.87264776
-7.2818203 3.7939157 0.88043582
-5.599535 7.1555133 0.89369792
-9.1276436 6.667562 0.90151513
-4.5868778 12.616603 0.90489376
-5.1566448 14.511925 0.90281141
-8.6205101 15.096434 0.90317571
-8.5857716 7.3265743 0.9177202
-8.1103916 17.10561 0.919146
-8.9976244 5.8182535 0.92654508
-5.4142799 14.536236 0.92560291
-7.7325497 15.2092 0.92237246
-3.8836229 16.020889 0.92265892
-1.8038332 17.537823 0.92477649
-5.3030758 3.7796474 0.93536139
-8.1746874 9.2994661 0.9302277
-7.3042474 17.104786 0.93213123
-7.3784218 -3.1064401 0.94520551
-3.7948978 14.558817 0.9467721
-6.5004606 14.938335 0.94833136
-6.7440295 17.953903 0.94199646
-4.2615457 -3.19227 0.95886284
-3.1980543 2.8492866 0.95202184
-1.7715437 7.3294458 0.95659935
-5.5804648 8.5848932 0.9640618
-4.1784759 14.582285 0.96877354
-9.0017357 6.4963017 0.97596538
-4.6126213 7.8707523 0.9762671
-1.3379738 12.829472 0.97380543
-3.8935013 15.430896 0.97952253
-4.3172598 16.257412 0.97472435
-2.5702293 -3.1040404 0.98494601
-7.6981401 1.3655131 0.98556608
-3.1980476 16.653755 0.98706537
-1.3571842 4.0547295 0.99794513
-7.2480693 12.505143 0.99074054
-6.5004597 15.121469 0.99718833
-1.5683671 3.4191329 1.0122284
-8.9525232 3.7701781 1.0154967
-5.8863983 14.067953 1.0111817
-4.3846698 14.067936 1.0113398
-3.9276276 14.45531 1.0198866
-5.8985395 13.3616 1.0263119
-6.5004601 14.444567 1.0275614
-4.7428117 14.637181 1.0202377
-9.0550518 3.3342562 1.0309314
-5.5611577 7.0356393 1.0353295
-8.1839256 -3.7020681 1.0415328
-7.8112369 -3.5777099 1.0411993
-8.978796 9.2523565 1.0411747
-6.136785 -3.7915127 1.053766
-8.630477 7.8733473 1.0566657
-7.1188793 13.991794 1.0588212
-5.2209206 18.127237 1.0594904
-3.19806 0.92614079 1.0613883
-3.6539457 -3.8083081 1.0775282
-4.7826686 6.4415793 1.0704179
-6.1679239 10.085536 1.0726998
-7.642838 15.235903 1.0764693
-8.3404341 -3.745805 1.0893129
-1.2992753 12.739363 1.088371
-7.0091543 15.861636 1.0862221
-4.3960052 16.4088 1.0807227
-1.1372207 7.6184607 1.0964737
-1.75899 15.320199 1.0917623
-8.3675299 1.563248 1.1021487
-6.1269403 -3.5917089 1.1288002
-8.7781019 -2.0670643 1.1223118
-4.8019848 7.156301 1.1267775
-4.7863812 10.013343 1.1264356
-1.7603807 14.931278 1.1200122
-6.458498 18.085056 1.1272378
-7.4396286 -3.5531771 1.1355914
-7.3119426 -3.5579882 1.1326922
-7.1150632 7.2721176 1.134217
-8.6280174 9.0119896 1.1391258
-4.4561591 18.097145 1.133556
-6.5015192 14.766059 1.1410578
-7.4719553 -3.2041643 1.1544981
-3.7504764 -3.8601251 1.1636767
-6.7466459 -3.8518643 1.1621575
-8.7987165 4.1726847 1.1620436
-1.3251728 8.220088 1.1656815
-4.3172598 14.154023 1.1626875
-7.1188898 0.037581757 1.178599
-3.9353118 14.806112 1.1786075
-7.0981674 -3.442405 1.1853396
-8.5448532 1.7192197 1.1833808
-4.2277341 3.8354223 1.1848758
-7.6017103 3.8431921 1.1866556
-8.9401703 -2.528837 1.1908662
-1.3443885 4.527956 1.1960636
-4.6655579 8.3852892 1.1992291
-4.8623343 -3.881701 1.2002182
-8.5302534 1.65992 1.2026484
-1.963021 3.7086892 1.2085674
-1.1025441 6.6725707 1.2043868
-3.4506404 7.8683209 1.2081723
-8.9594316 9.8695526 1.2061363
-2.9383438 7.2279282 1.2100194
-7.0222611 7.8464336 1.2104995
-4.6668177 12.381796 1.2175775
-8.8903961 12.642346 1.218243
-4.0005975 13.3616 1.2121713
-8.5313883 17.73934 1.2127696
-5.3663511 -3.2679424 1.2291714
-1.5139848 -2.0392375 1.22039
-7.7581263 4.0210829 1.2274003
-2.2253747 7.8614278 1.2254119
-6.8670177 7.9483733 1.2265075
-6.5004601 16.382992 1.224551
-8.6883602 -2.5841312 1.2340448
-5.7460766 9.3914976 1.2315464
-5.2442522 15.270852 1.2333282
-5.7096119 15.323887 1.2345203
-5.1591053 15.41008 1.2364576
-4.7772636 15.527481 1.2390964
-1.6209242 5.5655742 1.2473011
-1.6992216 7.5753784 1.2471832
-3.4866586 7.8288536 1.247493
-3.94346 16.03195 1.2437836
-5.3367376 5.5997863 1.2537184
-4.8911428 6.3026657 1.2576708
-5.2442369 8.9110374 1.2545388
-1.1404136 10.005295 1.2560025
-5.5009251 10.013115 1.2511165
-5.3450255 3.6953049 1.2600963
-1.8372456 3.9375854 1.264383
-7.9230666 4.1818027 1.2642107
-1.4194443 12.051253 1.2628125
-1.560514 3.2884288 1.2725573
-6.4449124 3.6912112 1.2758561
-5.9754467 4.1884894 1.27037
-8.0624847 17.083097 1.2745688
-2.5556674 18.352665 1.2775953
-7.9356632 -3.2423174 1.2879409
-3.5073791 4.2618561 1.2825532
-6.3603745 4.2763295 1.2858685
-9.2125683 5.0868359 1.2847691
-8.9053726 11.440054 1.2870789
-1.4136606 11.488493 1.2849154
-2.6578135 -3.5679922 1.2906463
-7.1188898 1.3575455 1.2943531
-9.1977482 4.3120713 1.2996559
-7.1188793 14.913301 1.29758
-4.4630971 -3.9450092 1.3099912
-4.4165373 -3.9400072 1.3009851
-8.9714155 4.4789066 1.3097949
-2.5849402 10.047192 1.3065466
-4.7443466 -4.0555058 1.3160312
-2.1798065 -3.8817139 1.3189784
-3.1980557 2.2243752 1.3160871
-6.158884 4.4008951 1.3144003
-3.7241876 4.4275455 1.3178961
-7.0651689 4.4581141 1.3198811
-1.7456695 7.2648358 1.317049
-6.1554627 8.2354488 1.3147385
-6.0952764 12.774618 1.3167787
-5.9630737 12.886276 1.3155
-7.623693 15.269051 1.3119249
-4.2486 -3.281302 1.3235635
-1.5328054 -2.3940287 1.3242192
-8.0632286 3.3930402 1.3279051
-6.1300983 4.494936 1.3222831
-2.7279093 4.5465317 1.3256433
-2.4411669 4.5416656 1.3253264
-2.3564444 4.5752473 1.3275129
-9.2263727 5.3222904 1.3277698
-8.8987961 11.757236 1.3275096
-7.3335943 4.6872778 1.3348026
-6.1276922 4.7480164 1.338761
-1.6985369 18.311428 1.3302829
-4.3352194 18.329502 1.3319921
-1.3884805 -1.1442178 1.3481238
-1.6299603 3.6737094 1.3432505
-2.8253324 13.330837 1.3471477
-7.7803607 18.550671 1.3420055
-9.2321568 5.3233323 1.3571904
-2.3497734 8.6563129 1.3514572
-2.2769899 8.7309837 1.356319
-4.9100347 10.402001 1.3506078
-3.3695817 15.881518 1.354643
-1.9425739 -3.9595842 1.3655525
-8.8344994 4.3586864 1.3637398
-5.5012732 8.109745 1.3642378
-4.174448 8.408061 1.3676922
-3.7830782 10.067384 1.3669397
-9.1809444 10.551685 1.3686843
-8.2226686 13.280315 1.3602498
-6.6547594 18.316792 1.3658384
-4.5403028 -4.088089 1.3703257
-6.9558611 -3.2886348 1.3776422
-5.2266021 3.6656437 1.3743007
-5.1173668 3.8079414 1.3755548
-6.1286707 8.4598331 1.3794607
-5.6373386 8.602911 1.3714409
-7.3753934 -3.424674 1.387719
-2.550761 3.6619728 1.3884389
-4.5459499 18.039747 1.3809506
-3.6750419 -3.6264153 1.3981922
-2.5105009 1.2022308 1.3991841
-1.89691 5.9620919 1.3987739
-7.3505611 -3.2919385 1.4019833
-4.7231774 12.081306 1.4005542
-3.0671186 18.075026 1.40188
-2.0728421 3.8210075 1.4128124
-3.3495195 14.762941 1.4157702
-7.4245982 18.631664 1.4104362
-1.1235951 10.490182 1.4218444
-7.1188798 15.624061 1.4261234
-7.6939144 -0.1778532 1.4367476
-6.7476029 13.361599 1.4376967
-3.19805 13.630155 1.4303429
-7.454627 -4.0832987 1.4460118
-5.4987297 -4.0203233 1.4456068
-6.3699422 3.6471839 1.4453759
-8.66329 3.9407485 1.4414451
-5.2254171 4.3844471 1.4453536
-2.3157253 5.1171017 1.4411511
-8.200861 7.1239882 1.4483178
-2.5522423 -3.2998734 1.4580337
-7.1189542 3.6418769 1.4518431
-1.3811694 -1.4120754 1.4674889
-8.9974518 5.7897296 1.4644141
-2.9036705 7.1197004 1.4624277
-2.8529139 13.332743 1.4673622
-4.7924042 18.008221 1.4651059
-2.542007 -4.0120621 1.4770132
-8.1411028 -3.3178806 1.4730527
-2.9633613 -4.0199523 1.4823186
-6.9480534 18.794456 1.4840171
-5.0452099 18.862185 1.48973
-1.827858 3.2468188 1.4900805
-1.5718565 3.5926583 1.4936404
-2.829423 9.2202129 1.4970235
-6.4639635 13.3616 1.491847
-7.1188793 14.390509 1.4998293
-6.5019646 -3.3671284 1.5087943
-8.7763205 -2.5714457 1.5053589
-2.0732131 -0.13162781 1.508131
-2.1607666 3.7389567 1.5055295
-3.9495037 7.1074018 1.5029566
-8.6864052 18.386002 1.509547
-6.7759848 -3.3894558 1.525843
-8.8269072 -2.3927429 1.5271273
-2.1168876 3.5607426 1.5207386
-1.7406325 4.8476138 1.5256079
-1.038595 7.1556206 1.5262899
-7.875308 13.304321 1.5200918
-7.6720543 15.773373 1.5241407
-9.0553207 0.035548292 1.5341514
-6.3411212 6.1281786 1.5362747
-1.4514253 6.9443436 1.535105
-1.7686661 9.6735802 1.5303458
-6.9868851 16.053696 1.5381678
-3.3646936 -3.6364682 1.5423473
-3.7644601 -3.4127326 1.5431941
-2.5336761 3.5275195 1.548947
-8.5580311 4.9214835 1.5449029
-5.6018586 6.138536 1.5425508
-8.1769762 9.1859179 1.5437784
-1.9509852 18.325476 1.5459915
-1.9978127 -3.8719778 1.5592792
-7.2884746 -3.6265008 1.5589132
-2.6029098 1.2209332 1.5598744
-7.1683722 5.3936386 1.5547638
-3.0927615 5.401866 1.5573877
-1.0349722 7.319272 1.5549566
-7.699173 7.7476754 1.5557997
-3.4499288 9.3492441 1.5533227
-8.3638611 18.624161 1.5564634
-7.375762 -3.6235867 1.5618184
-7.6837254 -3.6125338 1.5687683
-6.9078979 -3.4436624 1.5666419
-2.3038464 3.2651126 1.5604604
-7.7390137 5.4368553 1.5685441
-4.9360619 12.195422 1.5657406
-2.8213341 13.589232 1.5632143
-2.8790557 -3.4614377 1.5776677
-1.9823424 3.499404 1.5728191
-4.5229712 3.5006652 1.5717456
-3.2622993 3.5543242 1.5722151
-8.5882339 7.1940999 1.5740898
-6.011404 7.9197259 1.5787175
-6.0506811 9.9716301 1.5795643
-7.8509121 3.4861777 1.5840421
-1.3119228 6.9333992 1.5809259
-4.1090207 7.8186722 1.5803701
-5.1004972 8.5721684 1.5841336
-3.124994 10.153975 1.5880213
-8.8970957 12.197608 1.5879166
-7.1188803 15.164633 1.5883665
-3.3016348 18.4132 1.5897286
-3.9076047 -3.6688976 1.5976086
-2.7763193 -3.4740322 1.5927272
-2.6164305 1.1862321 1.593812
-7.3216171 3.5368531 1.5909516
-2.8193507 3.5337362 1.594285
-7.7635803 10.118271 1.5923617
-7.76653 13.607669 1.5974834
-2.4227586 18.673727 1.598186
-2.4559569 3.5275624 1.6009059
-1.0606394 4.2270112 1.6086384
-2.1923862 7.0767932 1.6038195
-2.2797804 7.7721453 1.6062893
-2.1899972 10.052637 1.6039534
-7.2987313 7.7422829 1.6197209
-8.6997137 7.8752584 1.6187949
-3.5211995 13.3616 1.6123471
-1.0868804 3.1298606 1.6232818
-7.9963007 5.5973172 1.6296614
-4.6871972 7.8691406 1.6270088
-7.269587 18.027845 1.6291066
-5.7648849 -3.9992161 1.6341028
-4.627522 -3.9073372 1.6333467
-6.672205 -3.8731744 1.6331314
-2.7487955 -3.8179717 1.632982
-5.7857018 -3.7019572 1.6316569
-5.1610451 -3.5346208 1.6338681
-8.9652882 4.2131195 1.6382461
-5.0003719 5.0878468 1.6303413
-8.6313496 7.4331651 1.6363127
-9.196166 11.501299 1.6313218
-1.2486598 -0.023112789 1.6432407
-7.3047051 3.4153304 1.6441971
-1.0239553 7.8572006 1.6445009
-8.3489943 9.368082 1.6465822
-4.7017446 3.4009833 1.6563826
-1.2613132 -0.25248298 1.663274
-2.5940552 1.0095489 1.6634289
-5.7405806 9.2220783 1.6613376
-5.4817214 13.03736 1.6624253
-2.8507023 13.64284 1.6628809
-6.2579474 18.912014 1.6618257
-8.5643005 -3.9402268 1.67558
-1.5915003 -3.6416922 1.67558
-3.7297504 -3.5893946 1.6709508
-9.0083628 -2.745085 1.6735491
-8.9717665 -2.6736403 1.67558
-1.2904642 0.37666833 1.6709112
-2.5781217 9.7360172 1.6770557
-8.6906643 13.751011 1.6762185
-8.3627205 16.950775 1.6737324
-4.9969215 3.3696432 1.682992
-3.6426313 5.916954 1.6893165
-1.3205631 7.864532 1.6876327
-5.2841711 13.185048 1.6817997
-5.1948757 18.110477 1.6886089
-2.7888181 18.752213 1.6878392
-9.2831392 4.678093 1.6930598
-9.2870159 9.2489653 1.6995692
-8.4486876 9.458889 1.6998169
-9.2230616 11.21172 1.6974558
-4.1832647 18.886639 1.6915287
-8.1285439 5.8293257 1.700235
-3.3937626 7.7334342 1.7097719
-7.9242511 13.664131 1.702457
-8.0422812 3.3349898 1.712411
-4.0750551 3.336235 1.7113593
-8.3118925 5.8190575 1.7187011
-3.789341 6.1049976 1.7149855
-8.9488554 10.197123 1.7161049
-3.6618931 18.139793 1.7111413
-2.4825501 1.0170232 1.726275
-4.2884035 3.3204966 1.724722
-8.9837523 8.8701715 1.7260444
-7.9508028 13.677475 1.7272664
-1.0602527 3.3194275 1.7388848
-9.3110285 5.6203957 1.7321472
-5.0531912 5.8340521 1.7305852
-2.9669192 10.05902 1.7324365
-6.6941109 10.088122 1.7345417
-2.9905663 3.3954563 1.740346
-8.5190849 5.8271103 1.7414569
-7.1188798 15.844609 1.744226
-8.4012995 16.904442 1.7457504
-2.5590897 18.365623 1.7459677
-1.6783279 7.1215425 1.7528918
-7.1188898 0.50452626 1.7623067
-3.19806 0.98603499 1.7683475
-9.2792673 2.5618725 1.7613745
-8.0129242 3.2605281 1.7756344
-2.4145229 3.2619789 1.7744083
-1.3294384 5.1763964 1.7727293
-2.6781306 15.385773 1.778785
-6.0823283 3.2448809 1.7889228
-8.9799824 4.8506618 1.7817713
-8.895607 12.353869 1.8083256
-1.6879835 18.176943 1.8072135
-4.1371975 3.2147827 1.8144808
-2.1575596 18.744495 1.8160003
-1.5784732 17.488646 1.8203366
-3.6165817 3.1866109 1.8384005
-4.1557755 3.1952088 1.8311001
-7.1188898 2.2958546 1.8407768
-4.6929398 7.8086038 1.8409761
-1.5775717 16.704708 1.8415458
-2.6271036 0.96567595 1.8523508
-8.9920864 2.5622296 1.8528292
-9.3228912 5.3455763 1.8575761
-8.9989185 6.0315657 1.8576995
-8.9853992 8.7430992 1.8502077
-1.0610473 10.947907 1.8551688
-6.264781 18.327105 1.8519864
-0.98148751 6.7210889 1.8623856
-9.003252 7.3144956 1.8651551
-1.4198858 12.25565 1.8653392
-8.6784525 18.663116 1.8615993
-6.2658587 -3.574827 1.887706
-1.0919287 1.0737957 1.8879762
-4.0345206 3.1373959 1.8801872
-1.7907882 2.850594 1.8981688
-1.3810215 10.598281 1.899762
-9.213376 1.4266012 1.9049072
-0.9779588 6.5456886 1.9029593
-9.332921 7.7996931 1.9044538
-2.1811805 18.659544 1.9099109
-6.3769803 18.775299 1.9097347
-6.8153629 18.784971 1.9088457
-9.2017136 0.94400012 1.9173589
-5.6009617 7.9237809 1.9116269
-7.8751636 15.364556 1.9189315
-7.6183968 18.514912 1.9149994
-6.57056 18.534719 1.9163949
-5.1546888 18.568951 1.9167004
-4.4935265 18.715916 1.9119246
-1.7691802 -3.5630968 1.9205091
-2.0784802 3.0808699 1.9281812
-1.1822693 13.462731 1.921405
-7.1188898 1.4772843 1.9388335
-1.3784089 3.2833505 1.9390528
-5.5835094 3.5153563 1.930275
-8.3883495 18.370636 1.93173
-5.6408801 -3.5795164 1.9420264
-2.2740788 2.9519835 1.9423678
-3.606256 18.422392 1.9440601
-4.0360351 3.0477314 1.9563179
-1.0879725 11.817883 1.9581381
-7.8993912 -3.5859289 1.966454
-2.1147113 0.2793566 1.9693871
-9.3169374 4.5238042 1.9699557
-2.0657434 16.829628 1.9764766
-4.8628306 3.0153098 1.9838457
-1.6545675 13.087817 1.9860245
-7.5571146 13.815399 1.9836944
-1.8708992 7.926846 1.9910052
-1.3620789 1.9137203 2.0087395
-2.0041382 2.8287935 2.0092437
-6.9749427 18.452173 2.0048223
-2.592988 -3.5405703 2.0151963
-8.9292212 -2.1014409 2.0150914
-8.9338417 -2.0620313 2.0134187
-7.8383083 15.310747 2.0101454
-3.1980429 16.286411 2.010987
-1.4236943 -2.4165206 2.0365567
-8.9497757 -1.9562606 2.0383859
-3.1980476 13.976347 2.0382411
-7.1188793 14.609203 2.036418
-3.9483931 -3.5881577 2.0421195
-1.5312171 3.3383679 2.0449264
-2.1458442 6.9755921 2.0463102
-9.3371515 8.8248444 2.0486042
-1.7388122 13.239531 2.0431466
-3.1980422 16.386467 2.0405886
-1.8316844 7.9335284 2.0543501
-1.0840489 1.8079679 2.0614862
-8.9827147 4.9691992 2.0612085
-1.6367385 7.6076164 2.0609694
-1.4084467 11.368817 2.0625513
-1.1126139 12.574074 2.0648031
-1.6235831 17.929287 2.0648494
-7.1188898 1.6498414 2.0727098
-1.7195358 2.4011316 2.0714154
-1.5217925 2.9123173 2.0712929
-7.6243639 15.267891 2.0761313
-3.1980445 15.539018 2.0773244
-9.2625618 2.40556 2.0837133
-1.3558674 4.0300612 2.0872822
-2.5503197 1.1487405 2.0933495
-6.0868788 3.0597391 2.0931251
-1.3757881 3.3509035 2.0981112
-6.0030241 6.9641132 2.0955503
-4.6326904 7.9789653 2.0978093
-1.4187361 11.893632 2.0982313
-6.7784529 3.0545702 2.1030025
-8.9624157 9.7770643 2.1124258
-1.0437642 11.275721 2.1151025
-8.2489891 13.944404 2.1109257
-1.3344531 14.247219 2.112102
-9.2112923 1.2708704 2.1280618
-8.9984808 5.9594097 2.1274202
-9.3661785 7.1426797 2.1271632
-7.3403277 13.34129 2.1250446
-7.536294 0.53298247 2.1354978
-7.792726 1.094071 2.1374574
-1.6040646 1.6336968 2.1373401
-5.9038777 7.8719053 2.1337585
-8.9610214 9.8202372 2.1381426
-3.0161042 16.682676 2.1313591
-4.8292589 18.513199 2.135545
-8.1466846 7.711194 2.1427298
-1.0652869 11.793539 2.145402
-2.6892161 15.26209 2.1424839
-8.1283264 16.668671 2.1457272
-1.305829 -1.5688714 2.1546993
-1.2500411 -0.90776569 2.1500516
-7.5875711 0.59844887 2.1581082
-3.1980433 15.057886 2.1546383
-1.2467899 -0.88246822 2.160605
-7.905221 0.60697269 2.1610522
-5.9097824 3.099746 2.16717
-9.3571348 5.2807035 2.1692224
-9.0003624 7.5571866 2.1619072
-3.198051 2.0921388 2.1700082
-5.6543889 7.5737209 2.171217
-8.9866982 8.64291 2.1756811
-8.4934025 2.1569598 2.1851959
-8.9846535 8.8005133 2.1860127
-9.0958242 14.480499 2.1825807
-8.7013264 18.011723 2.1832244
-3.087765 3.0066996 2.1944001
-1.3637736 3.6871452 2.1915374
-1.3214824 7.9547663 2.1958339
-9.3571968 8.5234842 2.1922679
-8.897234 12.105019 2.1944315
-1.9678829 13.271583 2.1915431
-9.1686945 14.527469 2.1910689
-8.5368986 1.7206599 2.2097769
-1.3850865 10.724199 2.2029116
-3.3412938 -3.6521215 2.218224
-3.1980424 14.554175 2.2189848
-1.1285882 0.72321284 2.2206972
-2.4109159 0.96901065 2.2248509
-1.0918552 12.519075 2.2202353
-7.9620085 13.298328 2.2209287
-7.2971315 18.455349 2.2233152
-3.6860986 18.494555 2.2223005
-9.0686111 -1.0062709 2.2388136
-1.1649822 0.14270224 2.2387779
-1.1477933 0.40025893 2.2327671
-9.3484278 9.4091539 2.2375269
-2.9244053 16.572407 2.2445469
-4.165904 2.9756377 2.25371
-9.0056419 3.9278607 2.2549672
-9.3015213 10.911139 2.2611566
-9.2281685 12.516829 2.2648778
-7.0089607 13.197316 2.2660317
-1.4824197 14.422445 2.2625957
-2.5201309 0.78904963 2.2797182
-8.0961285 2.6770275 2.2710681
-6.0104046 2.6736338 2.2739503
-8.2540722 3.2300661 2.2756464
-3.6888316 7.5286231 2.2732236
-9.2963867 11.089053 2.2702675
-8.9200191 11.090471 2.2750161
-6.7026544 12.318438 2.2712762
-8.3289146 1.1631497 2.28197
-7.9994183 2.1149955 2.2880206
-8.9675503 6.2176514 2.2820549
-4.2039356 6.9199705 2.2847691
-8.936327 10.585235 2.2897973
-5.0519338 12.179768 2.2827959
-9.1175184 14.287262 2.2898712
-6.6798329 18.559828 2.2897916
-9.2446136 1.6384954 2.2925487
-4.8904285 2.6470327 2.2965364
-5.6340127 7.6903267 2.2995691
-8.908247 10.745395 2.290921
-2.0692444 16.528124 2.2900045
-2.5706863 1.9748371 2.3002863
-8.2708397 3.2297964 2.3008544
-0.94568086 8.0867138 2.3087521
-7.8324857 1.2564411 2.3118653
-8.9335966 10.669834 2.3194666
-5.9502954 13.3616 2.3137226
-2.4742477 2.6086254 2.3291461
-9.2435112 1.5551659 2.3383119
-1.3479354 6.0943937 2.3370306
-4.4941149 7.8479114 2.3344603
-1.8709866 14.248445 2.3355732
-0.93979591 7.8145247 2.3491955
-7.6827974 12.206553 2.3440526
-8.9700623 15.868937 2.347574
-4.0487881 13.3616 2.3525016
-5.2789645 3.2749195 2.3619938
-9.3326941 3.5881386 2.3685408
-1.3181652 6.0063362 2.3601596
-9.2185726 1.0600014 2.3712053
-1.930804 7.762486 2.3845832
-8.9303455 10.770545 2.3807421
-1.6060672 -3.5760722 2.3921359
-9.0875072 15.251029 2.3918719
-9.200881 0.72283274 2.4083083
-4.1491418 2.5222001 2.4025271
-4.5990348 7.2436914 2.4077978
-1.4950696 7.8668394 2.4005005
-9.1039162 14.59264 2.4077179
-1.3419458 16.073225 2.4037542
-1.8937759 -3.5476518 2.4147942
-6.8611779 2.5110188 2.4120207
-7.7348175 16.393139 2.4123347
-3.8233061 18.580765 2.4146109
-6.5343113 -3.6205835 2.4223728
-3.3144417 -3.602725 2.4208798
-4.4128461 11.907696 2.4204936
-2.6080799 12.13171 2.4252205
-1.4484894 12.296421 2.4270127
-9.234684 12.59483 2.4282043
-9.1124992 15.243013 2.4242582
-3.4478157 2.879293 2.4376721
-7.0064607 2.8814569 2.4335356
-2.1342545 13.283079 2.43911
-8.7605124 15.922694 2.4311953
-2.7030313 2.4654145 2.4433055
-7.5848503 12.055575 2.4422574
-8.3305988 12.069149 2.445539
-8.8146553 15.751367 2.4454467
-1.840014 -3.5505071 2.4541276
-2.325233 16.319891 2.4502413
-1.3753229 -2.5564699 2.4647124
-5.4985762 11.445489 2.4606428
-2.2629817 14.376889 2.4684138
-7.4820795 16.283869 2.4688721
-1.3971479 16.595543 2.4619036
-1.3967348 6.869174 2.4740858
-8.9635258 9.7426128 2.47242
-8.8986998 10.451892 2.4763503
-8.9085503 11.367156 2.4770601
-1.4196874 12.105335 2.4755938
-1.1774061 -0.26743504 2.4832366
-1.9033622 14.50763 2.4807181
-7.6037769 -3.6393487 2.4927161
-1.3534842 -2.396116 2.495214
-6.5680752 2.8507133 2.4922395
-1.3804259 8.5564461 2.4971912
-2.3256798 13.296309 2.4904568
-1.439068 17.142595 2.4915538
-1.4906129 3.8984246 2.5022721
-8.8432837 7.9322681 2.5041182
-8.9732399 9.44168 2.5002341
-1.4258171 12.598145 2.5051351
-9.3770723 5.0539613 2.5111442
-4.6695881 13.361599 2.5165105
-9.133956 -0.38486767 2.5227368
-8.9649019 4.1965518 2.5244682
-8.9783096 4.7781205 2.5261652
-4.9991131 11.931383 2.5230436
-4.4518166 12.116351 2.5235338
-5.5810075 13.361601 2.5272684
-4.2213383 11.898992 2.5371957
-5.2886662 18.571297 2.5366547
-1.0735987 1.2776575 2.5569413
-8.1746273 6.8577075 2.5516653
-4.8868065 11.496828 2.5598984
-6.949976 11.874868 2.5550427
-8.3811207 18.407837 2.5524271
-6.4529419 18.531588 2.558017
-2.6749704 2.215251 2.5680685
-2.7900684 2.2208192 2.5652912
-2.4371443 14.564548 2.5637662
-4.3922696 18.556643 2.5612214
-9.3932142 5.6511769 2.5751162
-0.93203652 8.4590054 2.5799565
-2.1368883 18.43317 2.5789952
-8.3415327 -3.724499 2.587415
-1.112486 0.59425223 2.5807166
-1.3116319 6.8459015 2.5808995
-4.378396 12.128453 2.5874627
-6.6017804 6.8475366 2.5952716
-1.3589075 9.9132538 2.5923731
-1.0610563 12.345382 2.5907381
-6.5530343 -3.635128 2.6000133
-8.6946201 2.6040933 2.6079795
-1.3184586 5.9579411 2.6071877
-8.0971031 7.4393978 2.618
-9.377902 8.1933727 2.6176913
-3.7199497 11.889563 2.6167376
-1.2549976 -1.1283951 2.6280172
-2.7823925 2.7804897 2.626328
-5.7844424 11.740189 2.6252763
-5.1955872 18.648418 2.6239486
-2.50108 2.0572221 2.6385736
-7.471633 7.3420887 2.6391592
-9.3830538 7.391768 2.6311266
-9.3437614 9.7997084 2.6332448
-1.3206033 5.6042099 2.647018
-5.0050921 2.0150037 2.6564698
-5.4303527 -3.6417406 2.6627908
-4.5005054 18.625195 2.6706805
-6.3557448 -3.6433368 2.6812801
-8.7388859 -3.4776883 2.6814799
-4.4973001 2.8734803 2.6869712
-0.96115702 3.9303498 2.6865201
-9.2750092 4.3863802 2.6865101
-9.4015331 5.2213635 2.6897123
-9.4174166 6.7380176 2.6866713
-2.8165774 7.3300447 2.6898267
-0.94634449 8.1574821 2.6865201
-9.2701616 10.437759 2.6865101
-1.0100124 10.80389 2.6865201
-1.0414883 12.128137 2.6865201
-9.2336788 12.813215 2.6893985
-9.1906433 12.980305 2.6865101
-4.423274 18.570116 2.6812766
-0.91023117 6.9071593 2.6910312
-0.98681694 11.169213 2.6927786
-1.2251979 15.07724 2.6917093
-1.5133996 -3.1552999 2.7077961
-1.050712 1.3852372 2.7029896
-1.317891 6.0515585 2.7044187
-8.9196167 11.102938 2.7026668
-7.5925159 14.997194 2.7000012
-2.2316554 15.014702 2.7027922
-7.6573992 15.210691 2.7076471
-7.8670187 15.611774 2.7097235
-5.5487785 1.8744674 2.7160518
-8.835989 -2.9991839 2.7231691
-8.8644218 -2.8334341 2.7204623
-0.94281739 9.2087917 2.7278347
-1.0848293 13.071419 2.7237949
-2.8229399 15.133927 2.7217577
-8.488163 3.1701691 2.7317212
-0.92645609 7.7096014 2.7386818
-9.3172646 2.4759531 2.7411027
-0.92446303 6.0156441 2.7432494
-9.3733921 9.7413645 2.7444088
-6.5268774 11.590237 2.7449412
-2.8481569 15.308854 2.7495835
-8.9368095 16.447989 2.747961
-5.2300682 18.600229 2.7434223
-8.9165459 2.7009447 2.7516503
-8.8845043 16.861309 2.7537613
-8.7938061 17.51544 2.7521119
-9.0177059 -1.7313037 2.7653167
-9.4129744 7.0913773 2.7639101
-1.012169 11.588829 2.7672589
-9.3935938 5.0964899 2.7758493
-4.5862985 1.77929 2.7836959
-6.4050999 2.7241292 2.7850029
-8.6291265 7.4295092 2.7841001
-8.920825 11.065512 2.7804217
-4.2265391 1.77929 2.7924693
-1.1083958 2.6114888 2.79828
-1.0458797 4.1829228 2.79828
-0.98906839 5.3793793 2.79828
-9.3680592 7.9438915 2.79827
-0.94196504 9.2106695 2.79828
-7.0289755 11.508978 2.797797
-6.2483287 11.505596 2.799998
-7.3135676 11.835987 2.791173
-6.7811928 11.863839 2.7927666
-9.2421713 11.924198 2.79827
-7.8314033 15.29879 2.7942448
-5.8694887 1.77929 2.8000841
-1.82332 1.77929 2.8053896
-9.3779106 8.2387276 2.8022799
-8.8037815 17.411005 2.8096089
-7.161345 1.77929 2.8125961
-8.658473 2.3954268 2.8184953
-9.3479424 4.142529 2.8368878
-0.99296319 10.451469 2.8454022
-1.2964391 15.558679 2.8409603
-6.3542452 -3.6480451 2.8573003
-1.4016708 2.6675117 2.8592048
-2.4586511 18.475483 2.8563187
-6.8770776 11.0537 2.8683648
-8.2620697 13.277594 2.8611498
-1.7857525 3.1017253 2.8748269
-9.3194752 3.3180332 2.8708086
-1.4129899 -2.5342135 2.8834243
-5.6146307 2.8585298 2.8884101
-1.3616257 3.7803085 2.8886433
-1.3120048 7.2116351 2.8859093
-1.3825041 10.644201 2.8971057
-0.95487964 8.7286024 2.9047132
-1.4902267 17.18692 2.9136238
-8.9486685 10.202868 2.9220092
-4.6754351 -3.6652353 2.9349365
-0.99557096 3.5190358 2.9341974
-0.97750986 4.2005463 2.9360852
-8.1780558 11.4097 2.9308901
-6.0318003 13.361599 2.9350882
-5.8401427 13.3616 2.9455242
-6.3791518 1.77929 2.950814
-4.7325745 2.8465726 2.95697
-1.3928287 2.8973176 2.9644389
-8.8751316 11.912392 2.9608912
-1.5477824 2.9713736 2.9702845
-9.3018208 3.1737399 2.9890661
-1.3123754 6.6953435 2.9831026
-1.6044152 6.8410559 2.9802735
-8.8073158 1.77929 2.990679
-3.8528562 6.739109 2.9929185
-5.4074879 -3.6711321 3.0032449
-2.5675983 -3.6255343 3.0074935
-1.0352635 2.729399 3.0096591
-1.1783977 13.827553 3.0069156
-1.1829565 13.901051 3.0029464
-9.0645266 14.848808 3.0042865
-2.1288781 -3.6096783 3.0120857
-1.2778536 -1.2748621 3.0187767
-6.3963146 1.77929 3.0171261
-1.3198161 5.734035 3.0130146
-2.5961213 18.520496 3.0103071
-2.4433804 18.542267 3.010042
-4.5028095 7.0327182 3.0295792
-0.99949008 3.6658151 3.0336745
-5.0694251 11.277291 3.0350385
-4.7860403 11.292411 3.0368369
-1.2742767 -1.1953092 3.0466118
-8.3402739 1.77929 3.0411398
-6.8689146 11.781822 3.0441194
-3.3574555 7.2568889 3.0514174
-4.0412912 -3.6764352 3.064672
-6.0226974 11.240807 3.0746861
-1.4286206 16.61117 3.0794156
-2.6070812 -3.7433336 3.083878
-1.35742 6.3614006 3.0817962
-0.95446819 7.1480217 3.0833926
-1.381658 10.617996 3.0899048
-9.0464516 -1.0632216 3.0941334
-1.6364977 2.5076799 3.0974665
-9.005312 7.1397166 3.0957527
-1.3800066 10.56684 3.0957863
-8.9826412 8.9554043 3.1030564
-3.3615181 18.601175 3.1025677
-6.5638919 11.228073 3.1148648
-8.6984749 17.914066 3.1182528
-4.9567232 11.226721 3.1282036
-8.8979626 11.942912 3.1270595
-8.9171352 16.265816 3.1212592
-2.3878713 18.515001 3.1267967
-8.9722433 -1.7158011 3.1366725
-9.3479643 6.2928047 3.1302772
-8.6976242 13.024305 3.13765
-6.0306845 13.361599 3.1348333
-1.2322475 -0.32158086 3.1495504
-8.9856625 8.7224751 3.1480217
-7.737349 10.917747 3.148999
-7.4351201 11.37602 3.1417887
-1.8873022 11.41949 3.144052
-9.3262558 8.6968765 3.1511593
-6.4261475 10.876742 3.1588101
-1.1414931 1.1731503 3.1682868
-7.6025543 10.643913 3.1612015
-1.1091545 12.152906 3.1633744
-6.4010105 18.560944 3.1634109
-6.395483 6.68963 3.1710513
-1.0726444 2.6388922 3.182682
-1.3205084 5.619875 3.1801066
-9.3083696 9.3055706 3.1895552
-8.7585964 17.401251 3.1884141
-8.7132282 17.710453 3.1884809
-3.3074737 18.508274 3.1832414
-7.4728217 2.5899377 3.1992474
-7.6273985 6.6832676 3.1939793
-1.3282276 5.2289209 3.209383
-1.3230352 5.4541306 3.2020004
-6.7841654 6.6788864 3.2097392
-1.35148 15.491641 3.2257848
-2.1629779 -3.7164211 3.2321372
-2.9599054 1.7792898 3.2334933
-9.3622379 7.1759443 3.2339983
-8.8976431 12.013933 3.2317874
-3.7642791 -3.7549949 3.2460945
-9.0040321 6.5981879 3.2434127
-1.470736 16.621603 3.243531
-8.9589663 9.8838348 3.2664216
-9.2552319 10.271492 3.2699792
-9.2979164 8.2802896 3.2722616
-4.2331362 18.320501 3.2791843
-1.059604 3.7008646 3.2881265
-1.0133635 6.3416748 3.2938638
-1.0343647 7.2186832 3.2903666
-8.893302 12.461562 3.3062038
-3.8539462 -3.7419138 3.3137169
-9.2861137 5.4270058 3.3278141
-1.0252236 7.5039053 3.3274384
-1.6146026 13.015854 3.3237858
-8.9717312 4.4928198 3.3343003
-1.4184992 11.840918 3.3386846
-5.0208511 2.657259 3.3405051
-4.3384361 6.6120973 3.3477831
-6.2561197 2.5365698 3.3639996
-1.2591405 13.734184 3.3682203
-4.6903777 17.883856 3.3688793
-6.9746838 17.890493 3.3623197
-1.3510526 -1.001235 3.3769662
-3.3512306 17.788534 3.3757374
-6.4142375 17.713842 3.388582
-1.6516109 2.7929308 3.3963346
-1.3230804 5.4521718 3.396415
-7.8293071 -3.6497643 3.4015899
-4.5902519 11.42638 3.4014888
-2.7543511 17.470623 3.40657
-2.5758276 17.517967 3.4013469
-5.2024779 17.52104 3.4097977
-2.9414449 17.520046 3.4031041
-9.2611885 5.3333888 3.4110289
-8.9667692 4.2775717 3.4266007
-7.4716578 -3.6319637 3.4376876
-7.848866 17.15942 3.4331386
-5.2418728 17.235453 3.435322
-7.777524 17.029152 3.4453378
-2.0271719 -3.5870287 3.4546244
-1.4118661 -1.4642637 3.4583836
-4.2586107 2.5088947 3.4594412
-6.0898972 7.2864161 3.4581401
-3.681802 17.036646 3.4504511
-8.6682281 -3.1477633 3.4679022
-7.3802347 1.77929 3.4612718
-8.976079 9.3536386 3.4643111
-1.4460411 11.912081 3.46667
-2.0526063 16.620672 3.4692993
-9.2513552 7.5146279 3.4742689
-6.8142142 11.722586 3.4746788
-3.653765 16.726486 3.4787588
-5.6075745 1.9700869 3.4870884
-9.1965733 3.5310159 3.489074
-1.6863031 6.790329 3.4836893
-8.8923216 12.522519 3.4887555
-2.9707067 7.1278367 3.4911728
-8.944149 14.855735 3.4954
-1.3738569 14.881904 3.4920905
-6.6925945 16.512413 3.496594
-1.2948298 0.36530712 3.5061049
-9.2243586 9.0796604 3.5075173
-8.4551439 16.119719 3.5092111
-3.0972292 16.264238 3.5147147
-6.3709354 16.294403 3.5149922
-4.0579853 16.309902 3.5139246
-1.6945443 2.7388175 3.5211525
-1.1403569 3.6206546 3.5288086
-1.44557 11.700605 3.5294943
-8.9699497 14.297704 3.5282605
-8.7773371 15.731764 3.5209601
-9.2219934 6.4289675 3.5336421
-2.7531598 11.495931 3.537308
-1.2616013 12.927102 3.5397308
-7.1508818 15.940511 3.5357769
-3.9831862 15.987735 3.5349984
-7.1188674 -3.4820237 3.5470748
-8.7850437 11.517939 3.5461838
-1.9229136 15.334743 3.5483031
-3.2117062 15.649834 3.5484335
-5.5868464 15.675446 3.5491076
-5.03231 15.673839 3.5494597
-7.1190805 15.770296 3.5432014
-9.1580992 9.851758 3.5595407
-7.3194008 15.454795 3.5563037
-4.9158707 15.587541 3.5530572
-1.2804856 0.91023588 3.5688508
-2.4978778 1.77929 3.5608816
-9.1006908 1.9634504 3.5601382
-8.6503773 6.7837095 3.5672259
-1.9652987 11.547459 3.5611017
-5.6509757 15.244169 3.5679264
-7.9325676 15.274305 3.5627139
-8.2369137 1.77929 3.5753255
-8.958684 3.9268932 3.5728979
-8.3546848 14.799229 3.5723619
-1.9779313 14.843866 3.5704484
-7.1594915 15.046329 3.5748711
-2.3121848 15.069453 3.5716352
-6.888485 2.4752223 3.5880466
-5.9239626 2.4973018 3.5822845
-6.8793898 11.753206 3.5849409
-1.6877959 13.946267 3.5897326
-1.8838696 14.166023 3.583266
-2.1020684 14.373474 3.5892808
-2.9118972 14.68976 3.5891595
-3.9966776 14.819956 3.5857897
-7.8689833 14.823493 3.5829177
-7.6027436 14.850085 3.5824327
-4.6951065 14.936712 3.5815744
-4.163568 14.930555 3.5813608
-1.2727143 1.2022746 3.5976567
-2.0486674 6.5158825 3.5974436
-2.0246511 13.792496 3.5994761
-4.3389325 14.535587 3.5967522
-7.4717565 14.617535 3.5917356
-6.6417146 0.39348528 3.6050692
-6.9268537 1.5988188 3.6020277
-1.1866004 9.3993473 3.6036215
-9.0258265 12.864979 3.6008215
-1.854556 13.731503 3.6040854
-7.5185266 14.154873 3.6088324
-2.3855536 14.18761 3.6068029
-3.2563555 14.297271 3.6047277
-3.0735786 -3.3696876 3.6133521
-1.8914332 -2.9371459 3.6174023
-1.9363412 -2.7607989 3.6127412
-8.6284952 -2.6758606 3.6164103
-8.852356 -1.5208416 3.611228
-6.4245882 1.77929 3.6107769
-9.1297779 8.1208725 3.6195745
-6.5518441 13.532428 3.6123705
-3.9438448 13.994101 3.6186967
-4.2841702 14.047442 3.6173015
-3.0542202 14.078777 3.6124196
-4.707911 -3.3565314 3.6264877
-3.287601 -3.2987201 3.6241488
-2.1818943 -2.8059657 3.623847
-8.7314816 1.77929 3.6249337
-1.1814563 6.2524128 3.6269145
-8.9799099 9.1658306 3.6200104
-6.6446476 13.734499 3.6292522
-7.7279773 13.772835 3.6226513
-6.0912504 7.2127905 3.6344929
-2.1182289 13.520658 3.6323445
-6.1958275 13.735321 3.6319599
-6.2609024 -3.1981137 3.6455207
-3.1099186 -3.0480359 3.6486747
-1.7029926 13.239174 3.6478467
-3.0344622 -2.9934797 3.6537232
-9.1294165 7.0043473 3.6550443
-8.8994427 11.6134 3.6588621
-8.4388027 13.219376 3.6529179
-6.1217608 13.361558 3.659054
-1.2320211 4.1565704 3.6638012
-9.1016083 9.095211 3.6642575
-4.566843 12.711957 3.6632924
-1.5457847 12.984344 3.6619782
-2.4452543 13.182816 3.663625
-7.7395067 13.113508 3.6718235
-4.5930362 -2.8737357 3.6851201
-5.4303894 -2.8484268 3.6887453
-1.4972556 12.621508 3.6858611
-5.2367721 13.304241 3.6857271
-4.9490385 -2.7412057 3.6998456
-4.000217 -2.7264156 3.6996131
-8.1662054 11.45294 3.6991098
-4.0948582 1.8509148 3.7045984
-7.4934487 2.4454715 3.706224
-4.0153799 13.13023 3.7013354
-9.0469027 3.4331179 3.7176239
-1.3183349 5.8682098 3.7143393
-2.6167598 7.0533605 3.7142632
-8.9017553 -0.39325809 3.7240653
-3.0825787 1.8369738 3.7281523
-1.3202424 5.6218252 3.7207699
-1.255322 6.0586481 3.7207699
-9.1007376 6.1004419 3.7207649
-1.3067683 6.6356869 3.7207701
-9.0983505 7.7307596 3.7244153
-8.9769611 10.229148 3.7207699
-8.9762726 10.926416 3.7207701
-1.3154889 11.138262 3.7207699
-1.3478787 11.144714 3.7207699
-6.7876091 13.034802 3.7275405
-6.4843335 -2.3923593 3.730125
-3.4362571 -2.2217782 3.7388537
-7.6458097 1.77929 3.7339692
-3.1368535 12.965201 3.7344849
-8.6334572 -1.3466691 3.7492604
-2.2717183 1.77929 3.7418592
-6.0627847 6.6222281 3.7427888
-8.0706854 7.0977893 3.7433612
