# .PCD v0.7 - Point Cloud Data file format
VERSION 0.7
FIELDS x y z
SIZE 4 4 4
TYPE F F F
COUNT 1 1 1
WIDTH 1581
HEIGHT 1
VIEWPOINT 0 0 0 1 0 0 0
POINTS 1581
DATA ascii
17.421659 94.660522 17.063589
-19.734983 107.78584 28.820576
7.0489821 75.372002 37.109222
-12.154061 120.20232 13.460832
-10.619375 75.433624 5.0578976
-23.668413 59.969894 10.347246
-25.877771 57.054436 23.2076
15.727474 40.311573 3.3864377
-17.960579 47.982697 13.746481
11.425995 77.865158 34.954231
-7.8634586 55.193497 31.431736
-22.75976 105.0946 0.176817
-19.935009 90.108276 20.775866
-4.1639304 66.468742 12.554461
-20.159504 81.041153 12.542807
-11.773843 57.584206 22.585743
11.664169 78.570137 34.780861
14.171852 76.924202 29.370434
16.291771 109.98362 21.757229
-0.4830932 66.90963 11.682899
12.511558 92.597046 14.781137
2.7847359 75.147804 23.670185
9.1181192 53.220833 4.9876742
3.181819 78.281799 31.548119
2.2919807 102.33597 13.2334
-5.7774777 71.04126 12.152783
-7.96839 61.386654 15.738937
14.678911 94.215675 27.049629
15.224676 38.523865 0.7230714
5.7875905 73.83358 6.7055998
-12.848104 56.082855 23.256086
-10.363283 111.97215 35.307774
9.0259743 34.92115 5.2902932
-5.5187016 66.144264 7.0991201
4.8621321 85.935371 37.461731
10.393028 53.833466 4.9896111
-7.6778088 60.692913 24.717743
-20.565737 58.715591 21.89456
-6.1606259 83.559891 6.7055998
-23.847239 62.184669 12.467972
-20.293509 51.406094 12.392922
3.8676815 61.718674 15.733747
-20.620722 63.438698 22.445522
-23.360092 41.226048 11.544104
12.103811 87.137932 15.494053
12.924303 61.292503 31.910454
-16.042704 46.990597 14.523555
14.481091 43.127441 0.21209806
13.672799 59.659775 6.3963661
-14.736946 49.790825 5.2876034
-8.46696 32.920677 5.2906547
-13.466698 57.30484 22.19212
-20.35486 79.545731 15.77037
7.9435072 82.447975 5.0800686
15.101988 88.895737 5.1004515
-23.071728 108.89021 18.326534
-20.389759 79.94252 25.637054
-6.3445292 67.21257 6.7055998
8.0225468 117.54084 25.165821
9.9961128 62.04686 5.0155759
-13.89559 102.59934 36.43652
-23.87785 51.780685 12.371125
-16.8244 109.56087 9.8733435
-9.5037432 91.834747 6.7055998
-20.55769 60.610878 21.863953
13.748511 78.375153 8.3855295
-11.33968 57.069714 18.332745
14.355677 110.23957 10.395576
2.7768517 58.697899 6.7055998
6.2817235 56.416832 4.9977779
-16.882776 58.012985 20.190407
-12.902138 33.057171 21.03256
10.1334 55.429817 30.837406
14.521778 104.61707 0.11263642
-10.282086 57.307621 5.0005937
1.6338227 103.08715 13.2334
8.7570744 119.10819 7.5838332
-2.2538011 116.38828 13.2334
5.4912829 116.31196 23.892048
13.147556 100.63132 4.0035548
-16.599712 40.709305 16.306709
17.506695 74.283432 11.810477
-21.702728 93.01088 5.3642225
7.6109662 94.049805 13.499924
15.625841 104.24027 25.043091
9.9670076 110.05737 6.0390291
-12.479741 87.884514 15.205296
-3.2853394 79.126633 36.295479
-3.2272158 94.47171 14.188611
-20.336258 46.361752 1.8838763
-18.362503 81.78801 33.540726
-5.9030781 120.46741 9.377471
13.357367 105.04933 16.745901
13.271219 44.444099 10.483223
-19.134974 117.72365 7.1738653
-20.121784 87.56575 14.607763
14.488699 59.149048 22.588917
15.630043 97.35379 10.479187
-23.179594 33.302067 15.977268
13.688593 55.180061 15.255721
-19.093372 46.342102 7.8873863
9.5037794 100.28098 34.969067
-13.785269 66.458511 34.489723
17.677731 50.978737 19.52034
-19.906305 60.759251 6.5097647
-9.5159988 71.497101 37.047279
-18.457209 115.98322 21.312216
1.26217 57.813202 20.563992
1.0487299 88.510109 6.7055998
-20.357735 77.957481 19.106588
2.3796887 108.2809 13.2334
16.41173 95.189644 9.8622131
11.659741 70.809761 35.617661
-19.21125 95.251884 10.1147
17.269287 88.531158 8.6492376
-14.063654 97.607025 22.30875
2.527379 103.9646 13.2334
11.351586 64.687614 5.0239239
-20.331511 78.700867 29.873549
17.583763 52.628708 11.432893
-4.0451245 84.066406 6.7055998
-12.908484 98.378227 36.890762
-21.341902 48.502392 9.2274103
-5.3353128 79.947632 6.5596933
-22.01722 85.876434 5.5080118
-19.533192 106.33434 16.999628
-0.78874224 52.729481 9.8603668
11.7273 77.980278 35.49622
11.346501 73.830307 11.608902
-11.550182 67.560532 13.864895
17.410795 102.56744 1.8667644
2.9254694 37.800018 5.289772
-12.848903 55.457497 15.976381
-15.244629 37.640804 22.773848
17.704351 78.291153 15.495702
-18.703909 86.19101 13.813696
-20.270145 53.944981 12.007689
0.040815502 94.715683 37.42585
6.8672395 45.041065 25.319038
-19.67078 97.827438 3.1981435
13.633387 93.829033 21.787815
8.0950308 63.614952 6.7055998
16.602594 34.338963 7.0233817
16.39193 32.703045 8.9257708
12.112017 107.40576 15.409666
-1.3995965 69.376823 35.596733
16.893181 78.37236 7.4930964
-13.270517 110.31371 35.636032
15.780311 50.246983 5.8260021
13.096048 110.3436 28.996054
9.5915699 45.525055 10.872923
13.253043 90.554588 6.1368747
-17.820452 72.74057 20.288679
-21.336464 113.62592 23.851007
-3.9896235 29.21826 4.7953343
12.988169 53.842712 28.846867
4.4884539 112.47157 13.2334
10.0488 106.98563 15.151834
0.44501445 118.75892 21.853086
3.739105 72.249969 12.352962
-6.0018711 118.79499 19.31418
-18.864513 42.999401 12.948714
-20.038084 69.503197 8.7265015
14.874001 104.17429 6.847682
-7.0559192 71.390213 13.381156
-3.1705301 98.043518 37.282955
-7.9327111 60.79055 22.098013
17.426804 89.809875 13.629976
-23.568283 105.9975 13.286103
-18.434843 80.841995 34.207367
-19.779207 111.97092 25.28532
-3.3350186 52.68856 4.9859924
10.947453 103.79556 16.4338
-16.52948 51.532364 9.6528492
17.210232 38.057724 9.0846539
-12.912899 118.60774 16.118385
-6.0970078 49.179878 5.2877135
-4.2160168 57.349518 32.563564
-15.808401 43.412079 8.70193
13.422363 99.166672 20.045994
16.94371 106.12126 3.558099
17.757456 71.77726 16.945869
0.53260803 49.16951 5.2877154
-23.910797 50.163326 19.118093
-21.657211 104.99565 16.043335
-7.8299484 118.98749 17.69253
-17.12188 112.55149 13.233399
-7.2078037 67.589119 6.7055998
-5.3798804 24.10487 6.1916385
12.307439 115.14226 25.341574
-0.4492954 118.95706 19.752975
12.244913 73.676659 34.225677
15.643743 101.04463 0.60041595
11.872974 88.290657 34.145523
8.0478525 70.704269 35.322014
-10.750321 74.096268 21.844589
13.056953 93.939995 8.0505991
-17.193012 74.094543 6.7055998
20.060928 57.783451 23.959904
-19.093817 80.628769 29.396717
13.871299 84.774361 21.627192
-9.2889309 118.71836 24.592625
-9.371419 55.461239 31.516491
-19.36598 64.798477 5.0242734
-4.4468732 119.16671 15.273729
14.300341 62.863865 29.112251
-20.196669 81.700111 22.346937
9.006278 102.32941 28.015244
-21.736721 113.38306 20.9503
-1.7046947 71.733482 5.0461979
0.47276402 70.097473 6.7055998
-19.145235 39.155216 3.0991578
-3.9082165 98.184647 35.965359
-11.905507 64.13166 6.7055998
-15.097679 100.65483 35.091461
14.086681 75.547523 29.62669
14.737935 100.17314 0.96802634
12.237818 32.650799 19.832268
10.607599 104.89639 14.542689
16.34116 94.788986 8.1499023
-12.145514 108.27614 5.9676037
-20.136488 84.64827 22.62159
-9.2671757 118.09866 7.2755332
-22.068356 51.50737 22.903557
10.72563 43.147961 16.096653
-0.81595707 71.095474 7.968256
-24.129601 48.264889 15.300283
-6.1072254 115.68245 30.718098
-1.9448254 42.407043 24.878819
-9.1490641 75.379623 6.7055998
9.2856426 87.973824 35.729496
-8.2840891 93.874969 37.415455
-10.770813 80.221382 29.624035
15.2864 43.183701 9.3206482
-6.6623659 53.995995 4.9901252
-5.7753787 57.150658 32.448555
-0.54244208 84.331711 36.317738
6.1557217 60.383366 6.7055998
-4.205122 44.047436 25.281578
15.122353 62.418442 5.0167508
10.6076 111.85825 10.043093
-7.422821 115.6035 30.707962
-9.829423 78.15625 36.118011
-20.342793 86.782623 24.503111
8.2371111 112.89217 6.1777992
-23.809921 96.027321 15.953131
-0.5557673 23.233318 11.601038
10.213552 118.97842 16.812977
-20.441486 100.1795 27.125021
-15.037859 90.260101 35.75061
-2.2827148 87.040558 6.7055998
-14.386004 92.524223 5.1119223
-21.587952 76.98613 24.36573
-19.769732 89.509888 10.06534
-6.2405896 39.670544 24.243505
-20.086704 60.366356 9.0589561
-14.220787 116.66021 6.9719195
-12.707966 89.334473 35.983929
-17.303423 56.387539 4.997685
13.533636 98.356102 30.36219
14.054718 75.200508 12.885956
9.6311893 32.715439 20.112053
11.159916 78.818687 35.445892
8.0240955 28.695822 17.786022
-8.6022491 24.617847 5.1097903
3.5284767 39.916985 5.2893891
17.264235 107.25902 3.9990828
-0.80267668 43.573097 5.2887278
11.451054 75.769463 35.910316
-11.723159 76.710037 37.289352
5.975317 52.60865 23.799992
14.003302 46.909874 12.044258
12.062555 68.346687 35.011482
-17.372282 36.129509 14.890064
-23.192194 36.760307 2.0700643
14.349485 58.391869 16.023949
-21.558922 50.530174 7.7059669
-15.92858 65.393654 6.7055998
10.255728 90.032013 35.470932
17.030525 78.419777 22.750128
7.0303612 58.327263 32.630547
17.345095 52.785782 20.994858
-20.995636 59.246101 5.0067215
-7.1420274 77.875839 21.11199
13.369521 94.836121 8.4484491
12.022068 64.354195 14.766018
13.138866 41.352348 0.1211083
-4.6767073 107.04572 35.224747
-16.85651 111.53453 12.045382
-21.750019 68.967575 25.284052
10.781843 43.756855 16.009642
12.004533 32.350689 5.6560841
-10.790095 47.1852 5.2880745
1.5375587 110.90619 36.016106
7.4089417 98.907318 13.2334
-19.380501 38.38427 13.575806
-13.108744 31.273762 4.8244553
-10.852223 119.05576 22.764851
-10.005952 98.717575 13.640342
-12.278203 102.00596 22.932674
8.2740183 97.02507 35.50914
-8.7719355 45.014397 24.331448
17.716478 105.64886 15.98777
2.1071486 113.16456 34.11937
6.9592175 84.843697 14.366584
-14.97578 25.738785 6.0137873
6.0550861 68.984337 13.097754
13.908027 80.460869 6.7055998
-18.587204 110.93949 30.367025
-2.628154 66.512375 12.553838
-18.510712 65.703461 6.7055998
-3.0366013 80.537117 9.6520004
-16.603939 107.81074 5.9489412
8.6180906 93.191444 6.7055998
-23.319326 32.824398 7.2863269
14.460125 40.279903 11.078165
-23.404274 47.412201 14.194476
-12.390547 80.106689 36.00573
13.392756 92.847923 11.89951
16.929285 101.36356 18.542402
-1.6405145 110.91379 6.0733709
0.76641548 24.092464 6.7011909
0.68820572 94.035744 13.501454
-20.151701 87.986786 16.278824
-20.396318 80.295715 17.230358
5.3823905 25.026537 5.3707051
5.6591482 58.866364 5.0055218
-8.3763046 99.633255 35.779999
15.747099 102.8305 11.175478
12.080949 30.981441 4.8171539
-11.690761 119.65395 14.175964
-22.718216 114.3232 16.527454
-16.8244 100.47723 8.696312
-14.19458 76.322365 6.7055998
11.407123 83.727234 6.7055998
13.408179 109.13387 26.313662
-2.818212 81.806068 5.0780396
-11.363064 69.125557 35.342403
-20.746063 44.261395 7.3626213
-20.235804 78.062836 21.695686
-12.508806 68.1306 6.7055998
-8.3166885 83.664032 36.246895
-8.1740665 23.680481 7.4877729
-11.865286 79.995651 32.341953
0.65891361 35.581738 5.2901735
-10.812346 64.525497 15.149364
-8.6113033 112.8627 13.2334
-21.454903 68.270889 26.258179
-20.559704 105.7205 27.387335
-19.994137 71.531586 8.1682291
13.634178 73.313644 5.925652
16.963743 64.410706 7.0960798
10.956726 80.443085 33.992699
3.6882222 118.311 22.230267
9.5824919 109.08499 34.279633
-4.4646487 100.00645 17.282467
8.464695 99.67717 13.2334
-21.090797 40.380447 8.2456264
10.6076 97.877731 9.2784805
-4.5245585 26.366772 17.680639
-6.1172256 57.937878 20.097221
-6.6852164 75.288216 6.7055998
-5.2913623 88.856873 5.1003284
-19.100044 37.663799 10.097598
13.994382 87.695206 17.187277
-16.237476 103.37418 35.557114
-2.747453 84.346344 5.0860701
14.677713 97.393806 27.481541
8.646451 90.844177 14.259905
15.265322 85.757179 25.187454
1.6949196 55.024448 6.7055998
-21.899521 75.079468 5.1674705
5.4728847 42.457634 24.207468
14.779951 51.956234 14.241517
1.1843308 78.384949 26.995472
-0.47726345 65.606636 11.520534
-22.931263 51.871174 6.5786476
12.807898 45.798058 4.4302998
14.22925 72.230049 18.686623
9.3864784 116.33138 26.817886
-23.740019 50.671478 10.533654
-2.2982473 85.455444 36.362778
-15.959279 114.96653 29.120102
2.4031692 109.4412 13.2334
17.622705 86.527206 16.330555
13.89329 89.544197 29.478882
2.6051393 78.526253 5.0676713
-17.845684 34.826153 15.713789
6.7880239 67.582909 13.852836
15.353022 60.360104 25.643337
-19.766331 87.734612 7.5055456
16.961994 50.938263 21.55476
7.2710805 24.347874 12.770187
11.925398 73.947639 20.45792
6.9256158 50.919319 13.930866
13.700022 61.340359 6.5913897
-8.2717905 74.481201 11.891286
17.58709 87.625748 15.926167
-10.455129 86.529716 36.205547
-8.0817118 23.908186 8.022253
-2.9388235 102.17406 35.70454
-20.176714 82.496048 13.527278
-20.098022 27.086464 7.7203636
14.197702 66.453323 20.943726
-2.5410659 24.456747 4.750401
17.542734 66.047142 11.631124
-17.513336 114.72577 20.565948
8.9581718 54.520317 30.517521
-18.105654 74.318008 21.809212
-0.15111351 85.057312 6.7055998
17.45174 63.122002 9.1118727
-8.8794985 41.591682 24.34137
5.9439182 39.121056 5.2895331
-2.1068487 108.80816 5.9889374
-5.2881951 107.22562 5.9254789
15.243205 113.13806 22.307671
-19.026203 38.247822 15.881568
-4.6819963 120.45264 12.416639
17.107349 55.67675 25.675764
-23.962633 48.432312 17.798983
4.9697037 44.442253 24.363449
4.2819786 63.425591 5.0199342
-20.267078 78.325432 20.801394
-8.6022615 25.890408 4.7342319
-2.1924651 96.278236 37.380566
12.496176 64.222641 33.041939
-20.415964 77.987579 17.900784
7.8582783 32.53661 4.8492508
0.79057789 79.160034 6.7055998
-23.615953 92.055595 12.544288
-7.4740381 55.736923 6.7055998
-1.676569 50.984634 4.9806061
-10.142548 63.687885 6.7055998
-18.946762 112.99422 28.881306
17.688936 82.398445 17.827873
-9.8775902 84.43647 6.7055998
-10.367794 96.557678 35.899849
14.34404 76.053719 6.7055998
-18.710423 42.79995 23.803614
-4.847188 74.946487 6.7055998
-12.912426 101.09594 31.275599
17.259193 46.24823 8.8074551
-17.571177 82.660461 34.858189
-10.301147 42.611031 5.2889018
-14.146994 78.460724 37.141842
-23.377188 36.350224 11.666304
-13.314384 57.798584 20.830177
-15.920726 57.827477 19.316204
-16.001257 68.690285 5.0365763
-6.4634171 66.640381 36.385628
-4.303216 88.627342 37.623291
-5.5287457 75.208221 22.286072
-21.309191 44.268215 10.231966
9.0432072 84.874092 15.321554
13.951048 34.712479 17.839035
-2.5555749 98.832619 13.965428
-18.31012 118.10536 7.2030249
17.024532 63.824493 22.280205
-15.886127 28.341637 15.488005
-21.309895 38.408836 4.7101936
10.60577 32.383041 6.6099362
-19.749226 26.944366 11.360487
4.5207939 73.555504 6.7055998
-21.120583 108.27008 15.06249
-7.9659181 76.895279 6.7055998
-23.439514 102.75221 2.5156784
11.02741 109.69747 14.471473
5.7659483 100.59349 18.941343
-21.360134 49.150131 25.481987
-23.697638 57.036884 20.925747
-19.110634 104.72594 0.48017341
-7.4409332 54.962921 31.326279
-23.598333 47.05444 20.189108
16.405285 100.1754 9.1908741
1.8068273 75.608231 14.822229
-8.9651566 60.340317 22.124086
7.2270169 79.901955 30.745167
-21.439098 47.900463 23.262167
17.353399 40.570332 2.0960202
-20.691311 62.723331 22.721193
8.4883604 115.53718 28.785654
-21.090797 39.165192 5.4723997
13.575837 100.56511 20.495047
3.656795 94.857506 16.972433
-20.03677 105.60521 27.462437
10.028608 115.17932 17.291714
10.87902 93.907761 34.883373
10.852021 58.890045 5.0055966
-19.419661 92.038956 7.3223
9.7417717 56.527454 17.438894
-17.769028 60.319 6.7055998
15.485527 71.437119 24.236496
17.462605 66.527939 21.460745
0.90174651 97.926514 22.930149
-19.101927 55.988571 30.360699
-22.5294 97.479233 24.28669
-9.6953621 49.223755 24.00639
-23.569546 32.648434 11.474251
13.278899 103.73085 0.050363593
-18.131718 75.640915 34.675457
-7.7469764 77.983604 21.17864
-18.860718 98.027596 8.6035318
-6.608604 62.856415 35.222153
17.146969 62.787598 21.977972
-1.0597777 84.110359 7.7875061
-16.8244 99.180672 14.942152
11.809155 69.688553 14.143661
7.0172224 116.42729 6.922431
5.7798433 66.081894 5.0283318
-14.162249 72.237411 36.812126
12.912209 109.03185 11.557688
15.561466 97.897949 11.371132
-19.90699 86.340851 9.2365227
-17.945045 87.242767 34.796299
-13.460873 113.31924 32.867893
17.269512 58.629116 21.495838
-21.664806 74.070366 5.0535836
10.6076 107.30401 6.2582674
-19.350136 92.097214 6.1522121
13.446332 87.080353 6.7055998
14.040308 76.606781 12.80593
17.394209 89.171234 12.848917
11.923987 94.072693 14.15113
13.174321 111.29738 26.820618
-2.8753493 51.946461 6.8232946
3.5079067 36.75581 5.2899609
17.260754 95.700935 12.94231
-14.15951 61.071163 14.546665
5.0059156 53.268147 4.9878244
-22.732174 62.734077 6.3309975
-10.941582 111.38659 35.223961
14.449015 28.467915 6.5002604
-5.174716 63.981941 9.997364
-16.2656 108.62714 14.26162
-3.1109233 95.838211 37.403896
13.055815 117.80191 17.508314
-16.386818 113.20157 13.2334
3.0852435 94.482758 14.673859
-19.81727 57.644669 29.843473
-23.969885 64.901016 14.811026
9.5915699 35.033405 12.830347
-21.090799 43.971481 7.527051
0.24626672 105.24781 5.8461719
-8.0104046 105.11098 5.8406849
5.6232033 71.874084 12.430738
-0.40714979 67.060562 15.099432
6.4620609 31.820318 20.336042
2.3152902 55.435818 4.9946766
-13.4498 38.342461 5.2896738
16.075661 71.312897 24.10549
12.026878 115.90614 25.504982
1.7092342 37.033394 5.2899108
-14.526078 109.42408 5.6403055
10.585985 86.398354 5.092557
-21.826359 113.97958 22.065987
16.770273 98.057068 14.338366
-23.596418 67.051872 9.9156713
-16.185181 31.040609 19.305132
-21.634781 101.17847 4.1541595
-19.609074 85.183815 31.037045
-9.2557373 71.815781 16.233109
-14.430081 83.6297 35.895641
0.42128897 116.76127 6.9935951
-1.7345791 42.502945 5.2889214
-1.3774738 53.265732 6.7055998
7.3508363 115.91174 19.714413
4.8596792 24.806337 8.0971832
-23.240896 34.669498 13.588557
-10.1733 77.568611 20.115868
14.333874 83.032204 28.813814
15.644087 87.213493 5.3290792
-7.163034 74.728447 23.285004
-19.410782 96.715027 6.4861045
-15.359827 78.642334 6.7055998
1.7795787 60.12291 6.7055998
-7.2584052 48.917202 24.196522
0.52440166 89.758118 6.7055998
-15.109474 46.979137 5.2881117
13.301949 60.18222 31.453274
-19.752178 85.871544 6.3658237
-19.440575 90.686356 14.649128
-17.689518 79.482178 33.769989
-19.976355 56.433861 7.7907667
-2.1354039 85.230255 12.709405
7.0803795 82.10434 35.966629
2.0021105 52.263355 4.9846478
15.011795 31.912638 17.450953
5.7339635 105.28036 13.2334
-20.443733 106.94521 8.8813324
-20.728046 50.544357 7.3934507
-20.091213 66.726196 9.2331524
-3.0698638 44.376011 24.360107
9.5915699 38.873508 7.1094513
-7.7729235 67.738739 5.0335684
-22.217989 43.415436 3.6519296
-8.0998182 87.160217 15.291133
-1.6920974 98.595779 5.5794334
-12.497918 58.042812 20.073259
1.8875678 101.99989 35.597252
-0.51455998 97.36908 37.308094
-4.2049999 51.006538 13.457685
15.158655 76.864601 26.566439
3.198405 118.94131 14.292692
17.235458 88.577682 9.2243929
17.338015 39.849495 18.440733
14.737446 55.441772 27.584011
1.2467871 89.761124 36.218147
13.500248 97.718765 21.775785
11.180299 108.37959 31.626425
-23.944712 67.797607 14.578992
-15.808399 46.45311 10.332504
13.262774 98.963234 29.836559
12.486259 80.328934 30.387146
-22.223938 62.627697 5.5414157
-14.958431 67.852737 36.137672
-12.21589 55.246944 31.224043
-17.613548 77.373901 23.994768
-17.717276 66.281441 15.253581
-15.924056 76.219383 25.388533
10.658325 108.18166 15.431153
-15.808401 44.356422 10.483924
-24.186838 39.784103 16.364731
13.807308 88.482262 13.903198
-15.413412 115.22435 13.2334
17.390978 80.494232 11.007626
-21.973186 62.82951 24.350197
-2.7753453 79.23423 5.0699096
11.076071 62.270416 13.074432
-19.033558 35.292976 9.6466017
-20.51627 102.17188 28.009264
4.4477186 57.678699 6.7055998
0.35283941 71.645187 17.018192
10.6076 112.36925 8.2741747
11.836637 62.337589 33.976589
-21.631828 100.55287 4.821425
-19.266047 110.76508 24.52895
-20.077461 56.072884 6.7055998
-20.98085 100.88248 26.331387
13.498862 49.952126 25.964294
-22.266748 77.435333 24.402206
-0.72739315 95.134987 13.381771
17.554922 85.327744 20.900517
-2.68209 99.560349 35.900402
4.7887936 32.636055 21.1236
-7.460392 32.345577 4.8464184
5.6435156 108.63522 5.9820032
-12.37152 33.574802 5.2905364
3.1629415 73.912971 35.893402
-18.968166 109.00592 6.9427247
-23.410934 37.376587 18.029837
-23.915894 59.388733 13.296419
12.962461 62.352573 31.838104
-2.8134694 81.854095 5.0781913
-20.453863 102.31389 28.150684
14.234998 75.858307 17.974403
-20.989239 107.25347 26.089531
-19.900709 83.004456 8.3949108
-24.056477 49.511681 14.721252
-2.7240319 68.05777 6.7055998
13.015631 62.980438 6.7055998
9.5915699 41.040291 9.754858
-0.36088157 99.445198 25.39275
-16.261908 118.11441 22.352024
5.5622039 108.74649 36.007988
7.1150694 24.96192 6.8804426
-15.8084 42.13805 7.4446101
17.432365 47.210709 6.9531851
1.072871 116.79756 21.36887
-16.324684 29.501789 17.978035
3.4780533 71.085556 36.998127
-16.8244 100.71979 10.15025
2.2208033 116.71542 28.64323
14.094193 74.063583 13.448439
-20.28199 82.065338 23.381168
7.8482461 115.79601 13.704704
-10.661964 74.504097 5.0549588
-10.525732 109.86378 35.143906
17.562794 61.840931 11.577094
6.5670686 84.716484 14.911975
3.5725446 51.970802 4.9837232
-6.0957861 116.86256 15.211946
12.198553 42.501495 23.783773
-7.9256487 119.2028 14.281704
3.2941244 111.20143 13.2334
-4.7873058 119.12334 17.20854
-7.6525087 78.717026 22.464493
-17.584845 96.179993 20.118885
-5.9316983 112.40656 13.2334
-11.792119 81.238708 5.0762453
8.7516994 70.203743 36.515617
-23.282154 97.937355 22.378843
13.909968 75.606537 10.537251
5.7871466 77.941895 30.760746
15.380269 95.168404 6.4653091
7.9518762 79.981857 24.890438
-23.976543 71.277443 17.658146
-18.832226 77.670692 33.180378
11.529971 79.469719 32.676342
13.968678 79.871422 28.899244
-20.073334 43.985531 7.8404388
9.8849659 100.97182 20.010395
-21.507574 67.522583 26.073256
-22.324581 29.407936 7.6140718
-2.7073369 98.626541 5.5806665
-23.574974 98.866249 9.1428261
13.641312 83.989944 7.8492436
-15.162664 75.565628 14.685139
-19.30381 78.895668 31.130329
-17.449987 81.015778 35.185989
-8.5363579 116.70799 13.674277
-11.849087 116.26424 20.600763
-3.058912 111.51496 35.459999
-18.19969 72.121414 19.021589
15.802029 91.30574 25.115499
-18.839018 58.050884 31.595217
14.360516 59.509495 28.755404
-6.7631364 51.349205 11.025846
-20.203781 91.837112 24.552635
-23.574364 83.527939 8.7944145
11.512903 104.50505 16.115473
-22.248379 34.433632 6.3186312
-13.478571 51.958599 6.7250261
-19.885639 92.371994 17.979996
14.432189 29.998264 4.7980237
-6.2606936 61.43708 34.419502
-14.738501 74.577904 11.266562
3.2972112 53.358395 23.838402
3.4674644 117.01896 27.769268
-19.440006 107.90085 22.257607
-5.2904754 101.77655 5.7069783
9.5915699 38.594456 5.8940821
-20.518568 58.91272 18.748119
-4.3414812 28.117821 4.7764573
-21.81045 53.829018 22.75366
-2.0357254 118.83966 20.997387
3.7902257 120.10336 8.6119404
-6.795465 47.714417 27.405773
14.974928 60.204292 26.873775
5.3823161 94.749512 16.506157
-19.42976 66.386322 32.148582
-19.787121 95.772949 20.61688
-18.807045 85.125793 32.876854
-18.672567 94.762177 18.011759
-14.868862 104.66859 36.092503
-2.6756873 87.688553 37.633541
-18.361515 72.327881 13.999193
-11.166117 55.585579 31.466593
3.8569098 65.058304 34.587051
-14.433735 24.68647 10.708865
-0.99997461 67.08744 14.707338
6.5979824 102.71947 30.693359
10.029681 33.040146 10.353677
-15.052928 51.842545 29.087715
14.66317 90.481522 27.445097
-19.266384 56.412231 30.979374
-2.5841146 120.51538 13.076958
17.30415 81.036697 9.9643707
15.934311 32.221989 16.690598
11.444032 94.275337 14.54138
-2.1243105 67.278145 5.032115
-12.613914 57.622593 5.0015898
-5.0363274 23.932749 10.141019
-13.493828 110.07271 34.867363
-21.133799 94.482925 25.779064
13.238834 91.219315 6.8175387
15.0207 107.2894 5.1911249
9.6179152 70.079201 6.7055998
-2.8928192 99.329712 5.6088629
15.049166 65.912926 26.817358
-19.236937 41.096676 23.129013
-4.6863117 80.806244 5.0748787
-6.0463858 52.211937 23.985607
-23.680506 63.739902 8.2711563
-11.268852 105.5145 13.2334
-19.916315 82.819656 8.6335297
-17.251936 87.383865 36.064095
-0.42815781 94.722504 16.38949
9.5915699 39.877048 5.8552275
13.873071 71.32769 9.6535873
-0.22257847 47.958275 27.571623
-10.599761 87.036339 36.194378
14.306554 46.095604 24.991934
6.8902469 30.77519 19.546366
14.871653 45.09259 23.981373
-19.780672 116.80569 22.558016
10.101551 82.481583 35.632004
-15.161978 86.224625 5.0920076
13.439726 99.06517 21.364212
-22.785187 100.28366 23.606789
15.078393 80.598007 27.251558
-23.616684 80.773705 11.122988
14.592489 114.71074 24.196388
5.0269351 55.978104 6.7055998
-2.4929256 116.97476 17.691963
-9.562932 80.097404 28.533508
10.14418 35.296844 21.435158
12.691456 92.186546 12.94042
-1.304671 87.274933 37.6301
6.6570873 82.091949 37.31863
12.781205 110.40631 7.2369008
-19.048962 94.07399 14.11246
-17.127106 59.790615 6.7055998
-6.2136459 51.630226 4.9826465
-23.470013 99.58577 9.506814
14.626017 89.364723 27.629112
-19.0583 90.447281 5.1053557
-15.004457 115.5649 21.243183
11.582349 89.706627 34.643944
-16.483803 51.473515 14.177604
11.728424 74.310387 14.386464
11.739476 75.023712 20.494465
-20.667234 103.33389 27.356621
-18.263525 49.739334 11.234087
-15.003616 91.817284 6.7055993
-20.321018 36.340538 2.2363012
-16.625858 65.082184 6.7055998
11.988123 74.000977 34.589092
2.4062119 25.857241 16.460545
17.709915 80.029327 16.400791
14.585391 75.786377 28.228064
2.0025945 94.89888 5.1194291
-7.4744706 84.47821 37.601059
9.1727591 97.471283 36.627995
-17.349747 117.8256 22.197981
-6.7509565 50.059113 24.170286
13.104204 112.5994 8.9440498
16.525213 94.062195 7.852993
-11.762589 111.05341 35.140938
0.12875772 99.097496 14.713929
-18.752686 91.10247 32.505688
-15.677802 67.631409 14.338013
-8.5249977 78.983788 5.0691175
13.604727 95.010132 21.597286
14.879408 81.729195 27.374619
8.09863 98.309349 13.233399
-11.028246 99.362801 5.6101899
-18.284225 70.628708 6.7055998
-4.2259655 99.903992 5.6318913
-5.1125083 79.275696 37.573376
-20.376606 68.461708 13.878037
5.8733673 103.0748 28.28965
6.3451877 94.483742 14.686007
13.869765 37.680164 8.437994
-6.5475769 99.479263 15.792723
10.404233 75.558441 14.993677
-12.177776 99.747589 25.783108
-13.523013 68.113121 6.7055998
11.450895 88.362091 5.0987644
8.5465031 65.303848 34.389595
-18.363087 26.134108 11.454771
9.1433611 40.271618 5.2893252
0.20331955 67.52636 5.0328975
7.7930622 32.310097 4.8434057
-15.808399 48.585304 10.999113
11.823164 104.91844 16.060226
10.835979 84.265274 35.535103
5.7287784 68.449585 13.385876
17.628338 77.440765 13.808138
-23.77453 101.59328 17.534603
15.119478 30.807068 17.308352
14.670016 78.898415 28.360754
-17.088907 101.12651 24.604198
0.99517584 31.997042 4.8403034
6.6256871 49.517815 28.044712
-0.52442431 75.213028 24.36026
-21.260017 77.546257 5.0645714
-20.741184 88.340164 27.973663
10.374227 56.620686 22.65259
-11.255185 37.497948 5.2898269
-16.837809 68.969551 6.7055998
12.955093 39.95594 0.49316582
10.251389 112.80399 32.121262
-19.124826 80.333389 29.306057
-2.2019291 53.327145 23.936167
-13.020066 55.722912 31.405848
-20.896713 31.197659 4.8202415
-18.070354 68.145302 35.232265
10.037273 32.712662 20.015636
-9.6476994 80.367409 27.318386
-4.1814871 55.560905 12.896389
6.8347635 62.594498 5.0173073
-1.6855913 66.895424 35.017738
1.4530993 77.286682 37.484825
-1.9224834 79.041962 5.0693016
3.478755 77.512253 19.971533
-15.115648 63.837326 5.0212355
-14.718801 115.64394 21.508041
-2.8261607 73.953316 12.447538
-7.3691874 75.181099 23.907104
12.937809 78.779785 32.409599
-19.931795 76.924599 7.4777055
14.873999 43.953384 8.0271826
-23.566744 83.075401 10.853952
-11.789905 80.065964 32.302792
-19.128416 112.17742 21.264877
-18.014845 83.614853 34.653191
-14.722951 63.652321 35.018154
15.922609 67.643059 5.4683528
-13.518276 67.038467 5.0313544
-12.943027 116.51263 25.263783
3.7553468 100.6805 30.198532
2.72015 56.009464 4.99649
5.173903 51.540367 14.298189
15.701346 115.0196 18.620207
-23.58757 80.178619 10.778147
-24.007011 59.316811 15.052915
9.4201851 30.383314 17.102022
12.860407 42.444962 13.961019
-6.2551708 29.666725 4.8012285
17.356972 109.47832 10.204909
14.046884 97.538017 25.619696
-18.558596 66.570076 34.500359
14.457251 56.520424 22.772335
-6.438798 78.082245 27.014011
-9.7157526 86.878372 36.215836
-20.537195 59.460464 18.303514
8.8862 79.947952 26.740835
5.4863319 69.158653 13.003836
4.3213191 115.74524 29.948483
-15.808399 32.847111 7.4343157
8.8041601 78.258034 5.0668235
-20.81649 80.636765 27.159836
-6.7093081 65.30098 5.0258617
4.5251064 37.438484 5.2898378
-20.084623 85.576981 22.41534
-13.991901 79.947067 29.191349
11.344439 50.893539 28.130964
10.696164 71.60865 6.7055998
-8.1924534 68.349106 6.7055998
-23.216202 99.436638 6.5507526
-18.650532 97.721863 29.846001
7.3396702 97.599182 5.5394707
-17.593042 114.44833 21.14999
8.6378012 78.606247 22.265503
4.781899 51.148716 4.9811249
-13.259924 58.285667 23.298395
-9.1790628 76.505775 25.649837
13.883529 75.291626 6.7055998
-10.407664 119.86574 10.309786
9.2316933 76.218948 25.339094
-14.55605 109.38345 35.580048
1.0168495 89.488739 6.7055998
10.778921 65.800087 15.264618
1.5111343 70.114319 35.635857
-15.00094 71.740936 15.749302
-11.99853 84.897659 14.135221
9.4936934 58.883705 6.7055998
-5.1185708 94.486984 13.817154
-23.890511 99.411255 16.642178
-9.3292885 29.110413 4.7917328
-10.350584 60.619026 33.894009
-7.6455984 118.66057 20.204266
7.6387806 92.328156 6.7055998
14.287983 59.502796 15.159984
12.083098 89.355774 15.399748
-8.9177008 73.911621 37.288815
-20.365238 49.20377 24.425625
-3.8919482 57.70562 6.7055998
7.7344189 53.603218 6.7055998
-19.048044 81.971924 32.551731
17.349411 105.27734 16.004589
11.401932 26.954159 15.124769
9.8606281 60.500179 33.268349
-23.788136 96.263336 12.103405
-0.3967098 120.46975 12.820004
-13.32017 100.91483 26.826965
-1.6007679 118.93354 20.002192
-19.366081 101.77545 3.219758
-9.8420362 80.120743 28.61923
12.828883 108.75992 7.6081142
-4.8254957 118.49542 7.3593154
-16.8244 97.254257 6.1298676
-5.955554 86.620705 36.300533
13.621898 101.383 24.945908
10.56578 89.462379 36.416813
13.655701 75.966431 6.4111724
-7.7110138 72.243088 17.855612
-8.8062305 89.253433 36.197456
-5.401289 91.563614 5.1088858
-2.6497488 65.952301 34.822021
-3.2201991 32.423996 4.8499875
-3.7659464 86.9673 36.341934
-18.124233 73.495949 12.152571
11.903275 73.522598 35.366493
11.374287 113.60042 30.028574
10.457333 98.473045 17.088778
-20.426952 71.496887 22.278879
-0.23907407 25.631947 15.400799
-20.621326 51.515427 9.838623
17.504871 97.142502 17.122742
-9.1297483 88.861328 5.1003428
17.328857 110.29298 8.0247364
17.634186 58.82473 12.310678
11.606922 104.47597 33.091393
-18.333412 41.387318 23.444912
-3.8642197 51.215454 29.432102
-15.8084 39.243446 8.4245825
0.92038369 94.134735 36.102951
10.174891 89.015076 5.1008286
-5.6608801 75.604538 19.204063
5.7627959 111.53751 13.2334
5.2315397 32.693211 4.8535371
-19.122396 96.993652 8.101366
-2.9373503 25.390888 15.481007
-12.920902 93.498749 5.1150026
16.123583 110.59677 22.408869
-20.237959 82.389481 14.910419
-12.2554 39.298916 23.800812
14.937292 73.495544 24.12505
-1.9883511 93.316841 5.1144276
-20.576653 68.078217 28.923656
-0.028594017 61.590603 6.7055998
6.3038888 100.50658 18.695715
-11.260002 116.37305 23.83902
-18.26738 75.390076 34.848045
-19.702398 97.239418 17.55434
16.361208 60.25248 7.3525848
3.1908638 103.48527 13.2334
-23.409245 51.411251 15.442672
11.174705 105.89578 33.534504
11.920412 113.79625 22.546589
-0.030438468 61.942303 14.666692
9.1729383 52.656082 29.487965
12.327626 57.72221 30.686016
-20.209177 86.914207 23.839766
-17.632513 118.52496 17.142475
-11.031652 96.723358 20.549757
11.327961 31.761339 4.8319292
-3.2742994 94.076553 5.1168294
-19.401194 92.141296 30.929644
-17.939104 38.42448 15.939033
-23.723793 55.137161 8.6221943
-19.535324 101.61134 19.682428
-23.932926 75.968353 15.463949
-6.1824236 115.89188 30.367308
-2.3921523 42.333263 24.844093
-9.7921124 54.677216 25.703825
-7.1044192 116.30205 6.8967485
-22.858299 106.65099 21.361042
13.356508 101.71223 21.127291
-9.3534985 116.59853 15.078463
-7.8496599 117.55617 27.076052
-2.2502458 34.21664 22.476761
12.945056 54.258648 28.572086
-23.837902 71.107346 20.591339
16.874472 44.460655 10.42202
7.426105 62.485512 15.618661
-21.627645 53.177288 22.764946
8.7336454 102.19749 23.473944
10.261682 87.716293 15.237719
-0.23399982 118.81378 21.271526
16.088692 114.41241 17.964359
17.398651 41.607018 12.658643
2.1216683 93.959686 13.509736
4.9380522 120.11398 11.739168
12.645267 45.33165 2.7314069
-23.604095 105.05658 17.721298
-6.3432212 108.32388 36.363605
-1.5909662 116.92683 17.553537
-1.2032233 69.734238 35.674934
-2.7294803 111.19639 13.2334
-9.1645746 76.320374 16.908112
9.5915699 43.43544 13.453686
-18.758371 100.31701 22.311436
12.748931 97.120224 32.056149
-16.121138 108.25807 13.2334
-23.44521 100.41998 18.770256
-20.904575 39.175205 14.029803
12.518116 113.68255 13.44864
17.756271 68.43502 18.165237
-3.164099 40.768147 24.356915
2.0842869 51.671146 29.556236
-16.048458 90.072037 35.535614
4.9287615 95.644714 18.516344
-17.286915 86.803421 15.267546
-21.759319 53.523594 14.562418
-9.3489408 118.94359 16.393476
2.8112788 77.277901 26.486359
-4.0954614 54.233055 6.7055998
11.426685 51.011799 13.265534
8.820591 75.004219 12.772625
-20.48024 52.367123 20.492781
-6.1103373 79.788773 37.57114
0.049309731 93.429596 36.160378
-19.892008 91.807632 19.991734
-21.540859 90.071892 25.629963
7.1297131 68.639404 6.7055998
9.0498734 24.87845 11.360241
-16.2656 104.6561 15.226641
-13.620435 73.451584 6.7055993
0.81724644 27.094837 17.995974
-14.375236 71.658279 13.040736
-23.364948 98.945015 2.3364842
17.572384 80.43364 13.297514
-7.1290708 68.092003 36.672974
1.5188494 79.323532 6.7055998
-15.36447 91.286804 5.1080103
9.8785915 94.648621 16.070427
-7.9212141 84.989143 15.382967
-8.7116623 99.295914 13.2334
7.7320461 87.161011 37.229626
-14.930479 73.825516 21.273394
-14.753351 58.979164 6.7055998
17.718704 74.187607 18.649698
-1.5191836 34.324921 5.2904005
-2.6059885 24.407143 14.566262
-1.5754385 76.969803 36.232563
-23.453522 107.52845 7.8749886
3.9902267 114.38106 13.2334
-23.937141 79.233482 17.550549
-15.19592 106.27483 35.774376
11.233876 61.613346 6.7055998
-15.095911 79.43972 23.76128
9.3030586 97.026627 5.5165124
-14.774249 63.771538 15.341219
-16.8244 99.226486 8.5483513
14.874 40.725807 9.1126461
5.4626336 51.831738 7.5745497
5.2273345 64.797821 5.0242724
9.9709272 92.631905 36.638206
-20.015961 76.585289 30.344505
14.69669 51.138077 12.614669
9.3215332 109.84615 13.2334
-11.718649 51.580837 9.3658018
-18.901636 112.01607 29.346235
4.2561498 76.625572 17.700796
-11.361876 116.69109 27.964689
-7.5472393 61.104595 34.2328
17.817694 49.633011 13.631575
-19.601072 90.165382 30.665333
-8.3485641 118.59593 22.632475
11.014523 66.668915 5.0301876
-22.137718 32.179905 17.403433
-19.448898 107.72413 15.730276
-21.972603 55.770935 24.415009
13.569159 79.0438 29.965286
9.5915699 47.03751 12.378307
10.064092 100.43397 18.490543
12.54529 66.524979 6.7055998
-23.997126 62.875534 18.053852
12.130224 97.66095 32.284805
-11.073572 52.73024 29.982719
-16.373272 47.706348 24.147377
7.6368756 64.383736 15.198323
-2.7239351 104.18425 35.515835
4.0579901 53.254036 23.826269
7.2381968 94.269112 37.0718
9.1783915 91.541931 35.650379
2.0627375 74.327194 35.956863
17.664497 74.942482 19.975695
-23.294018 43.464092 0.47391814
14.977249 60.630886 23.201527
3.8692994 55.452 23.594757
-20.489798 72.645798 17.715155
-2.4933102 118.74907 21.957464
2.3819015 106.71886 35.144855
-14.678974 64.075455 35.172054
-18.702309 83.083397 33.223923
2.3262811 92.081398 5.1105223
-21.719189 76.904388 24.611294
-10.998482 23.920908 10.362779
-23.486786 85.215973 10.326846
-19.632458 97.969887 3.0137713
17.408451 91.802094 13.088261
13.081436 51.601204 9.3110352
13.199936 118.81452 12.199921
6.1627479 84.729324 14.856911
-21.345394 34.386635 6.6684966
9.5915699 42.27919 6.8977246
-20.089048 56.995445 9.2432451
-17.244781 51.225891 28.400005
14.1716 64.402184 13.395233
-20.523806 56.844501 18.440208
13.898391 78.244064 10.801711
13.47205 100.07968 27.51071
-17.957218 71.18895 13.27098
-14.973075 71.741982 15.756054
-6.3820429 98.465729 23.827335
5.868927 116.24381 20.825102
-11.996681 45.696075 25.861166
-21.556234 99.744659 7.0181699
-4.2113738 109.72692 6.0257788
5.6753416 65.460205 34.451176
-21.340504 98.287354 26.283024
-21.577229 75.889252 25.938976
-18.592211 79.422379 33.912838
8.5514975 58.863018 5.0055113
-23.27351 48.920151 12.529272
-22.078608 31.829266 5.771872
-0.82685471 56.409138 22.974241
1.0738505 54.639565 14.925008
2.0071406 98.643661 35.832626
-9.2248077 107.16125 13.2334
-20.833092 107.58238 5.8848658
-5.1723194 72.551605 15.252626
-12.140011 108.85325 5.9907446
14.804384 66.19474 27.567741
9.9912395 44.723022 24.642992
-23.37709 73.920395 21.184082
-15.834913 116.49788 26.378767
14.111664 79.279831 25.81954
17.820173 57.482513 15.941599
-2.9704914 69.031898 5.0376587
17.134052 42.207497 8.0531263
-8.8377066 100.92769 26.830936
13.886343 66.914108 30.257256
-16.165209 102.73981 25.83687
10.82398 101.52669 34.962803
-14.236401 78.679039 26.971474
-20.939962 31.154379 17.34914
9.6941185 115.28325 16.653044
-6.3408966 55.001595 23.729008
7.2318282 73.352081 20.27463
-7.567225 55.000919 31.341814
-23.508183 107.87526 17.243196
4.5026827 73.173676 5.0507507
11.858659 32.364803 6.0722265
-5.3806024 76.480721 6.7540183
10.6076 99.121902 8.8933954
7.2130179 49.409782 24.011307
-8.5606871 96.234032 35.962879
-1.7568119 71.242905 37.148636
14.97164 78.764175 27.532291
-9.4299059 50.605965 24.121107
13.439428 103.13344 21.448418
-12.105088 28.701464 4.7834177
13.844918 87.305458 12.465991
-6.2063713 42.00238 5.289012
9.7172318 46.095753 25.564936
-5.1243944 52.418198 23.981585
-11.263075 110.49992 6.0567746
15.397788 51.39949 10.753205
-9.0067921 80.794563 37.514603
11.973612 112.74637 30.67128
2.1957245 118.82906 18.216972
16.673191 106.61227 10.320278
-24.195244 39.887032 16.93331
14.66715 92.015228 27.281986
-19.779259 96.636383 6.521471
1.7256188 56.992752 32.311172
-20.662392 50.982647 13.65204
-22.764429 49.541969 11.566643
-5.4462261 23.461725 11.309098
15.737715 48.79599 22.892937
9.6129484 98.8433 5.5893588
-18.684431 34.71941 20.419691
-2.0340011 46.936138 27.017595
-15.705826 25.27013 13.614174
14.49468 61.838379 22.763609
-1.9435166 42.35347 24.409296
-22.808273 78.356125 6.5749273
-17.701645 117.31389 21.452713
-6.2497935 53.509415 30.613544
-21.435898 69.138107 5.037992
15.026855 105.89027 25.867109
12.688778 46.111332 24.20332
-5.9522057 27.372295 4.7615905
-0.44634014 118.93575 19.978939
-17.187065 63.762444 34.499336
-2.4602752 37.034698 5.2899103
-11.481378 67.240768 36.315483
17.776131 65.333336 17.910856
-19.568287 46.831375 14.648934
-10.957423 101.03899 20.200207
-11.228622 69.830582 12.853571
-9.2182331 83.421524 6.7055998
17.670395 96.182259 13.350985
-18.699486 116.63868 23.199429
14.126553 54.319252 13.029039
-10.225688 58.51247 21.988281
12.57567 71.487541 33.556984
12.657073 40.181377 12.883408
-0.76474017 116.88081 18.106462
6.5064931 43.259235 24.404802
-2.4232154 69.861198 35.725163
-18.251436 81.121521 33.493744
-3.5959563 85.70311 15.428578
0.12570333 53.085285 4.987246
-23.766535 82.789986 21.211987
-8.6847544 68.810402 36.750256
-8.3605499 78.220482 30.218342
0.82533681 118.75233 19.336472
-7.8576865 82.759857 36.240715
-0.3533268 42.31015 5.2889566
-23.902094 73.223389 14.379799
-21.083706 95.817024 26.436028
9.0547352 56.77412 4.998908
-8.0132723 89.896011 37.547756
4.9608212 60.211624 33.655937
12.681856 47.584839 8.1748705
-0.94497097 102.16389 35.652077
-9.7993984 63.486603 5.0201268
-19.395981 112.74068 7.4842691
-17.420053 88.741409 35.468163
17.229652 89.461929 10.80978
1.2546682 23.404881 7.5566654
0.051129311 62.820351 35.161953
-3.5242221 102.41571 24.090576
-20.932039 56.764015 27.300074
-13.633121 60.292149 6.7055998
0.51282698 29.540573 19.835491
-13.731976 98.202126 5.5636487
-5.9658766 100.62621 26.737534
-22.242918 35.711796 19.014229
-17.021452 110.77755 13.787659
8.3565311 100.67213 19.163548
6.4019728 47.144497 26.675297
6.6156921 101.3802 21.164412
17.589396 45.702381 18.6847
-5.6628518 38.916702 24.141315
10.830093 50.518608 7.9673228
-8.0821323 102.78203 27.882738
1.7366376 79.978058 26.715214
5.0064282 80.331223 28.191771
-3.3947868 23.892181 8.0403042
-7.5693483 107.68416 35.088608
15.170576 51.33823 11.191418
7.9025488 78.109207 27.330162
12.651665 98.006302 5.5571737
-2.4141707 65.566498 34.72377
12.226748 105.53705 16.4338
17.444946 36.680958 14.952062
-6.4010353 102.12973 36.961819
-10.64427 77.913193 28.524967
11.456025 72.060707 6.7055998
-19.880228 70.450531 6.2563086
-13.764336 101.08708 31.079082
4.8991771 79.39006 36.102413
5.232193 80.356422 30.681826
-13.507874 88.507446 35.932247
9.8792105 50.15612 9.6918325
-1.2137406 60.245758 11.694287
14.218959 79.973175 28.216145
6.5484424 45.592899 5.2883625
20.873669 58.101562 24.762283
-6.3806915 93.632469 13.545362
-5.9382105 108.07569 5.9595666
-22.120991 41.567822 0.0025290262
13.160356 51.583523 9.4374485
-23.663944 99.608368 14.962839
11.449461 98.522263 34.24173
-17.567961 79.734505 35.090958
-18.6896 32.349739 5.6238894
-21.184689 49.86174 26.041649
11.601542 92.548798 34.322136
4.928791 29.665756 19.224541
-19.575127 91.774445 9.738204
-0.31605053 101.39409 21.203676
-19.983618 64.951431 7.4999437
-5.500083 116.99584 7.043088
10.420925 65.101181 34.424858
-18.473639 31.473873 4.8262491
8.8235207 116.29779 27.163387
-18.208317 117.58244 18.3722
-20.320372 52.859077 12.737434
-23.143951 106.64477 5.1822381
0.84385043 43.861519 24.370893
12.043912 26.166504 8.8034611
-21.605839 51.505833 22.65037
-8.7858305 88.114883 37.548035
-14.986752 59.768555 6.7055998
-17.436615 72.444778 11.035327
13.061003 61.63858 5.0142856
9.5995913 51.21328 11.834887
-19.156601 96.872925 6.9065828
-5.9094028 77.440674 37.529858
-19.062136 47.029877 11.122766
14.714922 35.259865 16.528893
17.204306 67.667427 22.125017
-19.324656 26.692932 8.5915308
-13.347367 103.04262 27.621193
-8.1635027 85.244987 5.0889111
-11.902974 75.574905 6.7055998
13.730593 77.094139 7.7756481
-23.976706 59.686882 14.335841
-20.493906 64.353279 19.514847
-9.658041 104.7347 5.8255963
17.390202 69.05336 9.6193933
0.43337917 75.922638 6.7055998
-10.115306 101.40234 21.226967
11.790077 74.789078 20.979004
11.000363 95.06134 34.510815
-20.383839 53.35178 13.601081
-17.079473 67.402794 6.7055998
13.22137 26.892849 7.1902871
1.7345074 73.577812 12.078202
-8.0587282 118.66157 24.965986
-22.820807 48.735687 7.6282821
-10.580743 51.203938 12.001795
-23.621281 100.20241 16.245939
-12.422671 36.309147 22.697733
-2.7009034 55.563297 16.26298
8.4381599 78.7836 6.7055998
10.6076 105.50621 14.27459
-22.686897 50.218071 7.4338489
8.880724 79.213455 23.32972
-13.751482 57.078808 31.976276
-23.152945 107.5462 13.233912
15.953544 34.393337 6.6185932
-12.576536 52.779869 14.496765
-23.745926 96.160599 16.589722
13.312158 78.783035 6.7055998
-12.499127 46.392525 24.29797
-10.020655 79.545044 5.0708914
-14.024881 56.565407 21.144737
-11.270484 61.049728 15.508699
13.070493 35.809612 3.2059851
-17.588432 113.31496 30.433899
-1.7874578 120.4966 12.957308
13.781065 54.586239 8.2312346
-10.862202 24.685575 8.0852537
-7.2513523 29.799717 19.951429
1.5926869 91.50576 36.182911
-23.603863 74.653214 8.1988134
-3.4160085 101.03893 20.200031
-1.0662377 64.107124 35.01189
17.815556 58.856812 16.013243
17.41312 73.345825 10.74156
-1.2697158 103.46704 13.2334
-1.079392 75.559021 9.0096378
-18.459173 117.37518 23.224056
-10.173878 98.74369 13.714149
-4.2382045 61.47887 32.599586
-6.8874393 50.795544 4.9800081
-14.151011 58.048775 5.0029364
-4.1885319 111.26655 6.0875158
16.026081 40.9902 21.063538
-19.833067 101.86189 26.75918
7.6156006 76.427559 17.193708
-20.638941 56.386421 16.977982
-21.261337 43.391022 10.836337
15.425726 83.56662 25.045948
17.314873 89.947205 22.426979
9.5301456 116.91156 25.571888
-12.359499 42.390022 5.2889419
-12.169832 87.830032 37.372208
-3.2021601 101.65556 37.03643
-9.9159222 118.29979 22.295431
-20.678255 53.052372 28.066063
-22.747776 115.03641 14.001991
-10.357609 54.279942 6.7055998
14.391546 99.57177 1.4158394
-2.6247239 45.213211 5.2884312
4.7659822 87.254517 36.161777
0.70416403 32.792988 5.290678
17.314495 100.01591 3.6977763
-15.421324 47.850536 24.143223
-21.090797 40.420452 8.8258581
-16.900616 107.30183 34.256927
-5.8252292 65.586273 5.0267639
-1.1050582 116.89624 14.80665
10.631011 85.914764 6.7055998
-7.1370039 87.432114 37.597912
-8.2702456 79.159775 29.983324
8.7744846 104.51442 34.711868
2.6128259 83.07251 6.7055998
8.4637041 74.305 22.25095
-19.350376 109.37415 23.124466
9.7051277 26.388464 8.410181
12.719965 36.738903 3.2280698
4.2083678 39.587784 24.061577
13.528662 97.123245 22.123045
-11.147613 80.652039 5.0743909
-10.658913 90.190376 5.1045442
8.4722996 30.673895 19.087198
13.570316 95.106926 17.813267
-23.717701 84.740189 12.882705
-18.131718 113.80206 21.261919
2.5844421 77.236382 19.265053
-19.393784 79.996628 28.566555
1.6595149 34.11412 22.22965
12.730867 39.445793 2.3512685
17.322311 47.729164 4.9925132
-5.4259491 67.087952 7.8096466
-6.9915791 118.77125 19.051271
5.9389629 100.03792 17.371399
5.0785775 61.013779 15.242473
12.232077 112.57324 9.2154207
-23.335932 110.07663 4.401536
-23.075462 73.675217 20.678692
-8.4336033 99.252289 25.136078
-23.881031 77.674088 19.935637
17.263422 104.0533 2.5016785
-23.917313 81.49588 16.929813
-5.4985828 70.582932 13.411182
-16.8244 108.45834 11.312954
16.772989 50.37952 21.847408
-12.69744 102.6195 24.843054
6.4342995 70.040497 12.810137
11.792921 35.428314 14.264749
13.822415 53.456215 8.8592653
-9.2894745 33.290558 21.697271
-23.988655 63.58614 15.106016
-3.5453758 68.861069 5.0371194
10.821575 87.0233 15.215233
-1.6393664 109.28624 13.2334
-5.3928528 77.020256 5.062911
11.791173 65.345474 13.034762
0.80697739 104.44501 5.8139811
-17.630121 31.651339 15.859158
-0.80852509 68.906059 8.0139656
2.8227439 106.03893 5.8778944
17.434975 71.858749 8.7287397
0.91284132 98.853401 13.2334
10.632298 26.053028 6.5030026
-4.597578 25.691454 14.667801
9.2536192 100.71371 34.997551
-18.224361 112.95425 13.2334
-15.845072 85.086395 13.326092
10.25153 106.6018 33.98122
-22.199013 99.783684 6.7276011
-21.443192 80.773666 24.612715
11.830037 74.073616 15.668142
-14.993121 119.81859 12.369787
-9.6374846 24.380638 6.1837444
-20.255173 81.073227 22.75341
2.236114 74.033188 10.419444
9.041069 32.633961 4.8519154
16.567001 74.726784 23.61581
16.969616 102.65448 19.979362
5.4839411 52.656231 4.9858894
17.358459 90.747421 22.081053
-21.356071 48.670727 24.022831
-1.4105102 77.656631 9.6520004
-16.314281 75.796799 5.0590425
-20.086946 61.128437 30.313519
-5.6779833 37.522469 5.2898226
-22.961359 109.7232 14.060318
17.711466 96.915848 15.070357
-23.038185 101.06003 3.9493074
-20.040928 63.470539 8.2577934
13.514542 35.282146 10.854422
-13.792663 102.49342 29.729525
-0.91437817 72.560074 6.7055998
-6.6232562 75.398972 14.786856
-11.019102 98.686028 35.723709
14.482929 56.327976 26.983608
9.8261118 71.602921 13.047791
7.1435366 95.479897 37.020958
-18.864487 45.570477 11.657215
-1.5109577 52.581985 6.7055998
-3.4043388 103.66417 35.56638
-0.086444139 67.732178 35.169914
7.6441917 46.556652 5.288188
13.930569 32.31089 15.731493
13.126302 109.47871 18.856722
0.66722226 85.213181 12.782635
11.027827 105.49188 15.98359
-10.927791 72.309723 37.064278
13.74194 58.187901 19.926155
-20.357403 109.44218 2.8245621
16.057112 45.425144 13.317753
3.1621513 68.94339 5.0373774
-23.901796 71.152573 19.776274
-3.3814073 78.473297 5.0675039
-10.651217 51.65469 23.977804
-20.753365 101.24855 27.570412
-4.4091368 70.877052 37.11134
-1.0639036 58.474808 33.084324
12.526566 67.635773 34.153542
14.874001 42.294785 6.489996
-11.657007 27.682285 17.575615
-3.1315572 113.96388 33.441296
-19.169514 84.024483 32.141365
16.761555 112.74234 16.956207
17.461384 43.491386 1.6123574
8.7140789 29.020498 18.085346
-0.36472148 69.118759 11.475935
-14.977298 41.544415 5.2890949
10.801852 106.33305 34.263416
-8.8391914 108.84369 13.2334
-17.18358 73.420525 36.379581
-16.29067 96.906326 35.089333
13.380703 103.76657 18.974699
1.5207543 73.430321 20.43969
-1.0062866 82.434128 7.4190125
-2.0405736 53.811714 6.7055998
9.5915699 45.947216 9.6427841
8.1198158 60.277195 5.0099816
8.2870569 93.586655 6.7055998
-19.187038 51.320801 11.131134
