# .PCD v0.7 - Point Cloud Data file format
VERSION 0.7
FIELDS x y z
SIZE 4 4 4
TYPE F F F
COUNT 1 1 1
WIDTH 1584
HEIGHT 1
VIEWPOINT 0 0 0 1 0 0 0
POINTS 1584
DATA ascii
376.89963 115.18526 108.45294
481.89673 -92.977242 15.907504
366.46167 -68.285141 26.956926
424.30023 -141.5556 74.781158
460.08063 82.756966 108.88023
442.15369 46.832947 17.635729
390.44247 206.39052 93.030022
352.10953 -141.66237 57.056828
436.69617 -201.15152 26.430882
481.92902 84.377747 16.288111
415.15485 -134.60875 19.56955
506.35339 96.273148 35.812187
452.21741 -115.53829 79.470047
347.1687 26.645826 49.342327
477.698 -65.483269 71.235054
366.15692 50.678719 33.079605
337.55121 -53.860214 71.34613
497.18066 160.30348 61.754616
343.76532 81.526535 86.580383
408.94818 -64.94883 94.128601
386.29996 -131.28392 33.027954
435.64404 3.4754143 16.919544
369.96841 -95.242889 39.866524
335.41162 140.36911 43.934174
390.55426 -157.71565 71.368233
332.73688 -107.5901 48.583401
475.0538 168.03734 90.436829
359.55405 -109.10421 79.881622
447.82095 -105.20984 27.695984
481.06958 -146.86705 77.347855
399.04456 -168.8598 40.448322
487.17267 185.2077 25.52457
388.16986 158.34247 36.573566
482.72397 -52.406898 52.778316
498.37573 37.361233 52.848831
357.84338 -189.17979 27.457203
352.25043 69.262329 97.430267
379.84589 -30.92207 108.47459
341.68079 45.781101 40.856178
451.23679 208.66382 56.518646
423.86392 -106.35869 43.815945
409.89703 197.07501 45.314232
373.54211 -87.786415 58.046329
329.45712 -94.440018 76.69455
380.4277 -148.48065 66.672913
375.29819 24.14929 121.46417
438.38214 -121.14099 45.317841
370.62518 64.53199 65.337677
415.59183 142.32056 24.704964
482.5733 -38.118649 84.374512
357.1525 -134.91351 37.726303
424.87921 196.82149 52.72261
394.23718 -14.741644 12.431482
325.16702 167.07309 22.514051
360.06998 11.748764 18.516041
452.7345 -119.8519 49.859047
336.16818 76.638275 49.990486
451.44574 200.84564 90.809944
484.80927 -182.21544 31.544712
415.00726 -141.19688 79.182411
361.59409 -26.390963 43.300705
391.16803 -197.56516 31.225592
389.83228 -189.23718 31.019428
484.42566 -182.43071 37.196976
466.16858 -154.27174 31.540138
453.32739 -100.15093 41.59647
335.03741 122.14565 90.890465
371.492 170.48148 93.260674
326.55347 -121.1952 74.380264
444.78857 -153.96274 59.800018
459.05853 -121.09174 47.16806
449.19675 188.6181 23.941477
457.88623 -182.31381 59.9487
432.36984 74.857224 25.858997
361.56537 -75.828201 62.031605
359.25101 -155.09183 73.000488
334.33289 -150.0195 33.360092
432.89389 -21.689913 16.603216
486.22427 -120.11551 80.432037
394.98401 -62.258686 63.698326
348.84442 134.48512 58.895622
460.8537 182.58614 40.397266
506.27826 -112.75603 3.12517
481.85257 -104.59416 62.096703
390.26163 -71.2724 60.449615
348.5715 -0.61550808 28.431221
348.60165 -23.784756 27.734791
353.51697 -110.90009 8.828474
446.7915 -145.56982 60.987305
499.73499 194.15068 77.263908
357.95889 -127.346 37.023018
466.17755 -162.39748 35.470558
508.07483 -95.834358 62.104828
511.28491 -125.03407 60.852402
361.89105 -22.450603 25.580959
378.93451 65.750092 42.658081
343.2851 110.20657 19.177469
421.63434 -111.25513 81.110199
460.92999 -7.8554993 17.348389
383.40512 110.41477 110.58219
460.77054 130.69179 46.355263
427.19684 191.29718 91.811134
477.50183 -43.198971 44.401871
351.60785 61.195305 91.627251
467.75525 144.14069 49.609039
323.94019 -105.14708 12.747714
506.60638 78.253815 66.753601
426.53445 76.055824 102.6873
333.1907 -125.43303 37.313118
332.2359 76.295372 50.159508
433.05637 -125.58293 47.017784
352.04071 -80.33815 58.582947
358.24744 -79.549957 82.341545
479.23428 18.39859 16.136221
374.28156 201.47807 51.005554
427.68707 -92.293228 51.477272
481.11029 -49.806488 77.522537
510.31238 164.31055 44.980923
468.75879 -125.52235 48.654369
492.70532 32.867035 38.034821
323.97595 159.59796 20.72636
375.96185 -94.816544 18.151901
366.63382 -55.232761 76.389549
389.65268 101.76909 113.94471
461.13757 65.472359 76.814606
403.18558 80.052353 118.03947
450.49347 -120.20028 41.974133
375.37433 -18.387253 17.483868
443.35144 70.736061 118.56618
500.58569 70.613846 36.816711
497.97675 6.0917039 41.003433
328.24808 142.49843 32.877693
413.16614 -56.234875 17.54985
492.85883 -147.99893 24.436359
347.34738 62.312511 88.493347
457.20367 61.547737 22.660259
386.33548 -163.37654 34.657936
470.60037 206.12997 55.861526
358.51404 79.089127 106.49998
495.22211 84.693741 74.608986
467.79489 82.313774 76.238052
408.70483 132.40582 14.867322
334.66397 -0.49476737 45.105328
445.03204 -123.51283 76.49218
426.07657 210.49908 85.776268
488.67426 186.22411 27.169773
503.18921 162.36311 83.242165
457.5737 -63.625607 91.226318
457.84952 82.074707 29.113693
399.02145 -155.37578 72.751129
461.80356 -107.78116 17.814064
505.49792 73.051926 57.581535
471.13739 3.3409595 17.7328
414.22879 -94.516151 18.374203
338.45538 -69.300217 64.145317
353.63861 -98.036667 13.685135
404.23981 -31.168999 17.43725
473.79587 26.783436 17.400688
429.40579 -125.36267 19.009544
466.81567 -70.540154 55.675369
481.64771 195.94095 88.509689
464.76685 -11.739154 12.389004
509.53528 -146.16383 23.493416
337.7728 -123.43966 68.896164
500.33005 75.423225 72.524368
397.09384 171.20967 15.411838
484.26331 9.8121128 46.976604
326.06128 160.50952 12.559687
332.78589 143.36272 19.972252
346.52899 48.312943 15.728041
358.05252 27.317354 60.140388
325.09772 153.41718 13.274122
398.32767 -10.406383 17.931324
362.07416 -26.82111 37.512093
354.84314 -69.886734 31.15523
434.71222 34.460262 17.39072
322.97305 -102.13078 69.114723
439.65259 -78.581924 59.160866
405.2886 -51.463959 100.72198
351.22729 23.982347 49.317642
460.71777 178.62262 47.046082
327.43774 185.5392 68.067856
327.0116 125.04321 6.3513665
438.21317 202.8237 51.610298
416.29684 -79.704773 19.109694
504.36438 -44.627525 60.639389
499.47495 -92.238518 81.45636
381.5361 -44.94072 101.84438
380.80066 -121.19411 45.896614
397.1012 201.931 47.41391
475.18652 47.535328 71.559113
353.85388 139.97726 24.496536
322.56281 156.98854 70.268082
461.94983 -89.463028 58.2215
370.44604 88.722656 61.165913
387.27484 -103.00134 52.413246
499.18756 -165.05312 49.79105
417.49258 -189.60899 33.761574
468.47232 -125.11813 49.231503
436.24353 -189.5607 44.27438
489.2374 -33.277096 17.060162
420.70303 69.502983 47.501808
436.29422 -29.046768 17.773081
412.50424 175.98235 15.07241
503.05286 -100.52072 7.1214604
365.83832 -68.828079 59.651276
341.20975 -47.901215 79.159859
434.93973 61.726509 123.12976
413.84222 212.03214 62.179359
374.69904 139.3163 47.816963
327.005 -124.49727 4.1646814
486.84055 -48.067501 68.09108
470.28931 3.5097332 12.172976
430.89404 44.415718 16.581545
348.36124 109.25921 89.546783
368.00674 -132.37198 43.016647
340.66718 -152.98843 62.049255
502.75928 -64.520706 22.808434
384.77637 26.066896 15.95997
458.44196 127.75867 61.620384
398.23767 -71.147018 60.449379
330.4324 169.31963 49.887768
387.84348 208.75113 93.485069
381.1626 -122.66889 76.657272
469.25568 -161.60878 69.533714
479.34903 -14.685598 71.489571
359.15442 -62.84713 35.404976
494.66382 66.319908 73.706909
398.94873 69.398941 120.2641
343.84177 -106.52856 57.37204
379.59894 158.5354 41.190205
445.35574 -39.022133 18.094376
357.58636 17.979549 43.400772
475.22827 29.587238 38.162209
379.17075 -86.425438 76.319695
473.52884 180.65341 89.729454
443.53491 10.299021 16.153767
362.22986 31.165798 114.9064
457.95013 -2.8349092 17.274551
502.17517 -140.31995 43.326035
474.87595 21.419495 20.825676
368.94315 -89.125832 33.585213
507.09906 142.50958 38.346695
489.80246 -145.56207 78.384094
358.28207 141.306 94.991379
334.20209 122.53721 54.567635
348.43103 -180.23135 46.953918
402.29434 72.604645 102.57508
471.07761 -103.80612 79.727097
419.78098 45.097939 16.544846
326.21143 149.8414 5.9964967
388.06195 147.41272 101.4104
397.31152 -156.94553 33.755672
353.59586 79.357147 98.531998
351.3501 117.46222 11.141638
346.37537 4.3295493 16.341383
476.15793 -128.65648 76.36747
504.1225 144.10419 85.691986
371.47531 -38.051739 103.10716
469.69867 104.17505 32.526371
381.00818 -153.78024 46.023048
368.82156 -89.163826 82.178429
507.27582 182.52582 47.015289
332.86517 -119.75891 32.12529
329.15826 -130.49078 74.830399
361.77921 -171.40118 65.474243
505.53336 138.9734 29.89818
406.10349 -153.91594 68.825935
487.23151 -92.510628 81.515396
358.85251 68.32151 107.80083
474.50092 44.422161 32.839718
346.55304 27.044668 16.953354
334.19626 -147.52368 72.022438
420.31259 -101.08244 29.140839
481.9198 130.64375 9.6440716
474.59967 -31.434486 32.004177
508.40073 99.462616 71.002998
329.37759 99.064087 61.388981
413.44931 -104.31487 70.116348
478.2254 200.71709 33.92189
376.80887 -76.029282 26.941021
417.64703 187.53992 92.09816
510.97656 161.65349 24.769785
457.10428 -185.30145 39.383255
457.41507 -77.881477 18.41316
464.63098 -108.87514 78.696472
351.224 198.01048 69.512718
401.55884 -104.43663 18.200081
510.34174 -113.08835 62.643059
473.81216 -173.43428 35.196712
324.15015 -120.74684 14.026528
353.34091 170.38574 36.544628
464.21744 84.959137 114.76688
360.17975 9.6996861 19.873358
433.42929 -55.898773 18.509846
353.07776 193.51122 30.153042
459.09662 205.74521 72.390518
489.65973 13.690982 17.134861
422.49402 -189.50085 50.464703
430.68372 79.045929 120.3842
452.92508 49.867653 17.707174
471.09265 -33.600136 17.02544
474.44916 139.91866 96.113846
473.94901 122.94835 100.4537
510.52713 144.52521 63.482399
353.89478 195.28476 71.708824
458.44199 128.31693 52.95961
325.14444 163.16324 24.852606
326.99258 -146.32172 20.553793
322.64056 139.98831 74.36013
362.24719 54.861687 56.877842
487.25314 -73.244362 64.222382
415.08542 44.235809 16.554272
373.96674 -126.46593 75.624374
464.55167 88.044281 113.89084
401.84753 -70.36261 18.241886
481.39468 124.1276 14.120647
496.6431 56.570637 40.163807
405.44537 -97.392586 43.41338
393.26035 66.843811 120.35014
324.56992 123.00595 25.367607
448.43893 -200.96877 18.727259
347.83533 64.649887 75.943207
333.62296 18.755194 62.617458
487.20184 -148.38803 77.684196
394.53757 -188.78896 58.160477
471.46204 60.024052 15.563883
424.26361 40.826851 17.50227
488.12183 14.673035 45.039337
430.81735 -57.503036 67.104012
393.5766 -81.420013 18.566145
449.85834 -112.66103 80.828918
397.31207 -61.557655 56.73801
482.4924 206.10399 64.743973
423.53418 -102.23412 28.768585
331.00357 -150.28658 62.925125
403.24103 184.31749 106.31731
345.97537 -50.421337 45.3512
458.36133 -110.84676 20.234585
430.83142 -68.605949 71.018585
355.96979 2.625545 64.295937
502.71167 -104.45721 40.822079
356.67731 5.3493052 57.469414
451.04175 -180.2106 36.89463
397.21259 209.97749 87.305786
380.03336 28.129574 17.392632
478.03271 -0.17515442 74.203911
493.43768 77.709709 50.765594
467.74069 105.80157 49.64296
326.18515 -88.433937 20.541014
330.4053 114.08498 38.779118
384.45273 -128.19795 58.642525
466.79745 97.470688 34.725346
400.79703 -13.867812 16.449234
362.55304 -42.522987 24.566801
338.5816 120.21536 51.565491
445.50391 -2.9618816 12.266218
476.95068 -126.36919 76.727638
453.68561 -193.90715 53.340427
474.70764 17.718208 27.699192
343.90771 27.516161 83.584038
445.57819 -76.915245 78.06884
495.44489 80.578651 85.897537
364.92261 23.654064 16.041424
430.36935 -195.51251 28.992996
458.44202 117.38783 30.888062
429.76868 -60.682186 71.109116
341.29071 92.379089 15.525797
383.28979 -124.1143 55.736073
362.39218 -127.34599 41.132835
510.83173 164.70547 51.771042
495.26337 -56.904526 17.729061
474.63281 204.18726 73.168106
430.01489 165.49231 100.27961
370.31567 -107.40237 21.99386
376.24591 -139.83771 37.832973
339.93555 -115.88936 24.529266
326.33472 -96.375313 60.695911
351.54602 -39.915627 90.150589
453.34201 -80.348953 19.30323
483.08578 -47.458778 44.218891
495.22626 -119.77705 22.669491
425.10208 -153.44214 16.989237
477.20398 -77.862724 72.587616
496.21252 155.23553 18.907898
448.1615 -157.62375 49.123444
427.50629 -99.578857 81.743515
425.33188 87.249016 15.642109
491.4136 105.84579 31.074266
441.99591 194.1757 23.953609
469.94809 -188.91051 47.134586
494.52203 196.5737 50.558044
338.7359 195.44832 47.248802
443.42529 -98.715988 56.439587
403.28119 68.820984 16.140776
380.16272 -75.559036 85.634125
457.27643 208.37003 82.949829
362.3425 82.180565 111.57552
355.16922 -182.8896 54.40155
353.81775 -51.549973 44.852013
479.29126 -52.53717 77.492973
458.79306 -56.54071 94.73349
482.62683 193.94812 73.721619
497.11105 20.099573 41.591351
431.96442 -78.437851 77.359184
486.57733 -67.592682 67.023705
456.16525 66.255699 118.80983
326.36426 -100.95478 73.66066
487.75012 26.511963 44.890259
451.66302 -125.44395 49.817566
375.2973 -117.5865 77.675751
483.14142 64.783623 37.048981
388.8432 -68.372604 17.951042
384.84418 -57.515152 69.975647
467.66406 109.48469 31.644888
437.64368 102.32245 15.755729
511.87311 140.13205 47.59499
446.57843 -189.32437 32.676414
327.76251 183.12407 72.632301
359.11942 12.524746 33.363976
463.90863 75.916916 25.837242
407.72067 206.15082 51.03289
439.23544 -128.73926 76.139
463.17197 -28.859009 17.786232
458.48413 143.32861 63.883869
364.80255 200.9946 51.08308
387.68365 155.63307 99.765274
411.9931 -133.8241 80.281479
394.48706 -83.761612 88.491592
376.76276 -82.041176 26.762173
495.04053 57.015202 40.933281
417.88492 -12.50555 16.394215
444.54694 185.46806 92.069138
507.04202 121.0273 19.440233
434.11407 212.89401 65.286003
461.85175 -145.15862 17.490707
463.75922 -78.338135 56.151676
443.53387 -38.963131 18.332109
484.96051 200.92683 50.980762
428.85968 -149.75731 74.004822
383.75488 193.47202 24.688862
381.58936 -190.14066 50.662529
499.84747 -147.00383 21.930748
383.92609 191.95047 19.399073
324.93066 166.28934 35.784866
439.17798 -103.92245 81.393929
473.86649 -171.84256 29.93416
425.93063 -105.87907 67.863083
361.14728 -53.620636 50.491196
374.53275 -106.51476 18.716793
345.90143 -145.82364 52.650375
334.57382 -64.772728 21.797478
495.10852 91.411179 69.79705
458.90381 -57.195812 61.691551
428.71643 65.211975 119.88187
437.4613 -139.74229 17.184431
480.8096 -31.415638 66.251495
473.51917 -7.0643649 42.576809
461.4765 97.498787 37.27729
406.39294 66.503273 89.831314
435.96112 -173.06955 23.943239
404.53879 -77.371078 19.092972
365.77866 -169.55061 22.23653
324.86646 109.19885 27.406612
326.32715 -90.24073 54.751713
487.88956 108.19543 22.665756
488.65771 141.34134 2.9957595
474.52527 16.608446 25.299242
462.32761 70.114502 43.176598
416.10022 200.99088 112.57664
372.80994 207.40381 86.922409
508.88586 -144.10611 17.396681
510.65857 132.99606 64.067566
334.68173 147.67554 90.110954
401.142 -156.59485 28.629379
481.57047 156.51691 55.489208
422.05261 -189.34158 31.674793
353.8418 -111.52838 5.6206017
439.97845 161.48206 98.712517
332.44202 162.3819 29.466866
444.40115 -181.53473 42.922791
466.11963 -109.27079 39.596161
431.30975 -100.99063 26.129303
400.73175 -146.81885 74.208664
405.26672 -110.78568 61.930717
466.9649 -138.92732 21.924496
451.29642 -101.04028 29.768372
395.04633 -90.393524 18.634661
386.53436 82.457634 25.700569
444.34335 74.66481 118.0563
325.00412 156.96127 15.651148
496.59836 -58.666451 78.776413
488.88324 119.75188 90.049599
482.91516 179.12326 20.588528
500.05627 152.78772 6.0933495
493.70175 -51.102333 41.927689
448.96143 26.621986 123.41545
364.85312 -108.25584 79.271423
453.36499 -145.29272 17.318817
380.87604 -102.8579 63.572601
473.23389 12.144944 21.008728
416.95462 68.049835 125.41802
492.92279 -132.61407 81.762085
493.53455 53.239418 17.089148
444.0271 37.549858 16.705509
497.99969 -105.22665 83.528778
344.00171 -48.234081 44.325851
468.64746 138.47371 24.799557
382.56 -157.01884 35.417133
454.45157 -84.770432 80.571243
477.23941 71.190155 42.531452
447.39407 205.01447 112.19339
478.59244 -2.4329581 101.64993
359.71887 -24.80257 44.082809
482.75116 -39.41523 73.129028
488.3956 122.91092 65.642677
465.26718 -181.29858 61.341763
416.99759 65.241325 67.602196
417.40002 76.476822 43.057709
420.58331 -90.739883 57.606522
451.87872 -113.33485 60.445435
465.36707 115.2518 79.450844
369.06299 -169.64861 24.723034
379.02618 187.34677 108.99549
456.77454 133.14375 103.80197
474.42484 39.345749 19.422337
409.83011 197.26761 51.410934
342.98822 -122.09692 13.237752
484.6402 16.413395 84.228943
506.96643 122.20128 17.550243
478.37988 5.3317785 17.21608
460.87476 190.95361 46.631966
456.25922 -147.51105 66.983673
403.28143 -122.28693 49.489944
510.4549 146.37798 47.555817
400.07162 -61.017822 95.898903
470.68884 -38.903091 35.263
473.72894 -1.5579567 37.806412
481.31079 -24.385824 75.71994
388.82953 -179.27672 62.557636
334.37051 -44.697449 76.460442
396.40887 65.788315 122.50505
346.46759 157.61469 8.8356724
331.76904 -96.876755 50.685837
436.85117 192.03891 23.857325
371.12134 69.930054 117.90192
418.1593 -111.25551 55.058956
415.16141 -100.42878 79.69429
362.29712 -104.84998 39.884129
325.01752 -143.91576 42.731945
467.9845 47.548306 16.816673
465.46774 156.57211 50.281067
428.16663 164.1244 15.586833
388.89807 158.0963 60.750107
462.05267 137.88907 46.260612
419.93088 46.570297 17.580215
430.88818 -143.78941 61.117325
418.05881 86.482224 14.715771
369.86401 -91.720612 37.556541
359.7023 -5.8733311 42.255314
466.27722 106.18803 84.75901
457.2059 -140.89102 34.689026
466.8894 -61.725845 56.631927
396.45956 160.2339 16.579859
504.61551 -64.304489 68.389275
352.88297 -1.1645813 46.279797
351.49799 140.99622 34.638687
463.6579 -82.418854 29.291439
502.63202 -156.43987 55.779152
485.43619 38.365845 43.029163
477.26556 117.58177 97.994171
483.98914 144.1011 90.494583
424.77417 -124.373 50.670746
354.51599 14.986629 16.181776
498.9191 -113.53349 37.357529
423.53915 -183.8252 61.611176
508.5285 162.96269 14.101396
429.57794 61.301682 18.419722
428.9704 210.29294 84.027023
458.44199 162.759 57.209251
380.28479 -157.30106 17.89139
428.3176 5.3211036 17.093925
337.93338 15.932234 23.096243
446.72379 -189.22293 33.717525
364.27081 129.34836 101.56297
474.48822 16.043325 46.941059
474.54248 12.434786 28.594662
502.14813 -27.796093 47.021423
396.95609 -33.945911 17.479628
471.43399 -191.83308 19.060143
457.34573 -12.834159 116.72032
345.47363 198.59454 47.413994
505.83807 113.34551 14.758677
427.33594 142.9234 15.747139
459.09833 75.710999 117.86474
464.35553 100.46365 53.262047
470.83679 205.42711 81.274429
369.82733 -3.2951884 16.382755
442.84573 194.48676 24.097692
346.64093 -28.386965 83.524902
466.79568 88.368599 112.82575
509.79672 -80.763535 56.268127
472.78162 95.738083 107.80084
477.72583 199.8327 46.514416
326.65649 130.20753 81.371201
478.56396 -11.625837 64.148476
476.60434 -115.41547 47.739082
480.92242 -1.3777283 98.027985
508.83203 -90.691475 55.217056
380.19202 -135.79727 61.700966
417.27386 -157.71269 73.383659
346.28366 -9.3381491 83.44725
474.19791 43.666363 28.675827
394.30621 6.0818329 17.110687
360.68704 -5.800591 16.438253
367.69226 183.16669 104.54927
457.34668 140.76079 23.726751
463.06168 87.201546 114.5052
484.61847 -15.391521 89.895599
448.41315 -175.83932 18.828588
395.2009 97.785881 14.810873
370.83844 28.418938 16.874573
325.69037 170.51987 34.886589
453.75476 -168.21365 55.153919
326.96036 92.07608 72.227554
385.14728 63.812859 47.738644
458.50403 63.140198 41.08242
434.26193 198.70639 111.91504
342.55127 170.50356 26.275797
468.37833 127.74319 31.457218
462.70395 -116.15776 32.192822
353.48483 -88.859901 34.49604
332.45978 -13.704545 55.004814
367.24512 -79.514748 31.943853
361.06635 123.57776 101.25719
375.72247 61.912506 16.326115
366.09094 -22.752136 109.22575
359.95593 45.645695 25.412983
335.10767 -55.453896 29.819952
386.57495 208.45001 54.97562
354.28302 -176.85425 62.342556
407.50027 185.43134 92.948807
489.23602 183.09589 26.043392
405.83893 -62.766903 63.705063
365.74573 -125.06448 49.230766
367.33096 24.851532 118.81282
452.34338 0.11312103 12.221085
361.98938 -36.352596 35.237305
401.53165 69.995361 122.04568
329.49524 -24.409336 94.53685
417.44855 -196.5997 47.551338
355.49707 115.9507 96.275108
508.7308 -120.26452 68.887787
353.08499 -111.99556 67.620689
393.68597 -104.94556 63.14024
366.82043 -188.92661 33.433697
505.31793 -54.429134 50.702824
469.36377 -45.172264 96.906944
355.4902 198.875 89.982437
371.06851 -132.27249 35.635471
451.04971 -113.1223 80.311844
360.01099 187.3974 104.05222
442.55493 -110.85074 20.16465
363.58032 75.306061 113.14889
360.06589 21.507191 40.162521
441.7565 -114.6789 19.357761
480.0881 75.499306 15.378595
331.4248 97.216354 85.022743
466.49347 108.60726 35.839306
477.28033 -29.038605 99.698936
474.16937 35.291954 38.208275
395.17325 -149.95375 61.810696
337.66553 -90.103348 16.254025
335.04834 189.26778 84.712402
342.0611 160.82951 27.633207
484.13422 -134.3316 21.628963
412.44257 -92.264168 48.161556
426.26407 -128.62115 77.060226
457.63312 -150.98442 27.598427
433.79153 143.26456 14.868673
421.04593 -110.8002 45.518311
482.29791 67.490036 37.02005
460.91245 210.97699 67.505074
339.15485 142.56404 31.40316
415.67355 -103.78978 44.802567
506.25635 91.257668 62.138721
381.5578 -95.139465 72.596848
388.53192 -49.107491 18.376928
346.19623 22.129841 41.248852
395.97772 54.105053 123.63438
343.5719 105.73462 32.116215
419.37469 -160.0183 56.382065
342.47952 -85.549675 47.617569
374.28372 -128.37823 55.123917
423.69867 28.120426 17.413143
443.97577 -137.90706 17.37009
366.91803 -61.948792 62.055363
394.88214 79.989464 40.544106
509.92889 122.8287 63.579483
467.24597 -27.888691 17.769115
428.0401 61.321091 18.495302
346.19659 152.59854 17.572363
347.27625 -97.476906 80.659912
393.69604 -148.70496 16.963041
425.76859 67.147964 102.22315
497.54407 -38.387493 31.149708
424.75153 -26.68041 18.161167
466.12903 -117.883 41.021366
462.90491 132.47411 103.68036
459.81747 -87.847343 38.237183
471.42255 50.265949 115.30063
450.54868 -134.94707 70.077782
483.44421 -106.81847 40.345661
364.62122 -47.816593 18.611584
346.74634 3.6926742 46.434166
356.4888 95.420822 101.71281
376.61447 143.60092 100.88696
510.67688 140.95735 10.939878
447.8609 -141.65402 37.053738
500.05957 -23.62418 39.341022
405.84985 199.49643 30.966036
405.69489 68.304131 16.158226
379.99091 -189.31784 40.348473
496.85443 189.20152 38.506264
505.76129 -125.93581 13.106905
355.03607 -5.968235 17.365656
454.64096 -170.85036 54.817093
369.87668 61.481895 23.159683
402.92743 134.17905 15.744083
389.97516 -110.84003 45.041142
370.31778 -67.74704 18.018871
332.23273 -85.024376 45.980942
461.56049 207.61664 87.779953
385.44119 -146.5309 73.580528
353.82208 160.2556 58.817951
458.44202 92.052826 55.182823
469.41794 -191.28758 19.513559
474.27322 66.228485 88.702789
462.52048 -42.155334 18.26259
495.19427 -147.03551 50.557259
448.49091 -103.38898 67.893478
336.34537 87.937332 87.146988
481.54523 -138.41455 51.174335
475.44418 23.89595 65.964081
341.09509 -147.70003 23.51387
376.67303 -124.27563 45.555275
504.67914 117.01044 24.481215
426.1412 73.883621 15.136152
333.74359 62.529869 50.082806
488.94232 -12.530979 42.518906
450.08148 211.75693 65.01355
439.66669 -195.33505 30.034191
412.0426 -126.57471 59.929482
347.70178 -33.168243 44.278286
342.32697 -101.48363 65.857498
464.02728 127.80823 36.166897
449.67365 -151.99919 57.029568
453.35303 203.86139 110.30338
438.44263 -171.24536 40.630005
341.02417 82.915276 69.863876
501.94659 -33.651833 70.91703
487.5166 201.44266 85.589531
504.06726 82.202835 53.24324
352.37369 19.677961 82.042816
462.0199 -91.001122 56.786362
455.09753 198.87744 83.925774
379.58627 -117.10341 20.329277
424.65134 212.61293 70.518585
479.79636 -48.681854 18.526134
418.0997 61.505997 19.69117
466.11432 -104.44666 36.958591
417.59326 -76.556091 77.986488
365.36523 129.39972 33.059456
408.2486 -130.42221 18.864063
508.98328 167.11636 20.063095
417.78857 -136.92752 31.89467
408.68817 -108.52944 63.994843
391.99301 197.64406 30.69252
499.45996 -48.50695 26.22493
332.76218 90.450439 60.895454
395.04504 -58.443378 17.970379
376.57068 196.51323 90.300247
381.39078 189.88428 28.172749
494.99307 168.53296 51.261314
436.65289 212.50162 92.968231
327.99576 -80.103256 61.563854
448.48123 186.93205 21.015554
412.20776 -124.32237 17.683372
347.67014 -143.60663 73.625061
340.98007 -19.629164 22.939096
461.99283 140.62662 65.397629
374.78778 52.613911 121.13097
467.39453 70.863045 96.803719
471.87549 117.29671 103.84121
501.9306 -25.887405 94.207001
345.61606 22.992828 41.503914
456.15652 -143.87755 17.419296
412.28998 3.2531948 17.754061
496.50586 -103.70911 5.7002354
429.146 168.97731 89.897881
488.64981 -49.974716 60.145981
353.52164 144.23126 63.872948
395.0531 212.10956 90.897156
484.72287 116.52618 41.740147
480.71362 -35.788567 93.863693
433.22058 -52.376801 68.546768
407.28497 102.17035 14.786418
487.77026 -132.44449 6.7889915
389.88364 -31.529091 109.37535
510.99115 108.75639 36.136124
353.79547 112.90161 33.065033
483.10983 -36.776203 57.572971
434.13455 68.743095 47.653923
461.1268 38.803249 15.820318
376.59277 14.039892 17.05036
326.88824 105.90553 38.595734
455.35999 -123.80972 27.317209
480.94431 -50.803482 85.860939
406.17276 19.630636 16.686348
381.53619 -189.47722 32.619942
484.47739 120.13206 23.097221
467.0014 107.63489 42.04718
442.17822 -106.27718 48.574238
482.0177 165.91994 34.333588
395.60938 72.49646 15.112885
403.241 186.77885 104.61329
474.96841 23.772301 41.104465
352.03983 -60.483776 72.962341
476.89597 193.52187 88.543892
479.90488 -143.16777 76.815002
339.39215 -169.7589 31.075378
465.1524 128.20291 36.160973
491.81094 72.39637 66.989571
460.74316 155.57213 48.727337
490.5975 178.57755 88.853729
432.70612 -172.69147 40.740135
328.85645 -126.41835 75.732117
380.59363 -135.52031 41.492977
345.05383 -61.66917 61.987648
428.18353 -189.39656 40.757076
449.94092 -101.37789 45.177891
328.69217 92.831696 64.563133
498.80908 65.069527 68.214767
353.63345 70.605812 99.738403
486.24954 15.390228 87.662476
406.87378 -183.93613 61.604523
464.38104 -84.237213 45.492279
383.85852 91.339584 15.885885
429.79916 -200.67108 47.455574
422.21548 180.62997 108.29339
385.12915 -78.360664 57.514221
370.52899 70.390129 48.05109
368.65347 -82.977264 22.62627
374.3801 -154.55237 71.454971
362.01233 -36.625679 43.818489
458.9126 -82.553398 18.0881
354.84119 -56.429348 86.182373
373.86176 89.147026 114.62566
456.09723 139.82362 23.719118
458.5423 101.16479 41.071342
379.51291 -169.05753 42.705124
332.56995 194.19388 68.001793
457.58722 197.07693 45.375385
327.60168 142.26915 82.102997
443.54077 -100.98557 34.52388
441.16287 -86.416611 54.927143
454.6683 62.037567 27.879345
421.81448 -67.002823 18.165356
327.77875 147.17116 81.416183
458.34573 -150.31497 58.152374
330.60849 155.91429 84.957809
332.44418 38.242508 74.100914
387.92523 -156.97275 16.785715
431.4668 40.604362 17.515553
333.60721 -23.570024 87.098572
395.47162 -105.57451 18.231201
345.79941 -179.3147 36.91864
353.72366 -93.850868 24.408363
365.50946 208.49127 61.584225
333.151 -115.08101 40.686314
476.09543 93.413269 103.7104
500.39307 -23.682154 88.962234
451.51807 -86.292252 19.479362
470.45721 80.341438 25.745304
496.01831 162.37923 90.873123
471.42197 -54.650955 38.44059
350.44614 183.1114 18.321476
500.61728 -49.307243 37.841209
392.83685 121.67377 15.975938
367.63666 -84.087845 62.54269
476.37628 -12.366468 26.08374
379.77713 -158.15047 27.773539
495.92334 -109.21524 40.10944
360.46613 -50.116905 18.536144
408.92145 164.82983 16.674417
473.22244 -15.680494 32.385162
410.08826 -115.15019 19.292799
324.32089 -131.9055 62.632195
503.11871 -145.42038 53.363556
331.73404 44.985779 72.050888
456.04309 -156.17033 17.023111
475.33566 -8.7226448 43.890854
432.38693 104.36848 15.691201
404.44037 -131.72504 75.695023
470.42273 47.984966 16.704212
471.34009 -113.65775 23.882511
430.83249 201.96941 91.40387
495.96417 -164.56845 59.048302
335.63788 13.724693 45.095421
488.36523 197.18451 76.682617
396.29474 -115.60246 50.503166
342.4693 -102.24342 6.3518333
328.63992 71.047089 66.669312
324.36783 -133.76518 61.21035
446.77078 98.399994 21.861191
347.27133 120.20074 90.008583
351.07111 47.229805 51.291641
428.22296 -189.48462 44.086197
324.91354 -99.925079 58.17091
356.77533 -174.34531 64.570068
497.58307 37.815674 34.310234
488.65442 -68.813324 18.974453
480.302 -69.384651 35.639114
438.85123 -89.300781 54.665379
473.53671 201.149 90.742172
345.62115 87.864883 87.737122
497.27554 123.05936 17.994698
472.43716 73.842697 32.652592
502.59714 140.27582 32.353115
339.61963 -128.95456 82.55835
340.01263 17.257582 33.81823
380.79224 208.95813 87.788673
398.18381 -120.14742 49.814251
350.76965 200.62885 27.908703
489.84686 -18.934532 39.256237
475.78128 -19.9468 16.657925
493.3941 80.735672 59.134907
463.27011 -96.017944 28.806557
369.34818 208.52176 81.860306
449.22076 9.6611757 121.70998
438.26642 -139.31891 61.44379
483.737 -119.69711 58.852665
346.83551 -74.865234 64.249634
421.71362 -114.72166 30.555832
363.47534 93.707413 42.23225
497.67542 -54.59539 59.254002
504.79648 83.707108 79.185623
372.24231 -74.057365 17.899055
431.94006 -53.046532 99.914558
448.19321 34.261078 16.759563
394.71051 -102.22447 63.703789
351.20248 100.12518 92.67614
372.74918 187.37433 26.421373
409.80457 -110.78224 47.590286
447.33701 -95.011963 25.932838
493.30307 -147.54652 77.133354
404.76135 -137.70087 26.619808
474.63361 -57.543152 26.539541
432.11194 -189.38324 44.263283
450.96991 -197.07971 31.558723
510.73306 -113.52999 7.6088686
450.31906 210.5054 93.472687
332.78015 143.92035 44.60289
358.64603 61.91848 97.450897
478.65344 8.3106699 101.92742
327.71741 179.60027 41.99464
510.76105 -88.853035 41.745365
454.63544 -168.33328 47.987988
506.35269 -78.543907 56.469444
377.29492 95.707451 113.86378
502.19263 -43.402042 37.794239
373.97989 199.82173 73.262695
352.66595 -60.475555 35.66964
508.81567 113.54121 75.488182
365.54184 53.698238 35.620682
416.33539 -153.35037 74.813438
351.66785 -61.15451 53.8498
358.55002 33.763641 62.729515
338.87228 58.775291 47.069714
461.45203 61.729309 25.202335
362.97379 -83.843742 45.154312
409.83112 -103.65996 64.661789
385.80884 -169.09998 40.460796
421.19562 147.29182 103.6028
382.00366 134.11909 104.81792
362.41318 -34.0522 25.153748
342.41312 131.74907 13.712342
369.8035 -101.21412 39.994045
393.19098 6.0958652 122.0725
509.7717 166.88707 69.59317
404.39832 2.2444553 17.137617
404.88519 -133.16461 61.893223
353.56638 -61.020851 17.870676
485.74042 -62.421783 27.29887
347.04523 24.500044 48.515846
475.17413 205.08347 55.258118
352.03891 -159.49756 69.773804
440.94861 -100.79639 68.19809
326.05469 142.86917 56.464249
396.11932 -65.532852 78.242081
387.57379 -164.16179 18.238232
375.09375 -139.31499 27.523243
435.13336 -118.39239 17.820854
403.85953 -97.236618 43.531349
408.37308 182.62044 93.391273
474.58176 -17.50613 42.24366
340.77444 -169.93723 24.258032
491.21671 140.04472 33.063812
348.39694 63.335159 89.679924
428.20837 65.048805 58.661816
389.14859 177.66872 105.62508
469.02869 80.998276 113.64188
499.67474 121.20821 64.657646
367.68399 78.023178 42.440639
360.0351 59.192574 73.277771
331.76135 -99.044373 19.247074
478.19986 -92.455719 80.561531
458.44196 114.28537 50.896427
447.18027 -24.630838 12.57163
379.77423 -172.44009 25.764919
462.6731 201.99785 34.723888
371.67282 196.26466 41.821503
428.52548 199.36317 27.660448
507.64587 -102.04403 66.103012
379.59265 -26.669388 110.58969
490.64691 59.366985 48.471088
368.45764 143.73193 63.704159
326.12625 -94.489319 46.695629
395.46936 -155.909 72.30574
359.40714 64.331146 96.34568
374.01913 -12.106845 113.60191
349.43948 115.85941 34.091663
394.31622 -189.2605 26.849472
380.97809 9.7466745 12.087483
386.31216 -142.35327 30.880106
510.92542 158.47153 71.100479
446.20264 -48.026222 17.438595
400.86191 -201.70312 26.255758
491.10797 -133.45145 19.713612
388.5719 -175.90836 64.180916
482.87512 -120.78767 68.195633
327.92734 83.709816 72.991646
327.13156 144.04131 60.827896
368.80127 200.33188 86.87149
383.06924 -165.8981 68.39991
428.4668 166.70316 25.424047
397.29401 170.10905 25.929108
463.09647 -100.40364 37.146366
483.98138 -182.61798 38.684212
443.23755 -99.150345 66.317093
435.94 -190.09982 57.68718
364.18988 182.27127 26.645107
378.63327 -139.4948 66.231743
467.89667 205.61981 54.026199
511.41135 -106.13289 37.674068
442.93832 -115.02486 80.691162
446.89398 -26.56094 111.51979
381.93518 60.340611 17.812464
366.05988 -11.801493 17.947269
450.40359 -123.46577 76.518814
400.54684 63.129524 38.157154
433.0318 190.07867 91.638443
401.02045 163.03674 97.967644
370.8844 -125.27548 47.070492
450.86945 -111.96113 80.826607
432.2475 198.40082 31.237541
460.80148 102.6918 51.22052
424.23401 72.184135 124.09319
354.19244 37.384209 51.650444
356.84662 -57.775665 52.67672
433.22839 201.44658 112.29113
507.57101 183.95288 53.145088
350.46524 169.80055 24.096828
423.39807 45.068855 16.554222
330.84702 93.093491 48.974403
359.43951 202.66267 33.295265
505.52216 -88.613899 74.248695
353.27319 -61.63932 18.794992
481.95734 -70.384148 28.519245
424.62915 -56.388592 17.923573
400.11401 63.471874 42.169449
371.13434 -141.23456 74.712555
432.26511 -61.404999 18.037842
473.25836 15.480827 18.416052
486.40799 200.47665 89.542267
404.01648 36.029469 124.804
362.09869 -2.6064115 12.259536
462.77307 -113.1811 24.320652
393.46115 -178.51813 18.964012
441.49869 206.17317 112.47833
343.76062 -71.44339 41.693764
348.6246 -41.273647 36.024857
381.68234 173.93973 56.936592
373.26831 209.01596 60.233627
354.24216 -11.883034 75.042984
380.1889 127.35719 106.29997
421.22092 135.21298 107.75179
492.45514 -54.577103 17.6737
358.53958 194.89001 31.587
485.72284 -42.540623 34.847427
342.21588 -88.263298 60.897469
345.97906 199.36752 78.392632
325.51929 97.928894 62.942097
395.98242 156.0667 99.673706
455.71851 -85.489777 26.807987
385.16415 -125.62715 47.640854
385.74228 -121.65227 76.927956
484.39102 18.984589 91.60685
388.75955 -11.267714 17.133533
376.84949 -144.96439 47.546703
455.47592 60.640007 17.82048
375.8931 18.941053 17.515388
411.06384 -183.9622 21.639324
466.98413 -70.154572 40.189972
362.56366 204.85211 84.662842
362.77216 48.583595 34.864883
328.38876 86.348846 48.387711
468.95828 152.38548 96.402863
510.97937 -99.383667 55.119408
394.74194 187.3842 56.618355
509.3125 -139.67346 26.749161
326.51617 -134.2133 70.26516
413.7529 171.91064 97.052658
354.40338 196.19092 86.314957
430.51102 -191.73616 48.160915
427.74048 -80.082016 18.033031
394.83557 191.21112 55.321842
430.39233 141.23648 14.773761
492.33496 170.81477 90.035545
485.85535 -10.351414 45.199013
510.21823 -103.41785 8.1051455
510.17944 -143.56972 52.422791
494.80786 -29.764917 30.907274
444.20358 209.54501 86.915352
347.8092 -178.73653 51.547676
413.56256 -160.62927 72.0961
502.53677 134.5585 43.050056
359.11276 19.985826 26.809229
474.79776 45.346718 76.940811
362.59888 -121.67543 49.183056
340.36462 -59.166988 63.341438
405.03091 93.594376 116.70532
429.40198 70.462479 16.16725
444.69287 -14.822186 12.432669
472.96991 -13.210575 17.232075
460.94238 -106.31396 52.339336
476.86786 195.94922 71.744965
361.34918 64.695854 42.617748
484.04041 7.4256163 91.879333
433.84729 72.827805 121.46156
390.47037 142.46643 15.798697
418.07727 -129.02576 80.949562
367.79871 -83.475548 52.398735
461.95123 -128.26115 48.584373
488.3844 110.49132 53.859627
421.16388 -91.854355 50.480209
452.42615 -79.045692 53.488701
369.34149 -110.19347 40.88372
390.64929 -66.010475 92.408081
454.41443 -169.24997 55.022293
475.0231 28.299524 18.420301
370.2981 61.332939 22.119171
461.13098 168.88342 37.228245
378.96442 -194.74896 20.223755
474.81891 -189.46793 33.501503
435.95435 163.35796 60.312408
329.19202 101.00719 64.680618
404.55823 -58.746086 61.957954
413.02924 -165.15509 70.227859
339.68326 -31.605036 85.728188
403.5546 -81.828979 18.326433
404.3963 -123.077 80.0681
392.63589 -201.25412 23.515745
347.35413 147.48671 46.306656
384.71002 -7.6464334 16.404938
402.29419 96.106026 115.99413
428.46021 204.69809 111.59496
366.1503 -91.824486 18.175249
398.89832 -165.74049 35.044739
496.90033 146.97466 38.868999
448.3287 187.26822 17.096903
388.9631 20.499523 123.46027
352.89606 203.92509 56.252892
505.56232 -141.37598 13.765457
404.59085 -80.630135 86.067261
442.52106 201.34335 46.072247
506.52405 -122.98441 36.841896
418.11218 -175.55173 65.759453
506.1684 -87.92131 19.845776
360.53094 201.47209 90.900146
400.07642 -189.28477 28.621016
454.91129 -117.72905 36.823711
489.56378 -118.63864 12.973205
393.74564 206.33557 92.781868
388.84381 -189.37463 48.306068
366.36649 -16.772348 17.481167
453.92712 -189.24449 40.865128
469.86029 181.24065 90.033463
467.6427 131.41466 57.629562
401.71698 202.54543 49.445042
341.88495 -116.48503 2.99576
324.88962 -89.898964 29.477589
467.81274 96.805275 43.676918
462.85095 -110.71134 40.067062
411.16641 -53.826962 17.491879
340.81769 3.1535003 29.723362
472.45398 34.037247 114.19368
369.90942 189.44139 27.322319
481.71555 156.10181 55.461037
331.29495 116.30785 11.470019
406.62863 70.81031 16.083731
330.39468 86.033394 81.412231
357.76822 -71.296249 39.808201
494.48291 81.824722 74.754356
386.00809 -3.3848801 12.270582
398.17834 -109.4011 19.466959
334.63202 -119.26965 37.423264
447.88193 -160.93845 35.215675
402.87555 -80.625504 77.212914
466.18146 199.7345 86.556892
419.02753 -194.22717 56.052059
464.48532 131.78336 72.558281
335.43585 146.47807 32.015656
336.41882 197.34271 61.741344
474.62567 -51.299522 39.257248
377.38849 -101.84605 37.287247
324.43439 132.1133 6.1789861
484.42001 -65.559006 18.897875
480.03946 -39.567234 26.311428
431.74957 -191.62053 28.814949
372.586 120.94048 22.390106
461.67261 -193.85649 50.504433
399.49445 -94.920578 18.801296
329.26462 -122.4978 60.560196
481.29529 188.40125 20.040174
416.36215 16.00725 16.746639
438.75018 -100.74029 61.946152
326.98663 -133.34964 32.477882
511.6604 159.92546 32.66481
418.43317 150.53477 103.19208
338.819 -8.0709753 33.761784
387.92044 204.25281 92.0205
452.85681 -80.701851 78.93103
424.91223 -50.833881 17.416988
492.47903 -116.22826 23.883789
367.64478 71.344856 43.160236
405.42392 152.9079 15.396859
451.15231 -113.0104 17.876532
410.19916 -137.34932 29.017752
493.51538 -83.651352 65.979469
477.89166 29.570278 104.21001
389.71625 -20.753613 17.515545
481.53949 113.23479 29.995279
370.6864 202.75294 70.519012
354.16348 -90.021179 35.309448
428.70844 -54.838356 64.285049
497.15002 130.33563 38.27351
499.35217 -149.87634 32.024384
472.42551 -68.679428 62.071198
443.00146 -133.88074 18.877565
443.63339 -157.9169 20.459345
353.966 -7.0769682 99.303284
395.6355 -121.1395 48.962219
467.70642 60.442425 38.103889
447.2399 66.665428 119.61736
473.64612 185.42012 110.04144
330.09515 145.70959 68.81675
436.22296 -74.392807 59.717751
354.80453 -22.485313 99.404037
499.03241 59.887154 68.39798
471.63043 -36.0807 16.382133
389.92026 180.22765 56.787754
468.26965 151.86075 34.680626
481.76746 -89.971275 23.836451
385.00021 -158.03227 27.771988
469.78094 185.68073 107.40884
478.97168 4.4309344 101.36971
474.18744 -76.048409 63.619545
473.76837 13.813559 37.472687
492.16464 -154.67813 61.11105
456.1644 -160.38519 69.581482
437.17514 -69.611633 18.224781
510.05371 -144.58691 20.756987
458.04443 -31.520313 107.59113
510.33304 -95.022552 20.168106
365.81964 208.02332 71.963005
476.08368 206.72794 60.13126
400.07159 189.55551 108.57458
353.3382 -53.042099 50.290108
460.7851 117.51123 36.458694
415.28821 210.35223 52.990692
405.14395 -121.19432 44.013721
479.30881 181.51334 24.607679
367.97583 -104.25767 27.339821
484.48798 59.074459 60.663902
410.60052 -103.63479 53.093136
483.94635 -63.199165 18.835989
492.80923 -135.83681 22.237843
384.14255 -135.72533 40.094582
342.44339 -67.955338 80.395203
439.96344 -111.24564 55.881142
493.11932 201.89659 67.826309
360.35522 91.29303 31.701008
362.41394 -24.812281 104.60747
358.36554 -184.52931 46.708851
441.68604 -97.745712 25.72562
353.35876 187.59425 88.863503
419.84265 158.44408 39.004669
375.05798 49.435093 17.699524
507.68402 148.32492 78.810715
450.69125 -116.62504 59.658707
380.38083 -188.31313 50.517426
386.31097 -141.13599 43.018463
481.37125 -13.81834 74.748878
463.5798 64.553421 111.61081
350.31436 19.130615 92.881134
403.45218 -155.5387 59.368706
353.17084 -26.967043 96.443283
328.83563 167.11261 53.709312
371.22327 -78.683357 59.373402
399.37244 139.4353 23.962875
387.96695 59.337692 15.488747
335.8725 -120.24324 22.737091
342.53351 -54.422962 80.34877
373.80267 146.00024 100.6127
451.82617 -124.66676 43.911293
418.44067 -38.37225 107.03035
486.30304 195.8801 37.295509
380.02106 -69.30455 78.327194
349.28729 186.91003 88.254242
337.98288 134.05042 3.2530558
454.69244 -93.822693 57.113041
331.81564 -123.43716 32.271275
409.34692 -201.26147 47.747303
450.36636 179.90941 24.483959
489.93658 -28.57909 16.931534
480.00067 -110.25948 25.924978
373.17712 -88.070404 45.601196
384.52728 -106.39283 44.475594
336.84192 -133.02473 54.266685
495.68616 153.33452 90.964249
474.19427 9.0486736 29.841362
459.58463 -114.36377 62.630951
453.48022 62.09697 28.651123
349.68262 -42.904026 76.478058
468.80563 49.58511 27.290039
404.3313 -21.238537 114.87278
475.87006 0.83420736 106.12959
341.91342 200.09689 80.773041
423.36285 85.050278 121.47261
418.50223 14.192636 17.606913
351.90826 -88.187904 21.023312
365.92566 -193.74228 23.887222
481.85913 -102.98505 11.229819
434.92053 19.910641 16.677528
452.78989 -196.26164 51.099968
508.53314 168.97144 23.043959
458.44202 126.29653 44.861229
341.07437 52.646286 83.686333
432.59399 -151.65683 59.145367
488.8653 63.76516 58.979218
362.10504 67.067139 101.7338
445.84116 204.94521 111.16734
459.95908 171.42429 26.698282
490.02939 -68.686485 60.0956
336.6214 169.37207 87.749992
375.74982 -87.178688 19.539761
493.15744 -54.944435 65.570473
474.19098 41.85482 47.118927
491.41602 138.07962 12.799212
503.8006 -37.960899 54.521385
430.19028 -189.59068 50.906944
462.41605 -124.65228 37.512032
352.56857 -138.51379 12.458727
395.09677 26.074759 16.845329
375.06955 -109.17785 43.657623
331.80206 -111.43608 3.4053855
506.11133 185.12381 70.38504
509.12344 -149.22192 37.803841
511.0535 109.11996 41.9468
339.90881 93.859543 16.448221
389.71069 102.57627 113.18768
488.18787 54.017853 15.685385
479.35052 -1.5062109 78.629456
402.71075 195.11394 91.219902
505.93774 -115.73897 39.162209
460.8309 72.604218 48.126099
464.57343 171.89676 50.903984
493.2598 55.730774 16.757034
386.53445 -189.21738 44.296719
360.32785 106.68498 104.58419
359.12009 26.764608 14.218671
428.26291 183.78149 109.10881
510.2724 -111.54994 66.467194
452.7872 -93.950539 61.825317
341.76556 51.848351 22.69618
462.53278 -121.85998 29.795444
483.36224 62.469826 42.647346
484.99139 41.009369 91.412712
375.28247 -65.944412 71.179039
337.34589 -54.018066 75.148239
365.09601 -44.166435 97.70282
502.53778 63.395622 79.479713
378.82797 -84.72496 55.183563
498.63193 77.735497 27.045162
356.46796 -187.84882 27.449694
369.07794 -62.193794 71.129204
361.04532 -6.4592285 30.469156
444.94037 78.328445 15.10088
352.36514 -87.33168 81.189827
378.68018 67.194824 112.43118
333.72897 -31.455822 74.373489
401.62985 63.717628 44.767879
481.71655 -88.668121 25.992386
482.87323 -83.149818 64.347527
357.35654 -70.424255 32.154114
362.00189 -22.557064 32.788189
499.18805 91.138657 31.149305
423.5795 93.011108 15.459996
487.55139 -125.41706 14.756998
443.56268 -171.15704 53.921478
342.56476 74.83049 73.897484
392.63599 -189.40579 32.028328
345.36163 3.726002 38.223034
419.40106 -75.245834 18.073185
427.75101 -136.72495 17.341877
509.48889 165.10336 72.770737
328.90939 -76.541565 50.399891
333.55545 86.939804 27.91349
333.98813 80.013237 44.496346
423.62689 -41.631153 18.065144
491.16223 138.87914 59.723267
348.48685 116.05356 32.307762
354.37781 60.201115 86.370369
452.14032 178.64677 25.072666
412.28268 62.874771 34.455437
487.70279 61.914139 84.44458
353.41568 -56.695648 77.257935
357.78351 -150.64664 74.486511
426.09753 202.83604 48.792435
347.11078 88.053619 16.373001
438.47348 -189.47142 29.047291
442.07037 110.41067 15.946646
358.32025 195.35104 76.154007
361.89951 78.578072 111.55534
376.95135 -5.3028731 12.297748
360.22864 204.55414 53.641945
509.66757 -146.46538 24.831341
377.69879 196.06894 31.97352
337.70276 5.3864155 34.176239
441.47278 -136.97089 31.598915
382.52637 -171.56602 32.858288
362.98773 -137.21117 75.123207
353.49847 143.58827 63.784195
470.19321 194.47842 89.377747
482.9899 -68.225021 64.140076
415.10858 -73.001862 90.056244
397.51736 70.385376 115.64542
489.0856 -139.65689 80.899391
484.2876 97.569611 91.086304
402.00333 62.689564 16.323837
327.55716 133.63931 59.158554
446.57556 150.57491 15.212238
435.16635 64.360558 51.627235
473.39935 -167.13055 68.170464
502.86591 -27.212744 58.16465
350.98468 100.42168 91.529648
363.4212 164.86467 92.296257
344.87616 -55.561508 26.584045
337.26627 -133.04591 65.493729
472.88766 -52.486763 57.480362
360.3338 22.141815 20.160975
333.10809 15.35039 67.074203
492.65881 12.287278 80.917572
338.30591 10.789577 21.127136
393.97443 -94.585449 18.353939
405.40027 -12.794098 115.67334
323.05499 172.05754 59.718231
486.99088 -73.899895 81.671303
504.95636 -128.29102 75.307602
499.58112 -54.526516 38.84486
387.42816 209.3235 53.392521
363.55939 -144.58469 73.630989
441.26581 -149.42682 61.954002
344.07166 167.11191 18.820557
490.89703 126.07143 5.4970665
383.89343 184.06738 17.509604
493.86823 -131.25687 82.152344
455.3273 171.58482 26.601109
406.5058 -37.026123 18.304655
453.39447 59.763931 16.929756
510.51859 -105.53181 62.241379
477.05292 35.520691 25.687847
408.86813 -153.96194 44.900276
488.67322 -2.856271 16.438026
397.02441 149.26755 102.05765
361.90317 67.778366 112.37162
419.20142 204.35385 47.68227
424.16602 193.1389 91.256264
350.81949 60.094879 95.144638
474.03418 5.4095249 33.332176
407.3653 211.8849 72.258751
502.55832 77.793465 72.788857
368.61917 76.405518 15.1546
501.59937 -24.707726 45.686817
361.69501 189.34799 107.95521
329.06052 129.81644 85.096054
485.06189 -118.53879 69.551804
496.05661 80.71389 52.367218
446.71219 142.67123 14.32989
474.18802 40.649288 22.968224
354.43997 -8.2632914 52.448589
510.90485 109.61794 29.508263
485.64969 39.871975 39.780029
467.19312 -70.877869 43.459641
502.97638 -109.49655 32.850536
334.24692 195.01308 58.044945
413.06381 -152.44621 61.793217
510.39255 151.38678 65.177803
467.79688 106.45628 48.596096
331.16498 162.12347 28.272617
328.42548 140.97801 83.715378
451.66034 -186.26663 58.643433
458.44202 133.78207 29.17017
405.80768 -72.853317 90.053116
370.64548 200.97391 74.431572
430.76416 -171.61908 18.615234
447.84323 -125.39542 42.222553
366.8089 192.0914 89.676552
378.60559 -33.634212 17.990789
353.80649 -94.528542 49.85482
504.48639 -102.98569 77.978424
355.19504 -22.615013 16.737728
490.99078 70.039886 65.332932
499.24429 -106.63262 14.302007
479.87494 196.9498 73.483475
471.37305 193.46623 29.764267
348.46222 -80.439316 81.10804
475.5708 62.936226 25.398363
497.24069 73.128838 20.731407
353.66437 -87.137863 34.916008
488.12872 146.90163 45.232689
350.27795 -140.72131 13.052999
413.72162 213.5323 67.193344
361.18976 -11.431433 12.736041
430.25696 -27.612341 17.382973
448.3653 -101.03819 18.940651
495.40213 139.72935 27.338051
329.01868 -50.301109 55.57589
403.07178 207.31895 93.346046
336.48459 -141.99136 14.453623
478.03125 69.000084 103.0648
478.29813 -3.8879354 102.06463
373.71555 86.881081 115.14681
466.21478 -75.932037 45.452118
430.10583 75.126991 47.941246
401.49426 -75.296234 59.860977
350.21094 -140.56827 59.664532
510.63605 -120.26035 7.4911618
465.81754 -176.58995 59.24588
462.83981 -165.44765 48.171257
324.24353 -104.89043 59.140182
395.68784 76.936684 120.15375
454.51566 -144.09561 61.094963
458.09628 -64.368294 52.917446
467.74976 106.26192 49.64098
391.80005 -129.7722 61.9235
402.80191 199.47935 37.082199
467.20047 139.59624 44.99131
371.56653 197.26175 90.505272
356.61884 -109.62947 79.770203
441.1275 -56.876686 17.519199
402.93039 63.240894 39.072884
332.49316 -8.292964 63.236717
507.63217 -20.39467 84.463898
504.23199 -57.507652 51.965767
397.6626 0.090852737 16.271196
455.95987 42.241436 15.761797
485.05875 -45.938751 75.974014
506.79602 159.18388 62.563679
451.42731 -182.77805 32.00103
474.14331 33.018909 43.192299
428.95917 -57.364212 17.529863
345.60669 108.94865 51.189461
