# .PCD v0.7 - Point Cloud Data file format
VERSION 0.7
FIELDS x y z
SIZE 4 4 4
TYPE F F F
COUNT 1 1 1
WIDTH 1559
HEIGHT 1
VIEWPOINT 0 0 0 1 0 0 0
POINTS 1559
DATA ascii
-2099.7964 46993.934 3773.3088
3834.2935 -1848.3495 6288.0254
3787.7141 28676.553 -2287.6377
-708.17981 19058.66 -2327.4858
-1995.4893 -7832.0581 -861.51648
10121.824 39084.121 -4449.0801
4906.5542 -1156.937 2177.6819
-6068.231 9270.9541 -170.6506
9558.96 33822.344 11165.338
-6085.3281 -2476.9099 5885.71
-5210.8027 -2071.1638 3693.6028
10496.295 36003.801 -985.20898
5323.6499 48171.289 2140.9622
7670.5532 5322.7437 2484.1003
6159.7949 46300.016 -1451.6964
10252.377 38080.312 1119.63
-129.31436 12318.399 6284.6479
6594.5508 48889.312 -824.39862
-4631.9492 -2742.22 4318.9072
10415.484 -1185.4863 -5420.229
10858.81 20877.438 987.10754
-549.55493 9691.1416 -2347.1252
6160.7686 2550.0291 -397.44739
-7163.4561 20655.178 3090.5479
-494.52686 26745.381 -2296.2173
-5470.9946 11813.924 4750.3438
10209.021 34588.188 -192.9892
-670.2594 36307.953 12082.342
9894.4404 3496.0669 -3439.448
-8431.332 6034.5366 1354.8699
11765.004 1726.2141 -4139.1396
6235.5127 2549.821 1631.0701
1678.65 11047.334 6396.2056
-7270.1333 40600.305 1462.3906
7590.1299 39045.719 338.75824
11216.443 -2910.3157 674.90454
-7034.2866 40426.328 1578.6423
2610.9353 -1554.5686 -2435.7395
1877.4707 -5716.833 1518.1801
3717.7456 12990.046 6623.8013
-6831.5869 40825.727 -582.94788
11598.556 41335.387 -3831.1958
9949.9502 1986.9695 -1710.5588
4572.5684 47594.801 3492.8101
-4192.7334 20554.52 -2300.8267
9894.4404 2051.3687 604.841
-3847.4673 29901.557 12448.036
2024.5829 -8312.2598 -1080.7206
-7199.8999 22396.357 5100.9468
10352.57 -2691.6599 -1837.5759
-7459.7012 28439.865 885.46155
9034.876 47625.172 310.2496
-8296.7705 -867.16113 -4577.9951
-862.23535 7382.0107 -2257.5942
-7542.5034 32180.561 -2018.1671
-7058.7002 39298.305 2090.9778
167.54631 -2650.9236 460.5025
446.11804 40230.668 8246.1758
-8110.1143 36845.332 632.79962
-5887.3589 11775.156 3047.8923
-7691.5098 -1694.6475 -661.43713
-6411.5698 39186.598 -1500.2041
-6760.2412 25664.717 10908.646
12.057495 46768.477 -1426.172
8211.6211 7480.8071 -349.17139
8606.4434 47867.098 -1056.3849
-6926.0996 20286.674 5952.1782
5864.0503 32842.137 12434.317
6441.748 23288.217 -2297.7493
-2663.2832 31324.783 12570.869
-2070.1338 1407.2725 281.83984
-2145.2786 26862.268 12270.38
-4352.3979 44016.395 3900.1489
-6411.5698 35219.711 -3881.499
6044.3179 5611.4556 6102.5776
1813.7883 20960.342 -2330.0564
554.7572 -5019.354 1585.0657
142.81476 27100.768 12256.411
9947.2031 39095.379 338.75916
-7448.5186 2876.5664 -953.01599
-6467.0801 37019.715 -2785.5764
918.0033 31718.225 -2207.8997
224.29553 -5947.8945 -1357.4519
-5292.0449 44842.793 -1174.1801
9949.9502 708.34814 -434.84534
10255.062 34868.539 240.04004
5840.333 24561.658 -2295.1208
-543.79706 1377.7983 -2024.8018
-473.38928 -3591.4771 3937.7617
-6160.5215 -2506.2805 5178.1465
-5293.6387 7233.0146 1140.3818
10282.641 26390.602 11380.112
-3766.6396 34273.82 12225.504
1185.5194 -3880.6404 235.21564
2311.7227 48456.066 1725.9218
-6099.9824 34840.016 10255.438
-8053.6997 36664.438 1808.5037
-3496.5039 49183.445 -450.15533
8117.0361 -7727.0107 -699.35419
9483.7617 26493.336 12077.056
-2019.8271 41929.531 6650.8325
-7735.0864 32535.225 -302.60791
-8975.8438 779.19623 -2145.123
9894.4404 36534.867 1102.4656
514.2041 45124.285 -1514.4066
10799.409 34082.094 4026.4343
-3898.4875 14328.882 -2333.0649
-1723.8376 1251.4576 6137.123
-6710.3804 -1.9413147 -5633.5654
3492.7114 47520.938 3427.8601
9949.9512 2435.9194 -2394.3503
10869.271 23279.018 4908.5732
2429.3655 -4254.75 -670.8584
-4661.0225 7697.8193 29.994019
-2743.9358 14120.802 7539.6182
-7691.5098 -328.13135 -586.56689
-11.003113 36437.266 338.75568
9047.7715 46563.977 -613.58813
-2284.916 36917.965 338.75464
1027.4015 -1051.7352 -2457.6819
2881.3276 20414.988 -2336.2754
-1128.3652 38492.746 11061.132
-7039.8413 24296.92 -2249.0493
5485.3789 5896.6743 6149.1318
8355.4512 25536.564 -2265.5435
-6702.7617 22685.654 -2263.2314
2957.9846 43696.215 6410.0742
-6930.2734 2357.5176 1588.61
9134.3828 -667.37012 4859.7676
-2585.7173 -4482.2671 185.26183
10696.04 21111.609 5399.478
5741.4399 -1093.9557 3114.4482
-1042.1633 8881.0605 -2315.7144
4008.5571 31074.479 -2268.3311
-6737.9634 18678.518 5874.9712
5833.2271 18767.441 -2354.002
-4580.1323 46160.227 696.57819
-7393.0972 22663.668 2085.1543
7534.3022 46190.539 -1457.6573
11764.92 -2617.4429 -1254.0177
4888.0713 34264.754 -1958.3877
-8936.1895 34361.148 1426.1323
4455.4336 31133.191 -2263.7507
7060.2373 4801.6577 -1379.7305
4608.0503 -1711.0261 2517.5593
1293.1289 10947.556 -2395.8491
1845.0857 6739.3921 6322.8037
-4309.5244 16505.273 11284.972
-9.8562012 48704.309 1634.7701
1131.1025 1402.1168 6446.1265
11321.4 -965.20911 -2313.3591
3634.3308 5056.4829 -2167.4541
-7219.9917 20088.424 -527.66321
7912.875 44521.688 3615.2522
9949.9512 38661.57 -3433.5864
-6411.5698 42040.023 -2446.1218
-6411.5693 37136.258 272.84045
6229.6689 1653.4915 3981.8257
-5618.3281 26015.021 -2251.3228
10018.428 36701.164 6963.4028
-6467.0801 56.564545 -3086.7266
10970.904 -3794.8855 1987.7148
-7849.1094 -1478.735 -3614.3762
6741.7407 3900.9292 133.38318
9894.4404 -272.63159 836.59131
3884.4021 34533.566 -1944.7964
10206.614 35158.773 3297.1577
4417.3262 -647.82861 -1941.4832
4643.9326 38724.059 10838.025
-6445.8921 -5019.1338 63.757851
10274.787 34582.398 1344.4128
12454.952 33207.379 -333.29657
778.06561 -5058.6094 1530.2405
6412.7363 30632.387 -2249.0107
4803.5073 -7827.9512 -970.25171
10724.537 23571.285 7227.8203
-1492.7235 44186.207 6320.8638
-3906.2134 5768.2471 1342.939
-6865.7871 32298.088 8153.2456
-923.81458 35918.008 12155.311
4479.1133 29114.52 12241.197
9748.5508 -2568.1082 5777.2495
2681.4971 39507.586 9691.4961
-8172.7466 35705.09 -4343.7236
9333.2773 42409.148 -1548.7391
10410.69 26863.871 9596.832
-7949.6875 38597.809 934.64087
-1173.181 26638.668 12274.254
9353.7637 40080.273 6305.228
270.34253 18781.816 -2332.3386
8292.2871 -776.10913 6107.271
-1809.6342 10896.967 6157.5293
11317.087 40209.332 -5129.4639
-7870.9224 3574.5437 -3663.3035
10135.75 38137.406 2655.7964
-2358.6907 20889.619 -2314.1177
-6110.6899 26750.295 12005.208
10735.018 31922.102 5568.7651
10973.708 24908.314 3312.4639
4163.2817 -8312.2598 -1196.9213
-494.06445 34807.98 12494.507
-8082.1514 -4315.9307 1069.5851
1849.9202 -831.62164 -2467.2874
10561.767 29181.609 -2219.1045
11417.121 -1294.4674 -4038.8047
2648.1108 37323.594 338.75656
2171.6753 -7888.6138 -275.10632
-5782.5981 39341.859 338.75397
-8024.4033 34943.984 3340.104
6929.3789 49720.699 -1019.6462
-6839.6362 700.48566 2218.166
10469.696 44276.742 2617.3618
85.548706 6254.5762 6315.3174
-7879.8237 44695.293 -281.42526
9821.7461 12610.752 1647.9766
-6777.3247 29701.363 10971.648
-3370.7705 11671.729 -2377.4946
9894.4404 2433.9685 -4502.4824
-3029.7373 37119.359 338.75433
9902.7676 14231.086 4881.8003
7576.5898 44119.719 4982.0518
-6410.5537 3090.2314 -4388.125
10385.864 1209.6296 1025.1793
-2832.7754 49267 -16.150879
-7438.5186 27110.023 1330.9518
11559.437 34845.254 -40.23999
-7425.3599 24749.115 4800.2192
1386.6858 48934.207 -1310.0867
-4867.8701 -2476.9099 5253.2837
10001.046 2925.7327 -4604.3745
3817.6101 31734.549 -2184.5439
11042.602 24749.344 -680.97565
11183.308 28914.035 -515.80139
-5003.6533 14687.018 8644.2578
-6816.1777 36549.242 -5257.3418
11238.223 -873.91406 -3993.4744
-1450.5905 45599.914 5741.7026
-6684.3916 22814.773 10449.613
-7178.1812 -583.54926 -5517.8799
6094.5967 12795.023 6469.8154
8626.6279 24989.027 12085.207
10243.71 35645.801 6579.4805
12243.789 33305.141 -332.08499
-6459.8516 36003.801 -1623.0303
-6118.3745 16697.07 8973.0186
-816.38641 -2872.376 4137.9341
1678.6501 8750.6211 6704.8481
-829.60278 -2591.9648 4708.4414
-6758.9019 32679.312 8969.041
11269.93 219.17006 847.86029
10545.906 29679.633 -2215.8147
2123.0161 725.63239 -2535.2427
-8283.1104 35539.875 -749.1972
5490.2573 -4939.3135 -614.79449
8991.791 44938.609 895.26343
-4957.1416 3067.5225 3069.0696
3272.7573 48329.914 -1342.62
6080.9951 17979.508 -2357.9583
2581.9575 -5151.1655 2023.1389
1678.65 12224.729 6717.2637
11804.344 1497.432 1405.9832
-377.37219 32526.422 -2151.6079
9949.9502 1518.9722 -1193.1265
-6556.8862 43476.633 138.92505
9894.4414 972.99725 -813.625
-7846.23 37735.812 -1912.9702
-4605.0923 19649.156 -2302.7236
-5672.6792 34601.992 11429.29
1520.9242 31381.32 -2230.8022
-209.51744 14022.059 7018.6943
10138.566 17423.891 6591.8706
-4851.228 5835.1514 2030.6224
11172.752 33839.543 5196.9253
10347.842 44109.457 1411.2947
8427.1504 -2742.22 6391.145
4662.7822 -1452.2073 -1802.3405
11020.897 22417.482 1650.952
3449.8391 -256.06177 -1961.4758
11321.4 -1240.1011 -1711.613
-6409.3213 1827.5363 -4662.9453
11965.545 6408.8486 1156.5735
3432.0835 36540.02 338.75708
-6239.3892 12850.681 1303.29
6964.7686 49957.77 -425.14746
9927.6406 15233.731 7894.3882
-3656.7385 42187.574 -1572.23
-5031.146 23464.459 -2274.1343
-7961.6113 2361.7517 3189.4863
12567.346 37857.207 -1359.6118
9059.5059 -4691.6104 593.79449
2333.7908 31492.986 -2214.1375
915.74878 48293.781 4133.6182
6614.9551 35075.844 12450.552
-6647.7642 42005.766 -3078.3162
-7056.5771 29135.285 6637.4985
12448.622 38353.578 -2432.4177
-6508.0791 38017.934 2648.7295
9458.4414 11257.712 2363.5129
10262.98 36222.609 -5039.0869
4177.1465 -614.46936 6329.6455
10929.588 35436.488 -2013.7112
5364.7939 3581.374 6179.751
11179.016 28766.01 -398.79816
-4209.4937 -3779.9534 1547.2439
-8285.6475 36047.031 178.6467
10218.109 -1229.5752 747.18958
-7298.1387 38951.453 -4452.8911
12544.602 -976.97412 3058.0547
-7877.1699 31950.402 -1689.1172
5479.9844 -1061.2308 -1719.7615
-8956.4023 832.37775 -1242.6694
8773.5068 21312.051 -2288.8901
-1070.5885 -1583.8619 2038.741
3663.5339 4442.998 6321.5034
12582.329 494.5506 -1399.1816
-7691.5098 1004.9855 -2903.395
11144.698 26657.215 -1502.2876
5601.6113 46451.992 4584.8525
-6409.3291 40.197708 -1556.623
7951.9951 6867.5591 3152.322
7701.502 45145.344 -1513.7375
-1856.4122 40481.301 56.131477
4897.167 -2638.4551 4218.9478
74.564529 47833.734 4267.9731
6967.499 17258.975 11582.956
10443.258 23117.203 8487.2295
4230.479 24718.354 -2321.4795
-4588.0337 -2945.8154 2624.9124
-6101.3936 16855.939 9973.9902
-7406.0552 28416.713 2412.2019
9595.6094 38087.844 7951.2979
6573.0127 27917.891 -2266.2451
-4008.0854 36207.812 11713.539
-6758.5645 17740.703 4171.9146
10417.721 -376.22885 1114.98
8346.8418 -2580.8237 4054.4312
10946.197 26097.49 4580.0742
-6505.9785 17756.199 6836.0156
-5400.0728 37274.734 338.75366
-1750.7094 33326.594 12663.963
-6409.3252 -1802.2843 -1888.8022
6868.7617 15024.319 10413.665
-4290.2861 6872.1904 -1098.309
11769.605 179.12408 -5209.0225
8040.2686 9831.9092 -2352.6304
2347.6348 19475.777 11761.133
10995.667 25276.408 2862.2395
-2244.6812 31572.389 -2246.084
-6690.2573 17490.764 4591.6626
1067.094 49131.578 1107.9948
3254.2969 41879.016 6747.4097
8744.4443 21015.426 -2291.0674
4330.877 36003.805 -440.58795
-7178.2012 15913.605 5940.6592
9603.959 -2070.3394 5925.5303
-2147.4658 16088.466 -2333.1809
4985.2383 23356.061 -2318.8855
9894.4404 38408.219 -1732.5996
-7891.6333 1478.9132 3530.249
8405.1572 41070.383 6224.2036
9894.4414 40568.465 680.06903
-808.9541 39126.152 338.75543
-7810.897 -1570.877 1861.3553
6702.1431 40049.383 8783.7207
6926.1304 13852.141 7510.833
9224.0918 12485.818 5628.2197
7577.3047 -2340.2346 2463.9617
10328.6 34559.586 65.223785
-2027.036 12650.421 6444.4736
-8242.4395 -2500.959 -2337.6663
-4842.5498 42375.922 -1561.9801
9127.8906 -2291.6194 4195.6782
-3169.8984 5051.6611 -2152.0068
368.28601 38019.941 11505.969
-7512.9653 23560.883 -105.37998
5491.585 36003.801 -588.41089
60.009277 -7803.4805 -275.29938
10435.912 17655.805 1687.4457
9831.7314 16437.342 9898.7715
10528.68 469.76282 2241.98
-7942.6777 33948.688 2187.5176
10061.482 13530.434 -1806.9454
-7882.3594 -440.14645 4064.7827
-7838.5098 -380.45514 -1136.3765
9446.1133 11334.922 2694.5439
5999.582 21488.371 11890.361
9894.4404 -173.17752 -2730.6938
12652.834 38525.59 -1766.0881
-7533.8926 29409.523 -121.08892
-2085.2776 2263.8843 6077.7734
2046.916 16657.762 11618.158
-7586.082 32364.121 -1578.6995
128.019 -1078.916 6401.2871
11597.137 37878.906 -2855.9045
9894.4404 35596.277 -4390.9521
-287.17035 6687.2515 6278.8818
9815.5693 49028.457 -6.3907433
10287.447 38586.328 -5638.4336
-453.80518 48045.465 2513.8838
1061.8447 -3920.6558 -335.89651
-1832.1511 4049.813 6166.2104
11174.4 38954.859 359.46118
11264.327 34429.789 -989.44586
-6122.854 29000.963 12005.82
10332.394 19370.297 6753.0703
10361.301 19599.943 6736.6562
10852.075 30622.047 5004.2832
-2571.4011 26309.891 -2279.2495
-7415.8252 37971.617 4726.3359
-4418.3208 35898.492 11736.781
469.54535 14994.998 10686.788
7833.9565 -4908.3672 -64.064178
-2550.9436 27610.926 -2270.7241
-2981.2222 15577.253 -2331.8845
7429.8232 45269.207 -1507.0756
9894.4404 -3038.5447 -3855.0542
-5127.4531 13312.316 -2332.1536
-6505.9688 40072.004 1975.425
2.970459 33083.883 -2101.3662
-7922.3467 34385.734 -2194.8713
10671.682 30404.914 6471.4595
9007.6123 31092.828 12145.468
-4007.3306 17986.281 11609.908
3273.0176 43765.703 -1587.4646
356.57996 14805.255 9840.3271
-6411.147 38639.379 3715.9185
9949.9492 1654.7449 -1567.0647
1289.0887 5577.1211 6429.7954
80.919434 33355.664 12603.635
10829.314 22746.391 4652.2295
11174.4 1413.457 19.495651
-4725.5864 -371.6076 5710.4722
-6645.1294 14856.665 -104.99028
5802.1274 39583.266 9710.2354
-1515.9583 40829.414 -1391.8438
-1863.5537 2644.0396 6175.6265
5554.4272 -2021.6315 2198.1338
11174.4 37485.184 -748.0368
2781.3611 43221.965 -1616.6021
9260.374 43859.871 2275.6553
9894.4414 37573.781 -1100.7645
-7056.8125 21088.451 4800.9902
-801.04102 16523.855 -2336.7566
9347.5615 10120.991 1613.0684
-3727.9302 13982.754 7487.4819
-478.42731 5134.4536 6275.5508
7781.3315 -1239.7383 6064.979
-7411.0845 28384.154 2158.7778
4216.3896 -2034.2102 1788.1804
11350.119 35839.426 -3253.895
-7335.4473 24404.062 2610.4817
237.97467 -352.80923 -1951.3337
8187.1089 -3422.05 5369.248
11311.652 31487.551 -158.96376
-2936.0986 10758.815 6058.7427
-4577.0132 -2967.781 6355.5483
365.79468 5027.1792 -2166.2998
7854.0244 -6881.0283 1856.1023
928.7655 22853.789 -2319.4238
10447.753 48849.078 835.84369
7235.7739 -1140.0377 2985.3838
7331.4688 25053.953 -2278.1577
-7088.6147 32048.881 5506.5142
5777.6924 2380.3081 6066.4604
-4301.605 11643.375 5829.8418
9378.7188 19426.844 11536.918
-8082.2949 35729.438 -2918.877
-4800.3223 38400.344 10289.062
11066.117 26154.211 1819.2285
11137.906 10486.901 -1112.084
2965.5225 41716.871 6780.7153
-1414.0597 27052.395 -2285.4907
-1254.567 -1799.7888 5030.875
12678.367 9019.9863 -1302.0797
3061.3159 35026.352 12595.044
11260.885 30554.27 630.61829
-401.02026 37730.246 338.75525
8755.3389 -3241.5986 6152.3213
462.04291 24366.879 12094.769
-6761.875 29138.25 9201.2305
11675.461 -59.785645 -2850.5752
-1427.8043 -816.53192 2581.0657
-2808.0996 3430.188 5166.9956
-5629.6851 -905.98755 5943.1396
-6375.5044 20379.203 10308.021
9527.3154 10686.641 -1289.2057
-351.50296 -585.12939 -1958.2795
10836.639 4120.1387 -2154.1265
-6467.0801 -2303.8242 -1864.0527
-4513.2559 37745.801 11072.51
9564.624 25533.473 12065.076
-563.5108 -7710.6133 -640.32452
8775.9492 45886.93 -1170.2532
-4679.1094 9082.1182 -2323.4895
9949.9512 38949.242 -4183.1465
7122.4922 -7823.3604 -744.91992
-316.43045 46329.738 4750.8384
-7379.4858 35677.898 -4675.1196
11171.271 31728.176 -1643.8198
11769.679 -1041.0516 966.93201
-104.25684 38862.152 338.75558
-8003.5918 -929.0791 -2349.9507
12858.225 2759.1616 2426.6023
-3990.5342 9484.0166 -2339.0757
-7070.6895 44466.438 2362.7144
-614.89551 46478.645 -1441.6801
-3259.5144 13087.694 6376.4985
3394.2603 1126.0721 6384.4434
-1234.3691 30509.547 12491.066
-3302.4331 19989.473 11788.686
10053.552 44373.078 2722.3201
-4374.7729 8179.3164 4508.7144
6078.8286 -3889.9414 -1051.7325
-7080.1714 26979.416 6911.0269
9796.834 40202.418 5515.9233
-5575.0674 39461.477 338.75412
8728.2119 -4496.3604 813.37146
-6737.3145 4998.4214 2234.4497
-4454.6611 23081.363 -2282.085
-4673.624 34148.633 -2020.7882
-3016.3242 -6577.2793 -573.35333
5860.7524 13122.773 6579.6035
5364.2285 11602.914 -2379.6694
-7846.2295 38742.297 -2029.1864
-678.39355 8213.5645 6240.5352
-3429.8169 12164.705 -2362.2898
11639.217 32207.336 -1541.4373
10343.874 24434.373 -2254.0164
9833.3086 29434.152 11918.816
-176.04034 11044.32 6297.8799
-959.22119 19854.246 11805.939
10042.99 43901.148 604.00897
-2357.6094 28273.896 12364.463
-2998.0581 25669.775 -2279.3047
12540.229 6953.2617 717.73627
4850.4385 21218.479 11865.716
10508.811 11601.203 -1667.0646
10264.044 39940.906 1902.9849
6758.4937 13805.753 7337.5869
9863.6729 22848.889 -2268.9165
9894.4404 2876.0623 -2053.5713
7905.9097 46823.16 -1423.7441
-6605.3936 35850.598 6446.7471
6842.8608 -7215.6846 2096.5818
11166.294 39874.984 4641.0684
-8738.5967 -652.19391 -2037.4578
-6644.6016 36612.824 338.75314
-6213.3779 39444.727 5860.3677
4811.6382 27613.312 -2285.0051
7621.9287 14963.846 10754.323
-7318.8423 39490.242 2052.7991
9815.042 13484.431 4989.6426
-2408.519 33901.91 -2054.2485
1678.6499 6538.1392 6531.2207
-6590.7051 17217.785 6013.1108
9765.4902 37510.824 338.75946
3224.6206 41417.734 6822.7407
-1518.8907 17114.855 11652.777
3169.2317 -5763.2534 -700.40875
5296.0059 -435.25513 5283.7568
-2317.9558 12025.653 6121.9736
6203.4297 38356.875 11172.406
8180.2158 36058.039 11227.852
-1381.9653 35379.449 12243.76
2153.8025 46438.906 -1443.9889
9755.7227 40481.305 14.344208
-6495.8135 39307.898 5416.0474
-4361.416 34920.84 11947.667
6933.8892 35394.465 12188.813
6795.8003 -3672.1553 1117.8521
9894.4404 39273.582 -3079.7798
12264.02 41109.559 3555.4102
9235.5576 22669.578 -2275.8813
-8313.5371 41013.176 336.38513
-7373.6836 23378.475 -1518.1868
3812.1484 -8000.3711 -124.05389
-4769.8765 -7100.269 -142.76614
1349.5416 48273.438 -1345.5266
12388.123 33560.852 281.32629
-7451.8457 25586.482 -1482.2797
11171.604 31280.143 -1950.4359
-4085.7759 45585.379 3025.582
-3462.3828 8430.2383 5993.459
1172.0117 45049.371 -1518.4675
12309.633 40501.547 3812.0405
9938.5898 32182.582 11090.338
10354.783 17934.973 4777.3242
10011.425 83.337837 1114.98
6241.2676 30041.051 12303.612
4709.6919 41419.695 6734.728
2678.9036 42215.305 -1670.5985
6929.7871 25041.34 -2281.9551
3233.3682 18157.26 -2346.2212
-1402.0302 -2157.0667 3500.5984
1125.4805 32482.98 12520.163
-3269.5078 33906.398 -2055.635
10480.904 19423.922 5955.6226
243.82831 43628.129 6422.4707
-5008.6602 -6620.8394 -147.87354
-7374.9556 22547.766 2236.2734
-4280.813 17997.326 -2316.4321
-6513.4917 31905.016 10808.651
4014.2073 32721.068 12435.626
10924.865 21717.139 1895.338
3765.6719 -136.06999 6364.0977
82.323975 26671.395 12234.766
5863.8564 31415.383 12365.786
-7314.9062 21157.268 -1009.59
1516.9854 36003.801 115.89045
2325.854 15026.754 10807.885
1564.4597 5162.4106 -2171.5498
364.13593 -2810.3328 49.390831
-5078.8516 3979.8872 2732.5703
7457.4482 39791.316 9062.1289
-6409.3232 2536.5867 -639.71478
8777.1006 -2742.22 6362.666
10394.203 28672.807 10178.593
-1693.7889 -460.1637 3910.3865
2610.6543 14012.368 7067.8423
11095.328 26535.438 1596.3655
-451.11761 -7852.9297 -872.11023
5890.0264 32949.656 12439.745
11701.181 34791.352 -1035.7546
-6696.4912 16924.633 -1945.3877
-6759.126 -837.16254 -5467.4336
4219.3276 -1407.3257 -2442.1648
10268.562 34020.473 1882.0554
-5365.7686 -3492.5654 2192.5857
12806.551 2831.0439 2610.5181
-7793.0693 12935.725 -1886.3125
-3755.0361 38164.434 11244.652
10443.178 22496.648 7788.7842
10024.269 -1905.7802 4158.269
8340.6104 11209.699 5624.501
-6458.9976 41938.145 1958.3643
11193.5 25564.461 4889.8301
4841.1875 45649.211 5674.7651
3804.9683 49915.859 201.41382
5831.9087 3864.9563 -2121.2686
-5546.1719 40481.301 -226.79233
-4455.4004 6685.793 2342.9878
-2103.2117 2798.668 6123.54
-699.54358 406.41675 -1928.6351
-5189.3281 -2958.9719 2811.864
4747.917 8941.4473 6207.4175
-8166.9839 41513.156 11.120316
-6028.1899 42458.703 -1154.152
6061.6489 1293.4092 4296.7559
10682.613 20687.502 4537.2695
-7538.7266 31135.963 2500.6721
-2680.2937 46547.859 4256.8687
-5403.3022 12600.336 5909.5024
10570.758 24937.412 8653.6475
1011.6923 1411.3711 6444.3223
-8022.2275 -4379.6963 1031.7285
8937.9902 9338.7354 -887.54578
-7543.728 31165.621 -298.32938
10502.094 19072.793 4177.2095
10826.531 21875.322 4550.9624
-5007.5308 14231.682 7535.4365
-5071.7129 30321.676 -2227.1421
-484.84583 32216.939 -2178.571
12508.314 226.49139 -1033.7573
10936.794 30975.645 4249.6055
1786.3933 -3883.6326 6065.5815
11469.6 32676.756 5940.0679
2055.103 -5636.042 1516.9785
3391.6782 401.79129 6394.0771
137.60278 42882.672 -1634.6353
-5160.1084 28035.918 12204.283
6347.0728 -3837.2471 -1398.7173
-7691.5098 40491.688 -2265.3872
-6794.4111 26453.045 -2236.6765
12353.444 37607.445 -2187.4695
-4235.3599 36258.715 338.75397
-5999.6567 39198.414 6545.2354
11025.635 11850.847 -1610.1486
-6467.0801 37441.34 -1075.7783
9894.4404 36193.25 -2805.4565
-4252.5864 6332.3174 2813.5278
-8287.8359 40331.797 451.33484
-1048.7065 39492.629 9620.1162
-4100.6865 16644.271 -2323.4817
-6497.4341 21242.789 9215.5527
-6157.6455 24980.334 11992.995
8399.916 48084.82 -1090.0784
9039.3633 41407.539 5319.0225
11205.288 31747.49 -1644.4109
9894.4404 -881.01379 -1831.6201
4950.9531 42095.816 -1677.1534
-3364.8296 -6161.4253 -862.56152
-6411.5698 37820.859 -5451.9521
11157.461 25478.465 4832.0479
3329.6196 38952.246 10633.594
1894.3721 33934.852 12574.275
5882.4111 20997.445 -2333.291
9894.4404 4073.9146 -1087.7776
2162.0076 3327.8989 -2100.4255
9720.0996 36464.844 8713.458
2287.1313 -4332.958 -347.19025
-6409.3242 -1794.0726 -2875.804
-7827.2646 1469.0591 533.69458
-6075.1582 15794.333 8561.3496
-5458.1133 12973.166 6146.2568
-445.82581 40481.301 -130.15289
-8692.8838 4563.189 2188.7949
2738.6138 -3446.8318 2132.3608
5889.252 1837.6235 267.67233
12420.109 33799.367 813.99329
-7691.5098 36417.566 -381.80942
-7059.9956 40986.211 4475.3467
-6726.2637 16347.238 2506.457
2289.0547 -2381.123 -1879.0769
12659.835 3696.7854 2626.9307
9862.3223 16581.973 7842.1812
-6296.2041 15187.547 7620.2041
-8153.7949 40740.672 -4461.417
-6020.582 49124.562 22.222443
-7332.6958 30700.619 -2202.116
1787.5969 -4185.0869 -1809.1311
-5715.8838 -3803.1536 1893.774
8620.3477 21770.695 -2287.3564
-801.39905 37240.219 11823.703
10052.989 41922.461 1788.506
10678.71 24511.088 7950.2124
1974.658 20572.148 -2332.1562
-864.53088 16464.973 11620.363
-7606.9395 32695.883 1948.2607
8906.123 30144.963 12156.15
-6853.126 29374.738 10849.488
9949.9502 39888.883 -1167.8566
-3178.3503 3954.6191 1626.8027
10015.097 18072.723 8732.6123
-6409.3242 -309.55478 -3643.1128
9949.9502 38450.438 -4440.0317
12776.525 6247.9229 716.46783
-1746.7612 1132.0129 -1553.571
1976.61 3272.8955 6578.708
7218.8643 20783.803 -2306.6724
9966.0566 -2934.7114 3698.4958
5189.1865 49702.133 -382.04428
-5496.5913 47320.234 281.83371
4801.0649 19786.992 11796.457
7018.6006 14655.711 9039.2891
-5381.8838 10798.206 3922.4766
-3668.8525 4710.7705 3158.2068
10749.416 33551.68 5975.3989
9714.3926 23109.758 11962.811
-5519.8242 9113.6758 682.13837
4215.3872 14894.064 10147.956
11788.529 -2669.3594 -3012.447
3547.5098 2062.729 6357.1777
4939.0596 2917.1221 6222.8408
-7691.5098 1665.824 -3581.4907
-4058.2988 44138.25 4668.5635
3534.3049 48783.211 -1318.3225
7302.749 8711.6406 5955.4277
4739.2969 10118.963 -2363.7419
-6409.3242 -2031.1587 -977.11292
-2186.7703 48986.941 814.98016
-7468.1582 31479.328 5276.6846
2087.687 14763.645 9688.6143
1376.5026 -1361.4915 6453.436
2336.4531 48004.27 4439.0508
11018.529 21540.58 -685.80103
5055.4473 -784.64203 5769.7578
9949.9502 36887.098 -2935.8291
-6964.3691 3978.7979 -2712.2832
-6309.9414 18930.086 9912.3008
10457.977 18077.881 2439.6404
-1028.2174 47804.449 2787.8486
8427.4785 8300.8008 -2187.0073
11243.781 42127.516 3565.2505
6180.9033 46622.254 -1434.4114
8193.7578 -3377.4961 5006.9072
-6467.0801 37180.383 -3747.9204
-9175.2041 7616.9985 -609.63916
10451.466 -1369.8903 645.24426
-5982.9092 36092.414 9644.1162
8548.4336 16225.873 -2323.6953
-3657.3135 16297.383 11405.359
7837.6021 13966.529 7447.7852
5078.6099 41529.152 6691.4604
-3737.0498 5477.7607 -386.72064
-4143.5254 5629.7847 2420.179
-8901.1367 460.36856 -901.15869
-4659.2437 37431.836 11220.59
-3949.5964 -6781.7759 2282.4497
7038.606 37465.453 11376.062
2703.6418 18091.953 -2344.4119
7529.6396 32351.184 12331.491
-6746.748 15763.955 -504.78711
-888.15259 44686.422 -1537.8066
-3561.9802 13469.219 -2337.6387
9894.4404 -1019.0458 -4883.7778
4331.833 8137.4912 6238.999
-10.595947 -199.81015 -1963.6378
8817.8965 9331.8262 2389.7998
-5577.4219 39393.715 338.75406
-1303.2898 -1599.9058 5284.0225
5319.7471 -2373.938 2588.0151
7405.7876 5773.7319 -1911.0691
-3384.1792 43859.227 5914.5215
10172.684 15535.601 1348.8654
10762.573 30714.879 5676.8647
2762.0161 -7683.2139 -990.76355
2851.4551 14477.274 8612.0791
-7691.5098 36.951172 254.23459
2396.7373 -1377.0323 -1981.9551
404.80707 49515.336 714.37073
10719.269 33829.016 5987.2266
-4823.5083 21177.285 11850.12
10278.015 33861.504 1705.5315
9949.9502 39697.027 220.43616
6265.3447 39581.465 9692.8613
10234.646 36167.309 1289.6217
-7069.0918 -272.21765 -5579.8057
4435.75 11729.5 -2375.7598
-150.68697 -4412.8911 2151.6101
10904.988 37585.109 -4449.0801
-8325.1152 2722.4915 589.69092
-6467.0801 3056.4565 -1725.6135
-3385.2041 25161.57 -2278.8877
3912.9058 18742.141 -2346.6387
1993.4482 -8132.623 -1318.22
10076.348 40640.398 -3320.6218
7834.8677 3013.4441 3111.4575
10606.801 20277.889 5123.9224
7489.2192 49866.297 731.84357
9949.9502 38787.75 -3162.4719
-6883.7734 17381.785 -1352.5962
-1687.2053 635.56702 -1350.4547
-7529.4004 27737.271 5102.8081
10733.187 11616.084 -1522.3728
-8046.6021 -2863.3711 2864.1006
10394.871 1240.2865 1002.9058
8750.5654 -2364.1553 5667.187
-2050.9954 1221.2156 5690.3281
-5764.6992 10702.855 2179.8403
-2889.6238 16295.209 11605.747
5458.3228 42937.809 -1632.017
-333.73267 42338.766 -1663.783
-778.39136 45463.168 -1496.1447
5161.3457 47488.711 3399.5181
7756.375 40385.668 338.75824
7552.1602 -7215.6816 2100.8247
-5637.0454 49675.973 687.39996
9924.1836 2719.8201 1336.1525
2993.4739 42164.898 -1673.3223
951.76532 -3970.3896 -882.08875
11181.081 31521.213 2150.8447
-471.65833 15256.395 11194.045
-6903.9727 33519.637 -1064.5209
4329.9458 27718.291 -2288.7861
5785.915 35125.211 -1878.0537
-5058.1021 23245.926 11960.189
-7347.2275 28237.473 4174.0684
-6467.0801 897.72333 642.77051
4942.8784 -239.81567 -1287.8088
-7785.2368 41762.762 3834.1558
-7450.4067 -3524.0601 -3095.8142
4264.127 15460.936 11443.267
8585.5322 39559.211 8386.3828
-6411.5698 38898.016 -2280.9285
11321.4 -283.65305 -2394.2783
12631.997 8534.0664 -528.62628
9324.8643 39674.703 7078.8198
5070.2871 27750.309 -2281.7305
-1533.9045 -611.11859 2902.7358
-556.63232 19288.605 11774.593
11652.892 991.50641 1846.3806
1678.65 10746.608 6557.4873
-7401.6367 -6926.9961 -762.53705
9197.4688 20874.119 -2287.7852
6369.894 -45.868126 3118.0164
11019.034 21706.523 -375.91733
-7073.5347 32710.861 5486.2139
12111.371 7597.7383 424.17444
-6692.666 26241.016 11342.405
-5294.9648 23466.131 11970.789
-6467.0801 -896.12317 -2796.6838
10085.252 33707.918 9588.9951
-4977.9155 18857.219 11519.477
10160.806 8829.5186 19.049347
10508.656 18611.867 2762.394
-8179.8945 33212.562 37.376846
9894.4404 40551.031 -4615.2739
-7516.2637 30429.68 -1319.9988
5914.5029 -4254.6069 -1580.417
-6544.46 22470.936 11373.594
248.48608 43306.402 -1611.9106
5365.5991 35239.531 12544.4
10139.111 41013.609 985.59064
-7431.5078 26076.758 -38.499298
11014.289 -182.52177 -5619.7261
-6112.2529 36003.801 -109.24332
-4696.8257 -3020.2793 2600.6736
-8056.1025 40584.398 1348.4126
2380.2034 18757.436 11722.396
-4641.7935 26572.578 -2257.1597
3372.4646 14997.168 10859.252
-6411.5698 36659.082 -2883.7783
3795.9854 47551.836 3419.6455
906.03851 28768.473 12322.625
-2421.3884 38987.086 10323.816
898.21252 -6153.9468 -1091.1567
-6467.0801 -851.98297 -1447.9507
-7279.6543 24033.059 4366.6245
12281.63 42593.625 2040.9719
-5965.8784 30666.508 -2215.8899
9894.4404 -168.05164 -1944.1604
-7146.5825 20085.096 -1385.5828
68.669983 1227.88 6365.5557
9894.4404 41819.465 -376.03223
4278.8057 2792.7126 -2079.687
3111.0923 21804.953 -2331.8862
4589.0815 611.1438 -1995.1052
11174.4 925.17163 -335.98129
1109.144 49002.117 1285.0054
7046.0957 4807.4551 -1772.8843
-7962.0723 -2663.7998 -4459.9336
2433.2681 37867.594 338.75635
3359.2488 4891.0908 -2161.04
10504.554 21704.244 6961.4756
12773.877 6414.7295 604.72186
9894.4414 -727.12683 624.32941
7047.5791 40891.648 7111.3579
-6239.4238 37354.469 7155.96
-4626.9341 37930.777 10818.879
-4159.8179 49732.676 623.59631
11599 32506.855 5959.3223
10166.085 16977.787 5750.4014
7574.29 14634.627 8894.4619
-4756.3091 9568.4727 4900.2534
-3232.7136 24780.957 -2282.7866
-6409.3276 -418.36642 -2361.6284
193.48828 47755.188 3541.5557
-6165.8843 11966.641 756.34802
11174.4 36511.141 -3188.2869
10380.174 37356.723 5667.9624
10168.752 38018.445 1609.1365
4584.0146 46230.965 4884.9365
-844.99573 3971.9756 -2125.3813
9100.7227 -2742.22 4374.0752
1791.1898 -4076.552 5594.4297
10427.167 27444.867 10337.235
5842.7246 10496.571 6121.104
-6411.5703 36055.238 -4543.7676
4997.5298 -1365.48 5410.5039
-6837.8838 40852.781 -2670.8694
11793.411 37272.645 -4743.061
1059.3859 24562.275 -2313.4397
-8185.6914 33813.223 1705.2837
-5101.5122 10501.789 4682.4976
5051.8345 28159.193 12201.133
-4735.9326 -2384.1929 5005.8052
-3254.0439 -3902.4177 1156.9407
8599.2832 49721.797 225.97182
1915.2209 17048.857 -2345.3127
3684.875 206.70326 6367.6406
-1025.2687 29156.555 -2275.2126
-2295.7874 418.94479 3775.855
-6409.3213 -2832.6216 -3169.7041
9188.5879 15241.397 10423.703
8057.8174 -665.69482 4725.0625
4686.811 450.49084 6266.3179
5095.6328 -511.4754 1829.6216
-6603.0688 38356.461 -4452.8945
-605.37256 -4074.6699 2508.3088
7845.3823 9915.8164 5788.9824
9576.5137 -7414.853 -134.77307
4860.7832 34556.855 12508.295
-6348.2441 38533.168 4582.4033
-9036.126 377.49298 -1082.9381
6642.3604 21658.262 -2306.3799
-7836.0054 4031.7395 -2446.124
9894.4404 37957.992 -1374.2716
-914.34735 25876.713 12224.616
3285.0986 25518.438 -2318.4521
-6642.9814 41247.273 -243.41272
5758.9512 221.96405 4267.48
-7275.748 34337.988 -1451.0448
11568.838 -1755.1519 -4918.2109
-6721.041 31656.531 -2201.4446
-1935.3442 -7825.626 -660.12128
8916.2266 38231.371 10013.264
10131.529 35543.23 -4585.1357
11364.146 42256.539 -1588.458
5689.6895 16180.42 -2363.2739
391.32446 44391.008 6283.5767
-76.332993 14120.641 7366.1963
2872.1257 5435.8569 -2182.1589
9894.4404 3500.083 -1862.8931
4423.5811 13930.083 6853.21
-5766.8838 39232.031 7478.2661
-8284.502 41177.734 -1978.856
-6243.5176 49429.508 704.57117
-7610.4463 31876.527 1804.5073
-7504.8086 35763.727 -312.66623
-4592.5669 14624.991 8803.124
11122.069 35505.043 -2224.7114
2817.7827 1631.9855 -1891.9943
-4113.4141 14656.816 -2330.9841
9894.4404 39649.383 -2941.8362
5162.186 -54.069885 948.00201
-7330.3896 22906.207 3375.5647
-6737.7778 31902.396 10190.054
-7322.978 24850.125 5276.604
1733.0131 17942.768 11697.325
-7301.8579 1468.8864 2065.3247
-7699.0361 32634.74 6073.5068
9589.6768 38797.434 7280.1602
-1366.9264 40078.742 8495.4092
10454.418 30618.625 8519.4951
5602.1807 678.32227 2675.8667
4667.021 11677.553 6236.6108
-2022.1045 44447.039 -1550.5759
1402.6921 4712.5547 -2154.1069
-8222.7568 2061.073 -3698.9153
-6707.9668 15604.524 -634.68201
5822.8291 48375.473 1733.816
-4326.812 27500.732 12271.206
-6359.5439 35259.074 8461.6133
10582.187 20943.91 6110.5684
-6865.7539 23573.006 9486.2012
11507.893 2488.7693 -218.11346
10854.812 889.03406 3789.2656
799.15454 -4285.0132 3924.1008
-8404.5645 9433.583 -661.50897
-6467.0801 767.85291 -2682.0791
2259.3411 49871.926 -259.46829
5713.9365 10830.993 -2391.354
11794.17 843.36774 1421.7006
382.78928 39910.707 8881.3789
-2796.564 32818.055 -2148.783
-6439.0723 36717.098 4003.522
-5509.562 -2476.9099 4722.3203
-7695.9961 32832.785 -1278.3754
8273.8027 -7507.5854 -217.20607
-6818.3135 28929.021 10425.016
7573.0254 3187.5088 3047.5032
10781.166 27770.697 6292.6489
-8316.124 5160.834 1892.1696
-7371.2852 37344.516 1114.6672
-102.74255 47455.051 -1389.3331
5861.6572 15316.656 -2367.2241
2361.9912 27711.225 -2306.5347
11842.707 32845.875 141.42346
6164.7983 14758.808 9514.8369
-6171.0508 20694.561 11525.735
-958.66602 -4685.5938 -58.647842
11803.68 39169.875 1477.4653
11257.597 38853.223 845.9967
-7621.2612 35344.625 -4358.3496
-8185.8164 35647.516 844.94257
7723.9805 -4280.3325 890.58923
239.26465 8895.3887 -2316.2769
9356.2617 12854.373 -2365.6604
5181.4341 -2587.5986 2949.2712
4742.6953 7021.5947 6204.5308
-5176.834 37409.105 10839.715
-6091.2578 -7365.9536 -178.52744
2060.052 -4322.4771 4771.9609
3236.4636 15990.684 -2354.4656
-5617.6392 36003.801 -7.5107117
8224.3848 17304.795 11558.64
9946.5781 12280.365 -583.24896
89.363342 24808.729 -2308.7354
-3941.6997 23598.613 -2283.6411
5005.5449 27651.625 -2282.9646
-5909.7573 32683.361 11859.831
-6222.8979 11837.058 -972.55109
611.89746 26337.324 -2304.957
3738.9709 48283.445 1626.0234
-6453.3862 13325.729 -1211.4729
-7146.8398 17063.795 5781.106
-6411.5693 41491.578 -1932.7693
2032.6488 -6538.8564 -792.05322
5305.0054 49474.023 841.422
11663.268 37830.008 4463.3989
8356.8545 48921.07 166.72041
-4521.2251 17114.182 -2319.823
-5784.9595 25551.643 12071.137
-4285.3794 14975.609 10315.807
6933.1738 21130.818 -2307.0828
-2115.3184 43143.438 -1620.5024
1565.3135 15814.999 -2348.6418
-3658.1772 -4530.9062 387.83716
-7691.5103 2403.3638 -2389.2285
11351.384 -2679.655 -4425.9199
10259.458 35658.242 -633.21539
-1444.2844 9908.5615 -2355.55
6111.0957 9441.248 -2337.4734
39.331787 47835.34 2821.1436
9891.0088 17759.098 10115.351
-7523.4082 30793.082 -1631.0818
11683.754 3713.0674 -2479.8784
6290.1616 2530.668 4717.6343
-6147.2397 17306.928 9825.7461
-3475.2959 -7184.7393 -142.76553
-9179.418 2201.3948 2673.8843
11223.459 29857.311 814.44757
2271.3911 48567.973 1790.6875
8482.5811 40481.301 -1715.9183
1833.8414 14408.475 8380.1738
10260.661 18972.768 7221.0913
7579.4668 5950.9136 -251.04224
2174.5349 15264.143 -2353.1016
-1370.3802 -3444.4482 1497.1195
2418.3889 13003.849 6685.793
11704.647 32829.309 -163.30084
-6013.4126 49456.707 -388.77768
5419.8594 35521.324 12558.485
10255.91 16092.04 1293.5032
-6539.7764 3881.6802 -3200.5354
-6730.8271 42267.359 3684.354
308.66693 49248.723 -1010.4341
-6411.5698 37124.449 -5361.1187
-7383.4023 32772.469 5333.1167
6629.3628 34549.496 12447.698
2535.5674 27425.805 -2308.2932
11561.443 40738.016 4355.73
-6065.9175 -2864.47 5722.3491
9894.4414 -2419.8359 -3797.7595
9894.4404 35579.875 -2484.6631
-3315.311 -7794.0107 -288.37234
-780.10181 39596.066 338.75552
10535.2 35580.316 -623.9729
-3189.8103 954.43616 3295.4741
10305.928 38270.066 2290.1177
-6206.8843 39938.398 5561.9517
2292.7727 39124.836 338.75632
-8952.4238 35807.617 2742.21
9470.0156 40481.301 -1243.9784
11038.686 40184.898 1739.9556
-5281.9082 9979.6094 3017.3408
-6739.9277 29143.191 10922.893
9801.6504 43853.609 1795.0559
-2403.9993 25737.883 12186.881
3569.8315 48776.695 -1318.6743
-4404.3389 48105.102 590.75342
357.36868 -2904.4629 -252.63013
9173.9404 6239.9355 1693.6902
4558.9595 47617.156 3512.4692
-6409.3208 -1690.066 -4763.5161
-2535.959 34623.355 12309.614
-8031.1714 34539.809 -2643.377
-4063.6853 -7215.6865 1819.8882
-7674.6406 3188.3464 889.55713
7633.5366 15911.413 -2371.8467
4897.416 3654.7163 6220.1079
10274.301 18817.484 6979.7207
-5436.1904 44256.883 -340.41122
6.3047791 -4631.2378 1803.3546
-6894.9668 33499.188 -935.38446
391.49463 9371.1182 6342.6367
11791.103 41713.184 -1946.0903
8608.5713 9061.8223 2998.4292
4524.1841 38952.52 10621.67
4071.6299 6097.1694 6271.3906
-2107.6274 2345.2087 6075.9854
-6411.5693 39307.445 1448.0289
-7846.23 37770.973 -2556.8518
-4149.5093 23535.748 11998.557
11174.4 40515.043 -1701.1078
8406.8174 12629.937 6086.7178
10109.841 11857.69 -1454.9725
8285.2178 43772.988 3197.9343
9942.0527 -1648.6509 3949.4792
-4504.8267 -2447.3613 5748.498
-4156.8999 6534.0776 -905.19055
11174.4 443.01715 -2319.9402
-8184.3394 35145.461 3381.9019
-6276.0161 21641.326 -2274.0088
5988.3794 885.17664 4135.1436
9832.5332 -2730.3066 3461.7695
-6525.2524 38781.906 2161.2749
3111.2793 17862.211 -2346.8682
10633.751 31927.412 -2198.3093
7573.8003 -2801.75 5701.2876
-6467.0801 -1318.7495 665.43201
3767.4829 43268.996 -1614.1418
1551.9312 46662.828 4298.6055
-5973.7949 20782.18 11584.644
6218.9087 2793.2903 5339.6499
10825.932 23934.514 4753.8252
-8272.6338 -1949.3029 -3490.5522
7008.3574 40938.715 6970.5723
10638.081 22322.609 6078.5723
-7546.876 42066.453 -2773.1765
-7007.9072 23467.969 7884.9531
-6664.5068 -2854.7896 3366.3733
10536.818 44775.059 2366.1685
2442.4058 9857.8516 -2353.6055
-6901.0557 -2359.8687 3219.8872
-2465.991 -7816.6523 -606.25909
-1484.6296 15043.288 10637.811
3488.4165 10232.116 6325.6846
-4140.8691 46747.34 1561.2114
2058.1177 9315.8047 -2332.5872
1962.8444 -4445.0156 568.42798
3069.6482 32434.426 -2128.4512
11498.442 41678.957 200.13599
9894.4404 36100.719 -1325.4755
-7940.9321 975.88806 3719.98
-2657.9473 36644.586 338.75452
11543.865 39713.223 1894.8663
4254.2842 -2083.7271 3153.324
-7443.2969 27192.035 2070.1223
7443.0322 5542.084 656.05359
11174.4 -1584.4934 -2269.4976
-191.06641 23548.051 12071.67
-3394.6313 41874.957 -1521.5586
1974.6608 14193.057 7632.9165
7592.8921 47613.492 1177.533
3810.8362 48613.711 1817.1548
2723.241 -1301.1355 -1979.6858
12439.824 39585.703 3623.6812
9899.8164 14842.49 7121.3604
10903.824 -1805.3309 -5066.8076
3480.2876 47870.094 3790.605
-7193.4893 22083.258 4912.4678
-5281.1045 46565.859 157.66399
7472.0854 45099.078 4423.0142
-3983.6106 15097.242 -2329.8149
8109.7314 14214.807 6947.1377
9894.4404 -968.00024 218.65497
-5496.731 40037.648 338.75424
2243.241 39077.082 10526.326
3763.2432 15196.684 11118.073
10656.154 40529.992 1509.3688
9894.4404 41473.766 -1973.452
10742.532 4124.5708 -2131.8459
-5781.2222 30403.658 -2219.5454
4464.8398 40720.09 7527.7666
-6782.2764 27434.211 9343.7949
-1238.0427 15150.062 -2340.2788
9894.4404 -137.31514 -1335.8796
10300.226 21772.594 8345.9062
10238.804 -2754.5854 907.96985
2817.0581 5943.0923 -2201.8252
9049.4746 10929.939 4010.6191
11872.476 9505.9395 -671.75171
3373.1248 9792.9307 -2351.0935
10776.008 8702.168 -8.6620178
-6890.9629 -223.1517 2237.835
10489.307 27676.797 8772.1436
-479.00171 -7814.2539 -1029.1902
-6371.127 14894.376 5503.5024
-8640.457 -619.70837 -1157.1796
-7107.5029 19248.926 1798.6982
10191.819 35899.23 2948.7605
10793.736 37195.797 1010.4341
7654.8306 16860.949 -2349.3748
11443.827 40598.309 71.352478
-6297.7798 -1235.4263 3627.3127
2799.3892 9782.0176 6373.438
5095.8105 47195.266 3575.7354
6403.8457 16935.752 -2363.1782
-5467.436 45733.488 -209.62859
-6391.6841 40481.301 -841.38654
-8284.4629 35400.676 -2033.1692
-5553.0674 11097.939 -2395.179
10062.302 41428.691 2781.7415
11354.952 35313.449 905.8623
4680.6948 -7838.2832 -952.66962
779.46649 -3300.5144 1638.9612
7104.9727 47138.594 3029.405
-4035.6956 15903.993 -2326.5471
-7691.5098 38068.758 -1267.9769
3815.3047 24244.42 12000.531
9749.25 11314.518 -669.4834
1457.9271 46924.711 3943.0547
6185.5464 14910.369 -2370.0259
-2014.9741 14455.953 8455.1465
6667.1128 3625.9448 1208.1321
8411.8516 42687.504 4221.1416
11184.005 29684.02 -1758.5084
7443.1396 34999.469 -1873.7688
12589.92 126.10913 3351.1355
9906.2197 35215.852 9032.5498
2896.1724 47522.465 3131.5054
-6160.9302 -2815.0422 5805.0605
8615.1006 8549.2363 140.34532
-6429.3105 -242.98352 -5585.6201
-6284.6387 41825.312 -1106.4791
11321.4 -488.4754 -1271.7284
11667.451 33414.617 1098.0134
-1701.8695 2092.7578 -2052.5156
-2864.5439 -4549.4585 -962.45691
10185.033 -465.63815 3878.3853
7461.3438 24621.195 12055.693
10331.34 44024.281 1506.4764
-4443.1211 -533.54395 5728.1167
-5024.106 49462.371 -259.47113
-4257.5186 -7732.7969 -193.19284
7094.1367 48447.215 645.02112
11263.709 30617.561 1094.9673
9719.4639 33173.203 11111.399
9894.4404 39041.504 1793.8169
-4931.5234 13579.775 6739.1401
10711.306 24602.133 6226.4521
5226.7817 -5116.2598 -860.28442
-5457.3457 49675.203 129.77893
11174.4 1996.6906 -1664.5548
-4134.4116 -1541.9319 4598.6338
1628.774 46144.562 5002.2456
-7365.332 40402.816 -5000.1826
6035.8032 13932.395 6822.0015
11195.773 28454.441 -1544.2544
-1261.7517 7737.9131 -2271.3911
6464.7085 2078.6396 3472.8037
3337.417 11038.845 6326.5537
-7334.2275 21184.578 726.72412
5226.3569 -246.19202 -1706.5968
4953.1626 29772.424 12277.616
665.10889 25338.822 -2308.9573
-2119.2571 49841.578 -107.98387
-5443.6514 -2801.75 6308.7158
-5892.7095 10059.908 -590.323
-6033.0439 35862.672 9609.1133
2597.1318 30840.816 12379.792
4678.6455 19226.895 -2347.771
-6476.1597 39316.984 2087.2622
-6593.46 34674.582 -50.228325
57.46106 8054.167 6303.6338
6494.8887 23958.027 12014.017
-7172.4639 31152.947 5079.6816
4438.5049 -1677.7483 -512.01715
-7867.9775 37240.195 -4375.9521
6878.7158 6141.7656 -2209.5505
-8038.3271 35683.242 -995.10028
-7548.6914 45006.664 -467.20532
4901.5024 39281.176 10266.595
7641.9272 9707.9902 -2347.8237
7540.4761 13598.514 -2380.2734
11270.488 30714.582 -242.68936
-5757.4512 42724.617 3437.9241
9894.4404 -932.24976 -4579.1084
-8882.5537 10109.401 -1549.4216
-8311.5264 39462.656 4306.6567
-8259.5322 3661.7007 2678.0474
11176.064 28653.02 889.42554
-763.33179 44856.512 -1528.6901
-2040.8525 8737.2188 -2310.1318
-374.53571 940.52667 -2544.6201
10442.418 17056.906 -1564.6638
-1961.4039 25579.66 -2289.7512
4978.0469 -1245.4728 3142.7803
-170.09985 8722.7441 -2309.5808
9907.0225 2444.6045 -4925.8545
8514.6768 19281.369 -2304.3496
-4357.7822 27615.977 -2252.8076
-6467.0801 -2136.7852 -3175.2212
9894.4404 38124.617 -550.27118
-6113.0591 -1345.4667 3556.4558
4494.6802 39211.855 338.75702
11788.662 37634.586 -2618.8018
-1218.5249 36939.617 11854.642
-6098.9678 45317.371 142.79787
7649.04 31243.885 12314.43
579.77795 47779.801 4315.1436
3381.6628 43949.633 6363.9355
-6089.6133 5791.9248 1863.5682
7226.0132 2732.3745 3132.5103
-4018.4102 22282.199 -2291.376
5499.8804 -1132.4038 -1975.4543
10260.202 22621.816 10306.979
-1227.1223 -1197.563 1947.9331
3161.5027 43928.391 -1578.73
-2873.5439 3289.5774 855.96741
-7691.5098 1525.1045 -1456.0896
-4744.5356 22202.18 -2284.9792
-6467.0801 38424.473 -3987.3076
-2382.9709 14161.934 7340.7837
-7004.5894 23938.516 -2251.8586
-6467.0801 9.2405701 -29.914856
-9045.1348 -401.89911 3013.71
-9131.6611 1551.2787 2955.9883
5647.1846 17837.012 -2356.8142
8100.1963 21792.961 -2292.0256
2998.5156 10102.803 6358.3413
-2735.3625 39153.117 10215.59
457.12134 6675.5347 -2230.2102
11044.012 40401.945 214.01161
-6933.7437 28656.137 7841.1987
-6409.3271 634.98029 -510.69043
2766.5049 49853.156 651.90582
-2842.1851 43149.93 -1620.1078
-6467.0801 671.61816 -576.97925
10753.34 39298.031 2091.0249
5438.002 3097.8403 -2091.5239
-6636.666 26591.941 10248.465
10057.874 37832.477 6067.645
266.55124 -267.00238 -1961.0342
11957.291 39375.641 4320.1602
-7480.125 22634.047 113.56888
-3298.3203 50035.656 289.56635
5979.3662 31775.488 12384.257
8218.0488 45623.445 -1488.1228
2490.1838 49753.762 229.66121
11633.916 7724.0693 429.31012
10271.608 19580.246 7299.5625
-2537.0452 2302.7002 2739.8914
9759.4639 21063.123 11615.211
-6868.7017 23619.02 10291.721
7455.3579 40481.301 -974.948
-6409.3203 3860.8718 -2617.7654
-1337.7994 -903.474 2020.2963
11198.199 31862.465 -1611.5465
9749.1699 30296.838 12016.874
-2618.9187 39542.695 338.75497
-7355.543 21616.973 115.07101
4396.6172 11885.17 6253.1172
-3910.8198 11775.556 -2374.2893
798.46484 13497.359 -2354.4692
-4754.6997 -2263.5688 3437.7019
-5826.2495 43063.73 3118.8306
-4533.1514 47490.062 444.07867
-6467.0801 39880.062 -755.03516
3798.1167 7313.4775 6284.8496
10288.649 35585.633 292.73499
-7474.2603 32484.83 5137.8057
-872.34698 29621.121 12429.804
-6368.7192 37278.121 4740.5288
-6732.5977 15743.535 1232.6813
11317.795 -807.73206 -4093.5237
3664.4573 535.94092 -1924.7627
-1658.8176 -7838.0869 -877.20752
-8204.2129 953.22882 -2587.8381
4793.2178 -2445.7092 -2164.0115
-6411.5698 41683.84 -1672.0094
-1053.0273 30631.582 -2264.7886
-6028.7617 11536.728 985.18262
-8290.7207 37327.512 4131.9102
-6753.6646 34906.617 469.52948
2832.9324 -7640.8447 -358.646
9949.9502 36279.918 -1246.111
2798.7251 14790.746 9781.5566
1709.3943 -5474.7637 2060.2717
9894.4404 2099.4272 -370.85364
11770.034 40658.297 1.0179138
10118.329 18515.164 8146.3203
-6805.3403 22433.418 -2263.8772
-4115.7515 -3196.3628 5346.7197
-7336.7773 -2450.0891 -757.06781
7372.3462 36699.066 338.75864
-4270.4424 36543.523 11591.063
10778.325 38134.883 -4449.0801
-1201.3967 14068.505 6935.8838
2913.7346 -8265.9414 -1318.22
-57.969696 24846.365 12138.808
11709.272 40665.062 -4371.999
3930.5205 16847.881 11617.774
-1947.2498 22444.742 11966.622
-2206.1633 377.29639 4100.0479
-6336.5444 19661.24 11194.393
9894.4404 36910.832 -1229.0513
-5139.1494 14378.723 8187.9688
507.52222 -4054.3269 4101.2441
-6409.3203 -2195.2451 1354.9952
9949.9492 -1119.9863 -1260.6536
10445.5 33418.559 7973.0103
9894.4404 36280.797 -1083.387
10774.056 30481.191 5649.8755
-2235.3308 41087.461 -1413.7135
-6467.0801 2104.3206 -919.97119
2395.7031 -6638.5352 -1623.0051
11255.55 36844.172 754.97919
-4160.8447 44367.449 4160.0581
-9000.0293 38763.953 -1137.4512
1732.9581 36022.898 338.75647
8680.0938 -2411.3579 4886.9741
-6467.0801 39732.25 -3257.271
11504.78 41735.855 96.687164
-807.73615 -7786.1172 -518.9967
-1414.926 12455.581 -2353.3303
1200.0923 43028.578 6531.6274
5944.1431 2074.3047 -910.60242
9735.6094 36003.797 -1247.7218
-5386.8506 -872.85034 6096.4512
11174.4 38218.07 140.42239
345.31445 40481.301 -1063.4674
-7537.9717 2687.5452 -2965.8081
5641.0015 -3676.9573 -1271.0205
-6467.0806 39749.594 -2655.2793
-3669.4919 -7805.1733 -731.31799
10490.906 37795.883 2195.7959
-2644.0295 37311.656 338.75452
4418.1387 37611.234 11899.78
10149.191 39360.234 4292.2676
736.88696 48691.637 -1323.0562
-6702.209 39419.535 4982.0547
1828.4648 8424.2227 6439.4619
8452.0029 49149.039 -23.693375
10252.658 -2306.0801 -4732.2139
2445.1257 18974.656 -2340.0537
4203.8472 -609.55267 6326.9443
11102.729 8372.8721 132.41257
10463.185 25133.91 9814.6523
9714.7168 36003.801 -543.86334
-5527.6274 28041.789 -2238.3069
584.30737 -4113.6968 4058.5801
5185.8936 49004.75 716.68359
9370.8467 24343.83 12061.783
-6630.8545 36488.297 6059.8257
-8299.042 605.78577 -5082.2144
7011.1392 20153.137 -2312.6516
-935.75708 37456.719 338.75504
-7244.2451 24459.129 6228.6304
4436.1479 32517.656 -2109.2151
-4818.0898 43228.727 3512.7532
646.11841 27377.117 -2301.1389
-5297.769 -7394.4658 -764.90393
-6696.1465 41104.691 -896.99945
11321.4 1336.6161 -1495.0475
-6724.2173 33840.559 1222.0043
9894.4404 2482.8516 -302.92126
1308.3483 42104.723 6699.8306
7703.8154 43392.148 4894.3945
-6467.0801 758.04315 -921.93274
9949.9502 2042.2063 -1937.3176
4965.8125 -2004.2864 -2135.731
-2064.6304 40072.398 8497.3428
12170.85 38680.086 4098.3018
10383.799 2230.9946 3299.9683
7251.3462 40921.328 7104.4478
10132.396 15646.562 3111.8208
-1893.7421 15557.262 11261.559
-6040.4243 22222.883 11789.932
-2983.7808 29831.148 12460.412
10126.729 -1622.4739 3890.7473
11347.778 -309.83264 888.9917
470.15265 17575.502 11675.804
-7356.1875 24410.67 2275.5959
-972.23828 18255.887 11698.284
-8131.1689 36778.586 -5141.2002
985.01038 35450.188 12495.539
1200.0905 20678.123 -2328.7449
11758.516 1827.0289 -3985.7371
-7481.4785 27942.496 478.63959
1976.6101 11021.562 6737.2637
-6411.5698 34897.566 -1202.4008
9181.8711 11321.918 4011.1301
-6409.3203 -3562.2263 -2019.0327
9319.2842 21961.033 -2279.6655
-7667.7588 41217.258 4260.3857
9096.082 98.039291 3748.709
9100.7461 31355.383 -2217.7629
-6885.3413 39341.574 980.6272
-5673.1436 41674.426 -1391.9899
-6602.6074 36694.281 1948.4233
10886.702 26809.359 5565.3047
-2704.3247 40187.555 8262.998
-2312.6887 10574.295 -2381.3569
-7192.2939 22859.99 -2136.0056
-7447.8711 38332.703 -5688.873
11237.288 42366.758 3426.6731
-7300.2676 6216.3101 1422.8615
