# .PCD v0.7 - Point Cloud Data file format
VERSION 0.7
FIELDS x y z
SIZE 4 4 4
TYPE F F F
COUNT 1 1 1
WIDTH 1573
HEIGHT 1
VIEWPOINT 0 0 0 1 0 0 0
POINTS 1573
DATA ascii
7.6159458 6.6947227 0.19969893
7.5098014 6.7319989 0.19969401
7.7003717 6.7385712 0.19969313
8.046032 6.7781763 0.1996879
8.0449114 6.9976206 0.19965892
8.1036129 7.0443516 0.19965273
7.4762883 7.0618391 0.19965045
6.5871058 7.0786886 0.1996482
8.043973 7.1174231 0.19964309
7.3455725 7.1299472 0.19964144
7.7091436 7.1249118 0.19964211
6.7820148 7.136714 0.19964054
7.5067272 7.1387997 0.19964027
7.5237718 7.1795807 0.19963488
7.9790964 7.2289252 0.19962837
8.0335255 7.2366552 0.19962735
7.3989277 7.2509351 0.19962546
7.1869726 7.2611017 0.19962411
7.4523916 7.3025913 0.19961864
6.7737312 7.3930221 0.19960669
7.2420464 7.4011278 0.19960561
6.9693747 7.4693971 0.19959658
7.2686129 7.4802599 0.19959517
8.1241016 7.5492063 0.19958606
7.5440893 7.5952926 0.19957998
6.9342852 7.612443 0.19957769
7.6576033 7.6314697 0.19957519
7.0345044 7.6843581 0.1995682
6.9101086 7.748971 0.19955967
6.907608 7.8013973 0.19955274
7.1871576 7.8151064 0.19955094
7.8414392 7.8115983 0.19955139
8.1216764 7.8216515 0.19955006
7.6083703 7.8401299 0.19954762
6.9268327 7.8597593 0.19954504
6.6044211 7.8898559 0.19954106
7.0887427 7.8890657 0.19954117
7.1809173 7.8829412 0.19954197
7.8003321 7.88059 0.19954228
7.4868498 7.9369745 0.19953483
6.8715239 7.979342 0.19952923
7.1698518 7.9793134 0.19952926
8.0105696 7.9738836 0.19952998
6.4856391 8.1939287 0.19934832
6.198555 8.4037933 0.1971809
6.2273831 8.4861851 0.19129542
8.2185535 8.8991194 0.19721736
8.0140429 4.7740993 0.20990936
8.3667736 4.7884393 0.20857289
6.7002821 4.8160176 0.20893039
6.6502142 4.8740945 0.20757407
7.5857539 4.9164848 0.20658407
8.0894146 4.9379554 0.20608263
7.9594951 4.963419 0.20548797
8.0947008 4.9622445 0.20551538
7.2494526 4.9722481 0.20528175
7.9417253 5.0403352 0.20369163
7.4071646 5.053318 0.20338842
7.4861832 5.1089048 0.20209026
6.5000114 5.1394429 0.2050339
6.661211 5.1573596 0.20095861
7.4888926 5.1518831 0.20108652
7.3181486 5.1850233 0.20031255
8.1637621 5.2026796 0.20685481
8.1730824 6.3724298 0.20104727
8.170434 6.4613194 0.20005783
6.4586663 7.1836395 0.20514239
8.1951571 7.3464141 0.20482785
8.0432081 8.0386591 0.20348048
8.0679588 8.0947208 0.20732984
6.703805 4.4182434 0.21822011
7.423574 4.437777 0.21776392
6.9915676 4.5106153 0.21606284
7.4029002 4.5494428 0.21515602
7.4401369 4.5513935 0.21511048
7.5480771 4.5672622 0.21473989
7.9123297 4.6652446 0.21245158
6.8815084 4.6990128 0.21166295
7.4983168 4.6978078 0.2116911
7.5829735 4.7562842 0.21032542
8.2222605 5.5411673 0.2159353
6.4215159 6.001431 0.21705988
8.2332077 6.7181025 0.2173496
8.183279 7.9877205 0.21860805
6.4764562 8.1359177 0.21561818
7.0260859 8.1462736 0.21086961
6.8971205 8.1897335 0.21385366
7.3238821 8.1826572 0.21336776
8.0346603 8.2164421 0.21568754
6.6443334 8.2491484 0.21793327
7.8380685 8.2407427 0.21735609
8.4964705 8.680563 0.21621616
6.5862231 4.1062431 0.22864807
7.264287 4.1351299 0.224832
7.4575853 4.1570835 0.22431928
6.8865757 4.1826921 0.22372121
7.5882506 4.2068591 0.22315681
6.9598513 4.2241826 0.22275224
7.4275641 4.2548699 0.22203556
7.7100034 4.2560649 0.22200765
6.7125506 4.3038445 0.2208918
8.2021799 5.027874 0.22640003
6.4559221 5.0373263 0.22009704
8.2688637 5.0391278 0.22314586
8.2663822 6.1353645 0.22721639
8.2548647 6.4389067 0.22427268
8.2784109 7.1584806 0.22913648
6.3776236 7.5285931 0.22679888
6.8107419 8.3136091 0.22235931
7.2192593 8.3829927 0.22712341
6.5628023 3.8942032 0.23195057
6.563633 4.2000756 0.23177426
8.1218815 4.3672037 0.23358023
8.2950478 6.1125293 0.23432335
6.360467 6.2009749 0.23176855
8.3069592 7.6615949 0.23599517
8.2967463 7.813518 0.23267752
7.2065821 8.4409285 0.23110138
6.9163752 8.4731865 0.23331632
7.025363 8.4737549 0.23335537
7.5909219 8.4952726 0.23483288
6.9139881 8.5487022 0.23850149
8.2948227 4.3415632 0.24160875
6.1993761 5.4678512 0.24500299
8.3302002 5.4694896 0.24270432
6.1976066 5.5142279 0.24499688
6.3004246 5.6093283 0.24802752
6.3156428 5.760088 0.24390486
8.4268246 6.1765952 0.24664055
8.4576683 6.8215318 0.24482417
6.3163738 7.1614389 0.24408558
8.1819067 8.1262512 0.24926519
6.8589354 8.5836592 0.24090165
7.6738238 8.5854988 0.241028
7.0011072 8.591033 0.24140799
6.9842267 8.6155739 0.24309304
7.0368571 8.6449299 0.24510866
6.4785023 8.7043438 0.24918827
7.1925592 8.7049379 0.24922901
6.532896 4.3218451 0.25180161
6.3052287 4.844595 0.25396699
8.1572132 4.9549966 0.25576395
6.257278 6.8978939 0.25664964
6.2580094 7.2746439 0.25648493
6.2701664 7.3635845 0.25743634
8.3753014 7.4809813 0.25499898
6.2620873 7.7597027 0.25750205
8.3770838 7.9177618 0.25539145
8.485034 8.2994699 0.25182143
7.7702122 8.7256489 0.25065103
6.5291514 8.7751417 0.25404942
6.979857 8.7913952 0.25516537
7.6838179 8.7950296 0.25541496
7.7890668 8.8433046 0.25872967
8.4965363 4.3053584 0.26259321
8.4964705 4.7620559 0.26725191
8.3929987 4.9631648 0.26377967
6.1742048 5.0147686 0.26950973
8.1643114 5.0753818 0.26246411
6.2166719 5.6141062 0.26389349
7.0320892 8.8869495 0.26172641
7.3453979 8.9313908 0.26477784
6.7240882 8.9527283 0.26624301
6.8976221 9.0031624 0.26970592
6.5874977 3.9113586 0.27076036
8.4417305 4.470118 0.27656841
6.2189484 4.7904329 0.27219814
6.3765044 4.9767771 0.27284193
6.2112331 7.1650696 0.27885169
6.4826508 8.7971706 0.27396089
8.3707924 8.9364862 0.27204019
6.9630795 9.0354843 0.27192521
7.482708 9.0705328 0.27433181
6.3609762 4.3281198 0.28297469
8.4462318 5.4432917 0.28350255
6.1903048 7.9623752 0.28156292
8.1830616 8.1655397 0.2870599
6.4101009 8.1979275 0.28165713
6.5642004 3.8961322 0.29277501
6.6587534 3.9140568 0.29400843
6.215457 4.7140193 0.29818317
8.4552679 5.2006016 0.29339066
8.3196859 8.1126995 0.29522407
6.726017 3.8939099 0.30852178
6.5190797 4.31598 0.30959657
6.5133033 4.6231041 0.30475688
6.2011662 5.8986864 0.30653447
6.2214766 8.4660654 0.30703413
8.4946671 8.4815102 0.30723962
8.3911991 8.8525887 0.30757797
6.1967144 5.5957146 0.3187753
6.4505177 6.6158834 0.31991699
6.5158024 6.9121189 0.31991699
7.0800657 6.9577179 0.31991699
6.4906683 7.1388798 0.31991699
7.1116867 7.1679969 0.319875
7.1559768 7.1992235 0.31991699
7.5127473 7.2133121 0.31991699
6.4348598 7.247684 0.31991702
8.4584227 7.5155506 0.31539422
6.1846681 7.9270372 0.31620458
6.1752534 8.4469414 0.31676954
8.4297066 8.950139 0.31391579
6.6389189 3.8440547 0.32100642
6.636591 3.8603883 0.32742953
6.2577982 4.0755515 0.32553297
6.6963749 4.2294698 0.32972813
8.4964705 4.4081626 0.32694727
6.4804239 5.0843 0.32065567
6.45471 6.4505286 0.32371029
7.5151005 6.7143707 0.32112426
7.5803604 6.7677927 0.32990685
6.5273299 6.8103652 0.32290906
7.4751101 6.8798256 0.32794866
8.4909306 8.7534542 0.32421196
8.41259 9.1019459 0.32915193
7.0390053 9.5973577 0.32014364
6.4681926 3.8995223 0.33093137
8.1508265 4.4524903 0.3377724
6.1923504 6.4986553 0.33077663
6.42208 6.5271206 0.33039379
7.4751101 6.5942354 0.33316153
7.5803595 6.8870554 0.33921486
7.0580001 7.2434616 0.33999056
6.1906595 7.283205 0.33542603
8.3343897 9.2292709 0.33823505
7.7487364 3.796797 0.34380299
8.2276249 3.8423331 0.34164327
8.2496967 4.2237597 0.34282616
8.4450874 4.6926808 0.34605008
8.4684563 6.1265831 0.34297782
7.54773 6.6513991 0.34853247
6.46207 6.8961267 0.34327406
6.4946995 7.042686 0.34936541
7.50774 7.078763 0.34743431
6.4379945 7.2782106 0.34909689
6.4841232 8.6097031 0.34865323
8.4964705 8.7247734 0.34779894
6.3139596 9.0839863 0.34310019
6.3204508 9.0834703 0.34893873
6.3650274 5.0009499 0.3510665
8.464304 5.3859086 0.35689354
7.4751101 6.3168197 0.35068354
8.4535179 6.3647208 0.35961699
7.16325 6.701107 0.35281378
7.13062 6.7323093 0.35764283
8.4484768 6.8290043 0.35961699
8.1836491 6.8408251 0.35655701
6.42208 7.1474209 0.35575303
6.5273299 7.1679497 0.35515645
8.456419 7.7473221 0.35961699
8.1903114 8.0036907 0.35762691
8.4373283 6.0934668 0.36740395
6.45471 6.4672446 0.36694956
7.12326 6.6868896 0.36153349
7.16325 6.8328924 0.36241508
7.54037 6.8673773 0.36773986
8.4526634 6.9727087 0.36375391
7.5151005 7.2631187 0.36283356
7.4967351 7.2782106 0.36556858
6.2281089 8.0965738 0.36504206
8.3742647 8.8736448 0.36675712
8.1970196 8.9441376 0.3658154
6.221313 9.0828943 0.36289239
6.2738976 9.0813646 0.36943895
6.9400787 9.5937328 0.36306375
6.5143833 3.9815545 0.37171435
6.6753979 3.9986031 0.37723252
6.3014283 4.407434 0.37946182
6.5049462 4.5871353 0.37292564
8.4932003 5.2161951 0.37297028
8.135767 6.2883501 0.37779355
7.5369587 6.3143067 0.37132201
7.0955601 6.3621955 0.37132201
6.48734 6.3957901 0.37010697
6.2011738 8.6063213 0.37133062
8.1729364 8.6534615 0.37332624
8.4964705 8.7597809 0.37855363
6.4826245 8.7826424 0.37653533
6.1748123 5.0302534 0.38823026
8.4306393 6.5914497 0.38091865
6.4620705 6.6329527 0.38237414
6.48734 6.7402563 0.38470006
6.1927757 7.0525246 0.38777119
6.5273299 7.2407269 0.38998201
6.1928663 7.5514393 0.3872332
8.4929848 8.6279144 0.38163042
6.9156208 9.5583696 0.3857367
6.8216 9.5793867 0.3893472
7.0162649 9.5721798 0.38232252
6.6093473 4.0085011 0.39375013
6.5804167 4.1340728 0.39252084
6.5971284 4.1471043 0.39800367
6.3589907 4.3749342 0.39584637
7.4959345 6.3543787 0.39505401
7.4751492 6.447051 0.39505401
6.5051699 6.4760752 0.39505401
6.4890475 6.5443783 0.39505401
8.2057858 6.5997887 0.39505401
7.1409116 6.6861181 0.39505398
7.1232595 6.9420891 0.39288777
7.157567 7.0868578 0.39505404
8.1110296 7.1957922 0.3910065
7.0929203 7.2181711 0.39505398
6.1884041 4.9150662 0.40925884
6.1891398 5.9868994 0.40944263
8.3026667 8.0924807 0.4029485
6.4257298 9.3090153 0.40478745
6.7235022 9.5559168 0.40640152
7.6723423 3.7561929 0.41604799
8.4393234 5.4104977 0.41311872
6.2901359 5.4613748 0.41837138
6.2996917 5.5400143 0.41727901
8.4390965 6.4108572 0.41395068
8.4389544 6.4623432 0.41446906
8.4679661 6.6064224 0.411322
8.3575716 6.9193144 0.41833335
8.2328901 6.9631977 0.41243607
7.5428591 7.1954031 0.41612872
8.4397182 7.5583062 0.41167718
6.2174559 7.6790485 0.4186359
6.1877108 7.8034081 0.41769075
7.9855685 9.4423323 0.41758004
7.8672915 9.4960194 0.41203284
7.8786683 9.491292 0.41674319
6.6944971 9.5528345 0.41954473
6.9826484 9.5643682 0.41213149
7.4430728 9.5735397 0.4169237
6.4022942 4.0904989 0.42387301
6.2314005 4.5953507 0.42415377
8.4927101 4.7399826 0.42085931
8.3434353 5.1868896 0.42916703
6.2680407 5.4305749 0.42609999
6.2102613 5.5695267 0.42155886
6.2742004 5.6704526 0.42661899
6.2655282 5.9435463 0.42610002
6.1867952 6.195518 0.42275059
6.2824583 6.5690312 0.42609999
8.4705658 6.6323624 0.42591268
6.2709298 7.0233641 0.42984512
6.3082275 7.1048288 0.42148066
8.1696959 7.1737213 0.42550814
6.2829466 7.2090588 0.42255566
8.3854399 7.3522635 0.42010894
8.3993559 7.3689322 0.42609996
8.4454441 7.4251561 0.42666814
8.3537493 7.5197387 0.42609996
8.3857327 7.6181464 0.42610002
8.3990412 7.6849842 0.42609999
8.1801176 8.5327425 0.4211356
6.4255228 9.300415 0.4226777
8.1318703 9.3627977 0.42491075
8.1212187 9.4082899 0.422001
6.61901 9.4235916 0.422001
8.0189886 9.4250183 0.42059267
7.9834661 9.4358759 0.422001
7.8677158 9.4453478 0.422001
6.9314141 9.5117407 0.422001
6.9319296 9.565115 0.42542318
7.6600904 9.5662785 0.42759219
6.3083048 3.8675954 0.43109497
6.2018929 4.4814978 0.43743601
8.1585407 4.5771232 0.43716067
6.203383 6.5347333 0.43952358
8.425993 6.7984681 0.43954286
6.2253189 6.9849482 0.43955591
8.30896 7.0107565 0.43509468
8.4723349 7.0996904 0.43569922
6.2321301 7.1127906 0.43956512
8.4570045 7.1486454 0.43956804
8.3984928 7.3166294 0.43958008
8.4412975 7.3877144 0.43958518
8.4376926 7.5609665 0.43959764
8.3682232 7.5954089 0.43960011
6.2531009 8.9663048 0.43114156
6.335619 9.065444 0.43679482
6.4740543 9.0655975 0.43612814
8.1806097 9.3367367 0.43007258
6.8959484 9.5166359 0.43678463
6.2976727 3.8730755 0.44068432
6.1786337 4.3486996 0.44735172
6.1771994 4.7648273 0.44779843
6.3029871 5.3603368 0.44028133
6.2265177 5.5616827 0.44671595
6.2742 5.61305 0.44998783
6.284646 5.6526837 0.4469496
6.2052655 6.0866084 0.44919142
8.4362431 6.3942871 0.44324404
7.4150448 6.526113 0.44566718
7.4226885 6.7893562 0.44827306
8.1790342 7.1701498 0.44681558
6.9217968 7.3228979 0.44603664
8.275176 7.5931869 0.44107419
6.3184066 9.2986269 0.44334128
8.194171 9.3400536 0.44153768
8.0578032 9.4074364 0.44327453
7.3870449 9.5177507 0.44104636
7.7916298 9.5833597 0.44909215
6.2651501 3.9146185 0.4550522
8.153635 4.0986018 0.4523336
6.1744051 4.2736492 0.4534359
8.4505777 4.4427862 0.45423615
6.1877017 4.5920653 0.45854262
6.2171354 4.8422194 0.4597038
8.3631296 5.7039738 0.45062387
6.1801462 5.9044704 0.45949543
6.336556 5.9341826 0.45366818
8.3293447 5.9407687 0.45003104
6.2191029 6.3108082 0.45127743
8.449688 6.39921 0.45012343
6.3152704 6.7833862 0.45310172
8.3815441 6.8370228 0.45244095
6.2958298 6.983283 0.45888558
8.0495844 7.1688185 0.45505229
8.4497528 7.5684977 0.45048004
8.4927101 8.6112728 0.4536871
6.2584043 8.8696404 0.45486403
6.4338069 9.272316 0.45780796
6.8080115 9.4979115 0.45421019
7.15662 9.513485 0.45410618
8.1642389 4.4923997 0.46768412
6.4958372 4.6328335 0.46670926
6.2308989 4.7588415 0.4633593
8.4778709 5.603169 0.46631873
8.3204041 5.8716335 0.46465576
8.4549656 5.9299979 0.46823636
7.5844245 6.5957093 0.46047461
7.4410677 6.7038336 0.46614549
8.319521 7.0801058 0.4678174
6.2922301 7.2087984 0.46872777
6.3933835 7.7566881 0.4669857
8.4186649 8.0943832 0.46779245
6.2472935 9.1989994 0.46297377
7.6346064 9.5631371 0.46886522
6.3386884 4.4001961 0.47880608
8.500248 4.6936817 0.47193828
6.2002325 5.6484337 0.4770281
7.3619328 6.2043552 0.47859076
8.3554907 6.2574282 0.47919992
7.2013941 7.1200004 0.47879153
6.1781235 7.3701668 0.47067809
7.4899845 7.3873672 0.4774746
8.4427242 8.528985 0.47429568
8.403862 9.0563288 0.47481132
8.2517271 9.3016071 0.47781432
6.5001802 9.3611279 0.47478893
7.6087408 9.5042763 0.4705314
7.2368116 9.5443554 0.47091296
6.9348249 9.5583687 0.47093335
7.4754305 9.6392155 0.47856104
8.4449301 4.579865 0.48293591
6.2309294 5.3203201 0.48522961
8.4575882 5.3554521 0.48273483
6.3373594 5.475132 0.48709369
6.2936497 5.5190477 0.48820865
7.4064312 6.4669609 0.48205441
8.0820627 6.5936174 0.48732263
7.0069623 7.1970038 0.48262462
8.0568533 7.196105 0.48531163
6.2708855 7.2242355 0.48695669
8.4351578 8.0966911 0.48965719
6.1755915 8.8069296 0.4879899
7.9324589 9.4572945 0.48147482
7.8414412 9.4603357 0.4849624
7.2695251 9.521884 0.487694
7.5137272 9.5597296 0.48661104
7.3920269 9.6769142 0.48603404
6.1780701 4.6203279 0.4916586
8.1650066 4.6964731 0.49216047
8.3557739 6.2246795 0.49497205
8.4830418 6.2393546 0.49835345
8.4832335 7.2442474 0.49983728
8.2794771 8.0970583 0.49427876
8.485672 8.1146736 0.4912861
8.4662914 8.8087025 0.49188849
8.1151304 9.3641062 0.49357522
7.8362098 9.5053215 0.49040085
8.2720461 4.2233038 0.50618458
8.4969006 4.378253 0.50317305
8.4833879 5.453032 0.50103968
7.2986293 6.2201762 0.50092131
7.5121422 6.5985031 0.50957286
8.1127281 6.6251621 0.50610971
8.32376 6.7977905 0.5094502
8.30896 6.8492041 0.50910205
6.1727185 6.920454 0.50624073
8.4834557 7.1315651 0.50155765
8.4341192 7.7863317 0.50114369
8.3118458 7.799119 0.50144982
6.2168493 8.3586617 0.5056265
6.18858 8.7770405 0.50736332
7.7584028 9.5220747 0.50531334
7.6310501 9.5662746 0.50135601
7.6208324 9.5735397 0.50935447
8.3901873 3.8825364 0.5177623
8.4964705 4.4409022 0.51277649
8.4449234 4.6115141 0.51715767
7.3154502 6.2824492 0.51728439
7.3664899 6.3391809 0.51349699
6.2267141 6.403317 0.51770377
6.3370528 7.0628119 0.51699793
7.2179413 7.1456571 0.51595318
6.9609995 8.0557175 0.51769823
6.480567 8.8225002 0.51317954
8.3318663 9.2786312 0.51689827
6.6297917 9.4053297 0.51007658
7.0419059 9.5106955 0.51211661
7.1097565 3.7401347 0.52158934
6.616046 3.7690938 0.52980697
6.1888275 4.1012392 0.52767181
6.3349648 4.1205754 0.52520728
6.48278 4.4335823 0.52517647
6.2258139 4.6506619 0.52320164
8.4828711 5.2190223 0.52714759
8.4635162 5.3217578 0.52721459
8.3194199 5.3664985 0.52129602
8.3528547 5.8907061 0.52170366
7.3664894 6.4225125 0.52014881
7.3920002 6.4980431 0.52834356
7.3575764 6.8015833 0.52028871
6.4139161 7.0404334 0.52634549
6.2466183 7.7953863 0.52441639
6.953898 8.0931664 0.52719665
8.2030334 8.1711483 0.52388763
6.517271 9.3643303 0.52370906
6.8903313 9.5228882 0.52613008
7.4855466 9.5240555 0.52382952
7.5686545 9.5218544 0.5278644
6.2659373 4.1231227 0.53353822
8.4946213 4.9850378 0.53387773
8.3721476 5.37957 0.53422475
6.2936506 5.4512248 0.53063166
7.364027 6.2425365 0.53159881
7.1527309 6.7307348 0.53690571
7.1997032 6.7368979 0.53521287
6.1684494 6.7851963 0.53925651
7.3929329 6.8908682 0.53083712
6.3792844 7.0443096 0.53214437
6.1692939 7.360817 0.5327248
8.4619684 7.7312269 0.53065467
6.1687131 7.8819933 0.53721929
6.466012 8.4527311 0.53562921
6.325633 9.314785 0.53431708
7.5725508 9.6728315 0.53124082
6.2836304 3.8570614 0.54676902
8.4541836 4.8788815 0.54525673
7.3664904 6.3132234 0.54749024
7.7738552 6.4852948 0.54615206
7.4064498 6.6830287 0.54636538
6.4026289 6.8255882 0.54586178
6.3516984 7.8111238 0.54619771
7.9914865 9.4299936 0.54448861
6.226944 3.9635282 0.55576998
8.3794746 4.236042 0.55304933
6.2117414 5.2834373 0.55037737
6.1900291 6.0236802 0.55292499
7.1570587 6.6689234 0.55128402
7.1814499 6.8129635 0.55817068
6.1662745 7.0089378 0.55700606
7.1849461 7.0591173 0.55826676
6.606761 7.2308369 0.55118239
6.2711015 7.2466187 0.55778527
6.4808898 8.724308 0.55835521
8.1768532 8.9505816 0.5528571
6.3438005 9.2890072 0.55629462
8.2273064 9.3227215 0.55093747
8.1369839 9.4054594 0.55254602
6.6418734 9.4323959 0.55254602
6.6842179 9.4473057 0.55020237
7.8898945 9.4918451 0.55254602
6.9309464 9.5233669 0.55254602
7.2819085 9.556057 0.55254602
6.8859892 9.5676594 0.55885673
8.3485632 5.8611012 0.56457698
6.164979 6.0639777 0.56769919
8.3631296 6.1034937 0.56121016
6.2658453 7.81423 0.56042421
6.7690806 8.1028824 0.56910908
7.6298127 9.5597296 0.56370527
6.863843 3.7373455 0.57545489
8.1878157 4.2953286 0.575086
8.4950895 4.3258967 0.57470709
7.756443 5.0028019 0.57878458
6.3878422 5.1479635 0.57451355
6.1883655 5.2707148 0.57303691
7.1757345 6.751461 0.57123017
7.4337397 7.0497656 0.57113266
6.1641159 7.2415147 0.57482302
8.2782412 7.5824423 0.5793696
8.1778526 8.6440573 0.57666421
7.0922146 9.5702534 0.57719845
7.5907493 9.5705137 0.57028872
7.9191694 3.746732 0.58486485
6.4810605 4.5090876 0.58735991
7.1146574 5.193368 0.58241391
6.5149908 6.4269333 0.58790654
6.6305146 6.4289589 0.58515567
6.1632204 6.6501203 0.58222026
7.4064493 6.6622248 0.58519435
7.4548945 6.786294 0.58867276
7.2229309 6.9332767 0.58429998
8.3852167 7.3372436 0.58571005
7.4849601 7.6656108 0.58687937
8.3330717 8.0664005 0.58653331
6.2167974 9.0189638 0.58205736
7.1256771 9.5597296 0.58203107
7.2009611 9.5606461 0.58827132
8.3571253 4.2502022 0.59669417
8.3117828 4.4271889 0.59294599
6.4821005 4.6218815 0.59205931
6.1780109 4.9105 0.59547597
6.1615005 5.3054061 0.59641463
8.3512859 5.7813702 0.59983778
8.4945211 6.1852546 0.5901528
8.3604565 6.2652855 0.59975982
6.2981491 6.4290757 0.59161317
7.2146959 6.9557543 0.59634811
6.271028 7.2322817 0.59614241
8.2636538 7.7249618 0.59537196
6.1430616 8.0348978 0.5926066
7.8262587 3.7374649 0.60809135
8.3631296 5.6760302 0.60433024
8.4962091 6.446116 0.60408628
6.3478203 6.5580597 0.60881436
6.4193726 6.7977877 0.60269862
7.4301429 6.8756227 0.60643542
7.4415088 7.144022 0.60364717
7.4588223 7.3407149 0.60970831
6.1609688 7.4309502 0.60080397
8.2901773 8.2183027 0.60042512
6.3090048 8.2276192 0.60009468
8.2352505 4.2594156 0.61647213
8.1840897 4.3941898 0.61875582
6.479054 4.5647216 0.61093009
8.3308773 5.1320429 0.61677867
8.2465086 5.2685728 0.61101174
6.2950201 6.2779856 0.61909539
7.3558941 6.598074 0.61074823
6.1589808 6.7576981 0.6172139
7.1617131 7.0992169 0.6158613
7.4380817 7.1232934 0.61311239
7.0873089 7.1913776 0.61750209
7.5000095 7.443347 0.61590022
8.3542633 7.4881334 0.61528212
6.411386 8.2214823 0.61301196
8.2026052 8.2866592 0.61610174
8.0808334 9.5612354 0.61996841
8.407424 4.3719215 0.62302494
6.4706178 4.3826675 0.62796074
6.6276608 4.9871597 0.62707466
8.452158 5.2377806 0.62062156
6.2936502 5.3127341 0.62938231
6.1578021 5.5359035 0.62751561
8.3631287 6.180934 0.6263842
6.2155681 6.2713261 0.62312275
6.7869201 6.3951302 0.62866378
7.8279915 6.3990054 0.62057811
7.4100266 6.7168298 0.62924337
8.4983625 7.505826 0.62186164
6.3761292 7.5708876 0.62912911
6.4786477 8.9053946 0.62207782
6.2495465 8.9946833 0.6297031
6.4985709 3.7721329 0.63533688
6.2701883 4.9265933 0.63944471
8.5006542 5.1180487 0.63800192
6.2548685 5.2617779 0.63656658
8.3631296 5.5545578 0.63179797
7.3727531 6.9809141 0.63477284
7.4501286 7.1651282 0.63426262
7.4714255 7.2515931 0.63806736
8.4742212 7.7611814 0.63336384
8.3119802 8.361351 0.63996035
8.3808393 8.4057112 0.63339871
8.409379 8.9932909 0.63243461
7.1303635 9.6947012 0.63314265
6.4461656 4.1694593 0.64779294
8.4020948 4.3848438 0.64662951
7.9980316 4.9648919 0.64081115
6.2765231 5.029479 0.64714015
8.3267231 5.4414706 0.64501441
7.08426 5.8737741 0.64912117
7.4860258 6.5697002 0.64146942
7.2815533 7.3781557 0.64394879
6.3941345 7.6778955 0.64516044
6.2620726 8.9871531 0.64057541
6.161355 4.1723366 0.65396452
6.4356017 4.2832718 0.65779054
8.4964705 4.7329054 0.6590203
7.8896346 4.9634962 0.65117341
6.4590335 5.1240129 0.65429103
6.2039289 5.2258086 0.65107262
7.4643469 6.4926276 0.65711945
7.5831366 6.58318 0.6557377
8.1036358 6.5808506 0.65512532
7.3111482 7.4030828 0.65474641
7.4816141 7.6073451 0.65493226
8.4943943 8.642622 0.65988046
6.1759019 8.8004599 0.65443605
6.2922587 4.6137733 0.66613036
8.4905663 4.6660137 0.66745043
8.4864483 5.1609726 0.66670108
7.1499958 6.4566221 0.66381562
7.2552781 7.0306582 0.66279572
7.3309517 7.0856991 0.66127801
6.3911009 7.6466656 0.66264367
8.4462967 7.8166385 0.66963863
8.3298025 8.4260674 0.66291082
6.2040224 8.6165409 0.6690011
8.3322182 8.8946629 0.66401225
8.2885265 8.9696426 0.66350138
7.7389846 9.6656437 0.66696835
6.2660818 4.4133277 0.67479974
6.2152605 4.7163301 0.67614818
8.3803072 5.2064362 0.67588991
6.1538911 5.6846118 0.67390049
6.1535664 6.2708158 0.67775851
7.484406 6.4806685 0.67165422
7.0672007 6.5787754 0.67047739
6.6978793 6.5989146 0.6795913
7.5754709 7.0962801 0.67145622
6.5853143 7.1938992 0.6784603
6.2181664 8.1096725 0.67360151
8.3871756 8.1105576 0.67542934
8.4963923 8.8282967 0.67340529
8.3631296 5.5491486 0.68311155
7.0439849 5.8721333 0.68335503
7.8807907 6.6228099 0.68381244
6.9309149 6.6928205 0.687765
7.9913716 6.6991744 0.687765
8.0368538 6.7367539 0.68652928
7.7257652 6.8010006 0.68794262
6.5862823 6.844346 0.68889606
6.7398114 6.8520708 0.68906593
7.7189188 6.8905525 0.68961489
7.0791364 6.920176 0.68252563
8.0326738 7.0119743 0.68637973
7.7496843 7.0662146 0.68787128
7.9319749 7.1090231 0.68508267
6.9102168 7.1219578 0.68407345
6.8748336 7.1591363 0.681651
7.7621245 7.1646714 0.68130469
8.4326115 8.1140079 0.68255448
8.1899414 8.2062902 0.68166077
7.0481687 9.6890574 0.68210948
7.2119913 4.9463162 0.6906985
7.9129224 4.9426332 0.69018799
8.3883104 6.9552345 0.6926496
7.4270501 7.1824999 0.69215357
8.252737 8.12185 0.69874811
6.2012129 9.1596756 0.69228196
8.4266338 4.4588633 0.70471597
8.4985027 4.6293201 0.70384932
8.2040186 5.1769023 0.70248771
8.3558903 5.5925875 0.70650202
6.9311123 5.8719606 0.70444614
8.3631296 6.1889434 0.70367682
8.4791965 6.3344107 0.70022845
6.1523056 6.3692646 0.70125914
8.0762157 6.3853006 0.70177555
6.6966205 6.5772943 0.7002055
7.435853 7.1566467 0.7018863
7.4876056 7.3510399 0.70670772
6.1523318 7.4003329 0.70037234
8.4007101 7.8356953 0.70592636
6.2871637 8.3245382 0.70414209
8.4897423 8.9322634 0.70887589
6.5560484 9.5633297 0.70707935
7.1333652 9.6927166 0.70843387
7.0555449 9.7002859 0.70876908
8.4918318 4.6922798 0.71721089
6.1518626 5.1884837 0.71637553
7.7602739 5.3657179 0.71598142
6.9620552 5.3860197 0.71765715
8.4817343 6.0345058 0.71879482
6.3427601 6.5653763 0.71074533
6.2676544 6.8547006 0.71987557
6.4179487 6.8776979 0.71215397
6.6090446 7.8160887 0.71534514
7.8342028 7.8387413 0.71881962
6.4776664 8.8924913 0.71723455
8.3081942 8.9227962 0.71821266
8.2874565 3.8020625 0.729316
6.2022667 3.9583988 0.729316
6.4376354 4.3317523 0.72118795
6.5725799 4.826241 0.72739685
8.337739 5.0806007 0.72091305
6.5304422 5.2496138 0.72635257
7.450129 5.305069 0.72400701
6.4326258 5.3690591 0.72997254
7.8009176 5.3904514 0.7217322
6.1468787 5.7339187 0.727705
8.0576944 5.8689971 0.72175658
8.3587103 6.1572323 0.72592109
8.4798183 6.2612915 0.72130871
8.5050688 7.8078523 0.72130215
6.2199502 9.2417974 0.72661436
6.8784447 3.7311068 0.73639137
7.2820349 4.0428448 0.73901707
6.8115139 4.0575318 0.73896801
6.4462271 4.4622307 0.73628831
8.19028 4.593132 0.73663986
7.4639263 5.3112822 0.73254871
6.1420298 5.8274612 0.7360155
6.2936497 6.0179634 0.73298681
8.1394405 6.4804955 0.73074108
6.2919693 6.738883 0.73775536
8.5061569 6.8278599 0.73923194
6.4367104 6.9295921 0.73111397
6.1420298 7.258647 0.73051119
6.9749327 7.7798529 0.73170143
7.5313663 9.6860924 0.73197138
7.8745728 3.732975 0.74166262
6.8228359 4.1677809 0.74091506
7.1219349 4.1662111 0.74111032
6.6892538 4.2074256 0.74139035
7.6228228 4.204164 0.74173689
7.9931669 4.2307596 0.74175018
7.1589489 4.2992516 0.74331301
7.0556693 4.3386931 0.74331295
7.9980555 4.3888354 0.74331301
7.3521147 4.4039664 0.74331301
7.0390549 4.4217515 0.74331295
7.9189453 4.425252 0.74331295
7.4376535 4.4500055 0.74331301
6.6140289 4.519619 0.74331307
6.8174806 4.58637 0.74331301
7.4072504 4.6448512 0.74331307
7.956708 4.6559658 0.74331307
6.5623703 4.6610279 0.74331301
6.7586918 4.67838 0.74331307
7.646688 4.6974974 0.74331301
7.4502635 4.7583508 0.74331301
6.5607638 4.7741375 0.74331301
6.2734761 4.7893896 0.74798673
7.762517 4.9188356 0.74331301
6.9483447 4.9867167 0.74331301
7.7703905 4.9869866 0.74331295
7.8844156 5.0079522 0.74331295
6.1472702 5.2524486 0.748115
7.4653044 5.2764482 0.74366558
6.7209225 5.4502816 0.74040306
6.9889097 5.4748693 0.74160099
7.7021694 5.4861512 0.74955261
6.6087899 5.5260172 0.74440879
8.5083942 6.0132318 0.74515617
6.1420293 6.1706905 0.74200463
6.3347158 6.6346865 0.7434687
6.1448021 7.442111 0.74453503
6.1468611 7.6798224 0.74453497
6.151958 7.6922555 0.74453503
8.4817924 7.6999445 0.74157804
8.0185757 7.8123474 0.7410211
6.1485701 7.8200469 0.74467987
6.1432381 8.0554466 0.7456578
7.3607674 9.6904449 0.7460686
7.4188251 4.0236936 0.75735521
8.3531818 4.2478933 0.75285721
6.4289198 4.4900599 0.75401092
8.2029419 4.6859465 0.75097406
6.4587574 4.691782 0.75072056
8.2104445 4.8212986 0.75456554
6.3541584 4.9475818 0.75148469
6.7365232 5.6185431 0.75466394
6.5244579 5.8184414 0.75660104
8.5115118 5.8462057 0.75958955
7.4032378 5.8542538 0.75810373
7.7917943 5.8557005 0.75421059
7.7561169 5.8607197 0.75033665
8.5113964 5.9978089 0.75763941
6.1462502 6.0817394 0.75080979
6.3477716 6.0856223 0.75626659
8.440155 6.2509842 0.75271058
7.1235075 6.4299273 0.75278497
7.5947981 6.565928 0.75263906
8.3719807 6.8445234 0.75597435
8.5112181 7.1672277 0.75460577
6.7237153 7.7595391 0.75151968
6.145968 7.8247495 0.75155479
8.3829679 8.395505 0.75031257
6.2995872 8.4213142 0.75720215
7.4219828 3.7247474 0.76908535
8.5088224 4.2058511 0.76359892
6.4603648 4.3757052 0.76491266
6.3337278 5.1575313 0.76207894
7.761333 5.5539031 0.76352221
7.9214106 5.6572914 0.76021624
7.9204988 5.6678643 0.76197529
7.0244164 5.7916427 0.76796323
6.3073301 5.933835 0.76383102
8.0116377 6.5636148 0.76113391
8.4867125 7.7241559 0.76722544
8.371748 8.4426422 0.76166594
8.2698412 8.6543446 0.76516545
8.262661 8.6767702 0.76124412
6.4767666 8.743288 0.76752138
7.6813612 9.6592655 0.76327443
7.2397628 3.7167735 0.77317142
6.8450856 3.7316813 0.77360308
8.1880627 3.7818174 0.77368587
8.2608194 4.3960896 0.77874935
8.3406019 5.4170761 0.77606475
8.0755987 5.740571 0.77411377
8.1352949 5.7465005 0.77846444
7.1357212 6.6253281 0.77642363
8.3236275 6.8447752 0.7780304
7.9351397 7.7645712 0.77359307
8.4869165 7.8902369 0.77068377
6.3057413 8.5667057 0.77256817
8.115901 9.534481 0.77726233
7.2048559 3.7293773 0.78546351
7.3137231 3.724627 0.78010964
8.3275433 3.8097374 0.78084111
6.4581332 4.3662066 0.78329802
6.402195 4.4031162 0.78385031
6.4190016 4.7392845 0.78056514
6.4128857 4.896863 0.78865618
6.3203082 5.0344501 0.78031099
7.9834552 5.1838427 0.78233433
8.5131283 5.6986609 0.78960729
6.2936502 5.8072953 0.78870738
6.5743685 6.3290582 0.78282374
8.4876652 7.7291594 0.78525829
8.3645496 7.8046303 0.78332639
8.46595 8.9824619 0.78207666
7.0437422 9.6683769 0.78226101
8.4501429 3.9661069 0.79902726
6.4862695 4.5314536 0.79893088
6.710433 4.8870201 0.79598784
6.5333309 4.8910046 0.79145229
7.6400809 5.1843262 0.79500902
8.4092703 5.1928015 0.79463995
8.4412088 6.1950536 0.79265815
6.1686993 6.3442974 0.79392189
8.2059565 8.3746414 0.79029822
6.465045 8.5629692 0.79966807
7.8626299 3.7513371 0.80046397
7.4568605 4.0003304 0.80947816
8.4501886 4.004076 0.80046397
8.0144577 4.0286961 0.80028445
6.2688804 4.4384685 0.80826926
7.0638018 5.178751 0.80251509
8.4353085 5.2015595 0.80771554
6.2936506 5.94242 0.80100244
7.6049232 6.3241749 0.80211353
8.5133667 6.373476 0.80991483
6.7018251 7.6789389 0.80961746
6.1686316 7.6978664 0.80931872
8.4883499 7.7044744 0.80633062
7.9613104 7.7262421 0.80128431
6.2555199 7.8430357 0.80243313
6.392005 7.9025784 0.80902779
6.1475925 8.073082 0.80627191
8.4139652 9.1512489 0.80281371
7.7608132 9.6230955 0.80159014
6.7179642 3.7652333 0.81236953
6.2387047 3.8906345 0.81565696
6.6514006 3.9647884 0.81285453
7.8870363 4.0182762 0.81340778
7.9576912 4.0259542 0.81315607
6.152204 4.2928057 0.81978166
8.4199944 4.443912 0.81068683
6.3982563 4.4693274 0.81333745
8.4254036 4.8451877 0.81858456
7.3646588 5.1841321 0.81066096
6.2936502 5.6866946 0.81119215
8.5128193 6.6438866 0.81801969
8.5130415 6.8947978 0.8147313
7.4110217 7.3649468 0.81792283
8.4968987 8.5996313 0.81590462
8.4389601 8.8160496 0.81460333
7.6027174 9.6561089 0.81649148
7.9819365 3.792707 0.82325655
8.2027082 4.3506756 0.82855231
6.435039 4.9760594 0.82953233
8.3169384 6.0596018 0.82851964
7.3979716 7.3131089 0.8210972
6.2671795 7.3339772 0.82522976
7.0945754 3.7990088 0.83357048
6.98208 3.8145714 0.83759087
8.3755417 3.917377 0.83783638
8.0862179 4.4190545 0.83652437
8.2041254 4.7676778 0.83888972
6.3332429 4.8081398 0.83505082
6.5625753 4.9101896 0.83799404
8.4832087 5.0683722 0.83109713
8.3194199 5.2181816 0.83241725
6.1452222 5.4834957 0.83656144
8.3592157 6.2659783 0.83112752
8.5117607 6.4200773 0.83364844
6.9325442 6.5393858 0.83113664
6.1452751 6.7615614 0.83735007
8.3895998 7.1650348 0.83744943
7.3120804 7.3709321 0.83722103
7.6999545 7.6750994 0.83195037
8.2919245 7.7341428 0.83776814
8.3645496 7.7950153 0.83421433
6.2538586 7.8445668 0.83420765
8.4500828 8.2596102 0.83380461
6.3483434 8.3794909 0.83769321
8.2661304 8.3745985 0.83553416
6.397203 9.3580694 0.83421695
7.0736709 9.56003 0.83605802
7.3848801 9.6597033 0.83515513
7.0707946 3.8190565 0.84583771
8.0797052 4.0553236 0.841721
6.4468555 4.8066573 0.84944546
8.5075798 5.0347519 0.84774601
6.1698203 5.0489511 0.84060282
6.1640558 6.2595534 0.84856761
8.1749287 6.4429893 0.84955603
6.4517565 6.4755964 0.84810233
6.7162571 6.5333667 0.84985209
6.3586388 8.2780657 0.84288484
8.4294672 9.0782461 0.84312296
7.5305266 9.6292191 0.84048098
8.2032375 4.6136007 0.85800922
6.2670231 4.7466102 0.85263705
7.9550862 4.8548241 0.8558771
6.1993122 6.1996813 0.85723102
8.5104179 6.4020672 0.85350418
7.1717482 6.5216537 0.8556096
6.7695704 6.5327721 0.85170144
7.1254215 6.6466913 0.85533738
7.5323281 7.4102015 0.85858399
8.3688822 8.433116 0.85220021
7.4762902 9.6280727 0.85768366
7.110672 3.8686805 0.8649739
6.7933917 3.9179533 0.86441934
6.6652031 3.9440603 0.8656283
8.0100765 3.9407198 0.86243808
6.5254068 4.0732498 0.86880493
8.280653 4.3455424 0.86691123
6.1700907 6.1884613 0.86052918
8.5098038 7.1816378 0.86258405
7.246706 7.3190565 0.86835861
6.1469269 7.5211158 0.86179894
6.4585643 7.6251979 0.86171806
8.5029163 8.172801 0.867854
6.4268565 8.490221 0.86270899
8.4234962 8.5191774 0.86270899
7.1432242 9.6176319 0.86286664
7.2802153 9.6474304 0.86879706
7.3077669 3.7969301 0.87154979
7.8892474 3.833566 0.87304008
7.3684821 3.8971734 0.87947905
6.7954321 3.9302619 0.87843412
8.2815542 4.6829658 0.87113905
7.089788 4.8507657 0.87243378
6.7676234 5.1610284 0.87518847
6.4987192 5.1744123 0.87338769
6.1480427 5.2878952 0.87831801
8.3194199 5.3354464 0.87969589
6.2936506 5.3539705 0.87181604
7.4441109 7.3366327 0.87700856
6.26718 7.3576164 0.87852156
8.2481623 7.6387095 0.87316084
7.5867362 7.7478385 0.87060452
7.5328026 9.6141863 0.87797165
6.3736801 4.8321085 0.88831049
7.9951668 5.1478992 0.88668388
8.4853373 6.2433414 0.88053459
6.2922301 6.4538918 0.8842051
8.2438736 7.6192379 0.88646322
6.4670157 8.6676283 0.88631785
6.1685944 8.7186852 0.88542402
6.4270678 9.3976698 0.88022804
8.2911472 4.378788 0.89988077
8.2123423 4.7984767 0.89609694
8.3192387 5.0555954 0.89314288
6.2936502 5.2817202 0.8937152
6.1494536 5.6252699 0.89422941
6.2936497 5.7784529 0.89005321
6.1493716 6.266706 0.89377904
6.6618257 6.5172791 0.89987421
7.428299 7.5056577 0.898404
8.26507 8.4229984 0.89493304
6.1502748 8.506999 0.89897847
8.2920074 4.5505323 0.90335196
6.5675669 4.7916684 0.90563822
8.3631296 5.2093234 0.90180963
6.5622721 6.5078607 0.90515524
8.5051212 6.5550289 0.90632236
6.4485688 6.5688868 0.90166765
7.4688411 6.6199603 0.90899456
7.4446549 7.5412817 0.90982473
8.4250402 8.4568577 0.90083861
8.3527765 8.5455761 0.90519691
8.1971521 8.5976238 0.90097761
7.4616537 9.5981426 0.90106142
7.3013163 9.6302176 0.90528184
6.9252148 3.8149972 0.91038775
6.2136035 4.4677505 0.91703033
8.5187597 4.4798765 0.91267401
7.3053808 5.1434603 0.91030639
8.3631296 5.8298163 0.91910422
6.1760044 6.1277552 0.91232556
7.501389 6.3476505 0.91175717
8.3576345 6.3785057 0.91338766
7.609859 6.5122538 0.91549999
6.348618 7.1427121 0.91344011
6.2671795 7.5428076 0.9181183
6.7035508 9.4358149 0.91844881
7.7244101 9.5440226 0.91918373
7.62709 3.8093877 0.9279412
8.3297977 4.4851708 0.92283106
6.9501228 4.8270898 0.92473775
8.5013189 5.1661472 0.92718589
6.2936502 5.2381325 0.92651099
6.1541586 6.4874406 0.92003703
8.3693247 6.543602 0.92193925
6.26718 7.4003596 0.92328477
6.9835267 7.5103245 0.92800844
8.2641678 9.3937836 0.92746425
7.3840766 9.594346 0.92859775
6.2483826 4.7813311 0.93619341
8.0910101 4.8011355 0.93036342
8.477026 4.9300618 0.93504143
6.3069696 5.3155956 0.93336654
8.3631296 5.3614216 0.93859828
6.1563225 6.3844376 0.93190587
7.1167507 7.6078176 0.93310177
8.4014721 4.5778036 0.94426
8.473731 4.6711421 0.94146478
8.5154095 4.8305321 0.94394487
8.3524284 5.5547566 0.94000256
7.4492559 6.4252801 0.94774586
7.6561069 6.5017571 0.94694275
7.5543647 6.5220509 0.94008291
6.2671795 7.2920227 0.94487625
6.4088974 7.5311723 0.94171613
8.3981018 7.8605165 0.94387472
8.4921827 8.0978661 0.94441706
8.3500452 9.2599831 0.94219565
7.4989238 9.5556583 0.94709498
7.2070546 9.5646763 0.94709498
6.7717037 4.8178272 0.95669991
6.1585279 4.872632 0.95278752
8.3631296 5.0303063 0.95039344
8.3631287 5.983036 0.9513492
6.3208389 6.4151006 0.95527065
6.5145168 6.5630803 0.95222056
7.8967466 7.5201454 0.95751083
7.4416218 7.5538635 0.95852876
8.2911243 7.8279095 0.95224494
6.1631937 7.9618187 0.95015216
7.1071463 9.5765562 0.95082402
6.1868114 6.3689623 0.96064794
6.7404752 6.4944253 0.96704119
6.9012585 7.4480462 0.96014744
6.9132953 7.4453573 0.96243435
7.126832 7.471446 0.96898723
8.4165087 7.8450499 0.96662027
8.4777937 8.3726435 0.96759117
6.7340922 9.4792318 0.96153563
7.3118601 9.5129795 0.96704859
7.1004796 3.8069792 0.9777416
6.4053478 4.0741825 0.97010565
8.2375154 4.3397613 0.97859961
6.6937761 4.8111539 0.97065938
8.1795626 4.8808146 0.97910744
8.4496918 4.9610233 0.97210884
7.9935246 5.1010761 0.9745422
8.0522623 7.4991632 0.97960395
8.2056904 9.35042 0.97978914
8.0438757 9.3640404 0.97179466
8.1052485 9.3818922 0.97968912
8.2552748 3.8908608 0.98180473
6.3909407 4.074368 0.98299932
6.1802659 4.2496266 0.98311532
8.0943184 4.7890124 0.98441052
7.3144999 4.8145475 0.98407745
8.4916067 4.9734988 0.98080701
7.1859312 6.5089159 0.9871456
8.4912386 7.7185807 0.98246545
6.2235808 8.8764906 0.98722154
6.3291135 9.2501297 0.98964638
8.3079243 9.2987041 0.98962808
6.2570224 4.8300972 0.99356145
8.4663715 6.0105033 0.9972288
8.3810759 7.4279776 0.99870098
6.4056363 7.4962559 0.99174321
8.4309597 7.8501978 0.99545413
8.4631691 8.6753368 0.99011242
6.2621455 9.0115356 0.9958638
6.6591835 9.4603338 0.9905495
8.4889374 4.8579383 1.0086235
8.1518784 5.0875206 1.0028591
8.3631296 5.3520217 1.0047452
6.300436 5.9034901 1.003325
6.26718 7.1478472 1.0009341
6.3422198 7.5460939 1.0089434
7.5177584 9.5524168 1.0002053
8.0830116 3.9927485 1.0168906
6.7605643 5.079668 1.0161892
8.486969 6.8346686 1.0135967
6.1698847 7.2574248 1.0111572
7.8352771 7.4565973 1.0159794
6.1980553 8.5714664 1.0186117
8.0424309 9.3990774 1.0171788
6.5730267 4.0191936 1.0201974
8.3164415 4.2138386 1.0246378
7.1958241 5.0795465 1.0253506
8.3498201 5.2328286 1.0252782
6.2936502 5.37813 1.0251641
8.3631296 5.8347878 1.0288763
6.4638147 6.3504515 1.0272769
6.9919538 6.4749742 1.0203601
6.2676435 7.3032923 1.0205069
7.144259 7.3799481 1.0237746
6.1730833 7.3978925 1.0271666
6.361949 7.6200247 1.0227073
8.2883081 7.6566648 1.0275483
6.4263473 9.3182917 1.0287299
8.4218521 3.9950762 1.0383706
8.3164291 4.767386 1.0371978
6.2561188 4.9294634 1.03961
6.1950173 6.198904 1.0371546
8.3687057 6.1917739 1.0368067
6.310008 6.3897815 1.0319288
7.0612841 6.4673729 1.033579
8.3895998 6.8361502 1.0351491
8.3863058 6.9955115 1.0313448
6.2697802 7.2111712 1.038689
8.2862377 7.5299101 1.0353425
8.4562445 7.8180456 1.0326885
6.4657774 3.882 1.043328
8.485178 4.5840287 1.0415795
6.560648 4.6136875 1.048645
8.2127542 4.8409986 1.0495137
6.3069701 5.3328629 1.0464079
6.3406196 6.3576179 1.0422882
8.5014887 6.5857615 1.0452378
8.4800215 7.3038597 1.0497936
7.2826295 7.5759473 1.0421563
8.2387209 9.2649727 1.0469638
8.2172585 9.2867966 1.0425929
7.185183 9.4403362 1.046613
6.6888142 3.8455157 1.0596882
6.5207677 4.5101109 1.0546398
6.5057654 5.0699205 1.0544643
6.4795718 5.0717978 1.0501686
6.1968861 6.0644035 1.0560672
7.9355345 6.2613516 1.0528631
6.2621441 6.3209119 1.0551739
8.477499 7.8606911 1.0530027
7.8395805 3.8323326 1.0661271
8.1444187 3.8745198 1.0607032
6.3399658 4.6315656 1.066909
8.4336004 4.8417606 1.0660434
8.4096823 4.9842072 1.0607986
6.3033915 5.7479081 1.0607671
6.1750283 6.1196351 1.0677686
6.1755338 6.1805801 1.0696182
6.3911204 7.8972144 1.0698336
6.1922088 8.2114964 1.0630975
6.5618591 3.9660051 1.0717845
6.4610882 3.9822328 1.0754508
7.6185989 5.0654879 1.0793366
8.4830265 5.332222 1.0701076
6.1728945 6.3632545 1.0794015
6.1470823 6.5159287 1.0756385
6.2721567 6.5359964 1.0702815
8.3644075 7.8103042 1.0757552
8.4579792 8.2158899 1.0736477
6.2351551 8.5573196 1.0778258
8.3237553 8.9985962 1.0749167
6.7748065 9.3180761 1.0748401
6.7889161 9.3421183 1.0709759
8.3086395 4.7823038 1.085381
8.3631296 5.5313439 1.0839053
6.1805387 6.8728766 1.0869002
6.8833971 7.334178 1.0892758
7.3953528 7.4043961 1.0857551
7.2429848 7.4119067 1.0848551
6.3927174 7.7063026 1.0845566
8.3540573 8.9078407 1.0817922
7.9689202 9.1899195 1.0837767
6.8477497 9.3009977 1.0861177
8.2527199 3.9234304 1.0944264
8.3164988 4.3226137 1.0970887
8.3370419 5.835423 1.0941602
8.30896 6.4271255 1.0982578
6.2823825 6.846746 1.0912178
6.3938727 7.5865898 1.0967369
6.1963258 7.6345854 1.0987463
8.2349863 9.0509987 1.0980376
6.4499292 9.0778618 1.0951607
8.2600937 3.895951 1.1004703
7.1562438 5.0578852 1.1020736
6.1787014 5.9266992 1.1034436
8.334506 6.3965278 1.1011939
6.3000107 6.5296478 1.1014624
8.288228 7.3635874 1.1029508
7.1829991 7.3961267 1.1078634
7.3122525 7.3963327 1.108786
6.5878077 3.8689787 1.1117364
6.5642538 3.9828954 1.1105845
6.3397045 4.2160544 1.1196893
6.1809912 4.5073681 1.1163416
6.3927364 4.6141715 1.1114216
6.5373707 4.7630334 1.1160368
7.1255016 4.7815681 1.1120534
8.3237438 5.7961855 1.1129396
8.4770746 5.9720469 1.1112924
6.2966266 6.3178387 1.1160572
8.4653168 6.9458885 1.1170753
8.2890549 7.3335962 1.1151443
7.9202733 9.1614456 1.1123472
8.1981173 4.763041 1.1256154
8.4764767 5.7863183 1.1234294
7.1117883 6.2923827 1.1260655
7.6916909 7.4345002 1.1257279
6.469934 3.8866489 1.1343268
8.1645203 3.929431 1.1318934
6.3737602 3.955359 1.1368937
6.5614624 4.0578313 1.1393448
8.2388859 4.7628384 1.1301146
8.3194199 4.9799538 1.1327235
6.449522 5.0422382 1.1313566
8.3824596 6.2482967 1.1334321
8.4620848 6.561799 1.1372859
8.45436 7.1138191 1.1317909
6.9386568 7.3452682 1.1397114
7.2606058 7.4010735 1.1343567
8.081749 8.9148197 1.1382793
8.2280064 3.9114959 1.1496631
8.3759766 4.0160947 1.1440867
6.5431008 4.0629611 1.1447157
8.3609896 4.893527 1.1417018
6.3224325 5.1690521 1.144255
6.3443122 5.7896476 1.1490121
8.2997704 6.148447 1.1495801
7.5905123 6.4319491 1.1408033
6.2107658 7.2025099 1.1467795
6.9550509 7.4053521 1.1435287
7.3795996 7.4142604 1.1405065
6.3053436 8.5847816 1.1447506
7.6493459 3.8240218 1.1572831
6.2048092 4.879858 1.1569494
8.3359575 5.339766 1.1591191
6.3289614 6.1656961 1.1543566
6.9500198 6.4264226 1.1558456
8.2880201 7.2622194 1.1596723
8.2906818 7.7407622 1.1584151
6.2882967 7.8484015 1.1522133
6.4555383 8.7651215 1.1570542
8.1097736 8.8354626 1.1518207
6.6277542 8.8652306 1.1552066
7.9673262 8.9380655 1.1578985
7.6046429 9.0800514 1.1583381
6.3869896 3.9980559 1.1603158
6.2310567 4.0314412 1.1618274
7.0626378 4.7682266 1.164301
7.579536 5.031189 1.1654155
6.3328114 5.4868956 1.1605282
6.4711003 6.3486948 1.1606518
6.3413167 7.3956966 1.1614598
6.4827933 7.4304314 1.1686261
6.2332706 7.7532434 1.1694162
6.2551441 7.8533621 1.1682067
8.4057293 8.1997576 1.1662101
6.383307 8.685791 1.1644728
6.5035391 5.0143881 1.1766486
7.9824643 5.0330567 1.1772212
8.4701376 5.2897367 1.1728562
8.464426 5.5801983 1.1702499
6.8500133 6.2247224 1.1759439
7.1456633 6.3435125 1.1707284
6.2082 6.3563461 1.1701604
6.212276 6.5222998 1.1708374
7.0235019 7.4131346 1.1731119
7.4594145 7.4204359 1.1763809
6.3203611 7.8045874 1.1729465
8.3509016 7.80443 1.1756277
6.3693357 8.6013794 1.1744703
8.2183886 3.9906464 1.1878757
8.0993328 4.0087829 1.1850429
6.2247472 4.0867801 1.1826848
6.3392949 4.0861173 1.1856722
6.3394227 4.6014681 1.1892323
7.3816595 4.7645097 1.1860051
8.4220095 4.803659 1.1878605
8.3572083 4.8868032 1.182959
7.9898014 5.0299139 1.1819825
6.3373604 5.6189308 1.1858573
6.2042842 5.7154927 1.1841581
6.2846203 6.2322707 1.1890042
7.9272432 6.4166183 1.1825901
6.2504501 7.8892975 1.1842353
6.6037993 8.7420692 1.1809143
7.2097745 9.0089531 1.1831534
6.2052736 4.7344637 1.1965563
7.0278816 4.7593327 1.1993785
8.3194199 5.3891807 1.1906134
6.333602 6.0224724 1.1967192
6.9075794 7.3467989 1.1972513
6.4838705 7.4640856 1.197323
8.4150066 7.8235149 1.1919518
8.3358784 7.8395014 1.1952981
6.2658148 8.0869827 1.1968752
7.9355979 8.7963448 1.1981903
7.282136 8.9822817 1.1916257
7.1380935 3.8212106 1.2048731
6.2953281 5.3178544 1.2012374
8.3605947 5.4288483 1.2089252
7.8346958 6.406888 1.2095413
7.026885 7.3817139 1.2080367
8.1904583 7.4950614 1.2086463
6.3963852 7.6895881 1.2066578
6.4603586 8.5259132 1.2036569
7.8976774 8.766818 1.2073058
8.1852961 3.895071 1.2143502
6.3399558 4.683465 1.2106525
6.2971354 5.7780666 1.2177901
7.4434242 7.4592886 1.21754
7.9237332 7.4682293 1.218547
8.3968267 7.6246834 1.2196341
6.4023628 7.8104153 1.2139699
8.0890875 8.5484486 1.2135005
6.9293628 3.8355334 1.2231616
6.8127723 3.8478062 1.2260355
7.7438064 5.0005436 1.2243447
6.2974958 5.2504539 1.2206185
6.5845504 6.2125807 1.2258343
6.2652526 6.396162 1.2250915
6.7117968 6.4010434 1.2252204
8.415576 6.4719977 1.2247481
6.2512236 7.2466698 1.2219113
8.3592291 7.7218046 1.2247511
8.2700901 8.3365908 1.2262872
8.2057667 8.3643293 1.2299355
6.5690689 8.5061512 1.2212659
7.2875433 8.8304634 1.226393
6.387424 3.9562576 1.2392173
8.3622189 3.9825921 1.2334538
8.4405556 4.1798148 1.2330723
8.4299984 4.8185015 1.2302146
6.2991514 4.9874573 1.236836
6.3373604 5.1759882 1.2304516
8.1397877 6.4243464 1.2393845
8.396944 7.2125645 1.2350968
8.1357803 7.4941988 1.2335401
8.3466873 7.54848 1.2361568
8.289506 7.628572 1.2354614
8.3570032 7.6453929 1.2328237
6.398375 7.654356 1.2386572
8.3411789 8.1300335 1.238019
6.4866934 8.3818436 1.2316539
8.0396662 8.5076933 1.2305669
6.8459125 8.6816778 1.2335371
6.4588733 4.3353043 1.24923
6.2895145 4.8901405 1.2471709
8.4039106 6.159441 1.2481399
7.0918961 6.2558289 1.2495228
7.776082 6.3924537 1.248904
8.3421907 7.1256018 1.2406847
7.611619 7.4703493 1.2409838
7.4633303 7.4862051 1.2487824
8.1726656 7.4878888 1.2439675
6.5997763 7.5207472 1.246859
8.1082516 7.5387139 1.2478499
6.4476094 4.7233419 1.2568064
8.3153124 4.7765026 1.2542082
6.2110047 4.8405395 1.2551802
6.3373599 4.8764753 1.2585087
6.2508712 6.0564094 1.2520957
8.3049736 6.1523495 1.2522182
7.9219627 6.2040415 1.2507739
8.3916073 6.2621603 1.2528942
8.400651 7.3642101 1.254027
6.5983348 7.4662199 1.2560027
8.043582 7.4999266 1.2543139
7.0766521 7.5334344 1.252198
6.8466682 8.5695419 1.2570765
7.974864 3.8700368 1.269989
6.4579191 3.906004 1.265219
8.1777315 3.9040337 1.2628672
7.8132339 4.7403493 1.269536
8.4167509 5.1989675 1.267224
8.3789396 6.3246193 1.261652
6.3303628 6.4660606 1.2680444
8.3726234 6.931509 1.2682276
8.3158455 7.6466818 1.2635652
6.3168688 7.7730694 1.2695285
6.4114952 7.8286257 1.2669928
6.9502344 8.5628061 1.2690924
6.9241757 8.586504 1.2618752
6.8798461 3.8478127 1.2762408
7.2024088 4.7427573 1.2731009
6.2183499 4.7670097 1.27335
6.2569914 5.4957638 1.2789497
7.803246 6.3841448 1.2717289
8.3964052 6.8933344 1.2723215
7.4773202 7.4969263 1.2712404
8.3111391 7.8208947 1.2734946
7.6049075 8.5524292 1.2796576
7.0014544 8.578126 1.270274
6.9899569 4.9838624 1.2894595
8.3203564 5.1758919 1.2813556
6.2511067 5.2635832 1.2823544
8.3313837 5.7732887 1.2848082
7.0532823 6.2044239 1.282501
7.0731034 6.2269831 1.2859504
6.2636232 6.5997415 1.282981
6.2749362 7.0108151 1.2853465
7.5575519 7.5073013 1.2873396
8.3771009 7.5028872 1.2817245
7.6122131 7.5102282 1.2894447
8.3553181 7.7744713 1.2884715
6.3237042 7.8652582 1.2884564
7.8459997 8.3915205 1.2899141
7.2337132 3.8298829 1.2978007
8.3518801 4.8896437 1.291039
8.3517685 5.4552441 1.2905681
6.3134508 5.6865234 1.2996337
6.3240166 6.0045633 1.2964412
8.3747177 6.1890855 1.2984471
7.5698652 7.5110788 1.2907917
6.1313429 7.5826845 1.2954565
8.4021444 7.6314592 1.2969489
8.3092995 7.7837257 1.2942208
6.4791269 8.1432266 1.2927613
6.7456656 8.3543863 1.2911695
7.4725571 8.5130196 1.2910047
6.535738 4.7107754 1.3087447
8.2911539 4.7896891 1.3001589
8.3259392 4.9950504 1.3082196
8.3639565 5.2182026 1.3097656
6.3242464 5.239994 1.3071169
6.3041468 5.3977246 1.3025154
8.3372517 5.4799047 1.3058615
6.3182774 5.7298746 1.3078256
7.5272579 6.2522802 1.3065766
6.9724488 6.3689084 1.3036196
7.1091537 7.4938946 1.3059627
7.8839846 7.5294561 1.3084536
6.3669024 7.6314454 1.306089
8.389884 7.6520252 1.3031244
7.6846113 8.1649284 1.3072423
7.7458401 8.3215427 1.3083029
7.0477529 8.4012117 1.3050619
7.2778559 8.4467201 1.3055986
7.4550467 8.463068 1.3006079
7.2585649 3.827013 1.3127813
8.1140757 3.9005556 1.3125579
6.5972414 4.7085123 1.315412
7.699945 4.7107749 1.3109664
8.3565845 4.8803616 1.3121691
6.2224183 7.5994692 1.317487
6.3372455 7.767818 1.3168993
8.0635347 8.1644812 1.317337
7.4965491 8.1988525 1.3180363
7.4208241 8.37885 1.316399
6.3401918 4.7016048 1.3220665
6.2538347 4.8879976 1.3219614
8.3883076 5.1140251 1.3209182
8.3860979 5.5134163 1.3227539
7.5016575 7.5107408 1.3224814
6.5065312 7.6172175 1.3257582
6.5070896 7.6286583 1.32636
6.635057 7.6513104 1.3263581
6.7815342 7.8553853 1.3283103
6.9446759 7.8727055 1.3274992
6.4378018 7.9866037 1.3204072
7.6327105 8.0071459 1.3293606
6.3722224 3.9337454 1.3340683
8.3085651 4.3188252 1.3315501
6.4913144 4.3825135 1.3330576
7.3391981 4.7061496 1.3327241
7.02244 4.9692678 1.3390186
8.3403807 5.0938845 1.3339951
6.2824669 5.5846825 1.3365096
7.854754 6.3556676 1.3389926
