# .PCD v0.7 - Point Cloud Data file format
VERSION 0.7
FIELDS x y z
SIZE 4 4 4
TYPE F F F
COUNT 1 1 1
WIDTH 1560
HEIGHT 1
VIEWPOINT 0 0 0 1 0 0 0
POINTS 1560
DATA ascii
22.518894 -36.309761 10.954694
16.6597 55.168945 7.7542763
21.169968 53.492874 36.517879
-7.1349487 -22.565945 5.9787779
28.197783 -48.482903 21.791103
23.107767 73.982925 22.401783
-30.026304 28.962982 20.814213
21.479492 -53.936722 15.457888
19.12536 -5.4359026 7.7103291
0.56396645 -2.5516815 17.309612
-31.510622 -55.475132 1.9754326
-24.843077 -23.360554 34.345615
24.382986 36.325264 16.94231
-8.5106258 5.2478452 17.832355
-20.393675 43.14312 -2.3112178
6.3186994 59.621475 36.140343
-15.293149 7.8261375 7.1415224
-27.454342 13.735592 11.421902
-30.374619 51.289883 20.67104
-27.747742 -18.923998 25.328064
-25.677349 11.274364 31.961033
-27.68996 -18.453119 19.720869
-11.159351 -19.713049 3.1988583
-2.0137157 -49.280769 4.0524225
19.066954 -68.066719 19.754904
25.950012 -52.03727 21.495914
-25.400356 -58.303772 17.279099
14.08915 57.853413 6.7858686
-4.340621 -25.866795 17.603813
16.6597 44.716885 14.735361
24.660238 -8.2326775 16.695627
18.105026 45.463837 31.484264
7.4344521 15.939483 3.7051587
-5.6862702 64.511971 34.069046
28.636816 39.835522 -0.89771473
24.592388 -17.626291 3.2272332
29.266577 48.846046 25.263176
-27.754133 -12.598671 25.053848
-13.924473 24.861702 3.8636539
-17.452045 -60.558529 15.195536
8.4892101 44.131042 30.422241
9.5010624 2.6876073 24.042736
-27.606174 2.9750571 15.768991
1.6503906 7.5933614 47.931965
14.915829 -45.136806 30.039028
-22.469379 -36.951073 6.3883238
19.673668 -75.775909 14.567388
3.77635 25.124334 3.8713207
19.617392 38.876099 3.8162525
-24.620697 40.873978 20.083071
29.976822 15.142733 18.75555
14.550463 -10.846169 44.684216
-14.31704 52.77293 23.950483
-15.095251 44.099194 24.536564
-10.631999 -48.899132 4.6389856
-13.139752 -38.857761 25.370066
11.121499 -0.5693264 46.557671
-12.925202 -26.260208 24.815657
15.83585 -7.087419 3.3705363
-22.061569 -5.3098907 5.8184319
11.697585 62.981346 32.947216
8.0886822 40.053261 4.8287077
-5.1493797 -12.25238 5.8821964
10.37879 -21.062901 3.1805038
-16.059502 40.985649 24.020752
17.693684 47.956978 31.236271
14.307175 36.285305 16.712873
-18.519436 18.280809 6.2377415
-26.664106 -37.502434 9.6211615
19.613234 40.511192 2.7937186
7.178278 -28.493351 6.0342941
-25.10989 -15.900972 24.170889
12.60003 -78.134834 16.575029
24.703922 -3.3059716 17.301552
25.72987 -6.8371544 5.8324594
27.219219 42.495842 2.2413521
10.632 -47.093719 5.2772536
-27.308281 -2.344945 30.452091
-13.996241 72.997955 7.8704977
-13.299314 -3.6136811 5.8028526
17.359745 -73.631424 19.885345
-8.3792152 76.479652 25.798662
-16.27087 33.41811 14.819409
-10.632 -45.972229 6.495491
-23.060776 70.935768 31.490242
-29.242416 48.969276 25.346767
16.72015 -55.216908 3.6365247
17.77449 -43.869587 20.450525
-12.598865 -20.398279 8.9182968
-29.016607 -17.442097 12.925373
-26.118319 -14.749257 3.3840194
-27.982201 -0.65629911 4.9605961
27.473797 -23.379606 10.763269
-23.893988 8.2380905 12.029184
28.035761 19.170275 9.1536121
9.3423166 -77.61515 17.458261
28.336658 10.057119 29.014845
-5.5399714 -48.907677 30.02215
-9.9692917 16.304651 15.285525
-2.3858223 62.921753 14.790865
6.4103446 78.867371 13.316114
24.753683 3.2541184 5.7397738
-13.748648 32.028709 13.040558
23.333778 -8.1766462 37.717869
10.632 -51.833557 10.571533
24.709814 14.221182 29.539425
-25.487902 56.093086 29.50206
28.895231 -49.399113 4.7342205
8.2029591 11.73373 3.6739759
24.376764 71.492584 29.538643
14.297714 5.014915 32.804573
-9.6737556 16.186758 15.07501
-27.448906 -21.930347 7.5286889
-8.5582876 -57.915466 28.838612
10.518884 47.938595 41.082684
14.293367 -7.937664 5.842567
-24.110479 -1.1341074 36.162766
17.684912 -3.2696309 3.4224494
-11.334805 57.800018 36.595657
24.132832 -73.137596 12.727838
16.61302 -11.595627 5.876164
-18.250856 5.2166834 17.62442
18.27878 -65.629219 21.238369
-13.143851 32.399384 14.076941
27.581648 5.0415564 7.9841576
6.0190606 62.492897 34.703789
20.397308 18.109488 43.972122
-24.653015 7.3076315 22.228651
18.003706 18.215578 46.269119
-31.761129 -56.561832 3.0191736
5.3199973 23.09063 47.034916
15.00719 -34.330399 3.1151428
18.699865 6.0484419 45.974979
2.0397413 11.002346 3.6685534
4.7976317 62.565624 34.753487
28.355015 5.0340319 10.093592
1.8828268 44.48259 24.531147
18.196695 -37.140228 13.351312
28.143211 57.267662 15.13101
24.770187 -8.2025118 19.61235
-23.617481 15.277973 7.8597131
23.464298 -19.29878 36.43578
-5.1292701 6.0485487 22.120506
1.8411522 28.133593 10.617249
16.601858 -30.169056 18.140425
-6.6625175 24.316372 3.8477356
-10.62332 15.787308 9.0014229
-12.638176 30.317383 45.736656
19.614464 -44.459591 18.669083
-8.2849369 -20.361214 41.598679
1.3916602 -17.872114 8.8600082
-2.525347 -4.1439075 7.5927439
10.632 -45.070435 8.5649157
20.412224 -48.046661 17.734346
10.422586 -22.582897 5.9789362
-6.4573174 47.490128 5.6464057
-11.73891 76.142441 28.97682
-19.920856 -6.8790154 3.3733704
-23.658401 32.945644 19.682503
15.850016 11.067165 7.1149511
-4.9769382 -64.916786 4.84062
26.384239 -41.07061 28.421555
-28.561306 56.315781 24.032785
30.478819 39.656769 10.643229
-29.174831 41.181213 -1.5761921
2.5231738 41.712273 43.649422
-16.685526 -42.117004 16.386147
-24.228462 5.4479051 14.929848
-24.925943 55.339859 32.223106
-10.632 -44.276253 13.476197
-0.53022665 64.032616 34.404144
-6.3151865 -25.625694 3.1184607
-27.338196 20.803333 11.83311
-22.528868 -61.414803 13.120449
-26.044132 62.348339 11.670873
20.564297 -64.489319 25.644547
24.120346 -42.453156 -0.98901284
24.714561 12.589783 29.96526
3.7281227 -2.4219017 47.086895
9.147378 21.344841 7.2475576
8.1543388 33.876938 45.705616
-19.701189 -9.1546974 5.853745
-24.945629 54.788132 0.90101749
11.586131 -58.524078 17.15893
-11.252132 1.1022025 46.65012
13.929771 -71.748466 4.88345
20.548876 32.346203 14.040643
10.632 -55.453381 4.9311142
-17.934654 75.762779 9.0255194
9.6775627 3.4398758 46.845638
-16.908821 -74.123558 10.45932
-15.81671 52.842213 6.2348776
-19.324642 -42.89167 19.716892
-21.24481 2.9366679 41.421516
9.5470524 -34.991409 16.354368
-10.242705 -35.913136 11.304938
-20.196098 -67.496971 4.8713255
-28.548925 -59.884373 6.5613346
-22.544865 3.3399305 16.996803
24.614754 -7.3481364 15.388107
21.937885 14.103115 40.395142
19.671038 45.281822 21.574753
-22.93947 1.9337555 19.666506
30.077816 16.54937 21.905197
14.459103 2.1909711 22.621311
28.195442 -32.19239 27.503883
21.074886 7.9888444 7.1022534
-20.349976 -55.159332 -1.4941621
-20.832132 25.010826 41.86216
5.2291913 45.470627 30.776882
17.95545 8.1742334 32.170643
-27.633423 -12.489291 11.613869
-23.721186 68.847343 17.697954
8.5676813 13.701632 7.123826
9.7767506 52.391621 6.1853337
-29.881178 50.786629 16.834417
-25.621422 -36.279289 11.213513
-5.3480401 -11.191503 13.528595
22.658779 -31.726585 5.9962358
-5.5135498 44.676064 24.528412
7.7377758 6.9465775 7.109993
7.1666098 -27.053276 26.314512
1.4306574 -22.168915 15.368631
10.699522 34.84713 45.121689
28.105942 28.501297 10.089057
14.011015 -65.017433 26.857273
-24.280836 -24.53756 24.148525
-2.3151104 4.2346306 47.709366
8.4707422 1.9872171 22.791172
-23.945663 -37.114914 4.8775225
-16.593868 35.054245 16.01186
16.046928 -10.436993 5.8655224
-12.897956 -69.190887 25.375057
-0.69556999 -4.7304306 3.402586
16.967939 -54.195412 13.812154
-16.164309 -25.332039 25.103039
-29.878199 41.397125 4.2697678
0.74721014 -2.2637753 47.248848
6.9344153 37.104538 21.100756
-19.671499 54.780041 2.5091174
25.586473 -7.7277174 32.81678
26.008797 -27.523327 31.320934
-3.6580276 -1.5280049 9.0613384
4.6700387 38.202477 44.719627
7.7929001 -13.519075 17.524078
-0.060441285 9.5316305 48.11731
-18.574165 -48.447857 21.459488
-19.646797 -45.525883 29.766151
-7.5856843 -48.960537 30.000687
-14.267607 -27.305908 22.931725
-24.448595 55.384747 1.4984344
-4.6298351 -17.704725 3.2261667
-16.220652 -5.7661905 45.224415
-0.25155979 -15.157416 11.46638
-0.75102091 27.655664 47.123436
-4.2385402 -30.023262 13.169668
-5.0975442 -34.460377 28.890715
8.7300014 46.275578 5.5128632
24.043261 -20.749939 36.346672
23.957603 -72.298645 10.622275
21.274706 -38.394604 3.6027546
25.101414 56.48365 32.161213
19.593513 38.602638 11.056397
-9.0037146 63.78294 13.401653
-19.63081 24.522346 44.845142
-16.6597 53.016041 13.523113
20.009388 55.519604 17.489563
-12.694462 76.516922 25.739614
-16.6597 49.196758 6.2373919
-24.4867 20.094889 28.243423
25.92765 42.504005 -2.209316
21.428137 -65.161377 23.701309
-9.2651472 -28.354902 19.07317
-9.1085491 -49.219028 4.0481148
-11.951444 20.052691 6.6061816
-26.292915 39.722237 14.632324
24.592302 -13.228611 13.617826
-10.632 -54.130241 19.458897
17.654696 64.456833 33.541992
-27.464037 -28.139921 3.9774857
25.254061 -51.077026 27.633825
10.032045 5.1980691 47.28228
24.818476 35.566578 15.140863
-1.5481875 -5.3262477 46.739037
-12.255229 78.754311 15.436373
-11.590381 -78.767235 14.967245
-25.035805 -3.0649593 25.329094
16.361128 52.318718 6.1773181
30.393032 -45.572582 7.2348528
16.06012 -72.392548 4.8844867
16.576689 62.649147 15.230624
-30.522228 43.503231 19.084763
-13.211176 37.689533 44.264225
21.845036 46.585793 17.710329
21.781292 -15.351471 8.5983286
11.677921 7.4495335 28.620834
-30.08683 25.833647 22.840458
-21.623936 -56.82502 13.453026
-21.888777 -57.636932 0.27840546
27.647011 -7.149148 13.026855
-16.6597 35.84409 13.503625
-25.813643 3.4262094 31.953747
10.632 -36.390583 8.9431067
9.8692932 -33.450638 3.0987833
28.072893 57.720894 5.3246603
24.760225 1.6518198 19.728287
0.96211439 0.16687429 10.255116
12.63291 12.064875 46.787525
23.662523 -19.515478 37.235085
21.322441 73.578003 28.797619
24.821175 -8.9444637 5.8518143
-9.8714924 -29.320314 3.0682228
4.5478673 -25.498209 26.167091
6.2595758 -33.542286 16.742092
2.687458 16.668177 3.7105613
16.906172 16.780867 16.094898
26.812439 -19.952795 5.9543028
-19.883722 15.69879 6.13515
15.661064 -68.002441 21.805508
10.342141 52.890312 6.2401657
15.557835 6.6463089 24.92841
14.286102 -19.300053 41.26376
26.145454 5.6713243 5.7367315
-0.34816432 32.540241 14.614071
0.63162887 -1.2439549 47.411644
-19.76897 -53.676987 1.6578318
-7.7872581 16.23567 10.261816
-9.8932753 -36.625038 11.879731
-14.564068 -30.363577 34.938679
-0.67132521 10.477578 3.6646626
-19.614244 49.72543 3.6192033
25.103519 27.404295 33.291935
-20.535456 48.657265 20.956612
0.081382513 13.264002 3.685322
-19.549963 62.003334 7.0122223
-11.770702 75.799881 31.143059
-17.954363 -26.266422 3.1097484
30.504593 54.976311 13.782841
-3.4346521 -4.557591 46.613949
17.402382 7.8201642 7.098752
7.6502776 -65.35923 4.8458853
-24.179382 26.473026 27.524567
-18.366863 72.270134 7.7969174
26.149532 11.186427 32.042221
-13.335766 -37.145065 13.208513
-24.660233 -40.838634 -0.1689752
10.632 -61.200623 6.5652537
10.632 -60.058144 17.09667
28.759859 54.846809 23.260885
20.288578 -35.287212 28.171143
18.726704 -28.015877 6.0298223
-4.7308311 46.710571 5.5606918
22.408571 32.296608 13.271683
-25.450378 55.753662 31.395128
-22.737843 62.341633 32.899334
-9.0475597 -27.898216 6.0287199
5.2497234 59.736679 32.506088
24.055489 11.287911 7.1219435
-19.535519 47.733147 8.9331484
-26.166107 45.499893 31.792461
-4.050549 23.824741 47.020863
18.45816 -1.1406076 45.393669
-20.969608 46.313049 21.888706
2.2630463 -14.38572 5.9021621
26.890074 -67.736557 11.821194
-9.4318256 48.742455 40.842655
-29.920712 33.665012 14.882556
7.1795292 -68.185989 26.365437
-15.417871 77.790909 12.345027
-16.039991 -73.426323 18.731621
-13.528917 15.615337 8.5179996
19.826576 -47.678581 1.3254836
2.4111941 31.74135 13.720086
22.53882 -28.640938 10.614323
-25.565945 56.617008 3.1436162
20.254156 19.220318 43.898865
-3.4595816 1.9844322 47.095444
-29.3009 -38.456337 16.772228
23.573481 69.25386 21.642891
-27.169638 65.005943 24.884869
30.256779 40.773575 9.9490261
-25.182114 -21.990074 33.920177
-2.6258063 6.8419771 3.6171768
-22.293259 73.275032 28.368523
5.8028302 16.43504 10.932483
-2.400423 7.9025183 3.6404247
-18.446474 -48.832951 2.0218561
-16.14418 7.7921863 7.1412029
5.5120478 -0.57514977 5.7749443
-9.8064861 20.714071 47.398785
-21.667833 -22.755602 9.088727
-8.6856499 64.528198 12.199446
-27.523525 -20.777187 11.218749
-24.008728 -48.317566 21.833683
-2.1855929 55.941093 38.09483
7.819551 -58.021683 28.82831
-26.47842 42.431549 23.660164
-3.2412493 -7.8321586 12.054904
6.94628 -39.744549 25.454964
12.551372 0.68229783 14.868826
16.546227 -59.094971 12.601509
14.157097 61.826881 34.004452
-24.694977 5.4989319 22.357004
12.305327 -76.028351 6.8773861
-28.773376 -9.5861483 11.694283
23.249996 20.281536 37.601982
3.8720963 52.422928 39.501602
9.8845644 79.580803 18.017761
23.642292 21.680588 15.424694
-29.622301 -48.364609 21.83083
19.681759 20.462772 44.960495
15.169416 -30.899597 34.486229
-2.5780797 4.8512459 47.19907
-9.2674541 40.90564 4.9224281
13.844142 -47.345169 29.933197
-11.756002 16.735518 3.7110605
14.598604 5.1335707 17.069818
-24.698561 -56.63409 12.312053
8.968647 62.76659 34.373756
-19.551908 19.00046 45.131416
-3.5952435 43.201675 24.529444
10.205008 -51.839626 29.694962
-30.508411 51.016304 0.75829816
7.1152153 -68.647644 26.158913
-22.68956 68.069366 11.501676
-0.14604163 -46.093487 3.8300505
11.83394 37.448364 18.499504
7.8043275 69.362579 7.5497847
-27.354595 -27.775669 4.4944272
25.143885 34.703182 32.758739
24.758049 8.266901 26.366222
15.086119 16.069475 9.9231415
-26.890781 33.622047 21.88583
-7.2193341 -3.5922225 14.567277
-9.4383144 -75.664398 19.62748
29.740417 36.383823 25.538372
-20.947998 -47.053017 21.514091
25.733757 -40.180878 1.0910009
-9.9453506 -29.056469 9.6857004
19.583136 51.111137 12.756459
-25.864231 -20.335171 30.878529
-19.662731 56.850346 8.4153538
-8.3821611 -37.678555 3.2429557
11.405237 -39.227924 16.511055
-15.473286 -11.862211 44.289013
3.7212045 -1.5096364 47.228065
-8.6745749 -23.588165 28.125177
15.877083 4.3989701 3.5636239
27.554485 6.3231521 30.380186
5.8935843 52.936085 31.757023
-23.825182 19.448753 36.440475
28.271231 38.29784 6.9963837
-25.371107 23.635025 8.3843231
-25.326612 4.6707082 32.941463
18.485973 3.1465764 26.159584
-18.625002 -4.7040706 44.878616
6.8312187 36.566708 20.299299
2.2288239 -35.51252 3.1078701
-13.071644 45.348206 30.234926
22.509527 3.0118182 39.032082
3.0646095 -26.212872 3.1104765
-2.9945538 19.239338 47.912247
-4.4193816 63.622353 13.660702
21.487808 12.219138 5.9968948
-1.6464036 40.751129 26.980061
-18.544106 1.7723153 5.7533832
16.72094 -20.786346 5.96211
14.017747 28.583202 14.318942
18.626293 76.725311 13.33091
-23.508541 69.158722 27.266331
-1.3830928 -5.0500026 18.154631
-29.96701 -59.491882 6.4997959
17.16605 -2.6064882 5.793602
-18.195688 -28.303291 27.991434
-14.190986 -21.708849 40.054691
11.210205 -55.120758 19.818581
19.188334 -35.595482 4.5767536
27.441906 11.888698 28.505301
22.498211 -36.202106 10.480513
11.992183 -30.956423 17.616419
27.169699 25.447826 30.969719
-10.219921 6.2171512 22.912497
-27.886116 13.157982 5.9318247
-16.657303 16.148293 14.275877
-22.983162 -56.847809 19.400127
-19.459129 -42.941196 -0.64352405
-19.707869 37.677292 17.520485
-17.974773 40.811111 42.690411
-18.44589 10.447764 5.9265127
7.3750901 7.749001 30.078579
-5.9523835 -38.356232 28.892654
-19.880075 36.702457 17.633163
-3.4467926 76.463486 30.431927
9.3267956 62.886066 14.848432
-29.291035 52.604927 22.626122
-13.373554 38.794186 43.947773
-30.342663 35.681953 19.108307
-27.3375 20.823444 11.841278
4.368844 20.157108 47.251518
24.841507 3.7500319 25.592358
-29.366377 2.4828765 14.439367
20.696535 38.303982 18.915134
-0.80112344 -11.439156 45.711655
-27.506605 -24.104971 13.732093
-23.552145 19.554964 6.3591285
2.3768349 16.656918 3.7104778
-7.95121 29.769871 4.0069284
-2.9178877 79.766289 20.283012
4.382802 -40.831654 30.442345
-18.2763 -34.436855 3.1171224
25.766607 -19.567516 31.207977
-19.336203 8.9085197 5.8653541
-20.56525 -7.2213931 43.469395
-15.604729 -48.884552 29.729843
-2.6926794 0.15728644 15.311341
4.8283257 13.83243 7.1284332
19.945295 5.8846507 31.986408
17.511517 -55.75853 19.854404
-23.49297 -59.75663 15.94503
18.277088 -60.952168 14.272947
16.659698 39.985374 11.18078
23.761236 31.193327 20.809418
-9.0796909 38.818966 19.480022
-19.805981 18.809534 16.747498
-20.28756 -35.530052 4.3039484
9.9114571 62.444275 7.0363917
22.779736 39.384823 38.46904
5.8985586 -17.171082 8.7864904
3.708241 63.304695 32.899094
-4.2944789 -18.147797 10.584692
13.579209 -51.976879 29.512766
12.323864 -20.333344 41.156406
11.389166 5.3775578 18.69791
26.92454 -17.833059 3.7490606
-1.8863409 72.896896 33.676277
26.565506 44.228413 31.564142
5.5129905 27.616333 46.640659
-27.423822 14.363656 23.519222
28.190634 8.0963535 8.1006975
-14.006462 24.363764 8.7460403
27.110723 -41.372643 11.340546
-3.6649747 -34.506638 3.1184199
25.909403 64.277824 30.252831
-17.463392 36.019268 44.107964
-24.294811 22.798695 24.781895
0.25200823 75.812584 29.934759
26.180542 -39.849808 28.679577
-5.0117345 43.54998 42.947292
19.121708 7.875267 30.699785
-10.127726 65.940498 11.380381
24.727358 -34.620758 20.341873
29.000023 -50.310215 18.584681
-15.218422 -3.2979279 5.7999525
18.32366 74.510117 7.9303889
29.93969 4.4994903 25.860161
6.3114958 68.6548 11.535032
-23.478153 37.2276 16.889679
-29.851254 48.807755 23.584158
18.870838 -47.071472 2.4347174
-18.11055 74.002571 31.405941
-0.43915483 -5.9863 7.770031
1.1573795 38.945747 23.850368
-22.904942 57.673332 13.724316
-18.739391 -0.73253155 5.7763896
10.286146 -32.44735 34.425308
26.635763 -60.115791 12.925583
28.799997 -44.519207 20.500195
-26.031672 32.645912 4.0908823
20.452356 -43.283035 16.397383
13.514503 78.574432 13.965951
-28.17576 -41.74807 26.5802
-3.6986325 -3.4531343 12.734362
3.1096425 14.49605 47.95816
-24.402134 21.822821 27.907017
-19.635559 50.764133 2.5038533
6.8364339 61.366989 35.217438
32.034256 -40.096039 8.2263794
20.129944 -36.729736 12.306192
11.301999 -16.371347 8.7025337
17.721014 -70.073189 19.462061
-2.6513367 -13.980307 5.898365
-28.637894 30.285427 28.370903
9.9924374 66.741798 33.817917
-12.262136 58.312096 20.539093
24.120281 31.025999 35.138912
-17.088228 6.1257935 22.483355
-22.506649 47.616791 36.182899
-24.479744 11.721994 21.68848
25.457443 -57.563347 8.1155224
-7.4374561 -12.175327 17.77556
-3.6678054 76.723877 25.697762
-23.257851 50.824947 -1.7719182
27.744066 -11.59114 23.820538
-29.933659 48.863663 21.078712
-10.180157 5.3461518 46.86203
3.311398 -18.386675 3.2168941
-20.269369 29.903805 11.495918
1.6387122 8.0528765 7.1299496
-9.2106209 68.523705 33.751019
-21.464497 43.433289 20.581947
-19.177946 73.451332 32.247681
-24.06093 43.053329 20.741829
28.152534 -36.806808 27.102924
-22.856323 44.576294 36.740108
-5.8157835 4.9600844 3.5759244
6.3010445 -53.983879 4.3805504
19.068123 -18.156195 3.2200279
29.190437 -39.976639 24.661961
-22.581205 1.8927616 21.782665
-27.573864 -20.180595 13.906466
2.9871325 -23.872881 15.246655
-6.263155 75.962311 27.658947
21.275589 47.915276 21.636637
-8.7248516 62.755508 7.0550437
17.629938 67.173378 7.3333607
9.433073 35.886009 18.039339
-10.968596 23.177399 46.939156
-29.868385 -59.746494 11.225896
-7.6036797 -33.39806 34.054672
18.988285 4.2184281 30.219782
-3.9324594 21.493929 7.3215609
19.6364 49.082558 18.638172
-3.6482356 -28.796999 6.0364776
27.661976 -8.1377659 14.693945
-23.222065 33.632004 36.974216
-26.504105 32.248775 31.666187
-23.079723 51.293438 34.113777
-8.6100054 27.687281 46.508106
-24.186171 0.96808243 12.380822
26.190544 -54.780773 20.603182
-16.154139 -30.230412 9.8238211
30.008848 22.233467 20.25827
-3.9687653 23.332512 47.061333
-2.276087 0.02242953 17.124828
0.764184 -23.412476 3.148555
-16.77146 73.820984 33.482075
-27.346697 20.343662 28.096884
30.014688 -11.892572 23.454231
20.582458 -7.9636884 43.379417
-20.389635 42.89716 24.185722
30.154716 44.394779 14.77115
20.879147 -14.500101 3.2697418
29.884993 -39.21867 18.320858
-24.683714 -7.9493947 14.837569
-24.496309 -20.324076 35.659454
13.828882 59.399529 32.608448
-10.632 -38.396709 8.9277802
19.599457 51.210327 14.241114
-13.788038 4.8723731 14.390343
-15.999193 -39.554131 10.528959
22.238331 -27.46752 19.952765
-25.777666 41.753803 2.6351576
-12.268706 40.187244 21.079714
-15.159667 11.284597 5.9597621
9.7965288 -6.9673462 5.8336549
-29.629 10.872889 15.878771
-25.751335 -24.312372 3.1831453
-17.802549 -42.345284 11.794458
-27.575254 5.6220822 5.7347755
-27.365173 -37.567707 25.822329
0.87202793 2.3450589 47.206375
-7.8275523 6.8735738 25.977238
4.4040308 36.687904 45.080612
-13.756418 58.307655 6.8358135
-3.1552453 39.164467 24.1805
20.188055 -2.9231725 5.7965107
10.887432 40.482571 21.424988
-26.974867 -68.157661 7.2144537
12.190678 44.569695 5.3252983
-29.063185 -18.863342 26.766693
-27.641205 0.10233831 21.705585
12.438705 -59.170235 28.454876
26.833447 33.629112 10.467718
-0.40830898 73.901161 7.9631958
26.455158 38.988846 31.698328
-2.8794765 47.500549 41.619942
14.131049 34.038216 14.774231
-16.850849 -66.666229 25.903959
-20.499821 -33.115181 3.092545
28.04521 -42.458885 -0.47117239
-25.246075 33.053383 5.8805294
-17.122683 -7.3328471 15.119946
-2.6579218 -24.375847 3.1354556
14.181463 76.192261 25.822306
11.074596 62.893459 32.936665
-19.723183 -51.705029 17.487444
-4.7254429 60.414612 18.835232
-0.25616071 13.773358 7.1623783
10.632 -52.358337 9.9438801
22.801119 -35.519367 20.283751
-26.292862 35.63401 15.700544
6.6503806 70.70649 33.719841
24.534891 -12.623925 11.696182
-16.6597 36.980591 8.4491901
10.545651 4.8114443 32.032295
-16.610188 2.2196059 22.703266
-20.329863 9.6252689 43.999512
29.932217 11.156018 17.701023
24.426018 -30.911777 27.370544
14.772595 8.6149673 37.281364
28.485716 -27.105286 11.60133
4.195683 -22.627365 40.662682
30.576363 -45.514332 17.446842
-21.986961 38.776493 18.289038
12.783529 7.457839 28.658958
-21.037912 -38.701443 3.3569207
-12.683224 44.631325 30.595503
-30.516783 45.774437 20.428911
14.860649 1.9108934 21.819698
-14.890167 0.14254078 13.425171
-23.223818 -27.426695 19.792582
-19.604063 44.99485 3.8980331
-24.729794 56.676197 15.779743
5.7191696 52.631752 31.723501
-23.014879 -61.362122 12.642762
1.4574181 55.882805 38.147053
-1.6835275 60.794006 18.223211
-29.490784 16.904482 15.326063
-19.091587 35.248558 16.153479
-19.655024 40.046055 3.6409898
-5.9742565 -43.352917 3.6388459
22.519657 -71.251999 10.439189
30.663662 43.875107 23.103359
23.166349 49.714741 16.888065
-14.025383 38.833065 19.496506
6.9747005 75.744843 30.063793
14.871057 -27.363214 19.747154
16.627934 52.144108 24.337749
-28.302624 50.282131 2.4286392
8.7113066 6.8029509 25.653088
-19.416107 -25.246475 3.1236174
-11.349446 8.5518141 37.563126
-29.181984 -24.11762 26.157488
16.670929 49.353195 39.498909
0.7267549 19.407616 47.385056
-22.340643 33.105927 39.81646
-2.7539549 20.602793 6.8792324
16.093861 6.3123398 34.089397
-27.275238 -56.966457 1.0334342
11.208826 30.364292 45.839447
29.93471 -14.716513 18.99128
-3.7157059 32.854519 46.015415
21.936171 48.712074 31.395092
28.282463 49.799824 2.1844947
23.617865 39.261379 26.45023
-27.455631 -22.173977 8.2409382
26.050577 19.078194 3.7284298
6.7087274 48.267178 41.147911
-19.427126 16.365116 15.384899
-11.98719 -7.2009811 5.8358006
1.4027138 23.930897 8.5311823
-15.351792 -22.919659 9.1092129
-13.749563 5.2950506 33.86784
24.233192 25.886627 28.570896
-5.4981251 4.9576921 15.886455
1.5883532 30.109308 11.59792
-27.493156 -34.306023 27.824421
27.691067 -24.641699 26.371405
6.6650376 37.193558 21.233685
-29.649857 58.240028 10.099972
-23.895876 -44.36306 21.047142
26.933632 32.719204 28.800001
-25.081144 -6.3415613 24.310772
16.584082 42.543518 30.089544
-30.22821 39.69968 15.252127
28.239229 -51.23484 6.1480017
-30.524212 41.117455 18.406946
29.067095 -49.152279 3.7541118
12.555426 22.516354 7.8290548
-7.8896408 -14.940298 17.543179
1.2043791 17.897532 6.2225127
28.666843 -61.197922 18.425587
29.767139 32.104988 26.956306
28.578762 56.106224 22.124895
-20.592871 55.790012 22.092361
24.943317 -62.363258 8.2805023
15.350471 61.416756 17.218634
-6.5158772 -5.2268276 14.99323
-4.4372654 34.16074 16.767647
-30.083574 34.796555 19.239069
-24.47471 19.403786 25.406925
-25.86301 -38.586491 17.305738
-21.702055 56.336353 16.064711
-18.772709 -31.732651 17.322729
-27.320078 -64.834656 6.4250908
-24.050766 14.17484 16.460104
-10.492923 -1.245638 7.3227453
29.784517 9.9980125 16.837523
-8.8308077 41.741287 27.134132
-12.416254 -15.985233 5.9171429
-23.302811 -73.611908 14.457302
2.5500584 -32.731987 3.0854197
-27.95817 -39.88699 18.308773
-4.9128551 -9.8451958 5.8600874
15.071916 21.432472 16.068539
-30.214264 48.190128 6.2277541
19.693253 57.648994 13.891986
16.6597 47.767685 19.124208
-13.538114 -72.370338 18.823538
5.7649956 -19.226742 42.361656
4.5242815 -64.992584 4.8415222
-9.0209322 -1.72804 3.4434111
-13.143405 -25.353188 3.1221662
-23.068302 -43.153969 15.381861
-17.835003 58.79385 10.17239
-21.675535 -60.616783 26.53406
27.764904 -9.1940365 27.347591
-16.534487 -42.287418 19.430939
-5.727109 39.183823 24.211012
12.157736 -46.135036 20.976223
-29.206987 -10.561062 13.393992
-24.181713 2.7207141 13.285988
24.131342 15.246503 18.014118
-2.4621618 78.007751 20.807243
24.851292 -7.0101824 23.08918
10.347794 20.078012 6.6187506
4.9148026 4.0831118 7.1094494
-0.32185036 77.899323 29.842617
-5.991363 -8.2285099 46.116528
-4.2641807 49.205544 40.845284
22.278641 46.449356 31.036087
15.202229 46.740467 40.886364
-7.3723564 70.446632 33.710335
1.6187544 53.070366 6.259963
-11.517555 -60.77095 13.837255
-27.948124 0.65536791 5.2163048
-30.129478 43.370728 18.010368
-5.5012136 -26.571777 9.3978977
-27.15065 -42.238388 3.136061
-27.403458 17.275059 14.394045
28.071489 -11.765721 7.4163113
16.870588 -38.074158 22.021297
18.970009 26.724819 44.927551
3.2961884 -23.996132 22.770964
-18.968376 -50.607994 29.335476
-19.642216 45.136559 17.71423
27.67732 -7.2534661 16.385893
-22.912277 -33.61515 30.972448
-9.6997643 31.154488 45.942539
-15.182529 -74.034996 20.727581
25.689899 -38.380272 16.505993
-24.569344 13.305553 23.562809
-16.519522 -18.027466 8.7338877
-16.6597 36.377647 7.9716139
17.883808 -27.492285 19.706842
-24.858675 -2.2669377 20.253393
4.2299547 6.0366263 3.5995231
24.08098 21.598667 20.488552
-27.357016 20.307503 7.9442649
-29.052807 -28.877226 14.3924
-25.084667 43.682285 1.6763932
-24.802158 5.9381027 26.151253
21.80529 -34.465534 3.1176558
-7.5340776 -5.3918052 7.6756487
25.505669 44.434235 32.135227
23.33186 -13.448788 37.317188
13.190869 -25.716497 22.860619
16.749725 5.026082 16.352562
-18.736097 -27.953497 9.535593
-19.307022 19.908028 16.636202
19.97508 4.7945824 13.026258
-29.874094 38.040619 12.374767
21.05336 -23.169178 9.4154797
8.2348595 37.057999 20.747208
27.905018 -60.49564 15.596604
-27.803776 51.64143 3.4093766
8.3769016 43.483879 5.2059107
30.032181 -12.161825 20.050037
-28.634312 49.498981 27.988438
14.198368 30.720592 45.449783
-27.701473 -5.9023681 19.049339
21.261576 -53.337486 28.806633
-5.9107084 79.222984 10.166609
-2.6348047 -3.214391 5.7991853
27.38929 -27.446585 4.3997955
28.367247 0.95713049 28.883821
17.680365 -62.04081 9.239994
-21.762695 -57.713676 10.843046
-5.2322326 1.8888742 24.730686
27.570934 -22.58452 33.470821
8.8990936 -53.689514 4.3600125
-5.367065 37.822128 22.178024
21.701048 -29.609863 18.546535
-10.507749 -1.1783819 5.7804852
-21.98089 -23.416418 3.1485014
-7.5417733 -29.851372 36.180534
20.631226 3.3507032 5.7388868
-18.150187 6.9191546 34.50602
-22.417677 10.687037 3.6662154
23.784195 68.285049 21.537611
19.283043 12.337463 45.438576
7.6785431 67.775902 7.3867826
-6.5311785 -3.1499205 3.424077
15.039127 -58.336163 28.393963
28.295895 -44.625195 3.113584
-30.052959 -5.8527503 22.744438
19.578262 50.927425 6.6392126
21.268141 -43.290062 20.894663
-27.353952 -28.055473 7.9216714
-23.228176 -16.290712 38.194702
10.756255 -48.0201 21.103907
-4.5807056 17.064634 47.849899
-15.741482 -16.702641 16.608261
22.601891 -7.4778719 39.056408
-27.958269 31.056919 8.9670572
28.86451 5.9459977 27.976072
30.257912 41.694752 17.357512
-18.787983 33.05439 44.162731
-24.501852 64.222496 30.428261
6.2627244 -46.425331 3.8532028
28.813564 -49.59016 17.72954
-0.40919372 -5.6892176 46.735546
-24.940239 62.085384 21.359491
-9.402729 8.0885687 31.749186
-25.061272 15.563648 3.7023721
-27.981506 22.515135 8.4409161
17.527674 -73.33139 18.706379
10.632 -54.422928 19.52421
24.321716 -46.484169 21.539429
26.736626 44.201332 1.5773513
-24.034237 71.408852 12.297534
26.480581 36.514721 17.135128
-22.0005 -65.286102 23.281712
-2.7246819 -40.301155 30.365799
28.378967 46.28804 28.712109
11.754547 12.641177 6.0136633
20.412689 41.160629 40.990833
-12.774353 -45.941006 30.090984
-6.2315063 65.939354 11.380315
-24.975544 4.7139268 28.871151
-6.7974987 1.2917219 23.779058
-23.036959 -45.527561 29.590683
-15.257356 33.018051 44.921562
-20.956173 41.331478 2.9115202
11.989442 10.347406 5.9225254
-23.305243 -20.715792 37.395767
-12.643066 36.592369 16.977787
-1.9369813 -0.064707682 47.483765
-19.245886 -25.223936 24.116249
-2.1361933 36.016335 4.38484
14.771366 -28.589619 35.950871
-22.127605 -27.348267 27.873999
-27.625027 -19.762833 16.844107
15.157108 4.3218236 30.173923
25.352697 -5.9109678 3.3865333
20.264692 -62.035378 9.9546537
22.314323 56.488701 15.875642
17.335266 -19.589245 9.031723
-22.320595 -36.408813 15.858471
28.768932 -24.489986 12.441399
24.150764 24.944324 23.538918
10.808966 53.119976 6.2654185
-4.1309028 -27.206602 15.571949
25.451548 43.996292 17.460537
16.685648 -6.5328078 5.8296638
-24.207922 -31.421545 6.0004268
-30.491043 -54.961308 0.24593207
19.087948 -62.028984 9.7071438
-13.906029 44.70171 24.528049
13.015432 27.07156 14.644272
5.7099171 -24.511747 39.526077
24.760242 -2.6695499 18.725838
16.6597 53.873924 13.682367
9.8164663 -26.43376 20.852749
-8.0042849 10.436372 47.786194
5.942266 4.2326818 28.916103
30.041759 37.702808 6.9618349
18.736509 -27.469704 26.071043
-27.496117 9.7409039 16.951897
14.819788 -61.249245 12.406616
-11.318365 -37.047806 28.915634
-27.715008 59.68256 17.237492
1.797091 -24.152685 5.993639
-29.556873 -41.015747 19.243412
21.412544 13.290215 41.371727
10.113642 -31.736313 34.865852
15.132668 -30.583282 11.431129
5.078599 -13.420135 3.2844267
3.0503328 31.524994 13.789166
-2.3930836 -14.253014 5.900919
25.759733 -41.846226 13.424044
8.7281055 64.966858 33.94928
-18.934 -64.101913 4.8331599
28.020061 59.664848 19.907307
24.537699 50.527794 32.325775
13.443769 77.462921 8.2317238
17.494732 41.875549 23.032587
-27.453001 -42.500107 16.60985
19.629826 43.1026 0.35456479
18.831533 -57.809883 18.238871
0.52148217 -21.948111 41.2589
28.054197 14.178145 8.429121
-28.423889 48.194752 17.522614
-1.6285605 54.458885 6.4126339
-4.2612386 -25.428551 11.740378
-1.0450805 -30.148396 36.486931
24.17824 4.4269204 14.081991
28.092068 35.650139 29.244865
16.068224 -63.486458 27.045639
-27.56386 5.9241366 9.1163311
-20.0686 76.844269 13.420805
-27.44989 60.172562 12.802567
-8.2550154 21.046539 16.381145
-15.287176 -12.187878 44.234146
-9.7126112 -1.4729092 46.621098
-9.3207417 -31.441685 9.9867754
23.788311 68.415901 19.408556
-15.347766 43.748257 24.541523
-24.956692 5.1310606 33.781616
-16.645046 41.914368 23.076403
-27.364216 -40.098595 18.147076
10.632 -51.63184 7.76828
6.565073 35.711044 45.295628
16.6597 38.420666 14.69971
-1.4023666 -2.9634044 5.7968798
3.3870759 -23.745453 9.4629555
17.579189 -58.831467 17.120998
-30.288031 41.707912 20.674799
16.131302 18.063778 46.4375
25.075888 60.098858 26.172726
6.918026 -19.069477 5.9460301
-19.311371 35.665169 16.177862
-19.419262 74.108231 9.7317085
-1.356771 39.782654 20.606697
24.10424 -5.692091 3.3895097
-15.491083 5.9178443 21.506542
7.4115133 63.465279 32.916782
-13.197713 23.412354 3.8213463
18.455399 -69.524117 19.002022
2.1109581 44.559692 24.530058
-14.770904 9.0581951 35.30389
19.502615 -70.413971 18.923147
27.63142 -50.678902 9.3761044
6.6104798 64.388466 12.424857
19.782904 -5.7920685 15.526784
26.341305 -51.05056 21.662941
-23.942795 -16.945127 10.149273
-29.617212 35.77557 26.970631
-9.7784252 -20.369091 41.498081
7.0310249 -20.27523 5.9573231
28.81123 -20.669308 12.386257
-10.200099 8.5572796 36.804214
13.62438 61.688797 16.7798
28.308262 50.789024 2.6882491
-20.76454 -8.0846481 3.3569767
-15.498676 -38.357422 26.173601
30.209702 40.847748 13.285089
18.901604 -25.243864 6.0038595
28.753164 -49.474796 5.0626779
-28.692709 -17.770088 11.824417
-24.164663 23.244293 21.828768
26.151949 11.013401 32.057312
-27.330236 20.952377 18.119175
-14.03159 1.4127071 7.0964794
1.878428 8.1725159 7.1287518
26.415726 -69.407776 15.057693
-18.814537 -65.970901 22.896183
-5.8025103 -28.407988 19.042446
-17.048872 -0.60889143 45.922947
23.155247 31.331886 4.052525
-24.826794 -18.831129 33.427704
24.529932 33.13905 35.260532
-26.990028 30.685947 15.523027
14.499166 36.042126 4.3876758
2.0424528 42.959328 43.349197
-23.850866 -40.64547 29.910887
20.177986 -49.797993 -2.4847748
-16.298141 57.434601 32.384724
-12.515964 34.201393 15.390285
6.6861792 41.000671 27.465408
14.26384 -50.198139 29.691666
-17.968189 -35.10495 3.1292932
25.800095 -38.866348 2.4538603
-16.180077 21.340157 46.358612
-24.669376 63.875671 20.623867
21.00243 40.566093 23.905161
1.4937286 -18.460163 13.153594
-26.0588 -62.669384 24.880756
23.433887 52.371357 33.276169
-19.921638 -54.464455 11.957567
6.078104 -60.464012 28.453003
-5.0544806 63.52438 13.818743
15.41872 68.377403 7.448576
0.9171322 34.583481 4.2272954
27.69635 -38.685059 16.981142
-14.012213 40.882172 23.856123
20.916084 53.108185 -0.61243874
7.4905291 -16.396738 8.7063913
-24.994114 -59.245117 2.968344
-10.632 -62.29277 11.624626
16.801058 34.329933 44.49852
25.367756 43.057838 1.9778743
-4.1538086 -61.867645 28.129166
-14.043089 -77.50473 11.99052
-10.507803 19.253866 6.2764034
2.3409619 -47.717289 3.9433408
28.481306 -52.213654 6.2616777
21.946098 -41.476971 4.6010466
3.6036253 -42.326439 30.551907
28.789261 48.558258 27.483839
25.823532 63.821846 11.444115
-23.087416 45.385967 36.137489
13.725504 43.286179 34.938061
21.620592 10.387096 41.75972
22.419088 32.637394 39.355797
20.149048 -36.719589 22.806854
-2.7675381 -78.384026 11.828049
-13.994265 15.896973 46.623699
-17.081526 -58.104935 28.259529
-9.648284 -68.692368 26.029047
-28.554256 -48.638199 7.7009687
20.771702 -18.831779 39.840405
-18.840931 38.090504 19.358419
-0.70302248 41.81414 29.099846
-10.632 -51.387817 18.004547
-23.05224 73.427025 12.323957
-27.703754 -11.360118 19.352303
28.744083 25.230318 12.331522
-22.189543 5.1458569 17.151804
24.357904 15.383874 7.7934299
-10.437539 5.0364032 16.421434
19.913599 35.982613 15.334695
-5.2529469 -38.015465 3.2664609
28.517813 19.590248 11.126596
9.6473389 17.576857 16.540056
-27.190145 45.975689 30.650957
27.264599 59.99662 11.104109
27.850012 57.590118 14.04826
-1.5437893 11.49843 5.9682584
-23.357988 -35.500824 5.3220387
16.050007 19.521114 6.3423271
-19.708668 37.527641 1.6940207
-0.73479366 -16.094324 5.9181647
1.8738499 2.6808486 3.5259614
-27.381889 26.890762 30.658928
16.381802 26.110935 9.6132746
7.9102468 5.3890557 5.7255163
8.2964592 22.291956 47.42046
24.084042 -67.937698 20.614256
13.199225 27.287476 3.9344647
-16.422289 32.465107 44.869526
-24.619427 63.722809 27.004419
-9.6455946 -63.33543 27.685436
-12.878278 -21.595284 20.901825
-14.558969 67.646233 33.51252
-27.741423 -7.4799652 27.188366
10.568772 75.747169 33.487877
17.017382 28.091763 45.42326
13.975798 -61.837482 27.665152
27.086157 -38.779655 21.332821
-24.851046 -15.017801 17.967388
-24.203945 23.274258 22.911907
-20.864517 -57.563507 18.318275
9.0055447 79.347107 20.399229
21.018257 -65.407928 24.068382
21.816994 52.370667 35.481628
17.656851 -6.2542467 44.901981
-6.5682173 -17.608343 5.9323444
29.382788 12.121142 14.443947
11.968619 27.775709 14.495632
29.740492 -25.206343 22.913774
18.947615 -17.535519 3.2284675
-25.198938 71.133659 16.641117
24.723751 10.234389 29.445772
-25.543032 -65.514771 4.8477364
9.0940247 -35.090851 28.616438
-23.287382 42.118954 16.608255
23.46627 42.766632 30.143152
-26.580593 -28.877981 30.008556
17.211056 29.08745 3.9870076
21.03223 14.82436 7.1386437
-18.975975 57.522362 21.025467
14.993875 -18.615473 8.9319544
-10.632 -36.5495 8.8883162
-25.338873 -6.4178519 28.022638
-10.351742 21.322285 16.109512
-11.713003 1.9826415 3.5106561
23.057804 55.74353 22.120991
27.517326 16.78401 4.2239127
-12.584589 -17.85957 8.7208996
20.081406 -19.968863 3.19538
-12.412132 -75.836662 18.892014
26.537521 45.5662 25.076134
10.575441 -46.369904 3.8493361
23.06035 70.890625 32.159351
23.703476 -50.886536 1.6074769
20.71381 38.480595 12.263992
30.431179 -42.268864 0.48492545
-23.261471 34.121101 7.7795658
-17.710487 66.745331 7.3063941
-28.216602 -43.259636 0.6863386
3.5964832 -17.099621 3.2343948
10.938098 3.7498424 28.002947
-27.38903 19.101696 14.60046
-16.947647 -46.798042 29.812763
-29.541742 18.102783 15.682476
-21.098309 -62.039322 10.135054
6.0323958 51.039288 31.548098
-27.551228 -28.768536 21.729536
27.188265 -43.516907 3.9149699
17.083921 22.797483 46.050076
4.0348034 12.910262 47.264359
14.615 -27.821325 3.0886054
-25.974001 53.481041 25.131105
-9.6469097 -48.868324 4.0236464
10.632 -40.651226 17.770182
-16.575733 39.279266 4.7436061
27.688662 -16.742983 18.418736
12.381971 44.563873 42.153168
25.188614 -70.972939 5.9041686
-25.881863 44.207474 21.136627
-19.964697 39.800488 19.11603
-16.536152 64.520576 12.211737
-5.5904999 -26.878925 6.0191731
-24.997108 -10.523694 20.131065
-6.6758089 -33.663452 3.1027405
23.789875 -56.309505 13.233155
29.164078 -44.923344 16.045601
-9.4154015 5.0470238 16.492306
-27.683237 -10.959243 17.075367
-19.685274 53.747925 0.37940499
-24.062788 4.8618889 3.5737717
-18.41177 -42.16378 7.3529224
14.505048 -75.348175 7.3580847
16.6597 41.182163 8.724865
25.428488 -26.82818 6.0186982
-4.8677888 -26.895258 20.523594
9.4682617 7.3704243 47.476341
12.744905 -13.766069 5.8963585
10.242607 75.956688 30.510685
-20.15431 39.846966 4.4064441
9.9524078 -49.956169 4.0995436
-12.537632 -21.387123 5.9677372
29.378239 -39.026459 21.157116
-29.943996 -3.6533294 25.458038
15.592216 21.913643 46.381905
11.097035 43.198513 5.1745348
15.068643 10.587292 5.9320564
-6.9768386 -34.171959 33.641117
-10.374049 -28.998814 30.004627
-13.676607 29.198414 45.692604
13.40239 8.8772469 36.111195
-30.499655 56.521507 5.3487434
20.268337 37.410866 17.833778
24.249405 71.960724 13.581491
30.028023 18.404478 20.589954
-30.509253 50.9142 15.452901
-1.0732772 0.46746802 7.1945934
-10.947929 8.1253567 3.6453097
23.095062 56.554741 32.861446
-28.846586 -58.0774 2.7241247
-8.6971979 79.426003 16.369167
-27.691441 -23.57288 25.360514
-11.513401 -77.884361 16.9953
16.811438 11.75774 46.507561
-0.69508648 16.766136 3.7112877
-13.288738 4.5802317 46.632782
0.59770018 -28.762375 37.346436
-17.902676 -42.242779 11.342241
19.559303 50.191765 7.68714
-2.676455 37.734646 4.573772
2.6416428 -22.321852 15.137524
17.897701 16.390425 10.918699
2.7834561 79.886276 20.072933
-13.747605 39.064434 4.7199845
8.8895893 -1.1824117 13.537086
5.5961542 66.645035 7.300076
23.415312 49.786156 20.767645
19.846292 -59.877838 5.8616605
10.436532 1.9346592 46.754959
29.860674 43.666866 24.665379
-7.6692848 29.463207 14.279938
-16.847412 -75.54026 6.5306997
-24.415991 59.141899 20.028049
19.788567 50.248665 38.428593
-6.2451715 20.75906 6.9567986
-28.955027 -46.981281 5.6135769
-10.90744 21.141514 47.190407
4.6703005 4.3225265 25.385994
-22.783409 -33.11377 31.279095
-10.632 -49.867409 5.8430099
-11.816412 39.366631 20.120312
28.277338 -38.915031 26.635994
-27.406319 5.2672033 30.521217
14.754059 -75.875877 6.5913267
-2.5608306 -41.102341 30.520363
31.379436 -41.425953 9.551404
-8.4565859 60.923023 32.651901
22.865873 -73.418274 17.136551
-20.946053 -11.18932 42.359104
27.607731 -44.753567 16.255682
25.02705 68.141121 9.5411415
30.957222 -40.261776 16.40089
-12.594305 -22.53446 26.579212
-16.079262 59.379322 32.635128
-24.862274 1.9692056 24.843599
-10.397684 -23.222239 29.478537
5.1315784 43.361366 24.546988
27.592651 -3.4157343 6.9702129
-5.646142 -9.7014484 13.927328
17.544813 7.2390718 27.654837
25.509874 69.712372 28.473232
-27.541765 -51.682594 21.457287
-5.6755419 -11.104902 15.386311
30.304928 51.606232 16.902306
10.920305 36.885315 44.718979
15.910549 16.165323 14.904516
-24.485352 -20.416853 5.9586492
30.064344 -3.4525983 22.475208
-25.336433 -8.7933426 26.468891
-3.1867611 79.627823 14.629192
-13.969681 -28.330795 3.0816779
16.026039 -61.872684 27.464678
-13.887341 38.142128 44.099522
18.724426 -29.085691 34.775795
-23.906986 30.555765 24.027853
29.575834 -31.888596 22.480064
-7.8222294 -72.020355 4.88345
23.801744 -60.561806 14.062021
-18.387609 -5.2513204 44.959457
-29.449297 -48.683437 16.015511
-10.475219 -9.4024944 8.0170202
-5.76157 -8.5457745 13.551819
17.999367 -50.53191 -0.94870222
15.642029 8.2136459 32.556198
17.813236 -74.24025 10.624868
-20.873278 17.787277 42.19334
-29.875183 -52.876278 15.821619
-19.668221 49.567909 -0.30709219
-18.376043 55.675766 16.829294
20.833584 -8.2978554 43.083641
-9.6658592 38.888046 4.7005901
-16.099421 -31.083719 34.172344
7.3779569 -16.289661 8.6954231
-21.339037 26.244713 15.0595
27.68343 58.532734 9.5231085
25.934864 -23.42157 32.039639
-12.771944 17.674614 47.004349
-2.0029261 -38.533306 28.888611
-22.651562 46.363029 31.015141
-29.814869 45.704346 12.516133
-28.66206 -19.732754 11.82195
-27.988293 23.92671 9.3052263
0.77407998 -66.50502 27.077522
24.978085 61.1493 25.784248
-28.306973 20.000727 10.310509
-25.423044 -32.57592 30.47435
-16.6597 44.026585 13.225426
19.61928 36.601654 10.238808
-29.311274 -49.199924 4.8432131
-19.650076 40.922794 16.029949
-30.279539 43.048084 6.1410198
-12.636403 -35.782677 4.6751962
-20.524467 23.538349 42.524406
18.517424 -32.086102 12.132191
-19.686892 50.485825 -1.2806611
-27.301998 37.921738 9.44732
17.129538 13.592762 6.0514717
19.25794 57.773903 34.941383
-16.6597 45.08263 14.510963
-22.569946 -51.581051 28.94593
3.3759933 -34.818375 28.885204
-16.255995 67.200493 7.3350687
8.1228476 8.5657463 47.682991
-14.646384 3.0456977 25.415703
16.068619 4.4356365 46.350452
-10.517723 -31.310417 3.058985
-18.975143 -50.6092 -1.2342958
-15.36241 -9.2121878 5.8542728
-14.990083 39.799744 22.113043
24.212948 -43.007172 3.6761708
24.673603 46.005173 -2.7635317
-11.66151 -23.506737 29.518784
-20.407356 -62.162529 8.8740044
2.3581462 -31.992462 28.843164
-1.1309974 38.953419 19.637218
-0.090127014 -57.842182 28.912899
-16.6597 33.491222 7.5127788
-14.248571 -26.742525 30.024002
24.63913 -14.166495 15.052741
8.5775719 40.297993 21.209187
-18.679768 -4.0115767 45.05508
-29.040882 -20.641674 34.291752
27.310188 9.1352825 30.673359
-5.6304765 16.257975 15.203998
-24.711391 4.6238399 21.443638
29.921518 -16.747501 20.018871
-15.386348 40.989841 4.9316864
7.6044607 11.274621 3.6705718
26.809591 -37.221413 12.26298
-2.4229183 70.400787 7.6427574
-29.083218 29.356047 13.903027
-7.251215 77.069511 30.370113
15.279793 -9.1655588 8.053256
5.34799 28.577547 46.528687
20.091225 10.969304 44.312065
-19.207088 -23.539989 9.1511707
-22.630331 -60.422306 3.9912031
-20.971127 -12.281367 5.8824625
9.543807 -5.8291583 7.7600322
29.752922 -22.275421 19.324503
24.624521 63.967331 23.265402
6.603858 75.419312 8.0559397
19.70714 57.314587 14.614589
19.172977 24.42308 45.19202
-28.663591 57.048298 15.135207
-22.90769 21.360992 38.196327
-8.4995089 25.782076 46.960274
-22.45578 6.2765398 25.217951
6.6279182 -63.988117 4.8331599
-6.2550411 32.707359 45.856693
12.948777 60.757271 18.282478
-12.325342 -39.016655 26.268946
18.731689 -74.1968 10.443031
-27.824213 -44.982334 1.5231396
27.619667 -28.38275 25.389212
-0.31541941 -78.008789 10.206676
22.717518 -73.012421 9.4672375
10.632 -46.641376 15.028336
-10.632 -42.743477 9.0062284
13.573351 42.318802 29.311192
29.496511 -46.989105 7.1118908
-4.2001395 77.920471 21.299826
-5.1811342 -61.518597 28.202011
11.471634 -39.070629 24.728413
29.566559 -47.852539 23.469662
25.010506 61.353012 24.018394
-29.736963 -0.05796504 16.716211
-27.727352 -11.400553 21.966843
-23.459887 56.202408 16.419939
25.573406 -28.021711 6.0298767
2.0115573 -23.252039 15.630359
-14.994206 8.0760746 31.687721
24.840343 -61.304665 6.350348
-25.110237 0.76434374 5.7626419
24.41539 -24.602642 21.234848
-27.502834 -15.005464 4.0772572
14.48396 -50.48793 21.360506
-27.567089 -28.80854 22.876917
24.648083 13.793741 3.6892495
-24.589619 -15.736737 12.288507
-12.935826 -5.1767349 5.8172088
-10.455473 -6.0238671 46.106178
27.705795 -24.718887 27.39604
-28.031433 2.7049408 8.3070011
-15.128181 -62.660713 27.352348
23.520594 36.459122 2.0408063
1.3473827 -57.646435 28.930977
20.107012 37.182056 42.35622
-23.490797 32.650547 4.0910177
-11.690884 5.349082 18.507898
-23.958881 -57.986965 1.1553131
10.667456 11.904531 7.1157398
27.038342 39.366203 14.165051
15.275318 -67.768044 21.212273
-3.2865119 -25.790474 6.0089788
9.3541727 -20.170576 9.0936165
20.324949 42.116539 41.297539
29.741779 -21.9921 18.920248
-18.239716 -48.088459 2.5181699
23.044819 39.837425 -0.89413857
-5.9637127 -25.55838 25.627947
27.704945 -65.044632 7.693491
-29.485731 -57.504955 16.986725
-27.538635 6.4158688 13.80732
-16.070402 -38.130829 28.005177
24.530203 64.310287 26.792812
27.443296 -29.299679 15.91126
30.022335 35.411095 24.364559
-27.271366 16.859129 30.903193
16.907682 32.955208 13.839885
-16.026245 -48.413651 29.742435
-4.4366841 76.653275 30.681744
19.596647 41.685944 15.819802
15.562969 53.212395 23.679829
29.45261 -36.043125 23.659861
11.603435 75.038559 33.746788
-27.698574 -3.9572213 19.767862
-11.999489 75.938362 30.839128
-14.259624 -36.450611 31.414204
-11.531384 -22.630623 24.310658
-4.913465 -55.422703 29.218439
25.263058 -0.92686725 5.7781749
-15.908 -38.242958 25.917601
29.884678 -14.167888 17.333229
-5.6469293 6.7918048 28.338053
-23.463821 -16.887487 5.9255934
-4.6985302 42.406311 43.436665
-4.5965619 78.040154 13.178911
-21.197569 -61.728188 11.718744
-25.963181 35.133553 15.719213
-3.2114272 -7.8061118 12.493436
10.610598 47.541237 5.6520257
19.500931 -26.614431 3.1050162
-24.678146 52.444721 24.152615
-24.802465 59.381104 6.8947539
16.76545 -2.011694 5.7881389
3.4925148 12.12677 47.284267
3.5135531 42.108704 29.680281
-27.674446 -41.249065 0.90859336
28.217764 9.3515768 4.5191236
13.149025 -2.2569621 7.4333591
-27.425522 -48.671608 17.719345
23.974592 -28.649572 11.662543
-20.308023 14.359098 43.117661
-18.900719 -19.646721 40.013077
-3.5042903 -23.677843 40.15097
-7.3189135 -73.926521 5.310565
-24.301542 -18.430725 11.815133
25.894857 52.520363 30.029856
23.268669 53.577576 33.134205
0.093129821 44.557796 42.885315
8.5203362 -32.262291 34.661854
-0.43177801 40.332943 26.143591
-3.9690669 1.2307583 47.462624
23.031574 15.256477 38.217361
27.527233 -29.682037 22.391901
-17.78001 6.3235703 23.412388
4.089498 -74.769058 23.256931
-5.5535645 58.847675 36.561478
-10.853258 -4.7534962 3.4022722
-30.026997 22.073513 20.765249
-13.440439 -19.40123 5.9491367
-21.664452 -56.790157 13.499475
26.125393 49.837082 30.40695
-24.522196 26.422747 9.7680464
9.4468918 -2.0219338 7.4184389
-30.383091 47.351902 15.779392
-9.2026806 52.177822 24.31699
23.345505 -52.738903 16.6842
-18.338079 7.1179609 45.878647
19.642342 44.667892 -0.57412803
10.639615 -9.0672951 45.748981
-7.0603647 -34.857544 3.1249452
-13.069918 -73.738045 22.431314
-5.5969524 10.806558 3.6671014
3.8757668 32.744019 4.0937462
-24.600037 70.024918 11.185581
18.21191 9.8461552 3.659981
16.323898 -11.264915 3.3137326
-4.2935705 -26.150795 11.339207
18.196238 55.655533 16.846304
4.4552641 0.37117976 19.087162
26.48918 -12.390458 3.563195
-13.781209 78.644089 16.059462
-10.731405 -9.4528379 45.562119
8.9290104 18.218729 6.2352743
14.357716 9.9030561 46.878414
-19.474276 3.4035716 45.149986
-29.929695 -12.9184 17.651537
-0.84092772 53.69503 39.085541
25.8067 20.532013 32.244823
11.973167 -11.908854 5.8790412
26.766663 -45.336388 27.765396
-27.382156 -35.448669 25.829002
-21.537312 -15.008649 40.875332
10.827508 -39.074287 22.748737
-25.909624 53.753197 26.09354
-22.067379 3.0195856 15.388223
3.4697428 31.918585 46.154755
