# .PCD v0.7 - Point Cloud Data file format
VERSION 0.7
FIELDS x y z
SIZE 4 4 4
TYPE F F F
COUNT 1 1 1
WIDTH 1613
HEIGHT 1
VIEWPOINT 0 0 0 1 0 0 0
POINTS 1613
DATA ascii
66458.539 25730.578 922.92517
66345.82 25598.484 610.22424
65629.039 28202.627 1169.4111
66177.961 27307.883 834.58582
65605.609 29196.043 1139.0847
65736.828 26678.525 1416.728
66962.891 26901.945 1077.1038
67005.438 25575.135 527.52637
66324.266 25972.633 331.41101
65513.215 27484.445 1371.377
66039.922 27234.934 835.31702
65332.203 29240.611 635.15094
65774.828 28584.121 389.70538
65371.059 26090.955 409.9122
66983.992 27736.223 1060.6194
66068.789 27329.871 346.69019
66023.992 28475.184 1114.1613
65333.645 28533.029 84.783501
66448.867 28248.164 1016.4476
65399.508 27733.898 568.96863
66130.523 26329.334 308.67938
65844.039 25866.131 337.63705
66990.594 27505.414 1063.9983
65241.465 28659.842 1145.7667
66696.195 26362.641 729.59827
65770.328 27021.102 1528.905
66560.5 27987.275 817.92883
66809.492 27494.67 1429.2769
65778.953 29234.748 1139.921
66735.586 28365.076 254.36938
66476.305 25569.312 834.48499
66557.906 25583.109 871.71436
66165.695 25555.84 773.50012
66985.273 27802.059 1051.1074
66973.578 28260.475 787.62115
65810.109 25596.449 935.38312
66817.297 26836.615 441.71628
66675.406 26360.326 610.93604
66037.648 27246.955 345.04163
66844.375 27652.344 805.6615
65442.688 27052.369 636.59204
66931.359 25785.145 618.19391
65489.883 28644.762 1582.5505
66554.352 25292.902 377.37308
65633.875 29198.031 445.08765
66753.398 26842.555 487.8631
66931.945 27436.668 873.86914
66101.898 27281.713 537.73059
65589.172 28227.695 617.35913
66917.18 27020.111 1074.8035
66298.898 27577.732 538.12476
66889.164 25558.803 995.58203
66881.227 28106.496 1282.4248
65424.875 27733.059 553.99432
66058.25 29089.934 1629.271
66361.523 25857.041 877.93774
66204.672 28097.018 483.52942
65881.797 25408.387 681.0437
66498.297 28910.004 412.39392
65294.227 29271.873 622.56165
66050.984 27393.637 419.61615
65409.238 28438.26 1543.4464
65409.133 26743.451 1387.6504
65595.656 27506.91 1661.7112
65903.984 26509.75 568.57935
65255.043 28167.891 790.63831
66775.641 27421.859 419.90982
66752.57 26623.16 900.62183
66539.25 28152.301 455.03775
66295.891 26609.168 515.05389
66191.984 27060.283 529.83234
66768.688 29352.309 846.80957
66662.32 28889.807 540.41638
65821.992 28522.344 1669.0453
66885.797 28122.871 797.93591
66280.938 28485.318 1663.9075
66694.516 27278.133 1590.7036
65396.141 25619.43 757.99731
66103.68 29398.777 1181.1873
65500.668 25512.316 598.25989
65346.332 25435.707 909.7478
66857.312 26600.908 866.72626
66629.828 26050.998 990.52307
66894.828 29217.568 1022.9252
65675.891 26441.875 311.03296
65878.953 26882.375 408.10535
65581.281 29051.336 1613.7297
66357.148 28231.199 1332.0229
66346.391 28429.812 1667.0073
65351.016 29255.469 1286.0625
65675.133 29152.75 440.47589
66484.992 28006.068 433.29544
67041.961 26271.129 688.82178
66867.586 27136.418 1352.7432
67003.992 25401.785 601.88934
65626.547 28232.666 993.88898
66781.812 27806.75 629.92999
65424.012 27085.859 758.23132
66801.008 27486.871 349.52689
65889.039 28596.699 565.54993
65599.555 28354.334 770.69324
66751.039 28274.848 478.68698
66726.633 25971.027 779.58447
66234.984 27707.707 426.64969
66415.359 27404.748 1153.7565
65476.844 28243.797 1578.1863
66837.203 26050.52 372.08917
65394.082 27009.773 1436.5099
66729.195 25847.975 400.84378
66534.406 28286.176 487.35901
66863.375 28816.389 1077.4615
66212.477 25353.418 706.38513
66159.25 29444.17 505.95035
65685.688 26162.656 1145.8757
66576.109 28308.979 1296.756
65886.594 27080.215 338.44806
65429.039 28889 1542.3368
66911.68 28465.625 389.29385
66846.602 26493.027 1197.3057
66673.734 29373.797 480.66827
66749.664 26088.092 294.25732
65593.898 28845.244 1681.9736
66349.172 25863.824 834.32837
66916.023 25882.082 428.90884
66291.367 28065.324 421.22369
65398.062 26581.42 737.68939
65975.445 29180.211 440.09766
65374.047 27288.352 631.2262
65983.805 25166.934 827.12561
66499.609 27316.766 1618.964
65741.875 28564.555 1117.6237
65676.117 28296.625 1657.1824
66850.188 26256.191 489.50061
65197.812 28818.33 656.04395
66295.266 29161.605 626.20441
65820.07 28239.074 1029.0143
65403.453 27089.215 620.28955
66717.859 26296.789 1148.3461
66352.453 28208.113 1238.3789
65997.359 25247.051 888.94269
66518.297 26601.387 1229.4619
65768.812 25624.797 869.17053
65299.375 27918.875 1103.0269
66851.109 27579.053 925.46692
65467.066 28311.475 241.67578
65553.703 26847.248 407.46405
65221.078 25975.447 799.52545
65985.852 27575.756 423.77682
65941.797 27319.094 786.36902
67031.359 26001.805 175.47144
67044.773 26643.664 707.06787
65289.105 27485.99 755.27795
66603.109 28284.535 1674.1051
65802.188 28270.9 487.39603
66905.398 25621.43 661.27643
66437.133 25865.504 862.34113
65278.844 25866.602 359.55566
65929.531 25430.793 737.24634
66253.57 25636.674 704.28381
66582.406 28257.508 477.42188
66561.305 28695.043 1672.8839
65733.234 27750.414 427.85779
65829.516 26944.934 1564.1024
65445.336 26968.732 597.99719
65296.762 27873.6 1275.6926
66820.086 28374.391 1312.8964
65615.391 28122.34 714.05829
66163.391 28839.434 409.14886
66859.234 26213.852 698.04028
65396.895 27495.783 1463.7766
65212.914 28347.496 903.76123
66136.969 26156.973 1156.9911
66789.883 25655.898 198.31317
66317.281 27613.59 352.67279
66143.305 28046.32 1652.9554
66718.797 27424.508 1334.8219
65172.395 26590.684 1147.6725
65845.406 27210.596 643.67584
66910.32 27626.762 455.41537
65935.617 26870.389 428.7417
66048.727 25202.938 880.68115
65409 26867.961 641.85773
65864.352 28188.732 1639.375
66792.641 27600.672 1501.7483
66152.836 25295.488 801.63342
65592.711 28153.449 1692.6028
65596.688 28836.525 1597.4591
66198.055 27145.416 542.52399
66563.133 28751.551 1639.1772
65447.195 26240.512 1071.4187
66974.445 27090.201 448.22723
66921.812 27449.918 771.96442
65232.27 28569.752 368.11673
66176.461 27396.197 1622.6921
65348.723 27546.678 1345.1558
65670.609 28258.287 1107.2039
65977.984 25917.896 334.47549
65821.562 26346.504 1139.1292
65173.133 28149.67 894.66626
65728.766 27354.137 567.93689
66830.234 26829.973 441.47272
66405.75 28102.328 1638.8226
66863.648 25350.455 902.43115
66047.383 27096.867 783.30145
66163.531 25954.328 912.42627
65675.562 28088.031 347.43723
66851.125 28064.262 991.58252
65721.477 25978.832 1123.8431
65383.145 27558.844 720.69769
66455.797 27263.383 859.08716
65659.438 27473.5 1201.6768
65583.914 28476.045 463.26532
65955.016 26617.277 1397.5955
65190.195 27986.383 816.89575
65456.258 25702.701 287.89499
66308.352 26591.051 461.4946
65896.547 27323.703 1613.3583
65402.078 27188.691 657.75598
66871.789 26928.441 455.5293
66962.438 28514.041 648.60626
65999.797 27444.441 420.7926
66609.922 27301.305 417.25555
65899.461 25746.574 704.85229
66939.578 28792.121 265.13889
65448.977 28151.242 511.39383
66560.789 29275.76 517.58698
65888.625 26386.225 361.80005
65799.75 26851.312 1531.998
66867.266 28826.84 1072.4558
66012.258 25252.691 840.62146
66239.969 25344.023 424.91638
65293.91 27252.662 1216.2897
67005.938 26097.48 381.8316
65270.25 27686.145 1105.7852
66587.844 27881.047 1669.103
66505.781 29186.824 441.84625
66909.406 25413.32 927.43182
65251.484 28755.707 232.23282
65354.816 28340.475 1446.2787
65225.84 28260.57 822.62195
65931.203 26451.961 1140.1206
66093.359 29475.281 1186.9307
66801.891 27420.219 803.47607
65894.625 27370.961 419.17657
65237.219 29170.445 999.85547
66777.406 29253.365 772.08289
66812.539 26093.344 138.31349
66576.547 28878.146 573.21448
66853.531 28146.832 936.98169
65507.824 28491.797 1616.2086
66715.781 26591.223 1197.1597
65259.852 28803.961 1030.4098
65914.086 25357.273 707.66376
66895.078 26938.721 1265.7913
65559.289 25310.613 889.97302
65509.254 27393.375 419.86874
67036.281 26969.092 612.78064
66496.68 28115.777 1076.3313
66418.664 27571.227 598.99268
65454.723 25864.973 306.12781
66661.656 27926.492 1637.882
66760.102 25951.25 127.48526
66912.641 25357.896 853.41797
66146.461 25376.039 936.38806
66560.781 28354.117 1110.3734
66211.359 25535.752 888.46979
66030.586 25638.113 814.36121
66438.625 26413.529 1140.2122
65390.531 29237.156 695.50745
67029.547 26705.455 621.78638
65454.094 25894.607 415.54626
66833.781 28718.773 474.63971
66480.336 26015.658 1068.2527
65663.445 28914.68 414.98273
65368.602 29183.586 1349.4595
66613.492 27381.318 626.94025
66705.719 28697.551 190.57422
66046.625 26881.43 1520.9526
65977.164 26969.996 414.5387
65442.555 28675.113 411.09119
65242.094 28124.182 1134.2935
66821.188 26615.172 843.65594
66471.391 25789.877 892.61139
65365.672 29234.609 1100.2875
65979.961 27004.801 580.44952
65558.742 28379.537 1672.4844
65356.98 27512.117 1384.3706
66648.477 28759.342 1594.6388
66671.43 28143.332 610.82104
66105.766 28330.936 1661.6782
66271.102 27042.941 1561.0496
66911.344 28086.277 697.51282
66355.938 25849.283 869.5885
66140.195 28109.117 518.77344
65465.496 25262.811 789.92505
66686.273 27338.602 1597.2737
65538.445 26079.953 721.53418
65209.684 28428.115 908.66699
66391.078 25928.812 334.33307
66824.844 25607 932.052
65586.742 28340.879 736.37061
66074.773 25225.059 951.42444
65801.188 25550.246 921.2113
65553.875 28798.076 1598.6248
65338.586 26994.195 460.54965
66568.609 27278.59 416.76019
66919.031 27354.826 1221.8502
65993.961 26660.738 1017.0483
66286.398 25418.203 935.67993
66721.758 25714.443 1052.4917
66431.258 29049.977 627.14178
66825.047 28549.752 349.14984
66133.359 28028.719 343.21713
66762.492 27885.229 1564.4193
66764.633 29112.4 1075.4105
65303.211 25712.305 118.66534
65903.414 28247.971 481.34988
65962.797 27957.037 533.85486
65753.391 25798.445 869.57111
65218.234 25943.867 844.49829
66187.102 26270.402 1197.347
66945.203 28749.588 805.53589
66000.789 28632.951 1624.3412
66828.055 28406.594 421.6532
65454.773 27879.805 634.35388
65831.953 28672.701 1660.9521
66813.828 26877.867 788.76483
66716.477 27333.295 346.48474
66235.281 29473.713 1185.6038
65187.914 28348.797 642.53143
66174.219 25428.477 331.03284
66147.453 29436.105 969.43231
66428.188 28277.092 1128.4475
66840.758 26774.639 823.7157
66808.305 25353.178 949.01343
66729.047 25856.77 596.3952
66314.883 27278.145 1604.0876
66277.312 27205.631 1594.0353
65487.262 26106.877 671.53387
66216.922 28788.918 404.21747
65170.406 27676.275 619.20459
65541.281 27682.383 1634.0964
65375.715 26865.117 552.91492
66573.617 28675.344 434.22278
66084.391 26804.141 406.23331
65210.828 26888.959 887.51776
66014.094 28333.348 501.38367
65203.219 26413.768 645.37262
66855.914 27440.34 348.57111
66065.992 27104.852 413.06076
65253.324 26391.064 906.42303
66882.312 27491.172 421.43057
66528.625 25899.197 896.10272
65772.352 29136.363 435.93704
66779.445 27964.295 742.59344
66920.75 26885.547 338.55676
66916.93 26637.551 1231.9155
66107.992 25957.121 633.98309
65536.375 26177 346.98456
66536.469 27472.098 349.34271
66870.18 26031.471 775.30383
65323.746 29078.477 723.94641
66832.562 28142.609 600.38141
65582.68 27896.133 539.90698
66812.094 25802.945 95.7155
66639.242 28008.383 1645.9468
65256.797 27077.416 428.15442
65600.453 27899.18 1671.5311
66314.008 25764.264 924.67627
66370.039 26363.199 1226.3279
65478.406 25850.867 782.81464
65258.062 27473.148 640.09534
66041.523 29433.926 498.17511
66859.867 26121.994 392.81784
66975.906 26635.238 433.3045
66726.383 27588.322 458.86957
66837.656 28435.027 1231.3121
66979.906 28823.852 857.77155
65969.914 27274.223 427.89664
66690.031 25883.801 980.66907
65285.32 28956.844 447.35312
65552.891 25684.172 348.9938
65345.844 25373.15 450.216
65164.914 28281.15 809.15643
66184.219 27889.541 1648.3109
65336.629 27037.768 1298.527
66151.75 25207.037 679.17676
66127.453 29435.723 870.53009
66767.484 29190.295 1076.6775
66743.648 27160.234 413.99289
65488.234 28938.299 415.81201
65626.852 28541.402 1630.8606
66849.578 27789.646 1386.6027
66509.141 26313.385 1175.6149
66971.352 28680.875 276.28448
66203.484 27903.637 431.10739
65743.008 28362.732 1659.8083
66220.844 29003.342 627.43951
65722.547 27211.242 342.22986
66776.141 28485.625 83.201103
65358.586 27413.783 574.60455
66804.289 25697.521 537.9964
66945.016 27271.93 363.29974
67018.266 28131.406 788.88635
65718.594 26077.371 1140.1454
65164.102 28775.527 802.05371
65546.93 25676.186 351.02167
66839.188 28141.275 596.64905
66498.297 29002.811 1629.9783
65405.57 27456.123 1055.2965
65582.766 28530.244 554.46155
65474.984 29015.283 540.50757
65714.258 27406.656 1632.3556
66003.914 28027.816 1638.5996
66521.734 25867.949 1098.7604
65685.023 26543.408 400.51175
65725.398 29334.559 675.81366
65586.484 25909.289 952.28381
65830.617 25815.809 799.07507
66931.477 26035.654 1027.9718
66881.945 27848.619 429.53574
66598.828 27374.801 1616.4548
66582.062 25510.605 872.7262
66064.742 26513.199 1332.8196
66273.781 27879.07 1637.8691
66925.781 27995.08 1140.1232
66260.883 27017.105 500.17044
65975.617 28230.553 845.71875
66356.914 29350.072 461.87308
66732.742 25679.363 614.86084
65479.543 28648.586 1620.6129
66503.734 26688.623 403.41376
65598.57 28304.449 701.38708
65747.172 25793.004 342.22852
66744.484 28734.227 1123.7426
65353.316 28606.742 1043.7092
66188.016 27569.375 622.92584
65847.344 25768.242 343.96448
65550.656 25342.297 600.87231
65406.461 28086.719 750.55719
65404.094 29083.541 1465.7821
65760.656 28187.328 765.77911
65850.578 25288.307 578.41949
65280.785 27861.16 1114.1105
65287.164 26657.018 403.27774
66350.867 26490.74 477.01355
65935.547 25709.91 614.14783
66283.242 25893.383 336.4751
66018.109 29470.273 840.99133
66766.203 27522.873 1045.1885
66090.742 25781.977 825.18073
65792.586 28223.906 1425.6517
66453.539 25413.238 783.15918
65745.039 27184.189 415.01294
66653.141 27817.014 1637.6471
65429.211 28326.361 125.13867
65440.664 25456.594 510.84
66026.688 25390.055 812.60278
66113.344 25690.289 932.04358
66841.391 25779.178 275.34045
65980.234 25542.193 705.69702
65718.609 25117.652 540.71173
67013.508 27516.244 618.49805
66703.516 25631.898 923.47382
66924.711 26212.854 1086.9634
66809.25 27401.094 748.43262
65195.367 28152.414 707.93622
65184.148 27242.701 583.59076
65843.711 26324.736 1142.0195
66932.438 28790.986 1084.9104
66626.469 26833.643 962.49493
66909.203 26432.176 744.22095
66427.562 27278.965 1615.2188
66315.953 25695.859 582.93311
66912.18 27425.176 1148.3058
65515.648 29134.947 1137.3899
66821.25 26609.125 502.57855
66389.109 29263.195 625.34814
65089.203 26629.006 1096.7697
66929.648 27416.207 1097.5618
66658.922 28205.621 817.31958
65739.898 26987.27 1569.4822
65485.645 25836.074 646.5697
65731.633 26576.203 848.28259
65232.734 25723.914 830.7395
65856.031 25657.732 1069.163
66093.953 25931.424 658.23615
65355.43 26940.225 558.8772
67014.242 25700.021 444.37402
66540.93 25306.207 366.87836
66527.562 25916.922 1109.8419
65314.391 28230.902 1081.1147
66849.891 25446.279 469.05463
65303.215 29055.967 1126.7908
65637.242 27839.643 1650.9535
66839.547 25939.906 339.2305
65975.906 27061.955 634.9433
65891.594 29459.912 711.13232
66762.164 28416.988 1533.2557
66774.609 25828.5 758.98792
66051.945 28547.797 1631.4988
66693.266 28718.258 633.64288
65965.305 26110.162 1113.5356
66707.516 28911.486 479.24133
65399.594 26245.572 1122.8721
65940.805 27108.182 1602.2141
66580.797 25589.479 814.67761
67008.469 27601.609 849.62427
65484.164 28069.885 560.57849
65193.527 27918.631 533.52344
66709.273 28221.055 583.44238
65639.82 28159.197 1269.803
65993.281 28062.889 1672.4769
65482.777 28319.354 1589.9574
66858.32 28055.67 1055.0259
65352.336 27501.729 350.4375
66999.086 25728.111 341.63568
66183.367 27281.805 475.84637
65357.977 25994.092 104.35513
65977.156 26975.121 621.92139
66983.438 25690.738 722.91541
66927.25 26433.129 1033.1584
66505.352 26570.115 323.49408
65765.148 28626.219 1119.6344
65591.055 28555.449 1649.1
66913.258 26310.107 432.59949
65582.086 28561.869 512.42773
65889.039 25508.227 670.63373
67034.695 25979.547 799.15808
65841.766 26340.211 632.23065
65574.969 28042.244 351.75266
65810.461 27226.15 797.50616
65500.066 28126 741.15674
67139.844 26732.172 1182.103
65431.148 27269.836 1539.1167
65578.133 28941.434 1627.5693
66720.305 27849.502 1613.0197
65395.855 29002.396 1462.5311
66083.508 25321.367 852.14478
66966.617 27518.83 554.90051
65470.926 28849.469 1605.0857
65592.883 27385.387 1295.36
65643.422 27387.879 1275.2756
65578.172 28082.969 600.53668
66781.094 27024.316 563.33722
66516.305 28798.705 1602.7456
65419.891 28276.273 1567.8927
66347.773 28846.656 1647.1267
65943.828 27138.16 611.0849
65489.059 29398.166 505.09018
66055.531 28894.342 1128.1675
67014.078 27911.906 607.11707
66798.953 26158.68 195.9538
66241.586 27585.758 1641.3774
65389.07 27683.953 521.86292
66705.102 28914.258 468.72504
65938.938 27133.477 413.77045
66068.266 29319.098 1340.0687
66378.578 26360.055 626.91321
65896.656 26878.465 634.2019
65309.688 28152.826 1321.686
65593.75 28685.98 1642.6655
65893.844 25485.48 705.52155
65226.062 28240.117 928.34973
66720.461 29415.816 843.56775
66920.602 25511.834 512.10681
66872.078 28577.016 368.16339
65212.945 27405.57 690.18372
65280.723 26165.141 245.19583
65355.246 27739.898 1407.2484
66768.516 29085.309 1056.6469
66550.203 28454.365 1650.0841
66268.18 26927.887 467.1568
66757.344 25799.891 722.75458
65641.961 29435.654 935.68976
66929.414 27027.764 1073.1382
65996.188 25720.762 882.9093
66739.383 25247.154 763.27643
65855.117 28063.137 1638.7816
66424.578 25795.703 342.97714
65708.742 29238.686 490.23346
65396.32 26501.621 502.91193
65781.109 25215.646 875.43274
66479.867 29430 1155.7454
65702.758 28520.668 1722.3359
66989.609 27362.916 487.19012
66760.312 28849.809 406.93127
66761.328 26322.527 380.33057
65670.445 25221.35 788.58752
66344.484 27573.176 640.73602
65797.023 27447.52 914.82629
65494.965 26746.127 331.86456
67197.734 26754.219 1194.3436
66739.867 28253.09 1585.9194
66166.898 28136.373 724.67102
66729.609 25829.844 558.05048
66045.547 27278.367 585.36865
65893.406 27053.25 1595.0227
66082 26936.016 409.22479
65290.184 26788.09 1059.4727
65634.891 26880.789 331.11923
65917.578 26589.475 318.61832
66269.688 25319.848 340.2157
66995.297 26921.055 501.53293
65391.801 27280.52 344.78146
66978.438 27551.654 480.5752
66285.844 26653.502 524.25049
65351.727 29289.445 623.3988
65627.445 27311.027 1017.5297
65923.484 25532.201 1047.9456
65971.008 26227.293 1151.9277
66952.484 26612.758 344.47937
66295.438 28133.723 1656.9324
65578.469 28734.838 571.62134
65758.336 27251.42 866.35547
66731.82 25724.59 405.51489
65885.984 29105.449 433.00702
66478.336 25643.312 748.92255
65407.914 27741.152 646.57214
65410.789 25752.236 385.4256
65340.668 27480.008 1044.775
66602.922 27410.592 1375.7893
65219 27581.693 484.33517
66771.609 26378.887 476.6001
65546.523 25695.111 412.98569
66259.609 25301.031 798.92535
65336.375 28767.271 844.43073
66057.414 28115.996 671.76617
65288.457 29144.867 811.13165
66510.445 25129.395 557.76794
65217.379 28520.754 393.66406
65325.07 29120.898 687.64966
65409.453 28258.719 355.41193
66807.18 28786.023 927.02783
65801.422 28182.908 1184.449
65316.805 27399.264 997.14038
66032.68 25523.885 818.62256
65404.875 26027.488 1019.1985
66530.758 28159.236 670.1839
65447.215 27510.797 1103.9512
66175.984 25372.422 706.49567
66718.891 27073.375 1554.889
65688.312 27220.635 783.9903
66158.398 28290.289 1660.8075
66680.742 25994.281 330.49814
65477.762 25398.785 547.22534
66384.422 26304.137 1145.5125
66010.336 28289.336 997.6228
66559.344 27572.578 1618.8933
65270.539 28475.699 81.248611
66216.227 26959.504 1428.2167
66278.477 25793.816 887.54211
65977.305 26994.92 550.3894
66479.562 25508.02 744.43872
65481.637 25339.791 418.10724
65650.617 25290.949 676.04651
66699.109 26587.756 1152.7587
65345.746 26427.488 559.77173
66547.875 27521.285 1400.1183
65936.25 25854.979 783.31598
66321.32 25582.205 583.08276
67002.938 25843.16 368.48175
66071.383 25956.102 652.0932
66416.523 29218.533 445.92548
66998.719 26021.68 584.99115
65580.047 28659.91 589.25586
67006.32 27069.629 982.67853
65811.57 26773.93 1483.4097
66484.383 26834.141 500.69937
66190.469 25314.629 478.23825
66625.281 27306.754 527.11401
65419.586 27323.543 519.16272
66018.93 28070.297 423.91623
66221.977 27238.566 1610.7483
65570.234 29307.34 619.42688
65357.75 26792.143 406.30804
67032.57 25781.158 864.22449
65421.727 28222.568 821.78461
65661.844 26589.387 864.41492
65207.348 26373.924 625.51477
65612.969 27513.727 1276.6906
65201.09 26649.027 1184.9836
66923.734 26116.945 453.46124
65760.453 25243.625 944.08618
65743.664 27560.135 351.65323
66487.922 28099.145 1637.4727
65845.57 27626.746 1631.5977
67001.664 25813.521 518.54022
66273.117 28523.535 1115.6868
66463.172 25670.203 702.60742
65461.266 27208.562 597.44794
66282.453 27422.645 1171.175
66520.25 28960.59 1587.1134
65334.285 26904.145 879.26111
66608.016 28617.869 1119.3044
65699.023 27940.305 723.62012
66510.922 29101.881 1598.1021
66818.219 28259.084 708.51331
65386.211 25848.375 82.433914
66288.461 28552.732 1664.5543
65191.148 28212.17 966.95087
66972.406 28438.191 661.35944
66427.375 29316.277 624.83618
66806.461 26929.379 338.35184
66327.289 25833.766 340.38602
66866.641 26696.648 451.9826
65387.852 27515.846 1384.8674
65375.961 26056.525 130.16043
66602.492 25712.582 1065.0416
65350.664 25810.098 228.19574
66582.555 28196.246 875.20239
66008.984 28192.645 1656.5275
65359.859 25710.711 761.08984
66476.789 25589.602 882.71539
65585.062 25317.271 791.14258
65378.789 27828.617 611.66553
66782.633 29334.664 1217.1907
65290.453 27393.021 777.28772
65661.828 26121.982 1142.8119
65526.695 25814.031 962.23181
66819.773 27335.654 417.93411
65238.555 27238.256 455.17233
65311.727 28886.824 460.94354
65792.711 27678.574 354.54852
65384.312 28462.59 795.3562
65815.523 26627.383 976.29468
65190.727 28350.771 962.67316
66284.016 25512.785 704.45837
65195.965 27222.502 956.62549
66421.719 27921.902 538.97937
66318.305 28276.617 1147.3162
66744.797 26053.799 644.21924
66402.109 25342.195 337.84448
65546.867 25679.463 468.07733
66191.867 25254.719 871.1958
66946.391 28158.25 482.46863
66146.203 25416.266 825.87531
66470.898 25777.07 703.18469
66711.492 28497.408 216.93895
65526.945 28768.949 1125.156
65717.766 25640.996 352.00723
66287.383 27218.348 1595.7592
66059.531 25970.344 950.79926
66492.461 26352.748 641.29065
65414.789 26154.623 743.11688
65535.977 25516.191 904.8855
65535.973 26197.111 514.60968
66600.945 28073.543 459.40186
66565.258 27404.91 1149.7102
65930.938 27836.297 1649.4786
66898.742 25920.609 435.67365
66272.805 26561 1149.708
65310.656 25946.125 1030.219
66016.547 26645.484 511.18634
65365.344 27393.062 760.22528
66586.562 28162.852 676.41254
65360.047 28453.246 945.8728
65266.59 26355.648 748.15826
65392.246 25935.635 221.98477
66789 28847.326 521.06018
65340.602 25847.842 384.87305
66696.969 27430.01 806.75098
66506 26762.904 331.87329
66810.43 27668.004 540.1806
66027.273 27950.283 534.78229
66903.117 26398.791 337.42563
66249.156 25247.086 593.92932
65426.16 25441.867 602.90845
66733.328 25654.27 533.90997
65313.934 28522.949 423.72934
65796.641 26699.465 323.68073
66967.719 26326.012 384.41153
65407.938 28425.441 216.60429
66667.742 29348.469 1235.2032
66677.055 28144.277 623.73193
66836.781 28191.494 1106.9097
65431.078 28017.141 527.2605
66319.344 25304.285 856.26538
66666.047 26213.84 1139.9961
66537.391 26180.199 1118.6787
66327.125 29107.613 1620.6725
65740.75 27729.846 355.8399
65842.531 27557.789 1639.8365
66148.844 27040.9 558.91632
66118.086 28366.9 1640.1929
66999.258 25591.152 286.17139
65243.148 26223.078 586.57074
66943.008 27393.588 366.67816
65600.977 29298.9 458.04376
66583.453 28207.164 527.35834
66140.547 26489.07 399.06223
65376.039 27293.49 861.49695
65402.969 25438.578 537.87653
66725.977 28087.883 525.52826
65269.738 28238.637 942.80896
66181.617 26309.812 1148.2845
65384.109 25698.619 968.56769
66789.688 25942.236 92.711876
66559.578 28924.723 628.2027
66090.438 25970.811 903.14197
65284.234 25906.906 954.86322
66690.211 27378.539 418.96838
65574.633 26976.078 1521.019
67023.086 25866.15 795.74622
66885.961 27824.145 591.72131
65265.57 29060.996 886.78979
65264.141 28355.824 98.92205
65835.734 25340.646 999.07837
66478.828 25812.945 341.93719
65628.617 28998.285 423.19
65384.164 29393.023 1064.1309
66823.578 26758.529 690.03931
66198.312 25846.906 910.03949
65190.836 28654.738 552.39954
66519.438 26153.504 1142.2349
65233.898 28433.025 611.94305
65893.484 29293.148 514.55469
66233.203 27066.6 468.5531
65386.559 27559.465 796.54236
65203.566 26533.691 704.47656
65203.312 27070.232 785.17383
66693.32 28725.234 255.41951
66068.445 26159.906 1160.873
65309.922 27538.77 1083.9043
65908.609 26502.652 659.46716
65342.832 29193.322 853.28906
65397.793 29106.273 1444.6632
65815.812 25853.867 1103.092
66558.5 27684.449 425.96771
66244.82 29393.613 1215.8047
66713.547 28451.535 1576.036
65247.379 27420.529 625.19006
65887.703 25949.809 824.58911
66891.812 26002.424 238.90869
66916.289 28399.619 963.90918
66753.766 28559.512 88.745979
66092.859 27286.207 1620.6472
65431.16 27086.871 699.414
65547.008 27510.617 1332.0293
65742.312 27287.549 1622.3701
66729.367 25840.445 344.65359
66803.336 25353.758 925.81415
67028.586 27847.025 649.72827
65220.418 26593.289 770.02502
66827.523 28100.916 615.54816
65196.668 29042.129 690.1488
65369.047 27505.711 729.90497
66582.242 28265.566 699.00519
65220.18 27441.51 488.16864
66207.453 27523.242 1633.0796
66254.328 27305.453 806.83264
65361.855 28996.611 672.89038
66853 28966.016 747.72498
66667.195 26862.316 407.27426
65414.867 26644.293 580.27075
66770.648 28552.512 218.88074
65879.859 27574.875 437.02469
66795.57 28878.5 586.76776
65811.719 27641.133 1630.7498
66721.039 26237.168 609.58252
66301.391 26193.527 1139.7773
65418.348 27021.945 783.74176
65370.465 27222.6 526.18848
65953.844 26732.893 495.60284
66723.773 27419.24 773.1413
65643.211 29329.473 674.86389
65663.906 28106.66 664.04932
66920.367 26459.277 926.77869
65549.648 25548.574 618.10608
66840.656 25887.062 465.76184
66605.055 28354.451 1686.8151
66845.531 29129.309 788.75745
65655.023 28485.682 380.34509
65227.617 27482.121 482.61401
65946.57 28284.193 989.34406
65565.992 28461.953 1697.3083
66428.555 26978.24 612.6568
66149.297 27125.158 1554.9365
65898.891 29292.043 510.16339
66155.977 25244.799 418.63708
66929.062 26001.285 799.41583
66647.211 28779.619 1586.4357
65991.75 26667.188 654.22034
66957.641 28183.854 1099.9408
65483.648 28058.229 436.05292
65583.547 26085.324 1131.3903
66156.07 26645.676 495.90292
65394.43 29016.43 606.6618
66529.109 27925.562 538.82007
66695.203 28284.283 1162.8165
66608.398 27805.041 1628.5259
65764.352 26026.084 327.19482
65424.703 25549.102 1005.3441
66687.266 26728.387 1193.9457
65939.453 26579.51 417.63107
66793.438 28538.008 1023.4664
66024.32 26668.072 709.63483
66700.414 29101.195 625.36951
66984.562 26616.506 1047.3099
66866.922 26494.365 482.52692
65279.406 26516.334 1101.7318
65941.93 28506.662 381.76868
66457.023 27496.449 1445.6556
65940.18 26648.207 1075.0934
67006.656 26928.027 971.34619
66867.992 29142.721 522.96429
65442.516 28386.754 121.28243
66083.695 29226.957 444.03751
65745.289 25362.164 871.15369
66909.578 27796.379 1111.0477
66104.18 25253.355 898.43512
65943.258 25501.02 877.01648
66282.977 27124.188 617.70825
65885.039 27367.395 616.95984
67023.047 26201.586 431.93506
65903.734 28616.816 1663.0781
65998.664 29130.076 1599.5179
66784.5 29219.998 732.19312
65421.453 27168.539 552.47217
66650.727 29055.066 1565.8867
65282.445 28807.182 327.16742
66193.719 25470.514 704.95264
66748.469 25554.504 640.54016
65534.348 27309.834 524.13501
66883.547 28297.863 803.35303
66191.719 27894.055 1648.5134
66439.523 25803.209 901.47266
65284.859 28141.188 867.62268
65471.922 26124.189 676.01196
65445.191 26003.973 103.93759
66316.414 26668.746 807.65796
66096.641 25232.188 953.88013
66881.156 26581.77 400.8107
65848.25 28740.15 1123.2678
66225.953 27566.57 423.45383
65417.566 28680.154 161.11258
65355.102 27851.744 430.336
65514.574 28141.133 1255.3744
65258.324 28028.516 648.96075
65451.48 27238.055 416.37439
66791.391 28519.441 1013.1628
66365.359 29231.613 1139.4263
66768.812 28129.268 569.99884
66727.531 28073.945 1602.6008
66792.492 27911.355 464.34457
65496.305 28134.428 650.94568
66262.32 27265.488 674.87506
66549.812 28807.098 641.5
65458.652 26385.273 309.28436
66060.398 27779.234 348.39203
65729.086 25210.439 880.72559
66667.109 28811.68 733.72052
65985.414 25952.781 759.63739
65646.367 26641.498 326.17236
66436.875 25932.975 1120.5223
65805.961 27406.73 1421.1685
65828.297 27293.879 1608.5775
66129.125 28074.85 345.6105
66073.023 29453.711 711.03369
65595.734 28511.545 608.28625
66949.383 27577.24 1123.4393
66608.359 28314.844 1630.8879
66423.156 25478.736 363.44928
65438.109 28007.463 433.82733
66484.445 29309.566 1330.1055
66753.062 28930.244 628.59241
65477.445 25642.348 936.91113
66528.289 28139.076 714.98657
65362.676 27394.07 697.66577
67010.461 27902.59 763.56708
65209.855 28315.174 986.73584
65327.117 27786.283 870.44604
65830.594 28408.303 1112.2269
66119.578 25767.035 932.00928
65158.016 27943.652 662.04065
65939.188 29023.77 1132.5887
67021.188 26535.016 801.20227
65478.109 25644.42 706.1322
65819.508 25636.629 829.82288
65527.797 25727.402 946.09619
65260.023 29288.113 1053.4006
65294.18 28357.191 1097.6543
66441.961 28020.367 884.98352
65512.469 25958.328 214.20268
66656.461 28650.82 1608.3169
66552.922 26482.91 783.09375
66936.25 28581.879 1001.4957
66805.562 27633.047 523.38318
65287.395 25761.385 775.45673
65922.969 25620.238 1066.047
65360.508 29118.244 437.12537
66873.391 27496.957 638.65356
65700.023 26680.238 325.6347
65346.062 28051.797 562.63629
65412.688 25313.078 861.18219
65467.844 27267.926 927.30066
65352.367 25692.768 310.48743
65774.961 28917.949 416.58194
66104.969 25888.004 1122.981
66618.359 28249.701 785.71582
66166.57 26955.672 1431.0557
65864.219 27996.502 1651.7175
66363.375 28937.902 416.05505
66255.648 25711.465 704.09021
66579.18 28412.648 575.66449
66484.938 28219.52 471.52945
66514.016 26833.023 513.32239
65339.301 26510.066 1128.7875
66682.273 28182.512 1364.9292
66355.883 28184.189 1667.84
66293.086 26634.863 1403.8453
65561.32 28147.324 1315.3619
65313.98 26856.838 462.93958
65971.562 29396.988 473.97351
65822.734 26916.834 1510.8226
66119.852 28720.344 1617.2944
65353.203 28370.305 1277.5237
65408.586 28352.746 772.71619
65893.125 26653.273 923.79529
65922.773 25767.246 807.40796
65338.602 28088.637 1391.9484
65237.922 28254.871 1130.7678
65645.078 28546.863 385.1514
65426.004 27522.223 1549.3802
65255.863 29178.436 1119.313
65589.992 28189.09 584.93799
65648.375 28407.564 373.97659
66056.305 25513.996 1049.2983
66748.922 26195.316 496.45584
66972.898 28681.633 925.53857
66854.625 27165.457 512.46051
65244.602 29265.066 820.57758
65434.352 26829.129 470.10901
66843.305 25759.477 402.65497
66416.945 29441.854 1040.1428
65992.68 28246.043 885.29993
65698.547 28452.688 1658.5581
65608.078 27936.562 535.34351
66537.422 29061.322 1617.1576
66020.156 26925.729 1530.8613
66881.727 27847.242 575.85254
66760.664 29358.463 939.64758
66771.555 28799.039 1012.5976
65989.445 28387.004 370.89062
66823.359 26589.02 478.93005
65459.383 28723.111 327.97049
66659.734 28233.928 774.13013
65857.695 26384.506 309.77106
65704.719 29472.094 549.80414
66729.094 25855.176 678.32947
66031.828 26587.758 401.3519
65306.32 28328.535 332.57004
66227.281 26494.105 399.13501
66159.516 28423.328 1640.4558
65594.344 28620.668 794.81091
66865.133 29155.4 1127.4462
66032.109 27295.984 1609.8376
66572.773 28716.143 450.93768
66397.727 27445.836 1196.3712
66394.961 26654.617 325.87958
66512.828 26573.219 1239.5249
65321.832 26871.191 1237.6938
65832.695 25549.768 882.42139
66518.445 28547.984 1710.9139
65964.477 28555.998 385.91965
66200.641 25932.238 753.80457
65632.812 27600.309 1685.735
65498.68 29032.145 1605.3688
65971.078 27159.744 591.29114
65370.508 29073.186 1071.3749
65187.477 27858.076 888.26135
65446.523 26261.496 490.04358
66476.297 25590.367 777.76947
66990.578 26425.707 1017.9369
65915.289 25868.486 704.48199
66677.516 27610.32 641.0387
66972.219 26890.562 420.22528
66786 25742.391 287.31415
66841.438 25850 473.37643
66500.422 28365.5 368.29865
66003.641 29346.25 460.42517
65887.336 25525.602 1045.187
65447.316 26084.09 364.0502
66778.688 25244.055 520.39734
66736.492 29192.613 1418.6028
66984.328 26615.703 1045.5066
66249.438 25934.686 612.95312
65848.906 29169.803 1137.614
66752.547 29113.766 428.89703
66723.445 28165.867 676.74811
65365.215 27488.75 592.3042
65979.859 25259.254 593.8092
66471.656 26449.711 1168.8721
66613.938 27478.637 1450.6125
65325.852 25272.979 647.76001
66301.352 25501.123 888.16693
66566.43 28715.191 1693.0394
66037.961 26242.637 1165.1354
65764.516 27990.084 529.59839
66767.281 27387.418 649.75714
65193.992 28677.848 479.03156
66963.203 28381.52 1006.5034
65746.508 28256.926 1420.2546
66537.25 27368.438 548.78107
65558.289 25433.197 999.90845
65664.938 28283.012 1656.6624
67003.125 25911.379 522.82623
65780.266 27871.885 1635.7354
67049.148 26184.338 755.71942
66903.875 27153.938 469.20248
65520.266 29205.408 1423.1703
65429.289 27706.424 571.24615
66795.125 28926.281 426.69357
67011.953 25657.688 760.36804
66145.516 25957.637 652.64514
65879.953 26467.27 1297.5552
65222.516 28168.014 732.80835
65282.492 27381.84 1094.9803
65544.812 25777.203 645.15155
66783.102 26225.66 320.58078
65425.953 28542.621 834.64148
65490.047 25647.504 449.90741
66600.656 28218.094 759.77722
65564.75 28666.734 818.79504
66577.281 27230.527 605.57941
65286.531 27086.197 473.20898
66841.211 25861.314 246.82025
66480.234 28422.508 1652.2118
66775.812 27495.885 985.80396
66353.016 26547.344 1150.6199
65355.664 27582.594 511.12463
65731.273 28238.281 1020.7931
65976 27028.383 490.65387
65600.68 26645.041 402.85654
65678.125 27658.957 1625.1833
65266.109 28138.297 297.13193
66038.945 27235.203 1600.9816
66555.031 26724.057 1125.4031
65400.715 27531.297 1474.3296
66838.484 25755.959 110.64812
66217.398 26293.508 310.5351
65976.227 26955.361 1521.6428
65384.152 27873.242 1471.5922
65436.383 26945.066 455.77524
66666.203 28208.785 1639.4702
65361.023 27545.484 423.38867
66806.234 28682.871 1091.8721
65447.238 26377.211 308.76187
66678.828 28222.98 1265.4316
66373.539 28280.969 361.73215
65408.352 27677.385 722.10706
66617.469 28053.174 1634.8381
66439.227 26535.633 1218.5575
65326.105 27219.203 1300.7778
65390.051 25797.471 394.46283
66364.125 26443.383 693.9906
65594.516 26114.574 1136.7166
66995.922 25655.494 683.23975
65334.812 28056.34 1031.2139
65427.422 25893.379 794.867
66934.273 26648.668 1149.9041
66241.578 28896.314 1606.016
66274.938 25699.805 704.03571
65526.5 27358.465 1609.2815
66900.977 25939.484 369.31674
66070.172 25295.195 994.27637
66257.867 27137.863 825.09851
65516.648 25757.441 165.55417
66962.469 28132.277 567.26874
66070.32 29455.812 1113.6145
65415.418 29187.188 1139.6805
65831.375 25777.178 924.93945
66930.859 28692.52 968.16394
65241.977 25622.838 809.901
66576.117 28557.561 448.54126
66072.758 29451.061 791.35254
66272.102 28072.986 521.33765
66896.133 28562.41 1007.4828
66794.586 27899.352 492.25378
65873.398 25388.113 707.76324
66555.312 28706.062 751.54803
65318.992 28171.688 735.5025
66193.344 27200.488 344.04446
66698.039 27347.676 1046.4917
67016.016 26057.826 158.29865
65912.875 29335.891 1301.491
66750.922 26631.971 1019.6644
65903.328 25269.342 793.00415
66102.617 25174.668 486.21527
65843.023 25708.934 689.52722
65435.57 27177.887 1535.4778
66321.383 27984.273 821.72797
65845.805 27003.129 605.61212
65192.367 27632.154 841.65454
66165.375 27226.67 1610.281
65347.375 27384.572 1379.767
65299.883 28460.797 506.85181
65558.188 27359.98 1618.666
66486.734 27569.977 605.19427
65770.555 28103.25 649.17957
66504.203 26299.574 1202.7131
66568.383 28363.512 579.6076
65314.379 25382.586 507.80823
66985.727 25883.867 944.20984
67017.469 27314.574 889.86743
67001.891 26032.992 130.27318
66486.922 25270.639 417.43799
66344.93 26600.916 1123.688
65507.047 28193.305 850.43433
66351.828 28240.906 1671.515
65040.766 26702.037 1110.3372
66811.109 27616.527 642.59784
66607.297 28113.912 633.75055
65430.398 28481.975 213.67464
66806.719 25444.643 894.2934
65207.672 26862.979 858.59326
65212.328 27469.275 902.15106
65315.996 28339.148 1077.7104
65290.477 27581.281 461.45004
66343.227 26408.902 1258.1074
66662.836 27310.082 1598.2894
66301.406 25435.402 333.52267
65987.109 28913.479 628.16431
67036.672 25671.184 521.86304
65584.914 27030.691 590.09747
65768.258 25635.973 352.40045
66238.609 27325.506 718.04803
65693.734 27212.09 604.70526
65582.75 28054.861 444.15915
66750.961 27107.01 412.78253
66771.93 29017.818 947.72125
65353.18 28712.363 1069.8284
65666.961 26564.889 324.1806
65838.344 26343.828 602.44159
65360.723 26024.207 797.99255
66397.344 27985.234 820.53516
65935.078 26658.535 1021.1799
65194.668 27564.953 802.49286
67037.82 27310.271 734.64575
66858.125 25403.387 714.32428
65944.094 27163.553 342.7355
66570.352 26428.506 1143.4893
66388.477 27224.717 735.25812
65973.297 25258.84 378.50189
66244.383 25271.127 562.27948
65989.688 27065.434 339.00513
65389.254 27564.486 736.18341
65390.641 25644.111 424.00742
65399.234 25755.27 409.32526
67000.594 28477.281 909.56689
66980.43 26795.908 457.5625
66363.078 28866.861 1645.1777
65291.562 27206.133 415.72696
65174.078 28691.182 587.49835
66207.672 26800.424 1510.0244
65180.734 28015.73 576.4433
65396.215 26244.438 1121.3361
65637.086 27512.09 1346.4927
65795.094 27372.434 649.83386
65792.047 27360.92 590.30621
65445.82 25355.109 957.07593
65184.902 26732.074 656.89038
66558.312 28076.439 992.68616
65311.539 28114.213 390.23157
66720.25 26275.355 336.28763
65733.5 28671.664 396.25806
66425.031 28375.535 509.47165
65378.523 25970.359 638.34729
66931.07 26590.244 1188.693
66483.75 27458.707 905.08887
65882.531 25434.508 1024.2959
65356.328 28901.1 961.05646
66425.141 27647.242 1704.8878
66775.062 25691.463 689.11578
65205.344 28398.729 938.1535
66838.688 25901.85 511.91504
65887.695 25407.217 705.74115
66797.984 28880.109 1135.7158
66632.555 26641.154 962.8609
66593.406 28881.055 1128.0605
66915.805 25269.514 577.78223
65373.723 27709.275 355.52377
66214.258 27289.969 840.18628
66473.5 28810.926 1646.3296
66166.922 25507.756 361.22546
65155.055 28319.963 848.5094
66594.203 28516.049 823.65186
67014.742 26638.971 549.2403
66970.375 25980.922 364.31277
66309.125 26927.461 639.35413
66615.422 29522.066 666.61469
66405.977 25596.146 675.88513
65811.289 27872.857 1636.3339
66848.359 29078.277 466.23724
66860.188 27435.889 631.651
65852.953 27863.715 544.26465
66934.328 25709.779 341.97778
65791.656 27098.738 1597.5463
65231.047 28618.895 756.55908
66255.344 27255.377 745.65869
66906.961 25984.736 799.24292
65427.539 25797.775 365.1835
65849.961 28078.756 569.80432
65478.598 25957.57 996.72485
65475.332 28077.543 589.99402
66909.531 27705.307 1105.0181
66069.375 28129.531 709.8349
65522.578 25743.432 211.82492
65303.312 27382.645 782.44348
67036.68 27468.656 710.24304
65180.809 27355.072 999.60193
66804.195 28057.533 965.8288
67021.375 25695.273 445.72345
66855.477 26210.111 251.92065
66740.945 27290.906 416.95709
65773.266 27766.301 1647.8297
66822.727 28828.488 847.01947
66239.289 27120.941 1599.5688
65409.695 26698.639 680.95801
66817.273 27566.447 743.65674
65789.93 28205.699 942.30432
65977.062 26918.174 514.91473
65385.758 29065.033 657.83447
66768.109 26470.604 1211.3978
65676 28952.273 1634.6937
66833.031 25567.205 1007.4812
66257.414 27198.092 562.99792
65656.344 26631.328 1373.8049
65487.461 26902.225 629.24725
65601.625 25658.393 350.72543
65209.945 26501.006 637.60083
65442.602 25690.531 127.12798
66517.367 28106.816 1057.2545
65110.281 26690.691 1089.2202
65314.461 27191.939 1262.4095
66510.031 26362.99 731.47351
65690.242 27784.061 342.55508
66629.023 27228.41 623.08411
65495.449 29171.596 1462.4823
66911.906 28759.094 1141.8271
66840.352 28413.066 1068.7592
65810.719 25290.797 570.53491
67035.5 25758.967 193.00067
65731.734 28667.637 395.9126
65637.695 29327.641 670.11688
66016.391 25451.48 898.07751
65903.703 27493.494 1626.8713
66063.898 28138.398 599.64709
66886.672 27491.049 421.42572
65591.383 27485.707 1611.0409
66559.633 27093.197 1567.8236
66728.195 28843.309 442.55676
66154.477 25289.621 523.85516
65591.734 25688.322 1060.9387
66911.391 28398.6 1144.9664
66557.641 26425.014 1143.089
65892.859 27838.059 1637.3528
66124.086 29479.215 826.159
66373.078 27443.102 420.58392
66144.445 28042.73 343.57092
66849.336 28197.18 1363.0199
66845.125 28392.332 526.49896
66275.047 28170.162 1639.2463
66905.523 28708.098 1111.9636
65273.762 26898.449 470.36243
65192.789 28185.543 563.08423
65314.227 28509.539 386.2395
65990.828 28096.027 617.40063
65777.797 26312.594 1137.3676
66286.539 26688.721 1437.6172
66984.227 28110.445 980.1098
66893.57 27847.176 454.90494
65439.074 28519.141 113.64188
65558.047 28919.812 414.47379
65380.023 26754.111 334.79153
65262.348 28135.445 1160.7688
65328.68 27339.537 806.61914
65175.027 27710.594 760.53882
66153.461 29212.207 1487.2822
66345.234 26554.822 495.44864
65419.332 27430.367 1200.5061
66258.281 25907.316 1126.9568
66683.961 29138.162 625.60522
66958.75 28403.402 819.30414
66959.797 26324.73 389.15823
66662.742 25229.293 810.96301
65481.496 26051.197 1014.5546
66136.609 27122.301 673.44525
65296.484 27502.152 826.9101
66816.078 26527.463 399.61038
66282.266 28250.363 888.36841
66348.789 25283.234 606.19958
66383.617 26380.666 397.64587
66874.625 26227.08 287.07263
65384.719 26153.219 744.13129
66864.023 29420.883 687.57788
66697.109 26454.561 1147.1195
66833.859 27222.008 624.82104
65800.117 25764.127 921.46393
66201.633 25419.215 321.24469
65549.273 26564.305 316.81573
66344.641 25420.514 838.92688
66366.375 26731.689 404.4559
65923.594 25744.271 884.27612
65314.914 28864.791 766.05212
66460.531 26719.145 329.44415
66361.969 26945.156 1557.1504
66701.078 28487.035 204.36853
65348.5 26546.707 991.43042
66840.836 25647.783 188.66901
66897.625 27119.488 977.88892
66296.406 27492.572 1637.8328
65293.883 27472.059 669.95099
66737.203 27195.383 414.79291
66334.469 27394 1619.2831
66864.109 26478.551 1181
65495.152 28892.955 1129.4209
65987.586 29338.818 581.20911
65612.82 27395.137 766.35132
66194.703 29320.047 624.88983
65286.699 28095.961 564.87335
66952.859 27809.48 417.24484
66452.805 26723.602 1260.7218
66962.32 28385.506 622.54602
65364.523 26851.688 769.63184
65887.711 28145.562 636.25787
65978.766 29474.574 828.06329
66228.531 27164.039 446.8739
66733.758 25386.818 449.81897
66799.781 26363.9 603.13824
66499.453 29564.719 667.25256
66671.672 29215.031 625.4256
65458.152 28701.527 1602.3359
66818.891 28862.18 1314.5852
65959.711 28395.934 516.758
65313.266 28810.605 329.08914
66001.82 28258.027 1109.5397
65341.887 28604.637 1374.3613
66212.68 25934.705 333.70947
65282.637 28003.871 527.68085
67003.016 26054.262 541.99835
66527.969 26842.186 448.85907
65606.516 26156.488 1143.55
66490.555 25963.34 756.55548
67022.141 25544.912 800.43665
65375.094 25542.648 942.35999
65217.293 28657.555 727.02014
65461.82 27740.699 1596.6899
65977.039 26908.018 495.99933
66480.398 29440.91 816.70624
65867.219 26922.547 1559.0486
65735.414 25825.549 879.0545
67014.055 25907.742 798.38074
65726.812 25225.387 424.05856
66223.156 29306.527 452.15656
67020.156 26996.455 537.07233
66318.688 27647.938 1704.6456
66767.812 29098.988 929.09021
65326.855 25410.047 851.50146
66681.281 26432.742 1161.6304
66671.617 26376.287 480.81833
66210.336 28222.693 357.33368
66779.703 25236.914 523.17572
66400.734 29358.084 464.21939
66505.828 27531.236 1319.2046
65274.121 26506.932 384.97464
66393.82 26935.221 409.05789
66532.219 28825.818 617.55621
66816.344 25429.445 424.64734
66933.688 28944.066 911.74194
65283.461 26768.889 1108.7264
66084.102 25658.486 778.97211
66729.875 25818.154 619.69183
66378.906 26664.84 929.65698
65310.129 27837.312 341.01791
66868.102 25380.338 479.73663
66855.586 27214.094 529.92877
65594.859 27379.139 1652.8418
66782.766 25829.869 1062.2853
65905.32 27985.707 530.43744
65461.633 28243.863 1037.5117
66452.141 27484.924 349.63544
66224.391 25933.215 697.63141
65664.891 25440.684 1017.3367
66450.406 27463.846 922.39758
66878.562 28846.633 356.29001
65600.977 28121.736 452.43512
65605.836 27022.199 1517.3745
66478.039 25496.445 819.48254
66529.836 28066.91 1647.049
65771.234 29348.34 683.55139
65977.688 26186.752 317.1055
65358.641 28304.809 1457.5012
65275.887 28678.336 412.06363
66327.266 25950.771 593.17322
66843.406 27545.775 1426.563
67000.391 27864.105 879.92896
65212.914 27399.855 1058.417
65190.457 27946.525 539.88831
65441.973 26339.73 568.04309
65934.984 25394.934 707.48041
67033.336 25977.568 882.77863
66127.945 27146.285 715.25873
66231.867 28669.598 1120.5493
65493.309 29133.783 532.23071
65593.844 27441.414 349.1265
65350.23 28394.109 1057.7808
66298.055 28731.967 1619.8883
65207.387 28502.098 769.63507
65412.094 27411.828 883.8183
65805.773 26424.785 764.03473
65640.016 29378.934 477.58514
65929.57 25569.838 896.71167
65830.219 28306.572 1639.936
65238.766 26056.514 682.23309
65284.5 29291.074 1145.0511
65289.375 25856.43 377.59906
66592.273 27045.168 340.76297
65653.719 25347.633 834.09906
65287.242 28830.256 737.43713
65232.984 26272.982 886.73401
66542.016 27750.605 1645.5752
66113.625 27575.473 510.30664
65408.348 25440.176 616.84332
66661.93 25226.152 800.97888
66070.109 26653.379 1055.7224
67028.016 27413.281 660.80945
66448.195 28415.736 372.41782
66809.234 28361.152 932.12744
66668.352 27072.48 412.03909
66842.812 25930.182 798.67102
65876.891 29437.467 1145.3472
65482.992 29074.221 626.12482
65340.398 27320.119 1357.7643
66438.039 27455.002 896.30957
66522.406 25454.211 868.88232
66800.977 28462.613 1114.3472
66269.172 29399.148 1204.1519
65439.387 25377.002 691.93958
66564.344 27031.125 1568.118
65218.258 28807.346 518.21228
65565.242 27505.742 1201.5649
66224.266 25961.6 902.26715
66545.344 28670.803 1607.345
66339.633 26581.438 831.73181
66962.102 26721.871 1050.5137
66949.93 27796.383 1124.4844
65852.812 28137.684 621.23633
65584.359 28454.73 506.3129
65478.691 25586.555 1021.6075
65890.828 28281.244 990.54102
65804.977 27140.652 413.99713
66657.031 28200.191 768.64404
66807.352 29179.73 1269.7944
66129.602 27830.805 1647.2388
65536.617 26165.188 428.07376
65248.75 27002.031 454.60889
66487.727 29365.873 1144.0525
67015.664 26657.312 908.78571
65546.359 25703.184 627.50867
65831.484 26404.629 397.29504
65912.141 27786.732 591.15955
66095.508 25956.117 686.56787
65711.031 28144.523 1143.3948
66730.539 29069.268 614.49487
65274.543 26400.08 1048.4828
66260.57 28261.914 482.89752
66417.359 25780.799 343.93002
66734.141 25614.477 651.49219
66029.938 29456.516 813.89722
66533.422 28084.262 1010.8101
66097.906 25795.281 888.31812
66371.672 25357.438 423.81308
65286.531 28345.621 1276.4922
66865.984 26536.074 399.78183
65799.016 27380.531 419.43927
65429.891 28122.225 422.71848
65203.805 27469.859 877.19116
66191.875 25973.082 943.32031
66553.484 25440.004 1016.827
66694.703 25372.857 795.64893
65885.219 28763.092 1123.9581
66206.766 25458.1 798.07367
66847.906 26397.143 1142.9749
66457.625 25693.16 830.25958
66353.859 26570.49 1152.9507
66697.477 26562.709 1285.3571
65563.352 28078.203 485.77634
65405.121 25690.51 386.12427
66660.781 28289.111 822.50305
66576.977 28516.729 570.92609
65921.133 25955.967 941.62305
66915.758 27539.648 1036.582
65210.637 27537.512 502.74854
65708.672 28072.881 474.82684
66769.453 27717.352 1538.3015
66145.281 25149.957 499.63733
66094.469 27281.084 707.32892
66840.391 25900.475 499.39145
66040.844 25151.58 499.32971
66301.328 27405.076 804.20471
66295.125 26794.643 1503.2021
65810.141 25219.324 880.32654
65530.402 29422.615 517.7937
65861.852 28602.637 567.12024
66664.641 28405.633 1602.6685
66641.906 26387.582 1166.2139
66440.125 25783.949 882.85126
66153.547 28044.703 1638.6647
65268.504 28207.604 1188.0343
65249.617 28165.684 785.44507
66462.508 27531.156 1196.5476
65360.508 28094.189 646.41711
