# .PCD v0.7 - Point Cloud Data file format
VERSION 0.7
FIELDS x y z
SIZE 4 4 4
TYPE F F F
COUNT 1 1 1
WIDTH 1541
HEIGHT 1
VIEWPOINT 0 0 0 1 0 0 0
POINTS 1541
DATA ascii
1.7774994 0.29817304 0.28112301
1.8063143 0.29296479 0.28112301
2.3233442 0.29614699 0.28243518
2.4144852 0.2927179 0.28112301
2.4639452 0.29614699 0.28821936
2.8329024 0.29803473 0.28112304
2.9430838 0.29614699 0.28184178
3.415092 0.29562831 0.28952414
2.2221396 0.3238081 0.28112301
1.7253339 0.3408739 0.28112304
2.0574634 0.35827601 0.28799626
2.414283 0.35663885 0.28112301
1.7884107 0.38472465 0.28112301
4.5191383 0.40604824 0.28944021
3.8172107 0.42076004 0.28273958
4.0971427 0.42076004 0.28880015
4.5146704 0.44512048 0.2877689
2.4705982 0.49975023 0.28112304
2.4380372 0.50153923 0.28112301
2.4910936 0.51385945 0.28112304
4.5497661 0.5136686 0.28453717
1.9856879 0.53940761 0.28112301
2.0208197 0.5446797 0.28112301
2.0561054 0.56472313 0.28112301
1.7682822 0.60321999 0.28112301
1.5750065 0.62356746 0.28112301
3.0376534 0.62133992 0.28112298
1.8313503 0.64877212 0.28112301
2.3399556 0.6634298 0.28112301
3.0500147 0.66106856 0.28452086
4.5310359 0.66144544 0.28134757
4.5252156 0.71710193 0.28032148
1.9061637 0.72338837 0.28112298
1.9150691 0.7228024 0.28112301
4.564538 0.72551191 0.28587365
1.6055913 0.75607616 0.28112301
2.9855664 0.75150931 0.28112301
2.2847202 0.77417207 0.28112301
3.0461202 0.79090017 0.28112301
2.5201793 0.82106161 0.28112301
2.7497451 0.8268528 0.28112301
2.4583547 0.83863509 0.28112301
1.9710029 0.85665107 0.28777534
2.2142231 0.85665107 0.28658241
4.5356674 0.85680795 0.2813037
4.5671692 0.88645399 0.28554335
4.5420861 0.90920126 0.28186572
1.5401564 1.12603 0.28327072
2.352308 1.12603 0.28775361
2.3153386 1.2307432 0.28112301
2.095881 1.2418859 0.28112301
1.7673538 1.2518578 0.28112301
2.7035866 1.2589633 0.28112301
1.5949309 1.2695439 0.28112301
1.6520705 1.2614179 0.28112301
2.2197158 1.2909536 0.28112301
2.3807502 1.3098367 0.28112298
2.0420258 1.3176541 0.28112301
2.796725 1.3148595 0.28112301
2.0694966 1.3212318 0.28112301
1.7519121 1.3527471 0.28112301
1.9964575 1.3550444 0.28112301
1.5971663 1.3889276 0.28112304
2.3766603 1.3903016 0.28112301
2.3882184 1.3972954 0.28112301
2.4445412 1.4341825 0.28112301
1.6045607 1.4541699 0.28112301
2.0311291 1.4890015 0.28112301
2.74313 1.502281 0.28112301
1.617678 1.5281745 0.28112301
2.3509459 1.5582864 0.28112301
3.7679405 1.56192 0.28910854
3.9450026 1.5619202 0.28761256
1.7375324 1.5971396 0.28112301
1.8658915 1.5959898 0.28112301
2.1763363 1.6046171 0.28112301
1.5336175 1.6501375 0.28112298
2.4667253 1.6725351 0.28112301
2.6094038 1.68654 0.28744215
2.1808195 1.6948416 0.28112301
2.3054557 1.7209476 0.28112301
1.8743125 1.7369585 0.28112301
2.0362141 1.7380463 0.28112301
2.4708521 1.7369657 0.28112301
1.7809589 1.7406905 0.28112301
2.5632415 1.7487072 0.28929812
3.2581544 1.7422184 0.28112301
3.1770768 1.7535007 0.28112301
2.7096474 1.788138 0.28112301
4.0242519 1.8394399 0.28115094
3.2841237 0.1666633 0.29278621
4.0143752 0.16022506 0.29402223
1.6211121 0.29614699 0.29332021
4.5485401 0.29163325 0.29467267
4.5470457 0.31973562 0.29456338
4.229485 0.33073592 0.2962406
0.71912068 0.463572 0.29135248
4.6546164 0.69547123 0.29876953
0.20579119 0.72437859 0.29106081
4.6032128 0.81086528 0.29105771
4.6118755 0.90218902 0.2915135
0.21972303 0.93918347 0.29179385
0.21837027 0.95140994 0.29528713
1.640834 1.12603 0.29514307
4.6203837 1.2916328 0.29392558
0.24839747 1.3283641 0.29073671
3.4991033 1.5768875 0.29427505
2.4377117 1.68654 0.29722092
2.5625687 1.68654 0.29064611
1.1687906 1.7842996 0.29609007
2.2554073 1.7958722 0.29876271
3.4431391 0.17769989 0.30790865
2.2579439 0.18523049 0.30567089
1.2711127 0.22691236 0.30804849
1.6077919 0.23172328 0.3045226
3.234123 0.28700638 0.30779684
1.8447349 0.29614699 0.30275795
0.24893746 0.62597317 0.30535895
0.23172198 0.7436235 0.30833593
4.67029 0.82374203 0.30034265
1.8405013 0.85665107 0.30322632
0.21921493 1.0935808 0.30412671
2.1722789 1.12603 0.30442917
4.7237449 1.2888794 0.30858928
4.6612611 1.4498458 0.30029669
4.6028094 1.488471 0.30080891
1.5047427 1.5514063 0.30002579
4.6114106 1.5666156 0.30815622
2.0122566 1.68654 0.30597067
2.6006424 1.7072446 0.30533773
3.0681877 0.1654965 0.3196651
2.7243452 0.17450297 0.31124967
4.6868038 0.20612448 0.31063488
3.4990613 0.37549421 0.31822079
3.7703118 0.42075998 0.31860399
4.3536401 0.42076001 0.31376195
0.81689376 0.46357203 0.31456879
1.9818037 0.49587163 0.31755814
4.7757773 0.66371995 0.316084
4.7709074 0.75841546 0.31482562
2.0076756 0.76288247 0.31112424
1.4895682 0.77149212 0.31222156
4.7632837 0.77150083 0.31364375
1.6413693 0.85665107 0.31076735
4.7818203 0.94227356 0.31524926
4.7823052 0.96220517 0.31531745
4.8132076 1.0472562 0.31966358
0.18855637 1.134606 0.31536594
4.6797361 1.4764127 0.31985411
4.6508155 1.5655385 0.31614554
0.42347914 1.6142468 0.31760365
1.8456724 1.6865401 0.31455809
2.9877717 1.68654 0.31887311
2.154835 1.7972357 0.3141523
2.7860076 1.8112527 0.31944478
3.6983886 1.84936 0.31699336
3.2003629 0.16182491 0.3236829
1.5025524 0.34507197 0.32527548
4.3626099 0.42076001 0.32341689
1.4961419 0.62410903 0.32372126
4.8342609 0.63942909 0.32447386
0.20237549 0.86604589 0.3284995
2.6403992 1.12603 0.32617784
2.02422 1.1965147 0.32359147
1.981859 1.3081865 0.32964131
4.8374286 1.3009059 0.32474819
1.4987178 1.4132459 0.32591569
4.3753915 1.576049 0.32725841
3.6911645 1.6710626 0.32986182
2.627552 1.6865401 0.32312304
4.7367635 1.7118831 0.32802528
4.2808428 1.724378 0.32672012
2.6005297 1.7433355 0.3267895
3.6420486 1.8595673 0.32577732
4.7913418 0.20651583 0.33541214
4.7605901 0.26689243 0.33018652
3.6946657 0.27463025 0.33550793
3.1845055 0.28191012 0.33047897
1.7046316 0.29614699 0.33185554
4.7172818 0.37121645 0.330448
0.20518139 0.63464439 0.33261192
4.9128337 0.65810555 0.33644748
3.055707 0.72607982 0.33528334
2.7659438 0.85665101 0.33709037
3.0112407 0.85665101 0.33587176
0.19158062 0.92239261 0.33024073
1.7874323 1.12603 0.33562252
1.8748355 1.12603 0.33736598
2.9335561 1.12603 0.33685082
4.9212427 1.1278703 0.33485797
4.9111757 1.1341876 0.33344212
4.9064012 1.2165147 0.33333462
4.8865204 1.257129 0.33102885
4.9077721 1.3648624 0.33528799
4.801446 1.5360807 0.33456701
4.7358055 1.5889733 0.33456701
4.7270489 1.5943938 0.33200437
0.49081802 1.6236579 0.33235225
4.7645612 1.6297231 0.33456701
3.6571622 1.663358 0.33789057
3.1274996 1.694752 0.3357107
2.6982214 1.7261282 0.33249199
4.3752294 1.7472805 0.3351838
3.4455292 1.7661561 0.33492652
1.2760322 0.17529221 0.34342349
3.7762041 0.17221045 0.34019339
1.5084971 0.18566552 0.34588915
1.9778391 0.18250923 0.34393963
3.6948214 0.25508648 0.3426739
0.30820701 0.28004205 0.34770426
0.3150067 0.28080779 0.34360537
2.1036713 0.29614699 0.34137669
4.8414207 0.33186847 0.34893578
1.98173 0.50278771 0.34951305
2.5089459 0.66146457 0.34261429
1.486694 0.83593351 0.348773
3.8414874 1.56192 0.34325519
3.8994467 1.5619202 0.34130597
0.32720071 1.6557529 0.34383759
1.4991777 1.6757699 0.34814471
1.8911769 1.68654 0.34957016
2.4144328 1.6865399 0.34935349
2.4366589 1.68654 0.34771699
2.5894947 1.68654 0.34892386
2.6926563 1.7258168 0.34378782
2.0940704 1.803411 0.34812307
0.37160075 0.21182744 0.35738289
4.1765728 0.22300565 0.35973561
1.5073633 0.29614699 0.35872549
2.4208221 0.29614699 0.35688806
3.284502 0.29614699 0.35183305
2.0677228 0.35648388 0.35764384
3.0545828 0.56566358 0.35825369
0.108815 0.80926329 0.35870278
2.5079374 1.3743901 0.35288483
1.0467367 1.51911 0.35328999
4.0759811 1.56192 0.3540324
0.30756408 1.6641586 0.35533777
1.7313304 1.68654 0.3517372
1.8973198 1.6865399 0.35872012
2.7035034 1.68654 0.35400355
2.608408 1.7469096 0.35524258
4.2808437 1.7448896 0.35138643
3.5908108 1.8380079 0.35369012
3.7265689 0.15598996 0.3667545
1.8567855 0.18255392 0.36710763
0.89864165 0.19959152 0.36187166
1.518916 0.29614699 0.36937019
2.6592469 0.29614699 0.36651298
2.8255782 0.29614699 0.36187878
0.49081609 0.31477967 0.36993784
1.0487053 0.463572 0.36522496
1.2553613 0.46357197 0.36890078
0.1464193 0.71080911 0.3643589
2.0258958 0.78770649 0.36580867
3.0641832 0.78437543 0.36994427
1.5418757 0.85665101 0.36214054
1.6701776 0.85918409 0.36725307
1.7606227 0.85763985 0.36453044
4.933095 1.0914122 0.36249968
1.9309243 1.1239258 0.3664968
0.43481392 1.51911 0.36738116
1.4940903 1.5502303 0.36773321
0.27227715 1.6011088 0.36019456
0.59498644 1.6867217 0.3683818
0.99324298 1.7393241 0.369335
3.590816 1.7434289 0.36137426
2.2067602 1.8078945 0.36333567
2.6003196 1.8020111 0.36665285
2.3309913 0.29614699 0.37302476
4.9180603 0.58754438 0.37599975
1.5907482 0.86641252 0.37999719
2.4490681 0.86498499 0.37748054
1.7925684 1.1186882 0.37573111
2.9798343 1.1180099 0.37692696
0.108815 1.170954 0.37496141
3.0652804 1.2078511 0.3775185
0.19855046 1.4566723 0.37417257
4.7350316 1.4843996 0.37239
0.20773877 1.49872 0.37992635
0.71170938 1.51911 0.37870628
0.80669069 1.51911 0.37664542
0.52109301 1.5908326 0.37855068
1.7983484 1.68654 0.3705228
2.5113127 1.68654 0.37597519
3.2446785 1.68654 0.37813359
4.8096018 1.7789047 0.37792051
4.4010544 1.8377256 0.37023237
2.3602719 0.1679911 0.38978764
4.7502003 0.19403817 0.38165528
3.1434014 0.29614699 0.38621181
3.3387113 0.29614699 0.38216972
2.2601712 0.35726517 0.38056117
4.1312075 0.42076001 0.38790774
0.21947888 0.43043512 0.38457546
4.8723164 0.45877239 0.38354999
4.8010178 0.48932949 0.38511956
1.4891666 0.54356802 0.38753513
2.4216199 0.81594396 0.38493711
1.485597 0.83573085 0.38468331
2.3914442 0.91586781 0.38112301
2.6431687 0.91314209 0.38112301
2.6706376 0.92018127 0.38112301
2.7475424 0.97733319 0.38112301
2.6708417 0.98629403 0.38112301
2.5627389 1.0027142 0.38112301
2.6107621 1.0057446 0.38112301
2.3961101 1.0109293 0.38112301
3.011224 1.0228589 0.38112301
2.5193276 1.0341244 0.38112301
2.510112 1.0428218 0.38112301
2.6273501 1.0644424 0.38112301
2.7292776 1.0741311 0.38112301
2.1299233 1.1159743 0.38051608
2.4930036 1.1137943 0.38112301
2.9704435 1.1162107 0.38009921
4.7026439 1.5413865 0.38354999
4.7580056 1.5716615 0.38063848
4.6724224 1.5832728 0.38028854
1.0739431 1.6677216 0.38366783
2.7950981 1.6865399 0.38510993
3.8619387 0.16176379 0.39478418
1.5971347 0.26044634 0.39379808
1.555476 0.29614699 0.3998805
1.6242189 0.29614699 0.39440006
2.6477265 0.29614699 0.39220449
2.5280073 0.80035388 0.39157447
4.9446373 1.047998 0.3982113
1.731811 1.116832 0.39694664
0.13854346 1.241221 0.3960177
0.84720576 1.51911 0.39957494
1.5448507 1.6865401 0.39202332
2.7691202 1.68654 0.39728981
3.4629991 1.8402666 0.3912552
2.3883374 0.16599767 0.40226755
1.2610332 0.28102949 0.40703332
2.0947635 0.29614699 0.40659106
3.6216853 0.33057222 0.40074599
3.8245928 0.42075998 0.40629852
1.8807036 0.86522454 0.4051733
2.3216064 1.0613035 0.40033016
1.6569064 1.1171143 0.40066242
2.5350971 1.1871846 0.40400326
1.487016 1.5003002 0.40510848
3.5950904 1.7422075 0.40108231
2.3678133 0.16460171 0.41955662
2.548533 0.16166933 0.4103888
1.5915253 0.20820896 0.4178673
3.3941932 0.29614699 0.41534233
1.4867066 0.34761921 0.41787958
0.72885871 0.46357203 0.41487473
1.2583529 0.46357197 0.41756237
1.981643 0.51094824 0.41242528
2.5345099 0.76312447 0.41902405
1.7272232 1.1182462 0.41556418
1.4822102 1.2660537 0.41420621
4.1415186 1.56192 0.41134694
2.3029969 1.6261929 0.41689897
3.5100787 1.6549916 0.41416413
2.5527401 1.7266239 0.41914761
2.5955732 1.7453266 0.41302711
3.5104918 1.764663 0.41559011
1.9218028 1.8069851 0.41122556
1.3795813 1.8115032 0.41186973
4.3968391 1.8436744 0.41613677
4.4493065 0.14493354 0.42527074
2.6857049 0.15767492 0.42005014
2.907331 0.15287386 0.42012915
3.9856575 0.16129784 0.42034158
3.7076671 0.19425428 0.4234643
4.8843317 0.27842823 0.42973551
2.706588 0.29614699 0.42239302
0.56719714 0.37247765 0.42189848
1.8337359 0.86358237 0.42679745
4.952414 1.1830745 0.42577073
3.5119059 1.5708921 0.42047167
3.0421388 1.6414102 0.42024565
1.6633811 1.68654 0.42593032
2.1791821 1.68654 0.42120486
2.6182411 1.7449937 0.42552724
1.1150936 1.7867928 0.42759538
1.5902587 1.790759 0.42638877
3.0469975 1.8331203 0.42064679
3.4861262 1.8439579 0.42175397
3.0624723 0.1482275 0.43093336
4.4734592 0.14751036 0.43694028
1.9363954 0.17232239 0.43634465
4.6347418 0.17270707 0.43623438
4.8196874 0.19800104 0.43500188
3.5191054 0.42076001 0.43555623
1.2108232 0.46357197 0.43126839
2.4102514 0.81622326 0.43495989
2.3426054 1.086062 0.43772388
3.0488482 1.396674 0.43083417
0.19741097 1.4659655 0.43643543
3.2184701 1.7223103 0.43744481
4.3625422 0.13442385 0.44948569
4.8882647 0.26912713 0.44988608
0.24159749 0.33330578 0.44537199
0.14635901 0.6679526 0.4404394
3.0486963 0.68190837 0.44795161
2.2169001 1.1156299 0.44438475
0.108815 1.1593194 0.441596
0.8577069 1.51911 0.4497619
0.61729628 1.7178051 0.44516283
4.3564134 1.7526529 0.44216686
0.56704235 1.786828 0.44338727
4.7580724 0.18658687 0.45313668
0.72432911 0.19981594 0.45778584
0.50677037 0.21212067 0.4536112
2.5998533 0.23736767 0.45561272
4.0443597 0.42076004 0.45597863
4.9276714 0.46783361 0.4543404
2.4174542 0.59834778 0.45398387
2.4038801 0.6779089 0.45515305
2.676806 0.88368165 0.45778692
0.118865 1.027908 0.45797408
2.2586803 1.11563 0.45610571
0.13615084 1.2539616 0.45851094
4.9266725 1.5240179 0.45485502
3.6346731 1.56192 0.45521584
4.275979 1.56192 0.45219824
0.62058598 1.6000639 0.45734042
3.701539 1.6632226 0.45931619
3.0431333 1.6780584 0.4581807
1.9605936 1.6865399 0.45960826
1.1626369 1.7316548 0.4586302
2.6931129 1.7441041 0.4581604
4.263176 1.7993475 0.45742518
3.8185287 0.15301427 0.46295017
4.717062 0.18020397 0.46244246
2.1070223 0.29614699 0.46993822
2.9754467 0.29614699 0.46974063
4.0164843 0.42076001 0.46902984
1.1624372 0.463572 0.46573827
2.5026388 0.82490528 0.4603681
2.293417 1.0194033 0.46857715
3.0456004 1.3810631 0.46602792
2.3185177 1.3992102 0.46574455
2.3571529 1.4143008 0.46758369
1.7577616 1.6865401 0.46076632
2.5998044 1.7577448 0.46495762
4.3666377 1.8497543 0.46510684
3.526726 0.13510083 0.47161171
1.6045573 0.29614699 0.47679591
2.0891244 0.29614699 0.47804219
2.9018054 0.29614699 0.4795458
1.1720943 0.463572 0.4786979
2.2053194 0.81265551 0.4726491
2.3565936 0.85367495 0.47845197
2.1441498 1.0721616 0.47359478
1.4721558 1.3370286 0.47886801
0.22331384 1.5906796 0.47418883
0.51692063 1.6251197 0.47625929
2.1695604 1.68654 0.47581419
2.2968087 1.822248 0.47312647
4.3588605 1.8509505 0.47313318
0.69387305 0.20857042 0.4811576
4.2391748 0.33005849 0.48041925
0.46013188 0.46357197 0.48021889
2.0007596 0.88324976 0.48807287
1.9630291 0.97365159 0.48727763
1.9741229 1.0092765 0.48660573
2.0290799 1.0846856 0.48620722
2.3172908 1.1590389 0.48532468
0.19065517 1.4488633 0.48587698
0.20506512 1.515341 0.48406345
2.694943 1.7434323 0.48280439
3.0373445 0.14225963 0.49345401
4.4966583 0.14737864 0.49792039
1.0447422 0.1760138 0.49917942
0.3791948 0.19788003 0.4937658
3.5338962 0.19399825 0.49589556
3.748198 0.20560524 0.49528903
2.855123 0.29614699 0.49456438
2.2351267 0.43045086 0.49615902
1.1883719 0.463572 0.49630991
0.15886886 0.70848 0.49654514
3.04953 0.70640534 0.49332657
1.8515546 0.88760948 0.4920069
1.9028983 0.91463077 0.491373
1.898598 1.1213324 0.49320358
0.13976468 1.1979146 0.4950614
1.1045439 1.51911 0.49588555
4.2177691 1.56192 0.4971706
4.3348298 1.56192 0.49890584
1.0343826 1.5958226 0.4920001
1.7787356 1.68654 0.49359173
2.5796535 1.68654 0.49991089
2.695617 1.68654 0.49989033
3.411329 1.68654 0.49270034
3.4510682 1.6865399 0.49355984
1.7191417 1.8119491 0.4937523
2.4792051 1.8282003 0.49199083
4.0973024 1.839237 0.49445266
3.7589974 0.15738726 0.50815535
2.1084852 0.16157492 0.50629878
2.4595163 0.29614699 0.50178576
3.5413356 0.29746127 0.5079304
2.4075963 0.33472815 0.50364345
0.46580791 0.40076867 0.50191671
0.64294982 0.463572 0.50150573
4.9518313 0.62161213 0.5050661
4.9683108 0.86576819 0.50799584
4.9681416 1.1245093 0.50706762
2.5024321 1.1489586 0.50698417
1.4680004 1.3715519 0.50601441
4.1190891 1.56192 0.50893807
4.3163133 1.56192 0.50794572
0.24461758 1.6587996 0.50769806
2.5021126 1.6502421 0.50133097
2.144068 1.68654 0.50757921
3.1288857 1.7126001 0.5099898
1.2287891 1.7565908 0.50344908
3.4834404 1.8452491 0.50310707
1.262611 0.15754618 0.51483333
1.5883265 0.17343354 0.51218534
2.5996006 0.22408791 0.51213157
1.0007664 0.28526983 0.51972747
2.9676838 0.29614699 0.516065
0.47435209 0.4332287 0.51707679
2.1734381 0.50364858 0.51768208
2.2091231 0.5460822 0.51368833
0.1618893 0.64426601 0.51045972
2.6014066 0.85481524 0.51006693
2.6192951 0.85499728 0.51511407
2.5614884 1.1658458 0.51078504
0.15204094 1.2006129 0.51899707
0.63771141 1.51911 0.51264721
1.984796 1.5435812 0.5184738
2.2835736 1.6489297 0.51335865
0.53718656 1.7563819 0.51999587
3.4873695 1.7778614 0.51767993
0.48120338 0.2745769 0.52923328
3.3537669 0.27801105 0.52053851
1.564458 0.29614699 0.52641833
2.3926764 0.75807798 0.52557158
2.6266253 1.0954373 0.52918208
2.1607914 1.4359958 0.52887976
1.4649866 1.4467055 0.52977943
4.9433975 1.4565871 0.52682275
0.74213105 1.51911 0.52293223
3.6986964 1.5619199 0.52544236
3.8973072 1.5619199 0.52103317
4.0643163 1.5619199 0.52296507
1.0058763 1.5922763 0.52948505
2.1045628 1.6668744 0.52989089
2.684382 1.7423385 0.52292949
3.2533426 0.13545471 0.53832603
0.56087893 0.17681506 0.53071785
3.5555589 0.28836218 0.53031504
4.1991076 0.33053741 0.53198218
1.465843 0.35942894 0.53912079
3.6377254 0.42076001 0.53677475
0.16138877 1.0325389 0.53601116
1.6980532 1.1282029 0.5348298
2.1299279 1.2522106 0.53111875
2.1146142 1.2728313 0.53674418
2.1328654 1.4593731 0.53911853
2.7663157 1.68654 0.53068197
0.55158836 1.7590735 0.53971016
3.0913255 0.13912496 0.54424381
3.5622933 0.15604162 0.54091334
2.5996618 0.21019733 0.54882741
2.5996523 0.22338507 0.54316491
3.6546173 0.2532081 0.54384428
0.55436623 0.27243835 0.54350471
2.6244001 0.29614699 0.54636967
2.1984897 0.32305944 0.54206276
0.16215023 0.74960482 0.54650265
3.0688524 0.74460483 0.54680687
2.6709397 1.0661075 0.54027981
2.1145511 1.3183821 0.54514897
2.1383739 1.666572 0.54192293
1.4661561 1.679697 0.5418762
3.4681964 1.68654 0.54817253
1.1171656 1.7557781 0.54368079
1.5995492 1.8095056 0.54394203
2.2241101 1.8238442 0.54815793
3.7856042 1.8592683 0.54915971
1.202843 0.15859506 0.55790812
4.0466204 0.16100176 0.55730504
1.1970611 0.1976583 0.559744
0.72020042 0.28471357 0.55528164
0.24512859 0.34826756 0.55976057
3.0746663 0.34217197 0.55069786
0.49715468 0.37748697 0.55753601
3.4005172 0.47477639 0.55533218
3.4186645 0.47301731 0.55555731
0.20597668 0.49929878 0.55107266
2.0943139 0.59238434 0.55205435
3.5309515 0.61248207 0.55417138
3.4242454 0.62508154 0.55063999
3.3792555 0.6300534 0.55063999
3.2827325 0.72835273 0.55063999
3.3936629 0.80142629 0.55063999
3.5498605 0.82808489 0.55037081
2.1352954 0.8355239 0.5583685
3.3722782 0.83420742 0.55063999
3.0949926 0.84901249 0.55255115
3.4188199 0.87237453 0.55063999
3.5244737 0.87728184 0.55705005
3.519011 0.88536018 0.55063999
3.4893637 0.92299366 0.55145109
3.3213167 0.93786842 0.55063999
3.4991157 0.94470203 0.55519217
3.4306004 0.95950055 0.55063999
3.3500817 0.97887051 0.55063999
3.3123376 0.9916876 0.55063999
3.4363267 0.99328887 0.55063999
3.0929711 1.0132602 0.55374289
0.14464682 1.0469762 0.55278283
3.1891904 1.0960219 0.55471927
3.2676983 1.1090016 0.55063999
3.3453257 1.1477609 0.55063999
3.3825524 1.1449535 0.55063999
3.1662848 1.1738579 0.55158889
3.1182075 1.2602181 0.5574277
3.4732895 1.3948586 0.55063999
3.1973634 1.4210812 0.55063999
3.3767397 1.4802556 0.5517928
3.5467272 1.484669 0.55421686
3.3904572 1.5065383 0.55515718
3.519351 1.5489922 0.55681694
3.8526597 1.5619202 0.55921119
2.1414866 1.6549408 0.55635476
4.1594696 1.6635649 0.55421472
0.9442941 1.6736506 0.5594362
2.7183752 1.68654 0.5517503
0.89332688 1.7675804 0.55802691
4.5960207 1.8222721 0.55537271
4.2973595 0.15813388 0.56395841
1.7716215 0.1692058 0.56272089
1.8661573 0.16702294 0.56865877
1.5656434 0.17334007 0.56798226
1.5794704 0.26594871 0.56274015
1.7388902 0.29614699 0.56368744
1.9595233 0.36678013 0.56489402
3.0245109 0.36125612 0.56489402
3.1903052 0.36108562 0.56489402
1.9945208 0.37719613 0.56489402
3.0045547 0.37270528 0.56489402
3.2171502 0.4210653 0.56063998
3.5078437 0.60232306 0.56047118
2.3457701 0.86915672 0.56919718
0.13502543 0.93838847 0.56340277
0.13551037 0.96896112 0.56826288
2.4451933 1.0937951 0.56561321
3.2126975 1.0982953 0.56995022
3.5766733 1.0924819 0.56029058
2.604229 1.3357133 0.56127316
0.18318313 1.377499 0.56564307
0.61639583 1.51911 0.56394476
3.3222117 1.5699818 0.56063998
3.831183 1.56192 0.56618702
3.3659496 1.611248 0.56063998
3.4432509 1.6109955 0.56063998
2.1110451 1.6213849 0.56489402
2.0150318 1.6442251 0.56489396
2.2309282 1.6680441 0.56489402
2.4647686 1.6865399 0.56981373
2.8503766 1.68654 0.56426924
3.8511887 1.7509234 0.56959057
4.0399866 1.7670214 0.56172168
3.5320728 0.12987867 0.57004398
1.4857686 0.16410059 0.57555056
4.675478 0.17097856 0.57620519
4.2868977 0.21944728 0.57963961
0.27988642 0.44568121 0.57715631
2.4244828 0.4729678 0.57085419
0.27174589 0.50496626 0.57294708
3.5518303 0.51779014 0.57630056
3.5530314 0.69347829 0.5721308
0.147921 0.72741258 0.57380956
1.4699847 0.75885946 0.57977784
1.8471351 0.89290559 0.57304132
3.0600464 0.89280039 0.57195789
2.5940228 1.1692696 0.57401758
0.29338092 1.4529245 0.57189542
2.4208443 1.4783281 0.57307851
0.70580071 1.51911 0.57002676
1.0973229 1.6630118 0.5708307
4.2907925 1.7446557 0.57380211
3.4978249 1.7742897 0.57255924
1.4622052 1.8145649 0.57720184
2.4856467 1.8298695 0.57837969
4.1768556 1.8580245 0.57633126
1.4946718 0.16979627 0.58382487
4.1879382 0.21275941 0.58098507
1.1772714 0.294074 0.58900583
0.56270957 0.463572 0.58105654
0.26992184 0.51771003 0.58560008
3.5563695 0.71796447 0.58604896
3.0737019 0.85731071 0.58686125
2.6760516 1.0037892 0.58507502
2.346334 1.0804355 0.5824306
4.9820824 1.1514659 0.58338404
1.4655275 1.3025856 0.58878911
0.24558018 1.4348841 0.58311927
0.82566333 1.51911 0.58726025
3.687665 1.56192 0.58846694
3.9536784 1.5619202 0.58409041
0.30208984 1.5902216 0.5840193
2.030762 1.60334 0.58507407
3.0377197 1.60334 0.58075094
0.369858 1.6101465 0.58044982
1.5720341 1.7381028 0.58440137
1.1829803 1.8019688 0.58362889
3.6890616 1.8454781 0.58578146
0.64371008 0.17643565 0.59534109
1.5714507 0.1799641 0.59724927
0.83706814 0.1811884 0.59193969
2.615742 0.37413022 0.59878749
3.5544305 0.44727993 0.59196484
2.4474716 0.84534431 0.59615272
3.1455519 0.85659128 0.59976381
2.5380714 0.87311018 0.597601
2.3544934 0.89280945 0.597601
2.6390529 0.89456648 0.597601
2.4387579 0.92589581 0.597601
2.5157537 0.93027663 0.597601
2.3938453 0.94062889 0.597601
0.12951766 1.0117861 0.59304684
2.6503983 1.0172999 0.597601
2.4809799 1.051892 0.597601
2.5300002 1.0500817 0.597601
2.6471009 1.0749568 0.597601
2.3567798 1.0918 0.597601
3.5594702 1.2223002 0.5983274
2.4318843 1.2478215 0.59974897
2.6145878 1.4210349 0.59239501
0.55347735 1.51911 0.59381443
0.95721442 1.51911 0.59018767
0.36985803 1.640094 0.59110469
3.3405275 1.6571953 0.59480745
2.8578391 1.68654 0.59683645
0.40643525 1.7861346 0.59815669
1.2884583 0.16057345 0.60628527
1.8582833 0.16720954 0.60894758
0.30329645 0.44133905 0.60513002
0.53971207 0.45043314 0.60927546
0.76864731 0.46357197 0.60464597
0.86440325 0.46357197 0.60754085
1.4579864 1.434348 0.60549819
0.24257442 1.4794786 0.60819548
0.34137243 1.5328865 0.60487401
0.28812879 1.5655525 0.60586321
0.68602359 1.5907601 0.60960925
3.3183954 1.60334 0.60351938
2.7967525 1.6865399 0.60587835
0.61113232 1.6956642 0.60553515
1.3852367 1.8178777 0.60373777
2.505718 1.8303922 0.60479945
3.8241112 0.13465419 0.61399448
3.6108451 0.18455997 0.61048043
2.5997765 0.25919545 0.6177299
1.1449867 0.31818184 0.61941242
3.0482512 0.37934703 0.61228013
0.59958136 0.463572 0.61299527
3.5630937 0.72949237 0.61667609
1.8398215 1.0364078 0.61223465
3.5895734 1.0937672 0.61042535
0.546983 1.536607 0.6161229
4.1549311 1.7451973 0.61053962
3.5069625 0.1407093 0.62052256
1.5019822 0.16477802 0.62736845
1.5707173 0.21575174 0.62296039
2.6845851 0.26440465 0.62551391
2.8711281 0.29614699 0.62535191
3.6268589 0.33880869 0.62455094
3.7943308 0.33058959 0.62740886
1.9059641 0.379347 0.62274843
0.27384272 0.39069566 0.62720209
0.68726397 0.46357197 0.62510914
3.5610533 0.46121868 0.62126464
1.4674354 1.2320012 0.62093544
1.4524838 1.5181632 0.62973017
1.1383101 1.5677378 0.62570053
1.4499651 1.5961007 0.62991083
1.5545458 1.6865401 0.62046403
1.5694617 1.7949331 0.62236881
3.1938858 1.8450599 0.62525219
3.4738455 1.8509443 0.62110633
0.7332316 0.1763781 0.63397652
3.4463813 0.29614699 0.63150907
1.7069864 1.136265 0.63103944
2.4386837 1.1333532 0.63330722
3.5668621 1.3654217 0.63974094
3.0974851 1.60334 0.63122761
4.2385926 1.6737094 0.63323188
4.7994022 1.7948138 0.63607556
2.6824052 1.8343389 0.6303308
2.7183754 0.14863946 0.64144295
2.7425044 0.14836793 0.6436379
2.1449313 0.16059448 0.64175677
1.0022764 0.21399109 0.64566028
1.5696882 0.244555 0.64544719
2.6314087 0.51610684 0.64002573
0.16493347 0.719181 0.64009845
3.5679512 1.3863127 0.64583296
0.96438491 1.5909554 0.64967996
1.1150482 1.6028297 0.64760923
3.0150282 1.60334 0.64975911
1.0058085 1.6118674 0.64362323
1.5572283 1.68654 0.64858705
4.1108499 1.8443373 0.64073753
3.6552722 0.12945046 0.6597566
4.2180576 0.12777205 0.65738785
1.7619345 0.16944639 0.65901506
0.47362256 0.18807945 0.6551103
1.5669652 0.18884847 0.65163118
0.67766762 0.2428664 0.6504184
2.6005809 0.26447886 0.65685916
2.5576253 0.29614699 0.65851575
4.1360884 0.42076001 0.65063405
1.4576116 0.5946272 0.65792853
1.4657633 0.75006974 0.65257072
0.71549201 1.5915916 0.65426457
1.8741622 1.60334 0.65997541
3.2323921 1.6033401 0.65433627
0.58516061 1.6427393 0.65207738
3.4301739 1.6865401 0.65494078
0.38488486 1.7730541 0.65752125
4.2027845 0.13830084 0.66330683
1.1754128 0.15930909 0.6617105
2.135649 0.16081734 0.66694462
3.6705198 0.28655875 0.66291356
4.9243841 0.54755414 0.66386265
0.18984781 0.69786507 0.6615169
3.5743918 0.7560823 0.66777915
0.17462763 0.80208361 0.66234159
3.4870613 0.86081105 0.66449666
3.51512 0.91553545 0.66504002
3.079565 0.93529987 0.66504002
3.2730093 0.95570123 0.66504002
3.247364 0.96477771 0.66504002
3.3822587 0.97818375 0.66504002
3.5831342 0.99530452 0.66504002
3.2129457 1.0291588 0.66504002
3.5828784 1.0454581 0.66504002
0.15247248 1.1391118 0.66616327
2.585588 1.1497757 0.66688937
2.6177783 1.3882761 0.6635114
0.59582543 1.5203938 0.66212112
0.84684956 1.5908726 0.66404557
0.60300112 1.6663004 0.66887891
4.0611973 1.7991755 0.66529536
1.0771307 0.22428894 0.67718208
3.6803837 0.29942313 0.67158055
3.6887412 0.35420364 0.67892385
0.18360355 0.74949205 0.67513812
3.5778203 0.88587135 0.67750239
1.7266572 1.142992 0.67174011
1.8389043 1.1533961 0.67573547
1.447582 1.5726779 0.67099124
0.74151993 1.6463811 0.67532551
1.078418 1.6513956 0.67655504
0.61152464 1.7979095 0.67386472
4.0370612 1.8011928 0.67309594
2.5555954 1.8276746 0.67478192
2.7479887 1.8314314 0.67388082
3.4937041 1.8455753 0.67037761
4.4439659 0.1463556 0.68687207
0.77894509 0.27080482 0.68408996
2.3671913 0.29614699 0.68323195
2.5804181 0.29614699 0.6831758
0.34202895 0.30502066 0.68215454
0.894674 0.32238883 0.68388295
0.26441187 0.58541548 0.68473673
1.8686489 1.1371392 0.68235314
3.5781722 1.3202764 0.68997753
0.28654921 1.4493518 0.6872735
1.4823129 1.68654 0.68093282
3.390233 1.6865401 0.68914503
3.5124307 1.7026062 0.68047541
3.9632835 1.7612089 0.68716753
3.7026892 1.7905341 0.68805593
2.2871718 1.8227141 0.68366969
3.5133333 0.2102579 0.69150841
4.1546502 0.25454995 0.69711304
2.4122896 0.29614699 0.69414032
1.0459484 0.33436453 0.69236982
2.3229899 0.34958124 0.69419819
2.3161716 0.379347 0.69923782
0.92737854 0.46357197 0.69266135
4.9185176 0.51228946 0.69652903
2.4553087 0.63553923 0.69374013
1.8385633 1.1572627 0.69788218
3.5804093 1.2943709 0.69783843
3.5792749 1.3194392 0.69505262
2.455565 1.3450873 0.69399488
0.29904056 1.4933207 0.69526833
3.5772669 1.5450208 0.69660687
1.5653903 1.7596231 0.6968838
4.4532099 1.8341929 0.69701147
4.4087019 0.14583184 0.70575285
3.7438359 0.24606836 0.70727634
4.1333075 0.2508325 0.70650923
3.4473071 0.29614699 0.70298922
1.0213555 0.31393588 0.70434821
4.142899 0.33811936 0.70228642
2.6447701 0.44299778 0.70647424
0.28305656 0.57555377 0.70558286
0.17417926 0.88862801 0.70399034
0.20037235 1.3307233 0.70146239
3.5812113 1.4055195 0.70320427
0.67463559 1.6339488 0.70460355
1.0265342 1.7298734 0.7018258
2.5527401 1.7303481 0.7062155
2.6020744 1.7828947 0.70484155
1.6140957 0.17307667 0.71275985
4.1100125 0.17559694 0.71676493
3.5153034 0.21631987 0.71559298
0.70028764 0.30990487 0.71709794
1.0073323 0.40312457 0.71117836
4.9353466 0.86036253 0.71961343
0.15950803 0.87231922 0.71014583
1.862633 0.89924997 0.71268731
0.32978773 1.597567 0.71126574
3.3518448 1.6209021 0.71853429
1.5495898 1.6374979 0.71544218
2.6345186 1.6341271 0.71641827
2.2230155 1.8182129 0.71782458
3.6922901 1.8526113 0.71089947
4.0909233 0.15580975 0.72516906
1.5392164 0.17568393 0.7298544
0.9858678 0.20682743 0.72163296
3.788475 0.20585825 0.72812796
0.95493603 0.32333264 0.72999924
0.96262151 0.36747909 0.72882915
0.32244655 0.37304416 0.72410208
0.95565099 0.41400409 0.72989035
1.5060588 0.53531641 0.72121012
4.9171996 0.54910046 0.72833192
0.14624296 1.0167104 0.72827959
1.8412092 1.0155084 0.72801781
2.6360254 1.3809042 0.72446924
2.9791551 1.60334 0.72646558
4.0805359 1.6472632 0.72974223
2.8986101 1.6565616 0.72187912
3.7867906 1.7525191 0.72734106
0.97864383 1.7759398 0.72515154
2.1569729 0.16914348 0.73764414
0.581173 0.18258666 0.73316908
0.79015112 0.23661712 0.73755366
2.6038659 0.2546894 0.73798877
0.77381778 0.32393304 0.73506701
0.17144915 0.6142385 0.73401022
1.8702242 0.98957729 0.73225743
4.9220681 1.1254454 0.73273975
4.9212976 1.1532195 0.73561633
0.18940625 1.236928 0.7310071
0.19389102 1.2656767 0.73351479
1.5259194 1.2886231 0.7360186
0.16402221 1.3605187 0.73806518
0.80130422 1.5503569 0.73925161
2.1392758 1.6033399 0.73395419
3.1449547 1.60334 0.73576188
3.2726095 1.6033401 0.73597652
0.75785279 1.6218978 0.73263651
3.3313007 1.6310272 0.73782259
1.669549 1.68654 0.73292989
0.78696108 1.6975214 0.73706794
1.424432 1.8089085 0.7391209
4.7132826 1.8016219 0.73292542
2.1581399 1.8143528 0.73331934
2.9158611 0.1579967 0.74418175
0.85894608 0.26833156 0.74461293
1.630724 0.29961032 0.74319345
3.2532485 0.29986596 0.74483699
2.0200663 0.37867144 0.74483699
2.4744468 0.42498252 0.74467432
0.29722938 0.47606587 0.74655163
0.1776866 0.90586793 0.74882412
1.5372348 1.203315 0.7439236
1.5323689 1.2287827 0.74131107
1.5405364 1.2508177 0.74115247
1.6389042 1.5229595 0.74580407
3.8646293 1.5779967 0.74617118
0.85143399 1.6066293 0.74575657
1.9360268 1.614876 0.74483699
2.0123515 1.657858 0.74483693
2.0419693 1.6573998 0.74483699
3.0404015 1.6595825 0.74483699
3.0709877 1.6514626 0.74483699
1.6577919 1.6783068 0.7432844
1.8137064 1.68654 0.74509257
2.4329495 1.6865399 0.74409974
3.0428016 1.6813455 0.74483699
3.5142777 1.7197537 0.74246216
0.76469696 1.8070434 0.74453515
2.7034101 0.2683275 0.75089812
1.8220639 0.29614699 0.7505725
4.8434443 0.31153762 0.7555216
2.5910823 0.32411799 0.7540884
3.9676709 0.35123807 0.75198555
1.6844475 0.37166798 0.75306225
1.6769165 0.38509297 0.75179064
1.7043904 0.38942477 0.75977886
0.27150235 0.56950533 0.75774699
3.5999718 0.5657748 0.75404692
0.2047646 0.60506123 0.75763541
2.4847691 0.73727113 0.7556994
1.6209456 1.3502735 0.75161034
0.35161224 1.6190001 0.75579739
3.9369426 1.7400546 0.75602806
4.8274493 1.7482845 0.75107485
1.0597349 1.8130815 0.75623387
3.9033422 1.8308215 0.75214475
1.2109368 0.17207199 0.76306701
3.5131273 0.18370299 0.76348633
1.7694972 0.29614699 0.76651102
2.4238815 0.29614699 0.76466328
3.5454121 0.30457276 0.76540482
0.332019 0.44996977 0.76806855
0.14426468 0.81019485 0.76233518
2.619596 0.82933378 0.76464391
3.60709 0.90132999 0.76533645
0.15510847 1.1398476 0.76562589
1.7077149 1.4607368 0.76897794
1.7439153 1.6367772 0.76972407
1.569519 1.6865399 0.76295984
3.312876 1.6865401 0.76520187
0.67644501 1.7998661 0.76029086
4.0347033 1.8467622 0.7636289
2.6496761 0.16838051 0.77611625
2.616986 0.2813791 0.77485186
2.5227804 0.29614699 0.77747953
1.722083 0.50394201 0.77116603
0.27070808 0.52740669 0.77378476
1.7367326 0.66257995 0.77927673
1.6777514 0.80008817 0.77240753
1.7176142 1.1880616 0.7799558
4.9106426 1.2406027 0.77537811
1.7041684 1.3664131 0.7714237
1.7330625 1.4080421 0.77564371
0.29348636 1.4395719 0.77071398
2.6449761 1.4856646 0.77137756
0.34023395 1.5922729 0.77023405
3.2724679 1.6865399 0.77721274
1.5692842 1.7742047 0.77359623
1.4603148 1.8015397 0.77861309
2.5132546 1.8117721 0.77687609
3.6770632 1.8389943 0.77947712
2.6023066 0.28336206 0.7878955
3.0388503 0.29614699 0.78097129
1.7946846 0.34156829 0.78630197
1.7619841 1.2965496 0.78495574
3.6075954 1.6401777 0.78101325
0.34385708 1.7416049 0.78744376
0.47764879 1.7738006 0.78181905
2.6065755 1.7841303 0.78690314
2.5292029 1.8100878 0.78732431
1.5710484 0.21372978 0.79661179
1.8028854 0.29614699 0.79413527
4.8529968 0.42773193 0.79333764
2.6516454 0.67330098 0.79206812
1.8558626 0.80522645 0.79481936
4.9243689 0.89445364 0.79660177
4.8541241 1.5507023 0.79505831
2.7214766 1.68654 0.79318196
2.5914674 1.7194678 0.79447293
1.24122 1.8029976 0.79464847
2.1387815 0.18214089 0.80650973
3.5106752 0.20548844 0.80829257
2.6293197 0.26512325 0.80748159
0.32889152 0.29436395 0.80382943
2.0450804 0.29614699 0.80843288
2.4669845 0.29614699 0.80930513
2.6899636 0.29614699 0.80048335
2.8057661 0.29614699 0.80314463
1.7449089 0.30556491 0.80245703
3.6193542 0.52462918 0.80742556
3.6210346 0.9134692 0.80340487
1.8737838 0.97620595 0.80515409
1.8710014 1.0404439 0.80420285
4.9132352 1.1255698 0.80624557
4.9023366 1.3170297 0.80351949
0.1743892 1.3382758 0.80213088
3.5108075 1.761528 0.80588198
0.53417009 1.7738791 0.80007887
0.60475767 1.7765543 0.80750501
1.5715897 1.793525 0.80367374
4.131422 1.8364527 0.80913383
4.7375555 0.21199465 0.81785417
1.5723944 0.29082465 0.8141709
2.4959917 0.79029357 0.81315958
2.6151557 0.83352995 0.81076199
3.6245387 1.2142812 0.8160702
4.8232226 1.6466894 0.81651247
2.7238946 1.68654 0.81093746
2.13378 1.6979456 0.8180477
2.4440482 0.18145351 0.82821167
3.3291566 0.29614699 0.82751012
3.6237676 0.33431357 0.82479513
1.7980973 0.35241237 0.82107604
1.7642725 0.48788863 0.82821238
2.5049508 0.78851485 0.82435632
2.5820754 0.83563101 0.82727051
1.8631138 1.0931149 0.82598251
2.5803246 1.1466533 0.82543463
4.9039292 1.3410964 0.8285563
2.3974397 1.6865401 0.82323879
2.8159535 1.68654 0.8228879
3.5090656 0.25533059 0.83771062
1.5736922 0.29456225 0.83110267
4.9071569 0.9628216 0.83296853
3.6331398 1.0714526 0.83677095
3.6259389 1.6487004 0.83065015
2.3421321 1.6865399 0.83210856
4.7812819 1.7685537 0.83153027
2.4968886 0.18443727 0.84877259
3.5086517 0.26299614 0.84527338
2.6363018 0.2707409 0.8449195
3.240428 0.29614699 0.84960651
2.5216694 0.40732914 0.84052485
1.7735889 0.58796871 0.84493512
4.9035535 0.82099712 0.843364
4.9046135 0.9164089 0.84099412
1.8519217 1.1726065 0.84808803
4.8704953 1.5188709 0.84591526
2.5982368 1.6497532 0.84443069
1.695668 1.68654 0.84174043
4.7838759 1.7522869 0.84328437
3.2011559 1.8110069 0.84743887
3.7016921 1.8231988 0.84889817
3.1146691 0.17357722 0.85020769
2.3950989 0.18737324 0.85694498
1.462038 0.19411424 0.85054886
1.6166072 0.19569936 0.85151875
2.6424985 0.27164879 0.85108978
3.2667851 0.29614699 0.85850066
1.7002934 0.3030659 0.85382611
1.7603106 0.37902203 0.85678673
0.26732358 0.60140312 0.85870588
0.16577649 1.1889527 0.85222822
2.7043667 1.2782537 0.85312063
4.8976402 1.372408 0.85077304
0.33504766 1.5025015 0.85034764
0.35953033 1.5885015 0.85266221
3.6345103 1.6309103 0.85321665
1.6244907 1.68654 0.85875326
2.1729035 1.70733 0.85064667
3.0340374 0.17772067 0.86472476
2.7160699 0.192983 0.86465591
1.5768819 0.21900451 0.86902094
0.38893458 0.49090934 0.86996114
1.7843065 0.70545542 0.86736345
4.8957729 0.75614285 0.86837685
1.7793014 1.3280137 0.86242068
0.36616248 1.4531136 0.86591589
0.91889328 1.7737026 0.86738414
3.3071837 0.17656967 0.87609243
2.6406379 0.29614699 0.87540632
1.7585053 0.40647507 0.87841195
1.8235811 0.63622296 0.8762449
4.9068756 0.86353958 0.87719083
0.17616802 1.0640724 0.87195432
4.8097296 1.6130465 0.87643141
1.7983239 1.68654 0.87685239
2.4606016 1.68654 0.87815082
2.612016 1.7014949 0.87041223
3.5055618 1.7266645 0.8752932
4.5444822 1.7947448 0.8707068
0.47464746 0.28159738 0.88449329
3.3075819 0.29614699 0.88133705
1.7065135 1.68654 0.88166577
1.3442237 1.7748983 0.88732374
1.562434 1.7790273 0.88058758
1.8752074 1.7797878 0.88805008
2.8024209 0.17555858 0.89873272
4.2680378 0.17403498 0.89566815
2.41097 0.2002753 0.8920567
3.5000901 0.28335625 0.89613163
2.6260612 0.29868844 0.89069074
4.8461742 0.44122475 0.89168036
1.7637889 0.48873264 0.89126086
0.35434622 0.63059455 0.89229572
0.26470837 0.84030509 0.89826316
3.6520967 0.84983414 0.89047039
0.24981102 1.1401747 0.8951751
2.5583274 1.5121695 0.89087212
3.9465432 1.8121047 0.8902877
1.587414 0.29226959 0.90454096
1.9825519 0.29614699 0.90114653
2.9294682 0.29614699 0.90044081
0.45307496 0.58307505 0.90434849
0.3696039 0.6772756 0.9017899
0.38981211 0.69883418 0.90846336
0.34438822 0.75645864 0.9079392
4.8986778 0.80552316 0.90527368
3.6560893 0.91355526 0.90019029
0.28127405 0.92160714 0.90589345
1.5929954 1.68654 0.90491033
1.9093928 1.6865399 0.90068781
2.2733927 1.6865399 0.90679717
2.7097573 1.6865399 0.90407479
4.7576113 1.703595 0.90890884
1.17256 1.7672776 0.90504587
4.6347194 1.7731879 0.90723389
2.7931936 1.7973783 0.90929723
0.74170965 0.26104689 0.91701144
0.5000754 1.3562053 0.91895032
0.53558779 1.4085079 0.91837037
2.3394101 1.6865399 0.91725773
2.8897533 1.6865399 0.91741866
0.94408441 1.7542398 0.91290039
2.1253543 0.21371505 0.92583781
4.5512986 0.21514387 0.92707348
2.6180689 0.2752158 0.92809808
1.624365 0.29826325 0.9287591
2.6132593 0.34600025 0.92555076
0.64849293 0.52315259 0.92617881
0.53524953 0.61221856 0.9235183
4.8917131 0.79340041 0.92169785
3.6627831 1.2994827 0.92259741
4.7313581 1.6388626 0.9297865
1.8925276 1.6865399 0.92261177
3.1910086 0.20024756 0.93465221
1.8076419 0.22254674 0.93769544
4.5523858 0.22011793 0.93024743
0.987607 0.25301522 0.93561673
2.620193 0.29614699 0.93701708
2.7034099 0.29075468 0.93607539
0.47675329 0.76105553 0.93418241
0.45785993 1.166188 0.93529677
0.63118744 1.4307632 0.93213588
4.6023645 1.7437268 0.93106848
4.522213 1.7533377 0.93521082
2.3787298 1.770673 0.93215871
4.1677856 1.7904212 0.93734574
3.847275 0.1947993 0.94333017
1.1876748 0.23996 0.94121265
1.8362288 0.23572111 0.94841737
2.8996325 0.29614699 0.94182134
3.0898261 0.29614699 0.94755876
4.6663518 0.32004753 0.94044113
0.85651255 0.47496614 0.94148165
1.0227759 1.6256654 0.9405207
2.5972226 1.675842 0.94458199
3.4008062 1.6865401 0.94423723
3.4867332 1.6873862 0.94700032
2.6193452 1.7001119 0.94207633
4.4974723 1.7199905 0.94597316
1.1751287 1.7410438 0.9414022
4.5942268 0.33316308 0.95108211
1.7826169 0.75509983 0.9562825
0.20327096 1.0026805 0.95404404
0.52846223 1.0997465 0.95071632
2.5998878 1.3773618 0.95443487
3.6732969 1.3761928 0.95268887
4.3664222 1.7148409 0.95832998
3.4837985 1.7389436 0.95614529
3.3411114 0.22008848 0.96147305
4.3198576 0.26974821 0.96260798
1.6244752 0.28169471 0.96034789
2.6045051 0.37143251 0.96459466
1.2436254 0.39569914 0.96144909
2.593266 0.77241653 0.9653253
0.67523897 0.81004119 0.96765602
0.61686456 0.9253155 0.96462095
1.0294483 1.5292795 0.96771014
3.6752594 1.6567372 0.96368343
1.4018819 1.6756172 0.96512389
1.3763573 1.6997374 0.96594679
4.1267228 1.74297 0.9674626
3.5535386 1.7631001 0.96306998
2.0379272 0.2668778 0.97708815
4.2595825 0.28126365 0.97143817
1.5955845 0.30233219 0.97161686
1.7612429 0.45074624 0.97120041
0.87696588 0.59689641 0.97220254
2.6020947 0.75414306 0.97902346
0.6912455 0.90741599 0.97248805
0.66789156 0.93772155 0.97078961
4.8297844 0.96239686 0.97813636
0.70290077 0.9735775 0.97587681
0.59890342 0.99913663 0.97174066
0.60955274 1.0000343 0.97133768
0.74058223 1.0258226 0.97962308
0.72368836 1.1308956 0.97444046
1.3166033 1.5984874 0.97370201
1.3454416 1.6057062 0.97491413
3.1025057 1.68654 0.97339004
2.1450324 1.7075143 0.9759503
3.7969956 1.7420523 0.97595173
2.4070415 0.28440088 0.98024333
2.5488129 0.28696778 0.98231304
0.84200025 1.1505219 0.98732394
0.89014649 1.2775736 0.9858377
0.92238086 1.2991806 0.98749441
3.6846056 1.3746375 0.98378289
4.6947408 1.4360728 0.98927879
1.1024035 1.466216 0.98834223
2.5077038 1.6922867 0.98171294
4.069087 1.7157201 0.98779768
2.6152964 0.27224454 0.99684995
1.6505357 0.35003725 0.99735463
1.2662081 0.41046581 0.9901129
2.7141902 0.45143098 0.99099422
0.97130418 0.71572906 0.99611396
0.87695277 0.88590288 0.99293435
0.89027047 1.1031697 0.99425781
0.85762703 1.1114269 0.99028879
0.8905561 1.1941595 0.99153328
4.7040834 1.2211342 0.99576235
1.0079786 1.3414484 0.99173504
4.602283 1.560618 0.99819732
1.7573733 1.5918026 0.99025744
2.2447314 1.7125025 0.99091119
3.0361009 0.27242732 1.0060718
2.6230586 0.48649532 1.0009812
4.6150651 0.67837709 1.0096618
1.777546 0.70417076 1.0014615
1.0179156 0.78699505 1.0037012
0.86866236 0.99578977 1.00457
3.6943183 1.0500886 1.0061821
1.7682241 1.0987196 1.0032059
1.7656052 1.1206419 1.0021551
1.7697259 1.3999269 1.0071853
1.1879365 1.4286674 1.0015951
3.692627 1.4214635 1.0065641
1.4409362 1.6036325 1.0083313
1.6905295 1.625921 1.0026609
3.2071021 1.7104126 1.0089406
3.267879 1.7116544 1.0055983
1.8793925 0.27870825 1.0143918
2.6326869 0.44977155 1.0146117
1.7625828 0.47187528 1.0153155
1.701756 0.8390727 1.0141294
4.6073351 0.90268415 1.0173637
1.7008324 0.94585055 1.0145483
1.0934582 1.0388505 1.0145121
1.7103412 1.0595214 1.0133636
4.6292481 1.1810942 1.0106835
1.6760575 1.2340107 1.0163444
1.1580572 1.2538906 1.0168245
2.6895392 1.2798495 1.010689
1.6406281 1.3369224 1.019452
1.2474066 1.3554553 1.0165472
2.7291718 1.3845015 1.016029
1.3676962 1.4703672 1.0178769
1.4140416 1.5491052 1.0144845
2.6340585 1.5575674 1.0142988
1.442926 1.5603755 1.0166531
1.6719974 1.5687115 1.015798
3.7031889 1.6693056 1.013319
1.7505021 0.40926147 1.0225925
1.6119227 0.48674482 1.0218647
1.5919796 0.64898044 1.0281348
1.8117063 0.6946798 1.0292981
3.7017934 0.76509553 1.0287043
1.6427552 0.77735597 1.0208944
4.5389132 0.77639598 1.0263152
1.5996791 0.83407509 1.029405
1.6462686 0.85185874 1.0206966
3.7022805 0.94574893 1.028198
1.5990516 1.1096766 1.026314
4.5533113 1.1268959 1.0259781
4.52985 1.1559265 1.0292753
1.1964648 1.1934261 1.0216146
1.238314 1.2254479 1.0245224
1.2783848 1.249774 1.0265515
3.7009897 1.3275478 1.0281562
1.6679093 1.3349024 1.0217718
1.309145 1.3478763 1.0247703
1.7728195 1.3518728 1.0245681
1.6022903 1.4939008 1.0248704
3.7011948 0.43738922 1.0320134
1.7094142 0.50095081 1.0388079
1.4526795 0.61868155 1.033181
4.475296 0.66346401 1.0339081
1.5654078 0.876194 1.0357207
1.5712709 0.92350709 1.0337621
4.5331097 0.99011308 1.0331206
4.4834585 1.0637403 1.0398357
1.5668842 1.137917 1.0353665
1.5627356 1.213757 1.0368359
1.3455058 1.2313535 1.0308043
1.4475117 1.3501413 1.0335295
1.5408194 1.3685837 1.0385993
1.4603156 1.4216013 1.0308452
1.5254035 1.4504101 1.0335999
1.6476991 1.4901519 1.0364436
1.5471817 1.5105132 1.0320468
1.5506436 1.5308331 1.0312721
4.2998075 1.6436281 1.0358806
3.2390029 1.7019517 1.0370312
2.1338503 0.28785428 1.0430992
4.2085357 0.33341402 1.0491073
3.8609488 0.34744474 1.0438906
3.922893 0.40356231 1.0458975
1.725075 0.52475035 1.0437045
1.7373184 0.5591805 1.0474719
3.9041941 0.55254364 1.0454831
4.4126177 0.57503343 1.0407389
3.8593624 0.6682815 1.0449861
1.5059608 0.96659374 1.0425985
4.4332495 1.0138016 1.049919
3.9087529 1.2460252 1.0480895
3.7084255 1.2745581 1.0440032
3.8332715 1.2778678 1.0445076
1.725727 1.4714035 1.0436249
3.9465644 1.4772207 1.0467572
3.7055826 1.4968684 1.0425981
3.8801384 1.5122652 1.0446341
3.910356 1.5914875 1.0454903
3.8529696 1.6314508 1.0436449
3.3616438 1.6988797 1.0468397
3.7486928 0.32210711 1.0512556
1.8259189 0.47750333 1.0544631
1.6762447 0.50352281 1.0552399
4.0412517 0.50706416 1.0502057
3.9441504 0.71324515 1.0503136
3.9480498 0.87805808 1.0505587
4.3570719 0.87141609 1.0598426
3.9763987 0.94020545 1.0532107
4.0391974 0.97115451 1.059
3.9734387 1.0165678 1.0536839
4.060338 1.0462178 1.0597191
1.6490943 1.1926477 1.0594773
4.0141678 1.2015034 1.054713
3.9548817 1.3071625 1.0509547
3.976059 1.3172765 1.0519421
3.8254502 1.3683864 1.0534446
4.1342096 1.5483117 1.0527947
3.8206306 1.6350491 1.0548401
3.2756226 0.29035065 1.0641263
3.7444232 0.42676497 1.0663292
4.2230287 0.62469268 1.0652734
3.8196034 0.66069221 1.0623435
4.1970963 0.74817055 1.0662072
3.7243056 0.90496117 1.0647788
3.7255244 1.1261116 1.0664911
3.7212896 1.1391709 1.0609499
3.8166327 1.1644586 1.0666745
4.1131535 1.2633104 1.0609326
4.2682214 1.3250492 1.0654322
2.6042566 1.6515847 1.0680162
2.7049239 1.6539153 1.0606076
1.8004494 1.6876281 1.0624702
3.4203019 1.6920438 1.0664753
1.9109876 0.29926583 1.0712882
3.7304106 0.61303234 1.0796541
1.6867039 0.63162416 1.0744741
3.7473259 0.66415673 1.071528
3.7353125 0.80309546 1.0745707
4.2311373 0.91616881 1.0726167
4.2192235 1.0367026 1.0724912
3.799968 1.1581669 1.07515
3.7984257 1.3491257 1.0736493
3.7501981 1.3512011 1.0770485
3.7350857 1.3712047 1.0703744
1.8355248 1.682072 1.0773114
2.4168193 1.683841 1.0772691
2.9216285 0.29917437 1.0849507
1.7362983 0.44731459 1.0873674
3.7295303 0.65788925 1.0822386
4.0329356 1.675593 1.0898237
3.1142523 1.6836742 1.086489
3.1937311 1.6858159 1.0813689
4.0924892 0.31574455 1.0995537
2.5789332 0.33127555 1.0918075
2.6447477 1.2958651 1.0994639
1.7129569 1.3586199 1.0900066
4.2066622 1.374487 1.0966178
2.384182 1.6786838 1.0909687
2.7323847 1.6775099 1.098881
2.7543588 0.3056007 1.1003674
1.7234399 1.1611389 1.1073531
3.7952001 1.3671871 1.1087852
3.7295301 0.64542103 1.1138008
1.7507977 0.65857327 1.1169128
3.7952003 0.65187216 1.1179683
3.7952003 0.73313999 1.1139929
4.1992984 1.2231877 1.1168395
3.6591544 1.6742165 1.1176634
3.7495029 0.52028179 1.1274574
1.7493497 1.181347 1.1232297
1.8923588 1.6621006 1.1296021
3.5892494 1.6723588 1.1234092
3.746295 0.76693261 1.1312851
4.1522803 0.70675218 1.1441709
1.7750707 1.1552501 1.1401999
1.7807233 1.259526 1.141135
2.7137418 1.6590977 1.1492164
2.5386906 0.32526392 1.1514847
3.3179486 0.324103 1.158298
1.8189926 1.3529197 1.1563473
3.3532448 0.32625836 1.1647023
2.2450042 0.33233529 1.166814
3.7295301 0.54650927 1.1616397
1.8096282 1.1846509 1.1613629
4.1198778 0.96959269 1.1722139
4.1223135 0.98979896 1.1712326
1.8357038 1.2051598 1.177374
3.7295303 1.3212614 1.1728936
2.7218106 1.6404108 1.1745002
2.9365983 1.651938 1.1719862
3.5101349 1.6518154 1.1795689
3.7295299 0.68533766 1.1844966
1.8394283 0.97367656 1.1848187
4.0873761 1.2372956 1.1864049
4.0514631 1.4422437 1.1889011
4.0734744 0.7736513 1.1954761
1.8687702 1.2010572 1.1984425
3.7952001 1.3264335 1.1999933
3.7952001 1.3955675 1.1980946
1.8955499 1.4232737 1.1977516
3.3272853 0.34221569 1.20871
4.0587354 0.93814099 1.2083459
4.057807 1.087039 1.2078788
2.7078757 0.34783313 1.2157645
2.8879783 0.34713495 1.2163484
3.4015665 0.34498677 1.2174468
3.7710547 0.34752485 1.2195746
1.9414986 0.47064501 1.2175682
3.7738409 0.61695284 1.2151361
4.0233788 0.68126285 1.2194967
3.7952003 1.3580508 1.2118065
1.9181668 0.75964975 1.2292019
1.9080532 1.1526155 1.2245786
1.928507 1.3814281 1.2223253
2.7231867 1.6331012 1.2207832
2.5625837 1.6282051 1.23077
3.0702686 1.6286767 1.2351213
2.7507291 0.38377827 1.2495418
2.8999462 0.36658365 1.2588108
1.9538004 0.78806692 1.2500542
1.95382 0.82673991 1.2508404
3.9547064 1.2951338 1.2570176
3.5849278 1.6167001 1.2588298
2.1427794 0.37219548 1.2610503
3.9474721 0.69916713 1.2617311
3.9392467 0.74216002 1.2698635
3.9499016 0.81267524 1.2662442
1.9826046 1.0321059 1.2677529
3.941824 1.214958 1.26939
2.007314 1.3211594 1.2691408
2.0007417 1.381301 1.2612667
2.033536 1.4977417 1.2649136
