# .PCD v0.7 - Point Cloud Data file format
VERSION 0.7
FIELDS x y z
SIZE 4 4 4
TYPE F F F
COUNT 1 1 1
WIDTH 1556
HEIGHT 1
VIEWPOINT 0 0 0 1 0 0 0
POINTS 1556
DATA ascii
-16.78344 -81.34346 8.505475
30.853275 109.36356 36.232925
32.529007 65.144623 12.803663
-30.774544 -31.423243 21.659845
-14.140127 -35.068298 19.396011
37.997299 -85.726479 20.482391
-31.941776 -56.99461 16.66872
19.270002 3.5841155 9.9275665
-40.430611 -92.995796 14.3836
-32.003838 5.8385482 57.188972
-40.705505 6.1883435 24.58564
-35.479305 -51.593231 12.916638
-30.055389 -17.393755 9.8275557
33.754097 34.734932 12.665934
37.00507 3.0397673 35.062408
-17.756292 -20.289093 19.839214
26.468355 98.952148 14.46669
-35.008854 -43.359135 36.6073
-35.192421 -17.469007 38.73621
26.017445 -36.733456 9.7353544
39.15134 -86.753677 4.8415956
10.261721 44.184513 23.531332
-32.51247 87.096779 47.144699
6.3732185 5.8770504 8.6181564
39.333042 -36.82135 24.513687
36.732079 -53.031773 41.184406
-24.20557 114.60474 26.905098
0.76213193 -6.8059387 9.8780327
-39.791466 -0.78486109 11.096675
-8.6256609 -67.806694 15.525749
14.863619 45.9758 28.347878
31.225674 109.63161 30.743992
-22.23406 -68.834442 8.3591833
13.244553 17.63047 8.6195555
25.570717 -68.682472 16.92053
19.12269 -114.38365 28.215151
33.986961 -6.0570216 18.509117
24.020924 -33.251701 8.4241304
-36.508675 74.341042 8.0541782
33.229389 -13.757522 8.5253849
5.1337471 -25.377956 9.7894907
20.374027 45.829861 8.9365826
-23.528027 -69.554199 26.938789
-17.638334 112.32355 16.334551
-12.819097 57.616009 58.224693
16.183224 78.234367 47.883331
-36.931522 25.083748 48.940948
7.5256686 -8.6924419 8.5516949
17.619789 88.999886 13.297656
-28.561298 -77.550316 17.933111
-7.1119351 -121.72652 20.806011
-8.1826639 -50.518784 9.6696329
-28.561298 -92.399361 14.958522
-40.357506 -91.429161 29.437996
22.373209 45.588905 8.913126
-24.421509 -44.304295 49.025707
12.717491 6.8024573 71.861893
37.023445 23.579716 42.982796
-13.876213 -49.070885 39.469837
21.646156 -90.508698 8.6126623
34.693649 63.019608 44.214825
39.21772 31.308239 33.454826
30.950958 -82.034546 22.709343
-38.487404 8.3295813 44.014618
39.274071 18.333876 30.940786
8.102376 -4.6824617 26.054325
-34.833748 21.402584 53.760086
-19.7628 105.8478 45.298069
-33.824051 -88.432434 2.7643514
23.908068 4.4223986 9.9276314
-31.530628 6.2365103 58.920425
-39.446083 -10.891091 10.171295
-34.877037 -37.612427 11.822048
31.916859 48.777287 20.864782
38.4767 -55.863804 33.83091
-30.738068 -2.316148 38.230453
-33.261993 114.32852 25.567244
27.614401 60.477692 24.618513
-14.215341 -63.854954 13.572573
28.02787 54.180378 58.717762
-40.872894 -2.7147992 15.816375
-30.406933 -15.635756 8.5156298
-17.07472 -25.702358 20.918022
38.820015 34.644279 38.273159
-8.4203539 108.455 37.296249
-16.03767 -62.366463 8.2856388
-1.0293818 -11.561065 8.5367947
31.958569 -44.594795 9.697875
-24.802317 110.2367 31.301722
15.735168 80.083923 48.374874
26.213829 -2.7915585 65.114716
-38.977192 15.929735 12.017191
-18.202564 90.067955 13.416546
-31.872044 -10.339624 20.259317
17.122856 70.202003 44.041157
-17.916292 -1.6882632 44.515324
-7.9535298 -51.667618 34.430199
14.907103 -4.8039913 65.557671
6.495348 108.455 31.553303
31.876135 28.60429 57.632278
35.711952 10.661038 48.629673
-26.479797 -7.8740849 62.930683
28.325859 -65.244919 13.041552
-8.7222166 -21.20265 62.550835
-1.7109265 47.545849 36.371849
-28.561302 -73.031891 17.261522
25.438183 75.886116 46.18161
5.3828387 -54.726089 45.309792
-40.593128 -43.148064 15.911477
19.123335 -69.554199 32.76445
37.348709 -85.596786 31.066881
36.437817 37.221176 43.050343
-22.551918 -12.379496 24.824257
33.794483 38.177757 36.623962
-10.288013 82.435417 12.566945
-38.11198 60.094364 46.615005
19.073727 65.653931 10.866492
-9.4726219 -62.279488 12.793886
6.1411438 82.127548 12.532675
39.394779 76.64505 29.441914
-29.202902 73.412529 25.358503
19.251394 9.4636755 8.6185837
26.171419 -35.068298 15.603275
8.5834303 39.270676 19.74696
39.147488 69.347298 10.937225
-38.65205 -91.683113 5.3310919
12.446606 30.376949 8.6210747
23.498178 -10.986139 35.72213
28.230846 24.59235 8.6321335
12.28096 -116.73948 32.986652
-16.786798 105.58426 15.286135
34.340553 25.755592 8.6709938
-18.507847 -18.922514 62.44059
-5.0428543 95.815208 46.793056
-28.561302 -92.959091 16.686966
-15.497678 -58.29393 34.430199
-37.334625 71.762093 4.429008
-31.801357 -8.7918911 21.332481
34.177624 4.3250818 29.761597
25.415257 -20.044533 9.8149176
-30.428549 -4.5567923 43.395988
31.891165 59.07132 54.759209
-26.634542 108.26591 15.717785
-26.312021 -22.825901 60.63195
36.945045 43.883759 26.456638
33.817947 32.07299 30.65596
27.740557 -67.405769 17.596994
-30.450718 38.861214 18.992365
2.0339293 -66.765968 34.430199
14.268081 11.396838 64.047302
-0.79797161 -116.58146 27.04528
4.5864649 -99.266129 38.295292
9.3238974 -36.040459 55.411503
15.089991 -62.811539 13.056857
25.738281 -27.583054 9.7789783
-41.861977 59.540951 32.771652
11.694345 -46.26561 35.320915
-10.939378 -39.018875 53.860794
-28.877701 73.583511 21.696005
-8.577281 -41.264683 8.382513
23.707294 35.035942 20.094597
-31.406057 67.053368 52.103035
-28.284569 36.755589 62.17223
-39.542721 93.778847 36.684998
-28.561302 -93.314781 12.709266
21.210094 -102.10626 36.975895
-6.7760472 7.1791615 71.861893
-34.811226 -47.1717 45.953495
-26.591438 -101.16637 37.000095
34.810768 4.3998079 14.63237
35.516354 55.703941 44.061737
36.835423 3.3823195 24.843937
26.215372 -6.2823319 64.951759
17.917442 45.060913 26.477928
34.37981 -110.56338 27.771494
-27.862539 42.146244 8.6224756
38.867264 -112.41798 20.625038
-18.510382 -51.232765 9.6662292
-9.5514898 -65.573883 34.430199
14.182511 -124.62703 18.309547
-33.184406 58.510281 54.935135
19.573807 2.8707724 63.676437
26.961655 22.905996 15.740546
12.755338 30.025946 21.661688
-40.573765 -47.229946 14.003262
30.090883 -21.145063 8.4870129
-25.048365 17.601545 8.6195526
24.755816 109.36668 15.895678
35.90802 -114.89299 14.490616
-13.769152 25.043009 9.9276304
20.21101 -101.57621 8.8793936
38.979301 68.232269 18.706322
28.737988 25.246002 10.634799
-5.5431442 113.45653 19.586151
-29.482441 14.90524 63.386017
29.569031 23.448093 14.900743
-40.018349 -49.927711 30.794704
-24.702938 -96.674942 8.6847773
37.997299 -88.312576 16.844835
33.705666 -43.445328 14.937149
35.209396 -94.52845 36.635971
-38.530846 -21.084534 42.08226
-28.877701 61.891029 19.608074
-17.535297 9.5266418 66.014816
-38.605469 -82.634903 37.10083
-17.87204 -65.808556 42.970413
31.778563 -85.214508 10.724306
18.294498 -38.310143 53.575485
-28.877701 50.810616 19.617128
33.453045 -103.53393 9.0207901
-23.530581 -1.2937222 42.724403
12.849924 -59.34362 43.593163
30.386971 -108.59227 33.712013
-12.249398 -31.297512 8.4342842
-17.213921 -46.672749 49.253292
32.421921 -33.231628 51.254913
-16.329142 -3.2793331 63.668018
-28.877701 53.324417 23.691986
-30.267384 -110.95494 29.008896
39.330105 60.559471 38.185555
28.066437 11.26703 9.9276304
-11.398693 -54.600536 34.430199
39.00631 -72.486084 8.7544479
-7.0492911 107.65762 44.440693
-30.499977 43.097256 11.115799
22.857216 -47.918884 35.041714
28.827549 58.11462 56.794971
-21.576498 32.08844 8.6212769
38.849091 31.652157 12.021699
39.414364 -0.90752673 25.351227
33.254368 -22.078516 52.971443
29.893311 6.8860927 57.321152
3.0942965 108.455 33.134941
-37.459404 110.27545 19.268204
-26.027521 -12.288961 64.164413
14.222076 -120.80923 15.007689
-29.770142 -6.2754245 44.338722
-21.636471 -4.6946349 18.380329
10.307123 5.7245502 64.235847
-15.066317 92.578651 13.696019
39.481628 -101.20735 21.649921
-31.900898 -28.942902 10.762766
-0.072166547 25.65073 22.597307
14.386347 -37.378696 46.471775
-40.229973 -58.686115 28.472599
-8.9060926 10.669704 66.205566
27.298 -85.748962 21.422276
-32.531342 -67.144623 24.296787
25.946238 -42.629997 9.707243
33.866837 -8.2248039 17.052683
31.472687 -24.618906 55.367733
-12.397246 -11.994091 32.254898
30.524946 58.578941 25.469105
-31.826784 51.002701 11.525
-37.406414 107.37621 34.862621
-16.662701 14.589688 65.997749
-33.96563 8.0022945 54.435848
-3.3698044 24.340733 8.6203556
-22.179234 -59.77512 11.659211
-28.291107 -3.1139984 29.919857
-30.206408 29.781538 21.385654
5.9721842 -102.99896 37.458675
-35.349052 16.470062 23.684052
4.1220613 113.72984 28.799236
-29.577095 9.8986654 9.9276304
27.614401 54.575283 23.898102
7.3857584 -93.432434 8.6468563
-15.267118 65.002747 10.803099
-25.519989 -49.054558 35.044243
34.345863 -71.294083 25.436436
16.645092 19.834311 63.784771
-29.99456 -119.07039 18.697607
6.3168073 14.863192 9.9276304
-35.004204 1.1571748 33.812004
-20.483351 -4.0344801 23.444838
-32.92469 -78.663704 9.0769215
-35.432308 -6.0909944 21.936434
4.9655056 100.66222 14.675895
34.727608 1.4817659 50.701763
-25.17849 38.930538 8.6220932
-29.595118 30.82493 8.6311073
-31.636009 -80.292648 4.5368361
-37.093136 19.571695 48.363693
10.603049 47.287895 35.573689
38.328358 -65.287415 33.70681
-0.35736278 -104.8588 9.1520452
12.780024 14.455768 8.6191778
-34.827244 -30.903236 34.827717
38.610588 -43.386597 33.171909
27.298 -89.374443 8.6622171
-15.715654 -21.012722 62.416565
-27.363611 9.3625536 63.493488
-21.575356 -11.486534 62.884892
36.213058 30.010439 47.903339
-38.332504 -102.71454 32.074413
36.752151 -92.972305 22.431356
-34.982445 36.171909 35.7593
-38.935989 -47.846031 38.379166
-32.996616 -68.790176 41.697094
-11.041736 -116.40221 26.637583
21.960035 -5.5969605 65.1856
-33.352436 5.9424295 49.94836
31.957291 -89.020065 29.428547
13.576185 61.532494 43.855034
-39.953575 100.77979 15.873771
3.8684964 -121.07861 30.817192
-20.511147 43.10297 8.6711159
11.345984 24.606606 21.971134
39.430893 -36.295017 14.682196
-20.728104 25.246 10.152769
34.686611 63.990292 43.474831
-38.546581 2.3681335 22.575539
-10.01805 -6.4099417 36.963764
-34.104958 -54.245117 22.194212
-28.125257 46.246822 34.13858
7.6992607 -30.340593 18.258917
31.818317 -3.721385 8.5775137
-40.730942 -63.047237 20.592958
37.866455 -27.538549 9.291523
-22.85528 -48.675938 40.703957
-33.605484 57.481377 29.975641
11.067472 -52.182152 34.430199
37.997299 -87.451111 14.382324
-40.268158 3.1549242 15.414086
39.302078 17.694735 30.215706
4.2682638 69.075653 44.063652
-39.797638 24.172514 39.743729
-35.016624 -29.711115 51.037502
30.652599 -13.200139 14.916429
-33.628468 -39.372253 8.3923397
34.244587 68.520905 27.428471
-40.474232 -45.285648 16.420893
-39.010864 84.137695 41.558689
-27.466002 0.98097396 63.285336
-32.968876 -60.42791 8.2877617
-35.056049 -30.071262 36.912445
33.603176 4.1493263 13.929974
-8.1061726 -63.446152 34.430199
-24.901552 -31.715462 9.7592773
38.975689 67.45311 38.976521
-11.357546 -24.603647 61.177547
-23.957247 -10.681056 36.853489
38.97897 -9.3039541 32.966801
4.653111 -28.450447 9.7748432
-25.176151 114.53471 26.990227
-37.452393 45.545391 42.763992
1.8008187 -47.200012 38.387756
-0.098773897 -23.939844 61.803032
18.636005 82.973251 47.949905
-42.680576 -39.496845 48.899498
26.575308 -114.22339 9.9954958
38.979301 58.630066 17.554857
40.344101 78.992096 18.335443
-13.105809 -51.828056 46.727982
31.553642 47.499809 14.108317
34.045681 -6.7792945 19.212305
-38.37326 53.59066 45.825932
-40.38253 47.598701 15.604755
8.9065027 -13.88888 20.547888
25.539106 -69.554199 28.904251
-38.888981 -17.086763 41.692371
15.997248 -42.879612 8.3741236
33.764603 35.084126 33.468697
-30.634939 -50.0891 44.56842
25.296646 37.457424 63.771141
-30.686731 -14.020563 20.243664
32.263569 -84.99884 30.174528
27.725048 -2.5652852 33.779755
-6.9234428 32.150505 65.123154
38.737942 -80.564049 31.881435
-37.659519 3.8865349 41.906319
-1.0122612 -69.554199 24.602562
17.221821 -5.2537017 12.106855
33.824139 39.743614 30.905581
-14.575897 71.020912 11.388979
39.232899 -36.19207 13.651267
22.387756 106.0906 45.168648
39.196121 -71.550575 30.386177
-6.8007011 89.147072 13.314039
-14.814 -5.0265274 9.8865156
14.425076 -106.52336 9.2906408
34.07972 -49.963596 23.393631
-32.139099 -98.530746 16.905266
30.415302 41.967442 59.340332
-39.537804 -25.43688 11.880775
-30.454714 -3.117265 42.879398
-10.380285 -60.852852 12.08876
-0.59647274 -16.258183 8.5123978
39.596214 37.531837 21.874144
7.1667781 -5.216289 63.979469
35.103706 -40.702499 42.24165
33.769905 -43.79575 15.706818
-15.349427 -95.788994 8.6744156
38.986221 -85.857849 5.7227917
-8.1467619 23.466555 21.135178
35.319443 32.328449 12.016866
35.413719 -39.275711 44.930542
36.652134 -86.431198 37.579971
-28.877701 60.095989 29.673182
1.3240962 -111.43093 9.6982241
-28.5613 -91.662895 22.130346
-40.520287 -2.2450159 17.296883
-22.154249 -77.886993 8.4650517
9.7936916 26.390339 8.6205997
35.196236 -73.573891 40.383896
17.658195 -0.79235196 9.906702
24.585644 -11.196283 35.076973
22.915865 87.314529 13.110053
38.242722 48.473583 25.877769
36.618237 31.198143 46.8806
-0.39055955 54.694756 48.551022
-7.4628696 -20.365868 9.813386
-35.331577 -10.400614 11.951771
35.926193 4.5445242 47.716728
-30.179127 -17.447626 61.977135
35.205086 -92.394882 23.295551
13.126072 -33.60194 21.969324
37.458614 -87.317345 36.376602
-17.502726 -43.341965 8.3717222
-9.8230581 -15.379078 8.516964
-26.514412 25.246002 10.521204
-19.204714 15.323285 65.872765
19.126547 -1.6315587 63.531967
8.6161346 28.03665 8.6207952
-2.3225634 47.669434 61.96693
39.619072 40.295471 15.305969
-28.642967 10.44483 64.970497
2.9748747 -56.275043 10.821228
-35.120571 -27.531134 16.84148
-3.5522528 5.5369663 66.173851
27.298 -92.306473 13.122009
35.318817 37.058495 50.354145
-40.486317 73.868149 35.734425
-14.275588 3.5996323 9.9276304
-36.991932 -97.767441 22.782948
-28.5613 -73.904976 9.5884495
-22.63316 25.971127 8.6205492
12.016983 -48.424034 48.600357
40.062363 56.832085 26.023022
-31.275373 43.661827 24.7337
-39.645069 -11.318044 11.947396
-40.48391 -19.21102 27.427612
33.763245 35.372486 33.555405
27.686962 -11.346812 35.187641
27.161469 -13.228137 26.880978
31.30854 16.92548 9.9276304
-6.8071785 -2.2541552 9.8997326
11.971766 24.424559 65.713181
-34.749264 49.240166 25.353367
-15.086785 102.47337 45.973717
7.7471027 23.513283 14.557266
32.718102 73.032333 48.464409
35.891209 18.803137 12.01324
27.614401 47.110924 13.196618
21.91127 114.13017 28.640469
-35.354355 -116.34506 17.272024
17.129669 -19.180313 19.618244
15.199322 -43.816551 9.7015858
-25.233479 -69.352745 34.430199
-28.500372 -60.20665 34.430199
-20.400999 -36.802467 9.7350254
27.827991 -67.353859 30.744308
-29.997513 -50.757038 43.445732
33.74268 103.96274 44.391342
-7.4737854 -49.718056 48.048546
28.137848 45.526222 30.874931
4.4499187 35.197495 20.602451
36.349453 45.561916 42.100685
-15.321413 33.918499 8.6214952
7.4139948 -18.730165 62.833176
26.86372 106.72538 15.472481
34.544418 108.24841 37.598064
-6.2653084 -8.1217308 9.8717594
-39.789326 100.78522 30.107561
-19.2771 11.551132 63.862549
-24.411392 -69.554199 34.158207
-41.0103 99.85894 25.42153
33.408501 10.928588 8.6347342
36.540318 -107.06364 9.4346952
-5.5953994 38.73151 63.105392
7.6992683 -5.8312569 19.567633
35.682144 -38.878441 45.090115
-29.582304 -16.786175 9.8304529
-40.917747 67.158241 26.84165
-35.325603 4.3353853 27.844288
-19.241842 -5.9783382 8.5657921
26.767435 -99.183495 8.7141142
-39.739094 38.861973 16.529585
19.892414 -13.957177 9.8439398
-34.995609 -47.179539 36.522385
-28.561302 -79.299423 27.647242
-28.5613 -89.390823 20.182812
-7.663517 -57.565384 43.728237
7.0524774 26.118191 63.714924
-10.531903 112.05009 29.189754
-11.340762 109.45129 38.619095
-38.257507 -18.409359 43.154491
-24.705111 -47.885048 47.00972
34.04147 -52.321369 18.923542
32.572144 -94.576752 19.201931
27.614399 53.476768 17.488846
23.048738 -17.176792 63.203133
-40.214382 -89.678032 19.88789
33.66563 -9.9289694 34.760319
-3.5578718 38.48518 19.922832
-17.081646 97.429207 46.570358
35.070572 99.178741 14.494411
39.203239 -39.105885 13.483027
28.08864 -61.025097 21.23036
-31.099569 -41.547058 50.031075
-20.393787 34.747562 64.481079
-12.883273 3.9544926 8.617383
-11.169522 -49.503307 48.063984
7.9894714 -13.937244 63.289906
-14.6472 39.222904 62.721939
19.229492 -6.2818785 46.27076
34.294975 -43.119495 11.796745
-1.0091624 -40.583004 53.29525
4.6100202 108.455 33.653847
-2.8059382 108.89957 30.718513
-28.981525 -3.5844045 62.615936
-31.048292 -5.7726674 33.417751
-31.02417 -2.6641684 33.084133
14.107866 46.815598 62.190651
-14.041201 -121.26423 30.943129
-0.33065605 65.902443 10.890686
-15.701293 7.4017577 64.086205
-25.565296 -19.820358 61.986908
33.959202 -45.887062 17.969307
15.405745 -12.707507 64.645256
-29.229307 110.90544 16.167934
33.547611 14.967625 11.741538
37.179386 49.134285 45.664383
27.014957 63.118629 54.705139
3.2708454 6.6028409 66.221909
-35.274651 0.46517083 26.323967
-44.82896 -43.375069 45.857727
-17.381432 -32.250088 22.222918
26.934458 -2.7012968 64.837074
-18.618975 -55.287273 43.886944
-39.576229 -94.222084 31.101084
-32.238956 48.344292 15.985662
-18.447144 77.412369 49.403652
8.8917246 -4.5693312 38.855042
-16.950626 -10.826898 63.16087
-35.900063 4.9794917 47.822418
-4.6964617 114.5481 28.464201
33.751602 -12.54093 32.90464
-17.447693 93.999237 46.974133
38.755505 -30.630074 32.862442
14.468974 -41.366222 52.406029
-34.00135 91.499535 13.575898
31.834784 -49.143112 34.859444
24.475597 -26.318283 21.04077
-10.643701 21.163176 9.9276304
30.806149 -86.491531 39.386845
26.127993 -111.26328 27.14241
-37.820076 95.477875 42.833359
-28.877701 53.693729 23.566639
-35.414577 10.40148 22.158411
24.469009 -3.5917141 46.060524
-39.389565 14.04491 41.692013
30.771551 77.480766 47.881233
-35.551464 1.1692698 51.560062
-40.730644 1.7174315 15.051861
31.220005 103.93135 45.341801
21.190569 0.32012391 65.492378
38.574848 82.148033 38.485321
8.0273838 -107.19939 36.504433
-37.294334 76.187469 24.101786
-13.890752 96.496765 14.166307
18.753109 67.449661 11.04131
-26.75828 -24.776197 59.625225
20.152971 27.951923 21.901745
22.815308 9.5748529 8.618597
5.9153318 -62.435528 8.2846317
32.917652 93.796791 13.836001
-30.932236 -117.28442 22.961105
24.041927 75.245079 49.518806
34.450352 10.950327 42.337666
-10.592748 -78.522598 8.4724865
-15.388493 42.526581 63.340759
14.7323 -63.69825 43.316319
2.0417099 48.3484 41.190964
20.479342 -12.0021 9.85326
-12.233349 21.197691 63.945007
-40.488144 -42.617317 43.161415
32.906021 -111.84445 25.91803
6.4517012 23.230686 20.966522
29.044966 -10.822329 62.675247
38.85844 -74.602676 7.5667138
-32.200893 -107.24539 34.091782
-17.204945 -47.357475 48.889103
-40.753426 -23.134417 22.069746
11.641496 -30.33074 8.4393044
-34.872482 -30.143011 51.6171
-30.145496 41.004181 8.632247
-32.835274 -68.054153 25.285608
-2.0036495 114.85224 21.490067
-11.706182 -31.391144 8.4337969
-6.1360908 -121.19853 15.01068
37.442406 -46.278339 11.781326
27.298 -87.375694 10.357133
-34.968262 -41.616894 31.214958
-35.010948 -38.820679 48.187546
2.371371 39.235935 63.985878
8.1739569 -23.696249 61.691826
-15.508784 -82.429298 40.806625
38.751671 -7.1523876 36.094383
-40.296791 77.604256 35.335758
26.775085 -43.375847 9.7036867
-31.900902 -7.5704088 16.651751
38.011791 -97.632423 29.079128
-39.828144 -41.604023 46.182419
-29.17164 -83.362579 39.997078
-0.94066656 -123.64889 21.781414
-37.670433 -52.436562 19.78899
35.883877 56.132015 30.567232
-37.144928 -72.421928 3.5017719
33.77702 65.90464 45.054493
33.836903 -3.7982874 40.009899
38.271919 29.805042 41.721718
26.332924 -56.54417 34.430199
-40.776009 24.768772 20.143267
-26.543282 -112.4164 9.8292828
3.5908239 -23.703518 61.818138
15.403769 25.458721 8.6204882
8.3429127 -116.79665 30.261518
2.3244157 26.001459 22.519579
4.6132507 34.705589 64.781883
-34.374344 63.553299 30.729443
38.261883 -95.500305 25.833904
-40.751217 -21.628012 22.169277
27.614401 50.596905 22.492504
-41.033699 84.795715 15.144913
17.141708 46.04739 29.526228
-35.463913 18.660219 8.6536417
30.567921 110.49088 16.095192
-33.477909 -14.212491 8.5230217
-1.1286877 28.943779 21.912422
3.5957708 64.863197 10.789514
14.551011 35.613064 20.48671
-35.064392 -57.380653 8.3137455
38.637272 104.22221 28.58424
4.9042053 92.652603 47.180698
-13.997997 -61.118233 34.430199
26.787104 -67.826599 18.84264
-39.595554 -34.450012 36.262878
37.779785 -68.485886 21.683311
8.2610531 42.886852 20.12851
31.485493 49.029686 45.597404
-29.047726 -54.192474 34.430199
-16.002045 -32.058197 22.184675
32.669006 52.223824 54.702591
-32.818851 -86.049522 18.739626
26.846519 -18.782951 62.417
-37.877819 -48.716175 41.989445
27.298 -94.902779 10.345033
34.547649 -13.825016 11.939733
12.691224 -36.844284 44.620224
-34.23959 66.562088 46.811371
-40.104099 30.41386 11.706949
30.910492 -75.88327 2.5110006
14.269814 -8.1539383 8.554492
38.960274 91.935265 13.718104
-22.720869 -48.542076 39.789917
-30.911097 -8.7149277 61.643673
-8.5885839 11.47274 64.384491
-25.091591 -62.042332 43.007629
37.477482 9.0085125 12.016061
29.705385 25.927755 8.6425304
27.298 -72.418083 12.462487
3.6124954 70.440872 44.102028
11.986877 76.929184 46.4422
32.648834 -90.218445 28.946178
26.842007 39.1698 62.174561
21.086456 37.998371 19.624977
31.647703 69.591805 2.9788585
37.979561 73.91748 42.394058
-32.089897 63.77726 6.8395386
-17.949427 52.157413 48.503387
18.733273 -119.31173 22.967293
19.0686 53.613224 48.446449
-4.1720586 42.394539 62.864632
-35.096474 112.71899 20.688381
-0.061295822 -123.44067 23.57917
-7.4407663 0.40521157 8.5989485
34.723465 108.32866 33.307575
-9.2380171 92.413483 13.677633
-33.230682 113.32726 20.696465
18.495518 105.76961 15.314782
28.975573 -24.97699 59.097488
38.835716 -40.267895 46.930618
-12.138427 -93.398247 39.143448
30.399048 62.396328 4.3732657
37.876102 3.4186001 28.606491
18.096041 12.578588 9.9276304
-12.685981 89.662102 13.371368
39.59079 -51.457787 15.443587
-39.959213 -13.7582 35.908508
-23.438059 84.603638 47.628342
-1.0213008 59.174252 44.492653
-31.641872 -51.220833 43.748875
34.158413 -10.747211 20.546328
14.99611 -32.40416 22.253622
-35.325802 -3.4761651 51.842819
3.596848 3.0457103 67.035789
-6.67168 -57.235058 43.926476
-13.685395 3.1107087 68.012711
37.586411 54.764656 2.4965909
-40.482246 3.3459456 16.757971
18.769541 -44.057182 44.475628
-23.737406 73.38266 11.618898
26.261368 -63.817421 13.554022
29.093311 71.249382 50.721054
-40.242599 59.925552 7.6312456
-15.156129 32.397045 65.028618
-34.419693 33.132488 19.938375
14.908021 35.055428 8.6216307
4.3375154 108.75874 37.259609
28.809378 -8.5335207 63.058392
-29.537491 108.90526 42.549065
-37.67506 15.587381 12.01409
13.029718 14.755865 66.105591
-40.382515 0.1801499 37.352783
35.058296 27.011349 8.6740646
-5.3732128 12.930157 9.9276304
-40.760181 -58.544895 20.553474
-38.086098 -91.179543 25.091763
10.274886 109.89889 39.790909
39.577724 66.162994 22.951866
-34.834129 9.2500181 13.022821
-27.847731 -13.863665 23.061388
-14.457665 91.272682 47.347801
34.120117 -6.8268819 23.286974
-9.3781128 -7.3533554 26.61499
-15.099279 -7.0914745 9.8766708
30.46674 -57.6166 28.853483
29.885235 13.559668 61.360107
20.143135 69.577164 52.539101
7.2501507 -76.191467 41.927223
37.053947 48.722122 45.977638
9.4058084 -57.462929 43.70026
32.801289 45.328987 56.277748
36.396164 4.737011 45.832466
7.3720369 83.014481 12.631401
-27.951708 26.688526 8.620635
-0.81446975 -73.623642 42.423832
4.1088452 -17.74897 9.8258619
25.49556 5.5891838 9.9276304
38.959694 17.695229 12.187296
-38.83194 -52.308681 27.73114
27.285597 -8.1182575 8.5546761
32.576931 -43.742939 48.90406
19.652725 -44.176685 49.799397
20.746552 -115.02225 31.597771
14.461847 -68.550873 16.327087
21.544634 -110.58371 34.814148
2.6833901 -66.862175 43.152138
-14.250716 -87.864243 8.5817356
-37.805855 -49.890503 11.763695
-39.835358 72.656235 40.081196
29.093781 0.012305737 62.78714
7.1613493 101.76013 14.810209
21.38467 18.757097 9.9276314
-5.711937 13.80454 8.6191006
3.2377591 -70.250885 42.722019
14.381508 -13.680387 8.5257874
-12.37589 -49.920486 34.759529
20.330589 -113.50076 29.056999
22.49984 -9.8908339 40.236572
28.779671 -14.585835 61.620396
2.2858534 19.404034 8.6197672
13.057549 76.384659 50.181206
-40.641113 38.61409 14.043936
-33.064228 57.582611 44.875416
20.515572 56.090351 48.411869
36.522972 -48.217346 42.289425
-40.475155 -18.180164 27.624285
-8.9105253 18.964901 66.108055
17.012152 0.77803445 65.709564
13.231728 -44.909557 45.41457
-35.190826 -23.911156 17.704245
31.150965 54.342289 14.447306
21.862461 43.819878 62.335037
-25.084343 -75.759232 41.316544
16.118176 108.73287 43.468437
-7.1545181 -51.417316 34.470642
33.951683 -10.668986 27.935009
-7.9512339 92.137299 13.646889
-37.066277 -44.696888 8.3835564
5.1503496 -3.1176701 8.5806503
-40.740585 -46.887482 20.312788
-18.697773 -25.977846 20.972923
21.551994 54.324097 48.387096
33.935169 -38.376778 17.720131
34.26709 44.360363 17.26614
-39.294895 -69.303749 35.137939
-21.674631 -14.728747 8.5203419
22.11338 -4.8228755 16.941299
4.9104862 -124.22195 22.062468
-41.503559 83.852257 18.886719
38.979301 67.999969 16.248945
38.640862 -42.926067 43.859505
-4.2434573 15.445327 64.542923
-7.8266144 -34.906212 8.4155397
-13.976068 -116.19066 27.727993
33.765804 -68.376366 8.1723585
-28.877701 67.47937 14.887699
37.545059 -9.8144846 42.467758
-28.211388 -52.019928 43.1507
-16.096161 57.687405 47.500923
-27.31951 69.697411 11.260132
40.447498 79.660522 21.241365
18.961302 109.17986 15.841866
25.227787 19.038334 63.421036
23.768581 -23.130903 20.405558
-8.9475451 -8.6350708 15.979128
-10.657358 114.6655 27.958473
-31.828592 31.107523 60.18784
39.283279 72.305626 5.8108201
-37.741173 75.774132 25.146572
-35.064816 -5.8152719 37.861565
33.899452 -44.961582 37.95525
27.699432 -5.0149965 8.5707941
-3.9422836 -31.336662 9.7610836
33.507111 -27.325369 12.629815
-34.42762 64.943909 30.491299
38.175934 40.400242 10.007982
39.144585 63.812496 0.92882407
-32.414272 -76.720757 29.936726
-23.161926 68.323296 11.12636
-40.20142 54.66283 39.487274
-8.7413521 8.3718653 66.232666
-13.11642 19.56525 9.9276304
-17.414839 99.133812 14.488913
-18.825014 -52.820354 45.623276
-6.6867504 53.548882 9.6880436
1.055315 10.522667 8.6187096
-12.772572 -17.95413 9.8248835
-36.520515 -60.74622 8.5078259
4.477612 114.10982 28.710659
20.364351 55.869671 48.415482
-37.740566 2.5980844 28.407749
-28.55475 -18.895014 61.456142
27.614399 45.1707 13.576019
-24.692692 -6.9582605 46.328613
6.8520722 104.11624 15.098446
15.646881 25.530563 65.466965
-19.730556 37.233013 19.930687
29.455042 -28.761034 8.4474554
-39.115269 2.9670012 15.629873
-13.003305 62.173683 56.31345
-10.633847 -13.14209 26.142727
33.994232 -19.771368 26.724089
21.339901 57.939514 45.706642
1.88235 -64.982651 8.3141394
11.037826 28.86718 21.906141
13.323167 3.0409369 66.953011
28.876207 -69.658432 41.765945
33.953606 28.590899 26.767014
6.3245869 -73.062546 42.316322
38.880692 9.7452621 12.019213
-40.425964 47.898788 25.487455
26.774981 -58.325508 8.2938938
27.930344 -57.153732 34.430199
36.771088 66.192581 45.801491
-31.725098 -88.84758 19.563679
17.786274 -43.035431 37.042435
-35.696945 0.84092975 51.160995
-1.9208161 45.549881 26.745077
37.120136 26.356178 8.6724625
24.789951 107.59987 44.272301
27.545868 46.411083 61.780113
-34.414413 -15.156024 53.379753
-40.765617 -43.599003 21.463135
0.52715617 -24.260122 61.622978
-13.28157 67.338287 54.146633
7.6992655 -18.435247 13.5529
23.678946 -66.422859 42.458015
-38.630589 -89.51413 26.204569
-37.818081 -77.919945 31.239889
8.2793274 3.0527685 67.141869
32.123146 -44.411785 37.228233
-24.69673 -20.450888 61.994808
-27.497171 -104.66228 9.1535025
-28.877701 72.887726 14.97879
8.9745665 -26.796976 9.7827263
28.084812 -26.245369 9.7853556
-29.683508 75.045532 49.040569
39.144264 78.67926 33.560226
-10.990778 24.122772 13.654615
33.477856 -52.672112 27.947239
-21.459988 -120.44847 20.047991
29.125265 -38.86552 8.3949709
3.9737902 -37.744648 8.4007959
-4.1331873 -59.432613 8.2881479
-39.792645 38.518696 40.477489
-13.840115 -52.896103 8.3220978
2.6978648 3.0008836 66.057877
2.2639127 49.545685 45.036324
36.168564 41.24942 48.243279
2.5808506 -121.20554 29.739895
-29.778322 -35.068298 19.336388
-37.488567 -82.095566 31.408939
34.830433 -23.353661 11.893222
-30.230375 -17.425638 59.933952
-35.295547 68.887459 29.819069
28.372868 -112.82237 32.107693
22.735104 -35.123329 9.7430305
7.0125694 4.3850031 64.346321
31.411243 -16.085554 57.843601
-30.828032 50.128029 58.118881
-13.6408 -4.4762349 8.5735931
-17.721684 -5.2507648 12.139814
36.156303 3.6223598 26.053482
-7.8420296 102.78023 14.935002
-29.523394 -5.0780849 8.570467
1.4213803 3.1195593 68.145668
-26.969252 -53.887222 43.318378
33.692337 15.166571 35.554913
-11.056201 114.86907 21.51033
8.3353119 28.818867 65.377609
30.193619 -29.65671 56.471405
37.256088 -79.464371 0.68290627
27.614401 46.218903 18.384251
-35.113121 37.539841 15.965991
21.79908 -28.822552 21.539845
-16.416529 -78.237564 8.4691525
33.355671 63.400211 15.711017
-31.626583 6.8929057 58.67038
-16.158297 -107.76421 36.041569
-9.8510857 -21.117012 62.98727
18.68185 17.140533 9.9276304
-5.2300434 23.938375 8.620307
36.364769 -21.091738 45.103031
35.611916 32.7328 49.510506
-24.275112 -1.4000371 41.97654
-8.40802 -14.693396 9.8404293
-2.1184378 -57.331837 8.2990608
13.085024 -64.723785 34.430199
-10.246002 51.08033 47.433205
36.252502 37.769733 43.006283
37.15638 99.833252 40.677494
9.9397049 -4.1707058 65.726326
24.196827 -43.235313 49.604607
-3.2384775 -34.780685 8.4161921
-39.257298 31.48204 12.019669
39.264614 21.31208 31.442301
33.822956 -12.812768 31.490108
36.823303 47.418762 24.242456
-17.172516 -64.370468 13.827366
-39.701229 -14.789797 10.800731
-40.736839 -27.017956 22.74741
3.838465 -69.152 8.3628998
28.897285 24.209435 9.9276314
34.904827 14.556372 50.9729
26.459023 -6.2760673 62.995884
38.649002 82.850288 12.818547
-28.877701 56.961571 18.492067
38.184132 71.505676 29.728312
-37.792412 -91.620529 28.766987
-37.533493 -105.35986 9.2266865
38.050045 1.9261324 12.010532
1.0470499 44.237404 62.744278
32.562057 -28.301537 9.7755527
-14.091675 -6.6181278 8.5624685
14.027973 12.19377 64.049606
-31.822184 42.763542 60.043156
38.279835 -23.829388 37.265629
12.934261 -13.6702 22.61887
-28.9552 51.293015 48.240364
35.231533 58.831219 49.393044
-28.925205 -62.329056 13.59568
34.76088 -95.400383 15.06113
2.0263445 -106.90845 9.322566
-5.1369944 14.936878 9.9276304
-26.226662 74.813919 11.758234
19.942696 -118.31326 14.775179
-31.353075 43.522125 60.881256
-10.193251 -41.267288 8.3824987
-17.290287 105.09913 15.218689
-0.61249399 23.680937 14.450232
-6.251236 70.21019 44.096878
-38.769749 22.506622 12.017472
-24.953272 -50.159081 44.039452
-32.440895 47.595844 22.776875
-14.7939 13.708747 66.094284
37.351845 2.5546539 27.369833
-24.382099 20.384392 8.6198826
38.282616 -74.128746 20.125404
20.122135 -91.681679 8.6263809
38.80241 107.89223 26.614603
-18.970285 -55.380417 8.3091927
-9.8114796 -14.183823 64.673882
-35.972263 -99.31707 12.643513
-3.5681031 -68.621384 8.3566942
-29.841602 -69.649582 23.388458
30.652599 -5.3845935 11.101999
-7.7694583 -121.83549 16.968105
-35.138222 -29.082712 37.617531
-39.575775 97.712448 34.825462
-35.265984 -26.598007 18.592812
-2.258255 -5.4508591 65.673134
-38.269665 -63.934628 39.609596
-37.83659 19.142189 46.267643
39.056309 57.507156 28.452774
2.7499104 -61.529343 8.277257
16.661636 81.872795 48.147118
30.270567 90.699806 46.874561
-33.832451 -76.328484 28.385075
-39.851265 -44.908096 33.333164
-5.9411745 24.794708 8.620409
21.899628 -76.049011 41.381138
-39.961987 103.17305 28.596033
15.981964 59.071335 10.225665
20.036388 96.074219 46.585136
-35.734634 -92.920906 37.311478
-24.470432 -116.77198 23.200935
36.992966 -52.253197 18.183392
33.739235 33.333897 34.577518
-40.608429 -34.588387 24.545444
-28.782257 -15.98278 63.134487
5.875504 60.860527 43.829113
-17.777603 75.103935 11.786469
-5.4846549 -0.9864397 64.280396
35.259686 -94.809052 18.034029
-19.226347 -82.353752 40.652943
33.943134 17.588764 16.993977
-3.5288441 30.988897 63.521271
9.0877714 48.311493 41.472237
35.438801 59.396141 49.766266
3.1686831 68.664963 44.050743
-40.507278 3.4216747 30.122393
-0.92953217 -33.467144 56.981819
0.81978524 -117.46001 32.359959
-21.319149 107.58013 15.594614
38.197304 -75.726799 28.038868
-38.485847 -52.503777 22.775486
-38.837654 -74.776833 30.717768
19.764252 12.173828 9.9276304
11.525312 32.176682 21.216759
35.365829 -57.388996 42.420795
-27.149851 4.1842284 65.456184
34.572784 38.806984 38.924881
36.847618 15.576412 45.651146
7.1509314 56.516548 9.9769516
31.181461 43.375771 13.18482
-33.140446 97.630341 14.304985
-34.885754 36.967072 53.875748
-11.373237 5.887888 66.185242
28.579889 49.730713 59.37941
-8.6971397 -9.0057383 65.344467
-31.487843 87.654503 47.135666
-37.012196 -100.11873 9.2694921
19.723608 -62.139679 43.265717
40.121464 60.318497 3.4819696
-36.773251 -72.761803 40.421749
10.149384 -50.632095 44.947655
-4.5346813 86.858841 13.05933
11.383493 -121.24253 21.301128
16.042788 -56.036907 34.430199
30.924082 61.986004 1.4576113
-41.387856 84.154572 26.278095
-31.500782 86.29715 47.236885
3.7939105 57.297455 48.553139
-38.777534 -67.677727 9.2179499
34.320801 49.054714 45.811813
0.29578829 26.768097 65.538033
5.0960174 -47.58865 49.258022
-6.1802254 -63.39468 13.345079
23.467258 -59.672344 8.2868996
-40.097221 -65.581451 30.605516
-21.391254 63.625122 43.788445
-20.13295 -55.595219 8.3080778
-0.92111206 6.1628833 71.8619
32.903465 26.417807 8.6657591
-15.241416 8.1549492 67.38324
-13.871062 55.38213 48.557602
-31.39986 -110.6674 28.585072
37.91206 -8.7164707 41.224178
37.375126 -23.648239 11.890315
33.722012 -47.028225 15.114658
33.379246 65.455536 30.448154
21.688644 11.662361 8.6188459
-33.877583 62.752148 0.56757832
-40.105782 93.766068 28.777555
31.212986 7.9778547 55.957844
36.168777 -100.06268 9.3788223
9.2957697 -10.075938 33.432961
-35.074699 -34.628693 29.82127
-39.482819 -78.148201 6.7188907
-4.4245081 -116.33023 33.878807
6.8475871 -19.986813 9.8151932
-14.549155 -12.011052 31.65041
0.59556866 -2.7749662 8.5824299
7.8333015 21.988382 8.6200752
-26.99827 -5.435205 46.209267
8.294838 -69.406929 8.36588
7.8401365 -118.55702 22.596725
9.0295601 -2.6047137 40.965935
-34.467243 -36.895023 8.4052057
-8.8598032 -24.55541 9.7934132
-35.24485 8.5261402 41.405037
26.068501 -34.18087 36.318707
29.289984 -11.87653 62.353977
5.058095 39.845039 63.031425
-1.0421537 -19.279339 63.684803
-18.208109 24.077503 9.9276295
-33.261089 73.562256 45.769852
15.272554 -49.108704 9.6763554
-39.850441 -41.723969 33.942406
4.8609004 -69.554199 26.613602
-18.176975 33.179588 64.844444
-15.708367 -85.970924 40.27039
9.2190428 -37.186234 8.403697
-25.404364 -20.247917 8.4916735
25.558903 -0.47970939 8.5943508
-30.120939 25.120499 9.9276304
-13.347771 -9.6409245 65.234184
-33.923637 -16.835037 54.482021
30.809439 -80.356674 2.1666439
-3.9697189 -0.58162415 8.5938225
-40.361145 -92.312759 14.787479
-32.77002 -13.619357 57.499634
-8.5934563 2.5153599 8.6099081
-30.473825 114.29343 22.383347
-13.348129 53.436798 48.557339
11.503282 106.51445 15.429905
33.799088 -4.2240047 38.34222
-38.783962 82.964661 42.584446
33.350643 -63.457581 18.667522
-39.477257 100.65607 34.668262
20.623186 6.9528012 65.828888
20.553715 -14.870965 18.82427
-14.287016 -22.081278 20.441469
-41.751369 -39.448872 46.058914
-35.082314 13.05365 31.241983
-10.390654 74.480316 51.067932
-35.543606 -55.335167 8.3258963
7.1486378 15.55881 8.6193094
-2.7729735 -58.326469 34.430199
-37.267632 31.553425 12.015972
-14.926567 -11.565893 64.8946
1.3372717 47.956253 9.1435909
16.200977 -33.930702 9.7487164
-37.35096 51.575256 43.227966
21.051529 3.6082652 63.632015
45.831017 -37.332836 47.214211
21.673477 58.867188 10.205791
-34.772247 -33.850204 12.620078
-5.3841286 112.16989 29.162666
-8.947546 -11.907381 19.710503
27.298 -86.191895 16.581131
-34.803444 -41.342224 12.959025
20.198181 113.27692 19.020025
-35.152863 9.2288961 16.824024
33.769897 -92.849167 22.615652
-33.093426 -49.295139 44.035004
-13.810811 -124.44998 21.611877
38.439564 100.96948 14.974619
-40.860756 -28.99618 15.584284
-40.374233 -26.732218 28.197197
-31.037136 101.83743 14.819664
-25.261911 14.175375 65.609367
-27.704754 -35.068298 20.630352
35.207439 20.255783 42.593983
34.069603 -30.466961 24.599098
31.786938 -17.460125 9.8272381
36.957138 62.744324 45.95343
26.220261 -102.59873 36.10561
-10.500943 44.378868 63.080093
38.767887 -30.315437 32.666199
19.356178 -120.64104 17.991898
-31.846155 -72.670982 22.854565
-7.7212286 40.507931 62.986752
23.549557 70.598419 43.880684
28.62085 -4.9587083 15.417068
7.966589 15.016799 8.6192446
-34.7076 -11.812571 11.109028
-40.451141 78.824974 32.832283
2.0984955 -56.987709 34.430199
13.404618 53.453011 48.558006
-38.492516 100.84283 40.289246
-8.5521173 -43.166306 8.3726358
10.112053 35.629089 62.939316
0.32439375 -71.671661 8.3923664
-19.56214 -107.71152 9.389411
-36.37941 14.150492 50.142197
3.6420298 53.668201 9.6996603
-9.4954166 -18.448381 63.763542
35.387466 -17.300129 41.792065
-10.017046 43.850227 8.7438622
15.725209 -59.560577 8.2874813
38.568794 7.2838111 11.201277
-11.306282 -64.341621 43.316967
-11.725638 -46.008095 8.3578749
-6.1196389 -97.395264 38.611092
32.121914 4.934062 49.801655
-19.64465 112.42557 16.362993
11.63665 -104.23689 37.046635
31.417271 40.544609 18.505566
-28.877701 60.57106 22.086174
3.9807801 -46.692688 49.787361
-20.006264 37.638363 62.49704
30.507948 -50.703114 9.6687546
-21.491142 -120.3884 21.511625
38.899586 -89.563042 24.08643
-8.3696489 -43.531391 51.441925
-33.043694 -55.316078 25.237661
-3.986383 -4.7748642 65.70298
38.170036 76.175293 41.333462
31.82967 37.113026 58.043514
11.543586 38.832245 19.832287
33.966015 -20.122124 51.344635
-13.636358 5.1304255 8.6180668
-34.950195 -11.003174 14.873394
-35.142689 3.6401005 17.253151
2.6687429 -19.824154 63.465874
-18.939583 -50.435745 43.85112
5.1235285 114.54002 28.513218
7.0515976 99.682106 14.55599
25.735783 -74.846054 8.4294882
23.388233 -54.479294 43.495407
-18.658066 61.956825 10.506574
8.6086903 -33.192963 56.871807
29.621565 -74.918953 41.111542
-35.348072 8.1869831 19.271173
-32.95467 8.7087755 57.316917
5.8337932 -55.96637 34.430199
-38.930286 5.5881901 12.017599
-40.680115 -38.73753 23.27879
-13.871228 50.396473 46.485897
29.17433 -59.361851 24.489269
-1.9533427 -44.878208 50.890522
33.801151 -5.0080647 38.140102
30.973701 -12.337124 58.919838
-34.810863 60.694237 52.249073
28.788237 31.782074 61.578857
5.8316493 -11.933661 8.5348587
34.117256 75.132446 25.500576
33.775047 -22.521328 51.669537
-32.265144 78.724808 12.227571
37.724266 -37.626049 8.8849335
-16.009403 74.99147 44.547215
-33.055916 -55.3307 42.622845
33.857792 40.223946 36.848743
-28.723312 -63.460701 14.056562
-35.192726 3.0526247 17.855167
-5.2710209 49.679985 9.3113995
33.835342 -51.39069 36.058018
-0.46517444 -105.69801 36.96402
-23.274288 1.4196897 65.505913
-35.727394 41.208237 21.829548
24.635841 96.02446 46.429996
29.821537 36.877426 61.298668
-35.803249 -13.400217 8.5272417
37.997299 -85.103394 11.273977
-35.234245 35.402439 25.384565
-24.172533 -12.702777 25.079159
-28.877701 66.877434 12.493572
16.192278 74.836952 44.451183
-36.5326 -70.718117 4.6676083
-13.825346 -50.497849 8.3345547
15.704665 -43.758698 42.304192
-35.194138 1.0304528 28.554604
-12.84124 -116.76495 33.114807
25.593952 -3.1529067 29.646173
-35.771919 58.243469 1.0925094
-0.7634902 -65.715958 43.363464
16.855272 -26.956417 8.456831
30.449169 53.707729 7.8138227
16.389853 -9.5360374 41.646004
5.0725665 -57.815224 11.189976
-30.507317 -4.5490522 42.117393
-32.596928 -49.95599 8.3373671
27.614401 47.423302 17.902264
34.122421 -85.356606 38.822269
-33.750198 -46.923615 8.3543854
-19.266197 -5.0438938 14.461174
-35.232834 40.052376 53.193348
-32.576565 -52.212517 8.3256445
33.105186 3.801188 54.236195
-5.0178876 48.688911 43.305443
-40.108959 93.926193 28.593998
-0.54209125 106.20669 45.284981
-39.107674 43.885338 26.459366
34.088596 -33.573456 11.843339
13.547613 -33.490292 9.7508163
-13.527359 -8.2379026 63.530041
18.936081 5.6697803 9.9276304
-24.475151 -20.103075 8.4924269
21.661001 -43.399376 39.690079
35.240425 -67.084259 11.982698
-22.444057 22.524513 19.566086
-3.5841885 4.4961553 71.8619
38.979301 64.518646 9.6668148
-36.233871 77.925102 46.278313
-28.877701 63.229744 23.960142
-31.863979 -92.067635 11.893324
-5.3489671 -23.097883 9.8003607
16.774178 35.19178 20.449989
3.867528 26.285648 65.573616
-6.5215797 -124.23755 22.633484
17.46883 -13.24826 18.976835
-34.987331 16.285353 34.092762
-39.981335 -32.442612 33.255749
21.597988 -117.11739 10.421138
-40.084793 35.222679 38.289688
-5.5592227 -23.927116 61.68483
37.997299 -82.873817 7.8852482
11.366614 -56.125084 10.785326
36.394661 -52.008888 32.361191
4.6258893 -98.382996 38.449375
11.21818 -101.25667 8.852829
-28.121691 -76.608307 8.450098
-4.593173 13.699041 8.6190872
-21.28285 -52.209816 8.3256617
-40.773849 73.06308 21.866823
-21.913256 48.302151 43.734013
-13.613688 -47.365459 9.6846666
-21.959291 7.7781048 65.829819
38.469437 -13.561121 10.886602
-39.260601 -74.586113 16.007376
27.298 -75.359573 20.961634
-4.1860075 -3.2212734 9.8951216
-13.771834 75.874054 50.411781
24.775414 -32.208485 8.4295492
-13.968292 -2.1416035 36.760094
32.035721 76.835655 20.60565
-39.772305 20.182842 39.663902
-4.4675741 -9.0216227 8.549984
-3.005096 22.351488 9.9276304
-41.347569 92.133865 22.75013
-31.504244 -8.4392662 26.145687
-40.842537 -101.91068 13.718597
39.520329 -55.696526 15.061975
20.556437 13.626269 63.71386
35.650009 54.581932 43.798401
0.38688123 7.9332175 70.626541
-12.573853 -121.61834 15.694754
-33.950993 28.861416 8.6634903
-38.835197 -107.79689 23.27717
-9.9676981 76.711227 46.156769
32.852394 35.675003 55.689713
8.6335049 -82.472183 8.5186768
-36.964226 91.698135 44.293671
19.922276 66.661407 53.82431
-7.9299779 -120.95614 30.658281
-11.493658 -69.554199 31.267273
27.629675 -11.860469 32.940929
9.1995068 28.809505 8.6208878
39.227463 -59.288723 25.109797
26.024055 -1.6104243 40.496624
26.267712 41.07304 62.190971
16.37915 -73.952393 8.4190369
-19.976574 -11.013547 30.815403
-27.675959 -16.826414 9.8302593
16.568655 -6.9228258 9.8774757
-1.0158089 -53.240952 10.09481
30.643873 73.497192 49.239941
12.266085 -34.264515 36.280418
-32.345612 -90.591377 4.4296489
-38.622543 6.5948105 43.862743
1.0961819 -18.995331 8.4981813
22.909985 -2.9876392 63.298508
-13.86075 -32.470402 22.266823
35.902477 -51.806896 14.574604
-8.7892628 100.67992 14.678059
29.946873 -66.080872 21.839331
8.5382757 -86.404709 8.5646667
13.496318 -47.756672 9.6828022
41.016075 -39.702427 48.86306
13.097828 108.06493 15.669544
39.177803 -78.310905 3.4232531
0.60524505 -7.13976 65.572754
-33.182404 -79.627884 29.041353
12.548541 112.74866 16.393457
-8.8365116 52.96999 60.102024
8.1876707 70.584869 52.785141
34.062859 -49.276581 19.196394
-11.158448 57.159355 10.03953
4.9319425 -26.309547 60.459518
34.148956 45.194252 32.882248
-4.7775745 -61.524822 8.2772808
35.687096 52.732685 43.686943
30.166988 43.028519 23.017326
-34.815498 -4.1290855 13.285718
-18.254166 -27.113598 8.4560137
-17.848656 56.951679 48.505795
20.287228 -5.626853 65.264
26.686047 -12.184851 31.298294
-12.103113 108.45501 31.575142
-1.1532437 -114.03201 9.9141808
34.095322 -34.728542 23.871803
-19.4886 77.847473 47.577286
-33.843075 -111.65032 28.313187
33.674648 -76.486954 28.416594
-34.752674 5.6657424 44.620941
38.311455 29.517843 10.401553
-1.9752848 9.2431555 66.225807
-32.029556 -7.0354052 59.049919
-5.7850685 -98.144485 38.492226
-37.672104 21.363106 46.816566
-4.6394277 -35.669643 8.4115744
22.824459 9.3953457 9.9276304
7.628087 6.5174427 8.6182327
18.623787 0.71100283 65.6297
-27.108261 -26.607805 9.7836285
4.4128256 -14.342846 9.8421001
-21.606497 -108.62121 35.478294
-13.857552 109.45509 32.64188
-1.5143341 6.7285099 9.9276295
-33.818344 -111.32012 23.655033
-37.45031 13.022417 47.102547
-40.325455 -78.441277 32.385117
-35.049004 -10.618959 36.698673
-37.948227 49.168583 26.217966
-18.78153 -116.75884 10.166621
-2.6514356 -96.236237 38.889671
-29.331064 58.231632 44.037064
-0.067564309 -45.282486 50.689735
-31.466125 -9.0319939 26.794533
-27.989786 -52.539642 43.821537
-38.851963 -49.586079 8.4863911
-35.154335 38.632622 18.135292
-16.295965 -13.523872 62.980911
-35.159378 -5.3910379 29.493183
39.403084 31.081392 28.712925
-36.685234 106.59287 41.865559
-33.366058 34.32439 57.020454
-25.526211 -10.172296 8.5440073
-41.407944 59.530567 26.228558
22.431366 -99.845406 37.459183
15.43735 25.246 10.94134
-2.9824905 -51.016117 43.973652
8.4947262 -7.3943772 32.578026
33.658489 1.4715325 14.592351
-5.7762241 29.313301 65.341171
-26.209625 22.448477 18.274155
-2.9568889 8.0437126 69.017372
21.024319 36.758228 8.6218338
-35.367676 -5.1057634 23.728992
-15.784863 90.659622 47.409779
16.739082 49.845379 61.02055
-36.781956 54.803299 44.035202
31.22316 -15.556159 9.8363152
19.626465 -41.361588 51.398869
30.147266 10.848576 60.725784
29.570766 24.365629 61.403824
23.883759 -41.93541 8.3790264
-31.555483 -86.589211 7.0543251
-26.346983 -3.5707712 46.059452
-38.988049 -66.199974 25.152027
33.902836 37.106712 27.766594
-33.923267 8.0171947 54.533836
-1.3301139 -87.829514 8.5813313
36.702667 18.39439 46.169319
-40.264286 52.653595 38.94762
33.819317 -21.196598 16.417439
2.3742616 -12.836115 63.535229
-20.560078 1.0034765 63.620956
34.317001 -69.786636 6.0616961
-40.360191 -7.0044055 36.84655
-29.00111 -8.6974182 44.210247
-32.076363 75.944763 22.204563
12.326773 -106.61691 36.472721
6.3519473 37.826294 64.232788
-6.8522673 -68.803543 17.466469
38.132973 -90.06987 25.7327
33.753193 -41.003155 36.655518
11.294546 110.9353 29.443615
30.954412 75.31601 14.409055
-40.456501 -51.671635 25.0653
-40.408619 -50.433517 25.783155
-28.741264 -75.900017 41.094048
28.360382 8.9311914 8.6298485
33.871311 40.409046 28.657196
-34.177944 -14.726015 8.5203543
-21.428635 44.185314 24.58112
0.72387654 -64.202179 43.523544
14.440023 -45.579853 35.423721
-32.643509 -56.279659 21.82922
-29.065331 -9.273097 41.304726
11.971786 2.9901931 64.051605
26.448168 50.646465 47.822853
3.549551 50.829002 9.4232588
34.130035 -22.081827 22.956995
1.041687 59.113392 10.229759
-40.545563 106.04473 26.861675
-1.4290856 -68.091347 15.666441
15.555869 -35.068298 12.089521
-35.43911 52.30648 46.353287
15.041023 -2.637183 33.273964
-24.350296 47.134869 37.949383
38.979301 62.076378 19.746561
-7.9717979 -24.237415 8.470953
32.807529 -0.48263979 55.005875
30.939377 -83.055542 27.937195
-9.9846382 -30.247665 21.658886
-34.862869 10.127907 8.6327753
-33.405483 -10.537683 56.12648
-31.779905 101.35462 45.702984
9.4859905 -62.763897 13.03331
-41.28788 71.686569 19.363308
-30.647545 -16.082256 8.5133095
-35.165123 44.234074 27.45347
-10.325798 -59.622208 43.628922
-12.9643 11.805848 64.167839
-24.349442 -18.254047 19.628736
-18.237843 -62.09203 43.439659
-9.5345154 95.907906 14.094268
33.235615 75.763969 23.866808
-35.001328 24.840347 34.026131
-33.973015 -13.206825 54.577179
38.929581 7.360548 36.254387
30.888931 28.135506 21.857546
-27.219484 -67.51458 34.430199
5.3901954 -18.203598 62.905144
-18.239248 -13.995425 9.8437576
10.42237 -121.63884 17.977665
-18.330458 -40.068024 52.564892
38.416931 74.206696 7.8531179
39.391991 -100.14265 19.677824
-35.45248 3.8335454 21.406034
8.2536039 -117.29822 32.341068
-36.284454 -43.974228 46.305935
39.302509 -3.3998306 17.958584
-5.8777266 -49.92926 47.977673
-7.091836 108.8696 32.110592
35.1287 46.170254 21.606005
6.5753393 -15.017293 8.5188427
17.605967 -69.148956 19.024097
-20.593428 -64.150101 34.430199
30.652599 -10.143295 19.587627
31.643509 107.66504 15.575308
7.4806104 29.506084 63.403015
-25.490147 37.507355 63.801136
-16.466406 74.340172 44.203476
38.903351 44.906986 30.800476
-24.577332 -8.0170116 45.78381
-17.887836 -41.710785 51.762756
29.007004 -18.688459 8.4997721
-35.205101 13.508255 16.951237
-1.1336083 15.2131 9.9276304
-2.4996047 10.719053 9.9276304
-20.675007 38.977848 8.622098
-7.2777815 62.113239 43.865253
-40.342728 -10.226724 12.975601
-34.959743 -69.412643 23.070293
-40.516357 -109.38784 21.992554
-7.5873904 30.24143 63.394238
-35.063965 65.291412 28.619081
-8.2625265 45.818687 8.9354954
28.527084 94.587021 13.932675
9.6139984 -18.525545 9.8221588
