# .PCD v0.7 - Point Cloud Data file format
VERSION 0.7
FIELDS x y z
SIZE 4 4 4
TYPE F F F
COUNT 1 1 1
WIDTH 1520
HEIGHT 1
VIEWPOINT 0 0 0 1 0 0 0
POINTS 1520
DATA ascii
3.0223446 -7.1160994 0.252327
3.3409648 -7.1141138 0.252327
3.4795527 -7.1076641 0.252327
3.8558598 -7.0825453 0.25082552
3.55621 -7.0167484 0.252327
3.901051 -7.0035501 0.25006425
3.7298167 -6.9787288 0.252327
3.623898 -6.9698696 0.252327
3.5750678 -6.9404984 0.252327
3.1959753 -6.9393334 0.252327
3.8743939 -6.9356909 0.25051314
5.6955237 -6.9201627 0.25430167
3.6355805 -6.9177999 0.252327
5.7021828 -6.9187713 0.25497752
5.6873646 -6.8323727 0.25315899
3.502212 -6.6865001 0.25674096
3.3280632 -6.6757917 0.252327
3.7724071 -6.6763697 0.25223136
2.8220422 -6.6642094 0.252327
2.8746562 -6.6674142 0.252327
3.3551447 -6.6652184 0.252327
3.5952065 -6.6677928 0.252327
3.6051269 -6.6455636 0.252327
3.5745287 -6.6258497 0.252327
2.7409892 -6.6180792 0.2560679
2.8227026 -6.6126542 0.252327
3.7090459 -6.6152086 0.252327
3.563786 -6.5897722 0.252327
5.659411 -6.5867372 0.25100935
3.6090305 -6.5657434 0.252327
3.8197279 -6.5666685 0.25143421
2.9216433 -6.5511975 0.252327
3.2529769 -6.5567288 0.252327
3.3667843 -6.5430298 0.252327
3.3166335 -6.5330563 0.252327
3.7331004 -6.5034184 0.25232697
3.5233231 -6.4956303 0.252327
2.7568274 -6.4518709 0.252327
3.107058 -6.4522481 0.252327
3.8284163 -6.4577637 0.25128788
2.8455529 -6.4419632 0.252327
2.8767867 -6.4400301 0.252327
2.9895835 -6.4462767 0.252327
3.4009366 -6.4361987 0.252327
3.4655313 -6.4340763 0.252327
3.050087 -6.4193983 0.252327
3.5477688 -6.4065394 0.25232697
3.1053669 -6.3790951 0.252327
3.2489543 -6.3725896 0.252327
3.1812844 -6.3654861 0.252327
3.2435637 -6.3649607 0.252327
3.6405411 -6.367866 0.252327
3.7967443 -6.3512731 0.2518214
5.669013 -6.3535185 0.2533296
2.918412 -6.3409805 0.252327
3.1081455 -6.3304777 0.252327
3.1227851 -6.3346386 0.252327
5.6483393 -6.3369646 0.25136545
3.6519589 -6.3154297 0.252327
2.8253946 -6.3077006 0.25232702
3.2735128 -6.3084116 0.25232697
3.3473227 -6.3020439 0.252327
2.7485106 -6.2987404 0.252327
3.0302556 -6.2999773 0.252327
3.3644629 -6.2939525 0.252327
3.3997943 -6.2960939 0.252327
3.5867572 -6.2955222 0.252327
3.0807011 -6.2857742 0.252327
3.5180442 -6.2723002 0.252327
3.6710305 -6.2719426 0.252327
1.9417565 -6.2535605 0.25648761
3.0413783 -6.2578793 0.252327
3.3164561 -6.2414947 0.252327
3.3365877 -6.2490201 0.252327
3.3003306 -6.2316065 0.252327
2.9994471 -6.2247314 0.252327
3.7882955 -6.2291613 0.25196368
3.377696 -6.2088242 0.25232702
3.562429 -6.2083001 0.252327
3.0407188 -6.1942945 0.252327
2.8073566 -6.1862559 0.252327
3.081809 -6.1876783 0.252327
3.2981529 -6.1869898 0.252327
2.7523689 -6.161922 0.252327
2.8925896 -6.1573906 0.25170812
5.6248093 -6.1576452 0.2509672
2.636471 -6.0689363 0.25226074
1.9472158 -6.0590682 0.25818881
1.9636965 -6.0582356 0.25618741
4.2001443 -6.0542622 0.25589642
3.697994 -7.4716272 0.2643677
2.8185344 -7.4436855 0.26251158
5.0322495 -7.4322796 0.26094177
4.0619488 -7.3824701 0.26130489
3.297811 -7.3748813 0.26498792
4.7140722 -7.2839632 0.26407844
5.7766399 -7.2405615 0.2643435
5.73664 -7.2025881 0.26001331
5.7880421 -7.1499772 0.26486331
5.7564774 -6.7982059 0.26007318
3.2580197 -6.6865001 0.26913121
2.738291 -6.6426773 0.2654058
3.4237683 -6.6311159 0.26802573
3.5238199 -6.221664 0.26982191
3.6835165 -6.1471443 0.26011056
4.7328315 -7.5687017 0.2758387
3.6676874 -7.4233708 0.27071404
1.4808614 -7.4005489 0.27136087
4.191905 -7.3824701 0.27072614
2.9496102 -7.3660202 0.27924791
1.4784775 -7.345789 0.27563301
5.7922907 -7.3161526 0.27851206
3.2132478 -7.3090625 0.27574405
3.2092795 -7.2956085 0.27555436
1.4568377 -7.2669992 0.27049866
3.9921274 -6.9064999 0.27765849
3.1843071 -6.6865001 0.27969304
2.7357507 -6.6788516 0.2741971
1.8810444 -6.3433208 0.27609164
2.5900509 -6.2501383 0.27181426
4.02355 -6.2477036 0.27818695
3.4829993 -6.2269802 0.27674463
2.73522 -6.2003942 0.27603471
4.3809252 -6.2097197 0.27370381
2.6507871 -6.0649652 0.27414382
4.7043114 -7.5695124 0.2808013
4.9450884 -7.3651023 0.28749591
5.0906968 -7.3140574 0.28787506
4.8439569 -7.282783 0.28326967
4.9137802 -7.282794 0.28309903
2.416244 -7.2398405 0.28056335
2.5579875 -7.23984 0.28364635
2.7327156 -7.2119212 0.2847017
5.8346224 -6.9617181 0.2889142
3.8710666 -6.9064999 0.28623241
4.8999405 -6.3104839 0.28760344
3.5895698 -6.2269802 0.28783962
4.4859753 -6.2260976 0.28673649
2.3876138 -6.0505438 0.28913295
3.3436007 -6.0598035 0.28751156
3.5713706 -6.057858 0.28388458
4.0759163 -7.5459318 0.29793727
5.4614058 -7.4978762 0.29305896
2.8480434 -7.3943033 0.29036111
3.9068737 -7.3824701 0.29777446
3.4853361 -7.3719802 0.29837102
1.985655 -7.23984 0.2983087
3.6087959 -7.0005798 0.29518062
4.0152636 -6.9969025 0.29490834
3.6064091 -6.9064999 0.29992533
3.6213877 -6.6865001 0.29800785
3.5440588 -6.6260509 0.29020461
3.2022443 -6.5023437 0.29626769
3.6092081 -6.4149632 0.29844525
3.6088638 -6.40132 0.29572028
1.9252121 -6.3531594 0.29963446
2.3341055 -6.3531599 0.29759273
3.7051001 -6.1244388 0.29318598
4.4290528 -6.096621 0.299905
2.7641459 -6.0898285 0.29124874
3.4175699 -6.0581455 0.29092991
3.6548374 -6.0537424 0.29779294
3.6901565 -6.0584688 0.29215881
2.7592087 -7.4647427 0.30038971
3.6853321 -7.4665456 0.30874932
3.1024721 -7.3960199 0.30335
3.2490773 -7.3660202 0.30312029
2.4492869 -7.33535 0.30761242
5.8149595 -7.2383227 0.30215997
1.4142394 -7.19803 0.30938911
3.1251826 -6.9064999 0.30642384
1.3596632 -6.7886353 0.3066147
1.4069234 -6.7854176 0.30938995
5.8437386 -6.7886801 0.30636659
3.4260161 -6.635778 0.30850717
1.3716555 -6.5844913 0.30938983
2.7290337 -6.5087595 0.30169916
3.3729565 -6.2269802 0.30099425
4.0805621 -6.1809378 0.30749959
1.8809254 -6.1652961 0.30535966
4.3235378 -6.1187811 0.30363005
3.492836 -7.5403519 0.31653371
3.5685394 -7.5410643 0.31541437
2.757179 -7.5125308 0.31559145
5.0871964 -7.4880581 0.31747741
1.9287361 -7.3601799 0.31794161
3.4573026 -7.3558216 0.31016403
3.9466474 -6.6912541 0.31128171
3.1809669 -6.6865001 0.31080139
3.566591 -6.6281247 0.31682557
2.0864429 -6.3531599 0.31700039
2.4657025 -6.2567492 0.31583855
3.5873685 -6.2448549 0.3133249
4.4765725 -6.0273185 0.31970689
3.4173021 -7.5404115 0.32263666
3.92225 -7.547348 0.3225013
3.2421994 -7.5392132 0.32860434
5.3526144 -7.5218844 0.32210717
1.9285738 -7.4337711 0.32718235
4.4981494 -7.3662047 0.32413527
2.478333 -7.3369517 0.32961547
2.5223649 -7.3393445 0.32678637
1.9695737 -7.23984 0.32333237
3.9436686 -6.725873 0.32103217
3.9490161 -6.7108498 0.32093951
3.9538488 -6.7195635 0.3208558
3.7985883 -6.7021799 0.32354599
3.836978 -6.6995773 0.3228808
2.7257235 -6.5823908 0.32649225
3.6126804 -6.3679838 0.32592621
5.0341558 -6.149334 0.32833469
3.4378324 -6.0514193 0.32853252
2.1441586 -7.5423527 0.33528128
4.3401036 -7.5397677 0.33345476
5.696167 -7.4750795 0.33302617
3.7682221 -7.4360461 0.3304058
3.7648706 -7.4173822 0.33464089
3.6140628 -7.0945373 0.33686978
3.9968462 -6.6981168 0.33326218
1.9873044 -6.2562113 0.33102435
2.5341015 -6.2376833 0.33148175
3.0340216 -6.2269802 0.33223268
3.4356513 -6.2269802 0.33258349
5.0835705 -6.222785 0.33233079
4.4284973 -6.0937018 0.33154011
5.0836387 -6.095561 0.33205223
5.5395446 -6.0920124 0.33776402
5.587162 -6.0986261 0.3392911
2.794363 -6.0583282 0.33483875
2.8894377 -6.0574088 0.33323994
3.1750536 -7.5403681 0.34077913
3.6761081 -7.4548774 0.34937614
1.3712051 -7.0654287 0.34411031
3.9975019 -6.5298162 0.3441419
2.7227249 -6.2350407 0.34894949
3.6290579 -6.2269802 0.34649748
3.7609291 -6.1925931 0.3485719
1.891646 -6.1810093 0.34927481
3.3411655 -6.0505276 0.34153515
5.1434202 -6.0443773 0.34685147
4.5939388 -6.0286398 0.34603852
5.0126538 -7.5641351 0.3549419
3.0643368 -7.541316 0.3549937
2.0363173 -7.2398396 0.359391
2.2505293 -7.2398405 0.35200107
2.7217231 -6.9753017 0.35645151
3.1147931 -6.9064999 0.35835478
1.39122 -6.852128 0.35755169
1.39122 -6.6817741 0.35470271
2.7219212 -6.470129 0.35496807
1.3885747 -6.4293928 0.35148364
3.615849 -6.2823849 0.35100535
2.7213678 -6.1925731 0.35911441
2.8272984 -6.0554113 0.35018778
3.9996657 -7.5546141 0.36262661
3.1117158 -7.5428944 0.36142337
2.5751042 -7.5325384 0.36700988
4.4335337 -7.4910116 0.36253688
2.9846902 -7.3660202 0.36733931
1.943181 -7.2398405 0.36578399
3.9962597 -7.1987176 0.36042616
3.5870738 -6.3379841 0.36217296
3.2879715 -6.2265429 0.36236456
4.3960128 -6.2103457 0.3671611
1.8745513 -6.0711761 0.36913145
2.3998718 -6.0594592 0.36892626
5.1125197 -7.5568404 0.3755427
3.2062988 -7.5467229 0.37913495
3.6885004 -7.5274382 0.3742795
4.3391485 -7.4805989 0.37779453
3.7276278 -7.4554858 0.37564582
5.0184197 -7.3729496 0.37893337
3.5759165 -7.3385305 0.37927073
1.9986105 -7.2398396 0.37375242
3.4669061 -7.1861796 0.37494558
3.3009062 -6.647594 0.37888688
3.4298224 -6.6429296 0.37314409
2.3857892 -6.3531599 0.37860671
3.479423 -6.323091 0.37361506
4.5656142 -6.3112402 0.37135744
4.7022133 -6.3112402 0.37512189
4.171546 -6.1646366 0.37382859
5.0259795 -6.1569176 0.37926546
2.5741446 -6.0706315 0.37094134
5.019311 -6.0325899 0.37504041
4.4693708 -6.0281854 0.3741408
4.6978641 -6.0218639 0.37359095
4.8114128 -6.0196624 0.37598038
4.7897005 -7.5734296 0.38612103
4.3982959 -7.5648861 0.38744608
4.4000196 -7.4808903 0.38357413
3.2295761 -7.3490438 0.38306803
3.4237847 -7.2437954 0.38721907
2.8133328 -6.9064999 0.38116825
3.3106613 -6.6865001 0.38489613
2.7185514 -6.4465837 0.38020784
4.5293193 -6.3112402 0.38742357
3.4140255 -6.2259197 0.38272345
4.2937512 -6.1709628 0.38044962
4.3994527 -6.1661887 0.3812508
4.349052 -6.0660839 0.38961264
2.478024 -6.0575027 0.38483784
3.8305845 -6.0381393 0.38130429
4.8980227 -7.5700397 0.39301908
4.3539462 -7.5435987 0.3995055
1.9039295 -7.4156871 0.39959115
4.219243 -7.3960199 0.39689144
4.9258041 -7.2817602 0.39793205
2.3611205 -7.2398405 0.39254865
3.5369768 -6.8589964 0.39994496
3.6024222 -6.7461901 0.3979274
3.5451865 -6.7313423 0.39969188
3.709517 -6.7205658 0.3972638
3.7286372 -6.7214518 0.39061055
3.7231953 -6.7056508 0.3942042
3.3081412 -6.1969795 0.39994001
5.5372133 -6.0799041 0.39148152
2.5692086 -6.0671206 0.3911604
5.0666504 -7.5560498 0.40164042
2.3481786 -7.53965 0.40980303
5.0200067 -7.5249968 0.40009692
4.3433537 -7.4772787 0.40140757
2.8089831 -7.4385004 0.40948448
4.319993 -7.4351892 0.40274012
2.2208776 -7.23984 0.4073391
3.6297998 -7.2206597 0.40067726
3.5315814 -6.8683586 0.40285575
3.5941381 -6.8423777 0.40088981
3.7200665 -6.793046 0.40182585
3.4675264 -6.7212081 0.40486878
3.5933015 -6.6298113 0.40666288
1.9453444 -6.1954269 0.40989459
5.699152 -6.1050839 0.40046144
4.3516355 -6.0790219 0.40936357
2.8849227 -6.045578 0.40674415
4.4075384 -6.0369849 0.4072451
4.7265549 -6.0193501 0.40751359
3.4365602 -7.5544386 0.41155666
1.9109021 -7.4740496 0.41291833
4.2819104 -7.4333544 0.4192639
4.4101176 -7.4391108 0.41159478
3.1871798 -7.3960199 0.41363436
5.0200348 -7.2817602 0.4195914
2.2075453 -7.23984 0.41973358
2.3968568 -7.23984 0.41583982
2.7153652 -7.0414085 0.41335323
3.3906665 -7.0362964 0.41073838
1.41642 -6.9598818 0.41764987
5.8489685 -6.5608234 0.41044411
3.3670743 -6.5121088 0.41416144
4.5328069 -6.3112402 0.41825634
3.0750141 -6.19698 0.41465783
3.4299693 -6.19698 0.41867399
4.2783909 -6.1597877 0.41775525
5.0563011 -6.0893402 0.41945699
1.9663678 -6.0588446 0.41176826
2.807276 -6.0440063 0.41936672
4.7775197 -7.574017 0.42014262
5.013732 -7.4959855 0.42197984
4.1914129 -7.3960199 0.42708853
4.0305653 -7.3610401 0.42207041
2.4771082 -7.2398405 0.4261378
5.8386021 -7.1556454 0.42891994
2.7145438 -7.1302085 0.42352569
1.41642 -6.9365253 0.42040724
1.3588903 -6.9088974 0.42611605
3.3384578 -6.651504 0.42320451
4.4252043 -6.3112402 0.42146581
5.8145733 -6.2547665 0.42511737
2.5518746 -6.1349134 0.4269219
5.012476 -6.0950098 0.4263624
2.6685646 -7.554203 0.43952194
2.3999572 -7.5379982 0.43948564
5.6139021 -7.5018439 0.43459979
3.2185562 -7.3960199 0.43624282
4.0662513 -7.3960199 0.43131751
2.5498371 -7.3894048 0.43035758
3.3279676 -7.3057089 0.43544647
5.8319197 -7.2265372 0.43961769
3.638304 -7.1399326 0.43016842
3.3078456 -7.1284914 0.43297857
4.0254993 -6.9748616 0.43172234
3.3677778 -6.8166084 0.43366742
1.3545622 -6.800065 0.43188962
3.6392918 -6.5189676 0.43350974
3.2837319 -6.4772582 0.43885547
3.2861915 -6.456171 0.43856865
2.0057459 -6.3531604 0.43565682
2.7933743 -6.0405278 0.43922684
5.2974672 -6.0484605 0.43735144
4.6935649 -7.5722961 0.44932106
2.569968 -7.5542989 0.44322732
3.6923714 -7.5243068 0.44181934
1.964397 -7.4891691 0.44926116
4.2326751 -7.3960199 0.449476
4.4831033 -7.2817602 0.44939101
4.3043509 -7.2481537 0.4485063
4.3272386 -7.1545062 0.44832405
4.347229 -6.9903936 0.44828737
3.2385812 -6.9542418 0.44212973
1.39122 -6.8457589 0.44002724
4.3464332 -6.8072734 0.44836664
1.41642 -6.6619282 0.44766706
3.2369716 -6.5939445 0.44577003
3.6424496 -6.5017276 0.44419092
4.3076038 -6.4486074 0.44858116
4.2814803 -6.3800149 0.44896376
3.6430826 -6.332469 0.44633204
4.2501245 -6.289773 0.44941992
4.0765209 -6.2153902 0.44820422
2.5000231 -6.0875506 0.44837356
2.5402112 -6.0557876 0.44659194
2.7799466 -6.0387611 0.44963497
4.8592138 -6.0243521 0.44964421
2.7177765 -7.5549378 0.45154223
2.5326133 -7.5209255 0.45940587
4.3660588 -7.4765482 0.45446283
1.9383247 -7.4695463 0.45916671
3.7316248 -7.451829 0.45840329
4.9951401 -7.425456 0.45650047
2.9371972 -7.3960199 0.45293212
3.2538247 -7.3960199 0.45472515
3.5030806 -7.3960199 0.45135462
4.0097899 -7.3960199 0.4514581
1.9346467 -7.3189702 0.45296389
4.1236248 -7.3031073 0.45373532
4.2221794 -7.2092218 0.45091143
4.1672912 -7.1949787 0.45286471
4.0859203 -7.0816107 0.45139813
4.0768204 -7.0701227 0.45003432
4.1918592 -7.0543966 0.45293924
4.1901608 -6.9810157 0.45352215
4.2129173 -6.9456487 0.45284843
4.2670593 -6.8497648 0.45082635
4.16539 -6.7693605 0.45463434
5.8580647 -6.7431011 0.45813292
4.1261377 -6.5871201 0.45574445
2.2433994 -6.3531599 0.45523649
4.2294431 -6.3554583 0.45050141
4.5158691 -6.3112402 0.45163214
1.9716189 -6.2476745 0.45066038
3.0053535 -6.1969795 0.452739
2.7119319 -6.1625414 0.45588243
3.6933098 -6.1351562 0.45751739
3.109467 -7.5598259 0.46352306
4.3856487 -7.5477648 0.46688944
5.6408739 -7.497098 0.46948302
3.9484148 -7.3960199 0.46582046
2.0523007 -7.23984 0.46345764
2.7115507 -7.1207676 0.46060461
4.3642797 -6.2937808 0.46514872
2.335237 -6.0563211 0.46615016
4.7571568 -6.0219603 0.46346518
4.3636603 -7.5753441 0.4733884
4.5063119 -7.564425 0.4736729
3.6971426 -7.5039878 0.47793302
3.8078854 -7.3778954 0.47765619
5.0253205 -7.2976794 0.47170585
2.093025 -7.2398396 0.47423446
3.5368371 -7.2127252 0.4708851
1.4413917 -6.9653702 0.47083771
1.438518 -6.9364624 0.47572997
2.7961354 -6.9066348 0.47810516
2.8912189 -6.6865005 0.4753662
2.7107902 -6.6412101 0.4758727
3.2010231 -7.563262 0.48647156
2.1571829 -7.5394001 0.48739976
2.4163983 -7.535758 0.48111138
2.5186429 -7.5265794 0.4829675
3.7609699 -7.435802 0.48858392
5.0186424 -7.4323897 0.4829686
2.4502964 -7.3388424 0.48761818
3.5986185 -6.9633546 0.48831442
2.450386 -6.2540803 0.48949713
3.7235315 -6.1535258 0.48655382
4.3887672 -6.0727091 0.48324731
1.9320159 -6.054965 0.48454314
3.7665234 -6.0241876 0.48271251
4.3976169 -7.5346289 0.49240556
3.7562501 -7.4383097 0.49920157
4.3627634 -7.3786268 0.49345589
3.3038538 -7.3660202 0.49886572
1.9642153 -7.3175154 0.49826944
5.5755677 -7.2608848 0.49536991
5.3086624 -7.2576971 0.4953005
3.5400338 -7.1441579 0.49226269
5.368763 -7.1021938 0.49525404
5.3730016 -7.0591917 0.49525404
5.5631824 -7.0590162 0.49525404
5.2799435 -7.048871 0.49525398
5.6364617 -7.0214086 0.49525404
5.0880132 -7.012208 0.49525398
5.59902 -7.0189776 0.49525401
5.5447884 -7.0088491 0.49525404
5.2181578 -6.970068 0.49525401
5.2245369 -6.9734745 0.49525404
5.1414394 -6.956995 0.49525398
5.3560109 -6.9431357 0.49525404
5.0462661 -6.9236612 0.49864623
5.1699228 -6.9037838 0.49525401
5.6817484 -6.8400354 0.49525398
5.3976207 -6.8176203 0.49525398
5.5917244 -6.8157458 0.49525401
5.1405931 -6.7843208 0.49525404
5.4128141 -6.7409897 0.49525401
5.4242516 -6.7397556 0.49525401
5.5997219 -6.6982956 0.49525401
5.3388624 -6.6781888 0.49525398
5.2115593 -6.6649294 0.49525398
5.3400588 -6.5737271 0.49525398
5.1549325 -6.5554972 0.49525401
5.343863 -6.5261898 0.49525404
5.5103793 -6.4935918 0.49525398
5.2961907 -6.4574733 0.49525404
5.6727662 -6.4576149 0.49525401
5.3120399 -6.4318261 0.49525401
5.2298255 -6.3127446 0.49530074
5.8201652 -6.3101654 0.49746549
5.0720177 -6.3035898 0.49540597
4.4620247 -6.2914476 0.49626955
4.9024181 -6.2255721 0.49771467
3.7873321 -6.21698 0.49055314
3.7569437 -6.17696 0.49831223
1.6323901 -6.0974417 0.49094176
3.6864493 -6.0665712 0.49917561
5.3793836 -6.0588136 0.49755147
3.0375781 -7.5618329 0.50823569
2.4627349 -7.4523087 0.50485575
2.4599729 -7.4024005 0.50752258
2.3951206 -7.33745 0.50532329
4.6713567 -7.2817602 0.50938487
5.8151875 -7.2775445 0.50776726
2.0139253 -7.23984 0.50680518
4.3785291 -7.1666636 0.50309277
3.6948004 -6.8127666 0.50778025
5.8478508 -6.7342939 0.50533062
3.7283847 -6.7076893 0.50672483
4.3784556 -6.4962854 0.50289577
4.7222552 -6.3112402 0.50319612
4.9994507 -6.3084259 0.50503308
3.0857821 -6.2269802 0.50043893
4.4681478 -6.2207551 0.50185615
5.7097387 -6.1107502 0.50656962
4.184988 -6.0178452 0.50579339
3.637414 -7.5684443 0.51643485
2.8922725 -7.5597348 0.51400894
4.3946557 -7.4510865 0.51672238
4.8333302 -7.2817602 0.51316184
2.0405753 -7.2398405 0.51311439
3.5441289 -7.1997237 0.51504922
5.0020003 -7.1757135 0.51750159
5.0065918 -6.9712048 0.51554567
5.7723913 -6.8957787 0.51858485
3.5665178 -6.8287573 0.51181173
3.5326231 -6.7765985 0.51287687
4.5717306 -6.3112402 0.51776177
5.4465818 -6.2435894 0.51810384
4.6406226 -6.2273736 0.51204163
4.9548435 -6.1207323 0.51247513
5.3798189 -6.0605717 0.51390028
4.5638146 -6.0280008 0.51813108
4.9826455 -7.4127278 0.52036625
4.9759641 -7.366128 0.52646273
1.9890165 -7.3398671 0.52090025
2.1561823 -7.2398396 0.52427882
4.3878632 -7.0544577 0.52794337
4.9905119 -6.9502721 0.52657497
1.4445572 -6.7347612 0.5207268
2.7118185 -6.6204486 0.5243156
4.5533142 -6.3112402 0.52704716
2.1300192 -6.2565188 0.52398813
2.1815472 -6.2571297 0.52891839
3.6443434 -6.2561927 0.52188683
5.2696085 -6.2126522 0.52122372
4.9784317 -6.1425166 0.52421069
3.7103112 -6.1302686 0.52745497
5.7488403 -6.1264496 0.52248406
2.5335371 -6.0353312 0.52458161
5.0164347 -7.574337 0.53047317
2.6305017 -7.5564222 0.5332948
5.2642479 -7.5451331 0.5393061
1.5995884 -7.4743557 0.53535402
4.5369821 -7.3813396 0.53935087
1.4565997 -6.6524067 0.53374064
4.6813564 -6.3112402 0.53359503
5.7641888 -6.267776 0.53664416
3.1860495 -6.2269802 0.53158635
3.5566497 -6.2269802 0.53397572
5.0757637 -6.1710224 0.53447646
4.931447 -6.0526237 0.53506625
2.565052 -6.0366817 0.53824443
3.6947472 -6.0255041 0.53395015
5.0882759 -7.5649567 0.54606426
5.5387058 -7.5046959 0.54173374
2.0108132 -7.3248501 0.5407871
2.4586635 -7.3124294 0.54224861
4.6131372 -7.2817602 0.54555106
1.4925914 -7.1667118 0.541273
3.6752763 -6.8257151 0.54841393
1.4564145 -6.6045389 0.54950702
2.7126081 -6.5865417 0.54329497
1.6576743 -6.3818326 0.54665077
2.0469499 -6.217063 0.54923946
3.6685648 -6.1908121 0.54213279
3.707556 -6.128386 0.54415768
5.2804389 -6.0507212 0.54528046
2.5986533 -6.0371022 0.54113495
3.6892018 -7.5171342 0.55786043
1.6847159 -7.4683666 0.5512504
3.7093863 -7.4536829 0.55275452
2.0505655 -7.3928103 0.55141187
1.6362559 -7.3859367 0.55192953
2.4047606 -7.3828192 0.55729783
1.6061138 -7.2307911 0.55837029
2.1667087 -7.2398405 0.55562431
3.3783832 -6.8410821 0.55616403
3.5863223 -6.7785959 0.55120945
3.5053291 -6.7581367 0.55375481
3.5489144 -6.7470832 0.55238509
3.5436034 -6.6417179 0.55040026
1.4755883 -6.4690266 0.55004734
2.2123358 -6.0569792 0.55533594
3.9849977 -6.0233855 0.55261803
3.9939103 -6.0238256 0.55899334
3.4426198 -7.5624876 0.5641945
4.7199593 -7.5656404 0.56252688
2.3126223 -7.5348053 0.56613708
5.6533728 -7.4740791 0.56666952
4.5347323 -7.4691396 0.56261033
5.0250902 -7.4275331 0.56573355
2.3927081 -7.3961701 0.56397879
5.2439785 -7.3859158 0.56058145
2.7135279 -7.2973237 0.56541342
4.9245682 -7.2958913 0.56883478
5.7334585 -6.4404511 0.56281728
1.6021998 -6.4010372 0.56827027
1.6573188 -6.4013371 0.56899446
4.9317608 -6.2266722 0.56541514
4.56495 -6.1941843 0.56005502
2.4301198 -6.1200047 0.56619537
4.5429654 -6.0362034 0.56714875
4.8347349 -7.56389 0.57792151
2.60168 -7.5537014 0.57557666
2.6797624 -7.5538778 0.57680488
2.4051847 -7.4340115 0.57805073
1.6275487 -7.3998051 0.57198
1.6542292 -7.3948326 0.57561868
4.9721403 -7.3942595 0.57527143
4.1756225 -7.3760195 0.57532769
4.7217426 -7.2817602 0.57587236
2.0542009 -7.2678957 0.57249063
4.9716005 -6.6776824 0.57670134
2.2602863 -6.3531599 0.5704242
2.7139707 -6.2518539 0.57606274
4.8693042 -6.1530762 0.57695186
1.6476512 -6.1115351 0.57862449
2.9781508 -6.035861 0.57277578
3.8222704 -6.0275497 0.57636386
3.5132651 -7.56143 0.58393931
4.6205797 -7.5528269 0.58796328
4.6345272 -7.5597653 0.5867551
2.0986428 -7.3809195 0.58029979
5.7143197 -7.3238111 0.58100414
2.0874557 -7.252533 0.58830166
1.5166507 -7.2471189 0.58366501
3.6901321 -7.216011 0.58723855
2.7145329 -7.0543175 0.58958393
4.4079332 -6.9881606 0.58104783
4.4092607 -6.5079703 0.58483148
2.7142549 -6.4980755 0.58289367
2.1873028 -6.3531599 0.5883801
2.0819633 -6.3277216 0.58569026
2.1378684 -6.2529831 0.58525312
3.0966814 -6.2269802 0.58983964
4.840569 -6.2235785 0.58097571
5.6164556 -6.1902852 0.5825932
5.6967964 -6.1559467 0.58868831
2.0731087 -6.1267734 0.58148044
2.1012714 -6.0717545 0.58075577
3.6888988 -6.0410738 0.58997887
4.8392386 -6.0293045 0.58048242
2.8847699 -7.554841 0.59189248
4.6350431 -7.5385966 0.5942921
4.609025 -7.4111843 0.59855676
2.9890625 -7.3660202 0.59671897
2.0952461 -7.3525205 0.59200561
2.1074545 -7.3541117 0.59781009
1.4892231 -7.1000543 0.59307653
4.5726867 -7.0703435 0.59817398
4.9359674 -7.0576568 0.59817398
4.8304358 -6.9811182 0.59817398
4.6735396 -6.8113079 0.59817398
4.8477659 -6.7999434 0.59817398
4.4098668 -6.7331476 0.59332657
4.8751802 -6.6532912 0.59817398
4.6995268 -6.6309977 0.59817398
4.7634425 -6.5148907 0.59817398
4.9536619 -6.4832373 0.59817398
4.5864892 -6.4553213 0.59817398
4.880815 -6.4481912 0.59817398
4.7858734 -6.32687 0.59869134
2.7146492 -6.2755623 0.59238511
1.6341188 -6.2521567 0.59171814
3.7630763 -6.1566415 0.59441495
4.4092488 -6.1587515 0.59410721
3.7035737 -6.1064053 0.59063482
4.8591127 -6.0497746 0.59995556
4.4094276 -6.0218077 0.59883463
5.026453 -7.324872 0.60301912
2.715086 -7.3149481 0.6028893
4.7290015 -7.2779613 0.60361117
5.0987363 -7.2162313 0.60043907
5.1671624 -7.2140636 0.60338926
4.4159646 -7.1952209 0.60277599
4.6664548 -7.1313777 0.60237664
5.7303166 -7.0138893 0.60013032
5.0982108 -6.8888617 0.60137188
4.5698013 -6.807795 0.60032284
4.961215 -6.7691813 0.60827225
5.7226787 -6.597724 0.60297942
2.3425682 -6.2621241 0.60782194
2.7152257 -6.2120285 0.60624689
4.6850266 -6.1990395 0.60862374
4.8574562 -6.1703339 0.60074323
2.3574586 -6.1188102 0.60074228
4.5094395 -6.0758734 0.60746431
4.782342 -6.0561552 0.60646087
4.8481002 -6.0373797 0.60519147
4.5067844 -6.020884 0.6051293
3.2371306 -7.5557075 0.61933863
1.8709242 -7.5137711 0.61997837
2.7533972 -7.4801087 0.61383361
1.6746527 -7.4783998 0.61543822
3.7127354 -7.4640284 0.61381125
2.140342 -7.4225435 0.61050153
4.3179989 -7.3902054 0.61770934
4.7554917 -7.313539 0.6124655
2.3013206 -7.2786617 0.61488533
2.162014 -7.2458382 0.61373115
2.2451491 -7.23984 0.61476052
4.5609436 -6.8455391 0.61215186
1.4893494 -6.5585771 0.61779284
5.7359958 -6.4858336 0.61173743
2.1965177 -6.3506227 0.61887294
4.5607176 -6.3472533 0.61245263
1.5926174 -6.3035574 0.61273289
4.7757025 -6.3079815 0.61870295
2.2958999 -6.2966976 0.61569315
2.1956155 -6.2855663 0.61873847
4.8282118 -6.2657027 0.61087793
2.9346762 -6.2244301 0.61196315
1.7196691 -6.114779 0.61097533
3.6945653 -6.1064253 0.61942691
4.8086915 -6.1045694 0.61378688
4.6528473 -6.0846734 0.61236507
5.138536 -6.0460534 0.61117399
3.344568 -7.5554323 0.62865341
1.9812956 -7.5295086 0.62355477
4.5284729 -7.4917064 0.62416804
4.7508574 -7.3710489 0.62240547
4.720788 -7.2980709 0.62248969
2.2341688 -7.23984 0.62265855
5.2267265 -7.1033835 0.62657547
2.7226033 -7.0800667 0.62997061
1.4700176 -6.832253 0.62551433
5.7210765 -6.8323708 0.62339425
1.4766357 -6.8085556 0.62050557
3.0836198 -6.7647657 0.62282616
4.7487707 -6.2978668 0.62271631
4.7066622 -6.1326323 0.62038469
2.0048695 -6.0605764 0.62579036
2.2337422 -6.0648437 0.62442017
2.0211494 -6.0570984 0.62250102
2.2330265 -6.0434895 0.62903267
2.8233318 -6.0427666 0.62713069
2.9001997 -6.0422001 0.62869012
3.1031389 -7.5516396 0.63720196
2.8628633 -7.5497866 0.63286769
5.3157053 -7.5187244 0.63926327
5.701508 -7.4093323 0.63982177
4.3805661 -7.3960204 0.63671005
5.7183065 -7.3281655 0.63616121
5.7230268 -7.304493 0.63077307
1.6060295 -7.2650089 0.63956475
3.072042 -7.1582937 0.63368988
4.5561628 -6.8444271 0.63814509
5.7201738 -6.791048 0.63774407
3.7050767 -6.5429955 0.63005984
4.4285669 -6.2710252 0.63966072
5.6041498 -6.2768998 0.6393885
4.9635 -6.224133 0.63609648
3.9205027 -6.19698 0.63898796
4.5558167 -6.0676093 0.63082242
2.1017585 -6.0494566 0.63781387
4.6818538 -7.5721107 0.64661276
4.514389 -7.5696955 0.64280778
5.6738472 -7.4533896 0.6446749
2.8026724 -7.3843131 0.645257
1.6440951 -7.3712502 0.64163876
5.6761703 -7.3202057 0.64459574
2.8366327 -7.3046055 0.645257
2.8342707 -7.2965727 0.645257
2.8687677 -7.2822456 0.645257
3.0027201 -7.184617 0.6492942
4.5593405 -7.1384706 0.64898205
3.08132 -7.0798297 0.6443609
2.7736835 -7.0271401 0.645257
3.0413949 -6.6058259 0.645257
2.991961 -6.5704751 0.645257
5.7394109 -6.5566421 0.640212
4.9635 -6.2952166 0.64203835
2.8351614 -6.284565 0.645257
3.0433409 -6.2584772 0.645257
5.6394219 -6.2434163 0.64906496
1.665653 -6.2204428 0.64057708
3.1485221 -6.19698 0.64996111
5.1395664 -6.1859441 0.6436798
3.6689072 -6.1526599 0.64683682
5.639523 -6.1597233 0.64765686
5.1670928 -6.0584908 0.64473355
2.3222907 -6.0427928 0.64433503
5.1723776 -7.5319467 0.651766
5.3260627 -7.5135455 0.65288019
5.6990552 -7.3773742 0.6551398
4.7967858 -7.3266249 0.65706301
4.5630584 -7.2948198 0.65706301
1.5121897 -7.1680832 0.65286016
4.7593112 -6.2806864 0.65706301
5.5310602 -6.2578545 0.65723693
1.5870417 -6.2087669 0.65956306
5.6348295 -6.1401134 0.65335053
2.8235297 -6.0468369 0.65434343
4.9474807 -6.0362611 0.65364957
4.5969086 -7.5650263 0.6689806
3.6980743 -7.5178909 0.66096562
5.4385591 -7.4940042 0.66957206
3.715827 -7.4637766 0.6614871
4.5217276 -7.4363632 0.66795826
2.9816899 -7.3960199 0.66274244
3.0177464 -7.3960199 0.66998923
3.6655152 -7.3960199 0.66612256
3.7168713 -7.2665739 0.66385525
4.5637641 -7.0306339 0.66406316
5.7182312 -6.9230404 0.66861182
5.7342548 -6.5057807 0.66179281
3.0742903 -6.259409 0.66672277
3.8018556 -6.1969805 0.66927564
3.7155285 -6.143589 0.66935158
2.0368071 -6.0701838 0.66099536
2.2829685 -6.0502167 0.66340989
3.6630776 -6.0412235 0.66004825
3.8985026 -6.0394945 0.66901845
4.3656778 -7.5601625 0.67169988
3.6690848 -6.1609993 0.67980754
4.5331092 -6.1564951 0.67110342
4.775074 -7.5572901 0.68490714
4.972868 -7.4282866 0.68604851
5.0467076 -7.4183493 0.68011439
4.5690627 -7.3961191 0.68213493
5.7076836 -7.3527532 0.684093
4.7566471 -7.3183594 0.68269289
3.0813198 -7.1722589 0.68655074
1.5167435 -7.102241 0.68372142
5.2262778 -7.0209713 0.68602931
4.5707445 -6.8960238 0.68786669
4.5703716 -6.5147443 0.68659359
1.5798295 -6.3044124 0.68346334
5.2916651 -6.2174301 0.6874336
5.0134988 -6.1702437 0.68567866
4.6004863 -6.0660124 0.68322569
2.6432421 -6.0531845 0.68298179
3.3048868 -6.0511503 0.68889272
5.6053658 -7.461503 0.69549787
2.8566375 -7.3960199 0.69346166
3.6314895 -7.3960199 0.69016367
1.6065934 -7.277545 0.69784677
3.7389302 -7.2785978 0.69039077
3.1892562 -7.1587029 0.69076216
5.7137351 -7.0501981 0.69471192
5.7188649 -6.9266939 0.69139308
5.1300297 -6.8429508 0.69284308
4.449924 -6.8066659 0.69892025
4.5732832 -6.4440327 0.69652158
4.5734038 -6.3024502 0.69693601
3.9889781 -6.1869798 0.69261527
1.7193825 -6.1557593 0.69791448
3.6947689 -6.0521784 0.6980598
4.0982881 -6.0455031 0.69303173
3.6879649 -7.460701 0.7010783
5.1068029 -7.4084282 0.70549595
1.5870342 -7.1990314 0.70662147
1.5544664 -7.1076984 0.70618737
3.6165314 -7.1048689 0.70123076
3.7519622 -7.0673618 0.70983332
5.7176886 -6.9940114 0.70607305
3.061223 -6.8152585 0.70546126
4.575295 -6.7448611 0.70338112
1.6527958 -6.2470398 0.70138592
3.8896646 -6.1969795 0.70433342
4.8144312 -6.1866341 0.70739281
5.6643558 -6.1572385 0.70735812
3.1878405 -6.0577726 0.70994687
4.095963 -6.0487957 0.70282698
4.7172856 -6.0438976 0.70711577
4.4908152 -7.5500355 0.71031022
3.7016983 -7.48419 0.71239144
4.7729154 -7.4104853 0.71093249
5.1850491 -7.2190886 0.71181768
5.0940599 -6.8130817 0.71715778
4.4573007 -6.5989218 0.71212375
1.7237946 -6.2348194 0.7167899
4.4506483 -6.2296124 0.71801215
3.3000865 -6.1969795 0.71107918
5.6190395 -6.1427321 0.71189821
4.5634904 -6.1386552 0.71649349
5.2006779 -6.0831523 0.71692401
2.9996579 -6.0592976 0.71094465
3.9313436 -6.0545459 0.71790415
4.759902 -6.0474019 0.71189475
5.1021838 -7.5184541 0.72127277
3.6838872 -7.3976507 0.72942865
4.6443806 -7.1871543 0.7229833
3.08132 -7.1689634 0.72929692
3.1799188 -7.1003881 0.72395015
3.6282847 -7.0876541 0.72433424
5.2269306 -7.0584149 0.72460395
1.564106 -6.9135165 0.72399628
4.4612961 -6.7556734 0.72889823
1.5575199 -6.7356386 0.72352719
5.7352486 -6.7094007 0.72052813
5.729516 -6.5905008 0.72123516
1.6505381 -6.4013128 0.72389501
1.652158 -6.3838615 0.72137529
1.7017391 -6.3147931 0.72023892
1.7340574 -6.2915101 0.72561067
3.7254031 -6.267889 0.72241557
3.7321794 -6.1969805 0.72900718
4.1615887 -6.19698 0.72928667
2.3844199 -6.0809107 0.72473443
2.7712529 -6.064384 0.72446591
3.634917 -6.0584297 0.72274816
4.9297962 -6.0566058 0.72032118
4.4591255 -7.5374918 0.73617142
1.9349434 -7.4477005 0.73489523
4.7105846 -7.2796488 0.73920643
4.5853138 -7.2213221 0.73754489
4.6378703 -7.1647587 0.73359835
4.4665089 -7.1029644 0.73686099
1.6718848 -7.0942011 0.73885524
1.6482205 -7.0363245 0.73708975
4.5858312 -6.3546739 0.73930657
5.5464149 -6.2604475 0.7305665
1.8397967 -6.2010617 0.73200548
3.5818448 -6.1969795 0.73643351
2.0483184 -6.1214399 0.73615134
3.4390874 -6.0632358 0.73671138
4.4497609 -7.5410876 0.74656922
2.8602734 -7.5209656 0.74982852
3.8903203 -7.5286002 0.74574667
4.5760393 -7.4534369 0.74386501
5.668035 -7.4162803 0.74065769
4.8107004 -7.4067364 0.74853826
3.6282158 -7.3224087 0.74870855
1.9180562 -7.2958045 0.7481842
1.8020196 -7.2439504 0.74428624
1.7312136 -7.1557603 0.74738824
4.6958995 -6.8657417 0.74424279
4.9071188 -6.7626019 0.74092042
1.6876373 -6.666152 0.74885237
1.7562819 -6.4284754 0.74974245
1.7779959 -6.3554106 0.7420423
3.7616773 -6.3301768 0.74172127
3.6925573 -6.1339197 0.74076164
4.6051044 -6.0937839 0.74765265
3.7841754 -6.0665731 0.74868214
4.370852 -7.5287933 0.75780392
2.4314344 -7.5005369 0.75538957
2.2197731 -7.4776912 0.75699866
5.360569 -7.469799 0.7580983
4.7949147 -7.4083028 0.75177824
4.2358561 -7.3960199 0.75380147
4.754951 -7.3174191 0.75143003
5.135581 -7.2820926 0.75792837
1.9050298 -7.2462387 0.75757468
1.7646719 -7.1482592 0.75119078
4.4727392 -7.1479363 0.7535249
1.7226535 -6.9241648 0.75562131
1.7396579 -6.9055495 0.75812089
4.6935568 -6.8681679 0.75722593
1.697644 -6.8346777 0.75513774
1.7359023 -6.7117987 0.75854886
3.6324522 -6.6282539 0.75360519
5.5866456 -6.2310734 0.75830233
4.3678994 -6.19698 0.75402075
2.7613287 -6.0763335 0.75841147
4.5396276 -7.521841 0.76801693
3.0401313 -7.3358421 0.76800084
5.5686297 -7.3283539 0.76909858
4.5938363 -7.227623 0.76660609
3.1774786 -7.1718221 0.76695055
4.6314735 -7.1424456 0.76812297
1.9206488 -7.0992084 0.76931262
5.7186413 -6.8948994 0.76421058
1.7605509 -6.8325396 0.76611257
1.7748886 -6.6793389 0.7615521
1.8629155 -6.4190812 0.76101911
2.0970073 -6.1951175 0.76697338
2.9763081 -6.19698 0.76654863
2.0844462 -6.189806 0.76519769
3.683763 -6.1635985 0.76786888
5.584631 -6.156918 0.76352459
5.4359436 -6.1346216 0.76055235
2.7207756 -6.082305 0.76220965
3.2486706 -7.5107131 0.77399462
3.0019011 -7.5096536 0.77290869
5.2926922 -7.470612 0.77438539
2.1180251 -7.3447003 0.77102327
5.6406283 -7.3358054 0.77723694
3.7703772 -7.1101022 0.77027792
5.2196894 -6.9970522 0.77684039
1.9188097 -6.9707589 0.77272475
1.9829684 -6.9654312 0.77958512
1.9293864 -6.9560528 0.77432621
3.0328679 -6.8140683 0.7767033
1.8736633 -6.7833238 0.77880913
1.9273144 -6.6540985 0.77480465
2.1658463 -6.2914896 0.77944547
3.0366254 -6.2774305 0.77839559
4.470026 -6.2472453 0.77081734
2.8049977 -6.1376581 0.77510315
2.7179062 -6.0872564 0.77357024
3.3028479 -6.0850954 0.77837288
3.8951249 -6.0774894 0.77607185
4.4576888 -7.5133762 0.78341419
4.5189524 -7.5141001 0.78241885
4.2240353 -7.509963 0.78624785
2.7067106 -7.4996963 0.78242099
2.2694938 -7.4324284 0.7867893
5.0055766 -7.4172082 0.78831267
2.2692351 -7.3599415 0.78859377
4.4836931 -7.2318273 0.7832703
2.1381304 -7.2096224 0.78866857
2.0332522 -6.9832563 0.78406346
1.9263877 -6.7566528 0.78141296
5.7062531 -6.6494107 0.78648263
5.7052932 -6.5950861 0.78188455
5.7037506 -6.5761023 0.78282124
2.0556343 -6.5287175 0.78402793
2.0575945 -6.4770675 0.78279877
2.0928593 -6.4485192 0.78567928
4.5989079 -6.2197094 0.78389657
5.5637212 -6.1709232 0.78268355
2.2765529 -6.1624088 0.78771377
3.163219 -6.0905237 0.78891754
4.983005 -6.0931635 0.78783071
3.6028321 -6.0872478 0.78597242
5.6205683 -7.3726816 0.79179871
2.292109 -7.3483152 0.79117495
4.9788942 -7.3283663 0.79934555
2.1587331 -7.1425142 0.79243469
4.4863496 -7.1355639 0.79019022
4.6398625 -7.0793133 0.79844904
4.9960976 -6.9582491 0.7988379
5.1796885 -6.9596953 0.79899323
2.080225 -6.9074659 0.79170132
2.149188 -6.8857861 0.79927158
4.7877145 -6.8139343 0.79839331
2.2039149 -6.4959555 0.79816508
4.4893126 -6.4295435 0.79827368
2.2725282 -6.281095 0.79130596
2.3073933 -6.284008 0.79703683
2.9488873 -6.1909351 0.79941952
3.7643206 -6.19698 0.79972088
4.0519085 -6.1984806 0.79947484
5.1165528 -6.1135402 0.79232866
4.4027472 -6.0890741 0.79527497
4.5396914 -7.5009003 0.80230701
3.0942256 -7.4947176 0.80012846
2.3987477 -7.4284568 0.80090719
5.2202253 -7.3871021 0.80009562
5.4973402 -7.3408394 0.80131292
2.3925939 -7.3313875 0.80184436
4.5193706 -7.2113056 0.80271995
3.6718161 -7.2004752 0.80502987
3.0074482 -7.1708241 0.80312276
4.7015872 -7.1732979 0.80051887
2.287796 -7.1358838 0.80485469
4.9326329 -7.1123567 0.80303991
4.7251444 -7.0738587 0.80330491
4.9316635 -7.0555582 0.80615532
2.2752185 -7.0471783 0.8059901
2.2423525 -7.0384331 0.80350518
5.0375171 -6.9720101 0.80681753
2.2419395 -6.9603357 0.80538017
5.1236353 -6.9678288 0.80191171
2.2340372 -6.8793302 0.80660188
4.7607164 -6.875288 0.8003602
2.1787176 -6.7937317 0.80702466
5.6858168 -6.7653046 0.80578184
2.2025697 -6.7181492 0.80403811
5.6785984 -6.5934558 0.80208945
2.3078041 -6.5460835 0.80867219
5.6397471 -6.4854121 0.8098104
2.2938132 -6.3984942 0.80399442
3.2854466 -6.1938276 0.80796099
2.8923707 -6.1716967 0.80516416
3.0821574 -6.1795635 0.80745655
4.4941282 -6.1755548 0.80102605
5.2350736 -6.1346416 0.80125833
2.7398164 -7.4824562 0.81574547
4.0283785 -7.4896688 0.8155005
2.5801413 -7.3963637 0.819022
4.6072083 -7.3529973 0.81219858
5.4910297 -7.3385673 0.81630754
5.5335631 -7.334723 0.81216729
2.5216966 -7.2908754 0.81937993
4.5746875 -7.2040672 0.81112099
5.5728211 -7.2019196 0.81634665
4.608037 -7.1245246 0.81502396
2.2807624 -6.8803344 0.81042224
5.6475563 -6.8409381 0.81779635
2.2186458 -6.7894816 0.81028318
5.6489248 -6.6981339 0.81519306
3.901046 -6.1969805 0.81253397
4.4011898 -6.1969805 0.81786388
2.5876713 -6.1387076 0.81381148
4.9386511 -7.472322 0.82331872
3.748934 -7.4304061 0.82247925
3.8907139 -7.4327636 0.8299216
3.999496 -7.4139071 0.82435465
2.6438251 -7.3973813 0.82436788
5.3992548 -7.3678513 0.82016993
5.4163051 -7.3272924 0.82168454
2.6529374 -7.3162146 0.82954752
5.3886275 -7.2858911 0.82394886
5.4145474 -7.2891965 0.82148886
5.4111643 -7.2750278 0.82307291
2.5592887 -7.2684379 0.82410783
2.5746832 -7.2489171 0.82641035
4.4985719 -7.2159071 0.82949263
5.4784317 -7.174283 0.82751954
2.5327933 -7.1097403 0.82636571
4.6113782 -7.1006713 0.82641757
4.6101913 -7.0390329 0.8223682
2.5410199 -7.0240674 0.82900095
4.5796866 -7.0048199 0.82459003
2.531487 -6.9764752 0.82921231
4.6123414 -6.9323678 0.82969964
5.5965967 -6.8836842 0.82838029
4.6113925 -6.7457609 0.82646483
2.4955888 -6.6027999 0.82571894
3.7799292 -6.5665469 0.82810783
3.0211172 -6.5396242 0.82438868
4.4986448 -6.5393014 0.82306218
4.4974918 -6.4120593 0.82037663
2.5013003 -6.3967371 0.82164502
5.4283671 -6.3320637 0.82297415
2.5515196 -6.2894459 0.82125604
5.3497801 -6.2484856 0.8252781
4.8167768 -6.1882391 0.82656276
4.8275089 -6.1890926 0.82953334
3.95594 -6.1798906 0.82412142
4.195488 -6.1736369 0.82595557
5.1133094 -6.1463532 0.82665873
4.8328424 -6.1103315 0.82048666
4.5158381 -6.1077271 0.82262331
4.0525317 -7.4803743 0.83444804
4.1741433 -7.4432278 0.83087003
3.6971757 -7.4367738 0.83272725
2.9505019 -7.3883533 0.83432662
5.136816 -7.3793297 0.83568543
3.0013213 -7.3535023 0.83443415
2.7968957 -7.3146181 0.8345542
4.6146283 -7.2989206 0.83749914
2.7006488 -7.2889471 0.83504969
4.5044417 -7.258738 0.83938956
5.4321127 -7.1728845 0.83176935
2.6196318 -7.1611719 0.83254611
2.6453547 -7.1398048 0.83524954
2.7165377 -7.0288439 0.83717251
2.6522105 -6.990869 0.83954281
2.634037 -6.9456525 0.83900547
2.6422651 -6.9350224 0.83997267
2.7787585 -6.9185724 0.83942944
2.5980594 -6.8985887 0.8364948
2.513123 -6.8307581 0.83195269
2.5308857 -6.7856655 0.83346069
4.5003023 -6.6742611 0.83281142
5.4222007 -6.4613743 0.836541
5.4516315 -6.438777 0.83194542
3.0337813 -6.1677942 0.83493984
3.9519548 -6.1566553 0.83087957
5.0845799 -6.1520658 0.83105522
4.3447948 -6.1219568 0.83519334
3.347168 -6.1152091 0.83756286
2.9849238 -7.5617609 0.84101683
5.1038465 -7.3003397 0.8448233
2.7953651 -7.2556581 0.8463186
4.6033349 -7.2034602 0.84662026
4.5988574 -7.0918746 0.8407132
2.9739208 -7.0778632 0.84720713
4.6026745 -7.0545073 0.84574807
2.9740553 -6.9892678 0.84773654
4.6156073 -6.9497776 0.84083545
2.6530461 -6.9369407 0.84088749
5.4359307 -6.9097052 0.84474576
5.4488955 -6.8988352 0.84348965
2.9117885 -6.8305864 0.84736401
2.7529993 -6.8095651 0.8449254
2.8413024 -6.6917725 0.8465606
2.7314868 -6.6540766 0.8462956
2.7639146 -6.6149006 0.84755337
2.9670749 -6.575191 0.84749007
2.9747548 -6.5066795 0.8470428
5.3238134 -6.4550743 0.84430885
2.8427143 -6.4368773 0.84257472
2.7814515 -6.3965135 0.84139758
5.2260466 -6.3929133 0.84436083
5.2082243 -6.3505516 0.84286952
2.9205813 -6.3257651 0.84320885
2.8017967 -6.3020935 0.84736598
5.0034781 -6.1825342 0.84129912
3.0456626 -5.9658818 0.84017658
3.4794762 -7.4711027 0.85181844
3.9182472 -7.4712133 0.85359776
2.8217568 -7.3741293 0.85110629
5.0104351 -7.3074255 0.85098344
3.7682288 -7.0896177 0.85479665
5.2023163 -7.0810046 0.85490012
5.2142982 -6.5197897 0.85442758
3.7715871 -6.5029016 0.85299337
5.0539351 -6.38064 0.8556478
5.0237703 -6.3012528 0.85164565
4.6361718 -6.1791711 0.85858089
3.1761556 -7.4651318 0.86265337
3.6985519 -7.4197245 0.86989892
4.7019033 -7.4093714 0.8648473
4.8560638 -7.3870964 0.86374462
4.8847146 -7.3045764 0.86726135
4.9820428 -7.1962328 0.86169994
5.0057373 -7.1109371 0.86567581
2.7520695 -7.071393 0.86227721
4.6224494 -6.953969 0.86416543
5.1476946 -6.9552341 0.86309135
5.1329536 -6.9465704 0.86408818
5.1063118 -6.9053879 0.86655211
5.0998354 -6.8311505 0.86871308
5.1355019 -6.672286 0.86462557
5.0213838 -6.5854435 0.86793596
4.512465 -6.4100628 0.86082894
2.8083186 -6.381093 0.86091053
3.7730021 -6.1768141 0.86244965
4.8416939 -6.1412201 0.86684614
3.2851887 -6.1295614 0.86659294
4.7208443 -7.4545374 0.87909192
4.7822981 -7.2530451 0.87932456
4.8617811 -7.2067251 0.87179279
3.1336703 -7.0596228 0.87513006
4.9807529 -7.0145912 0.87032783
4.9894209 -6.9288254 0.87579572
4.9946017 -6.769866 0.87453723
4.8933873 -6.5178375 0.87606597
3.784164 -6.4746981 0.87179238
2.9440999 -6.1859608 0.87686002
3.9681435 -6.1315641 0.87429941
4.2323594 -6.1302509 0.87176532
4.2569532 -6.1304226 0.87192929
3.0382342 -5.959013 0.8768394
4.5545859 -7.4100995 0.88327694
3.7859378 -7.4062696 0.88641733
4.6289611 -7.3882875 0.88636941
4.699152 -7.3737254 0.88903177
4.6300259 -7.0412979 0.88999879
4.8443375 -7.0409212 0.88153851
4.7518587 -6.9410596 0.88822043
4.8183174 -6.4882627 0.88173783
4.7282991 -6.4612494 0.88881767
4.5060978 -6.4028702 0.88848269
4.9358101 -6.3107905 0.88617635
4.747695 -6.289731 0.8833645
4.6942244 -6.2558775 0.88960707
4.7648735 -6.2401438 0.88135892
4.7443886 -6.2077351 0.88162816
3.9822803 -6.1368117 0.88539231
2.978941 -5.9448619 0.88904488
4.5874228 -7.427846 0.89009899
3.7695208 -7.4010954 0.89587307
4.6007352 -7.3330507 0.89686704
2.862391 -7.2860212 0.89212751
4.6260943 -7.2332258 0.89074957
4.6441517 -7.1129031 0.89599293
4.662199 -7.0001068 0.89469063
4.5781798 -6.8833389 0.89591271
4.5869541 -6.8193054 0.89686704
2.8219633 -6.7889557 0.89733613
4.7038836 -6.7204738 0.89168245
4.5679455 -6.6377921 0.89583391
4.6261477 -6.5698295 0.89329046
4.6743803 -6.3969803 0.89192384
2.8664947 -6.3171997 0.89614874
2.87393 -6.2691069 0.89508516
3.3999972 -6.1433477 0.89554799
3.4390223 -7.4458647 0.90396416
4.1276789 -7.4448485 0.90876138
4.8464456 -7.4301066 0.90448856
4.6834106 -7.4032803 0.90142685
3.7104626 -7.3905463 0.90694249
4.5120983 -7.0378628 0.90593475
2.8295524 -6.7714615 0.90264881
3.8099566 -6.1701164 0.90313405
4.8105335 -6.1600108 0.90832269
3.3513887 -6.1503572 0.90974635
4.7772632 -6.2072725 0.91487831
3.1266241 -6.1533237 0.91440594
2.8719251 -6.5397062 0.92197102
3.7632644 -6.2396612 0.92818016
3.0655293 -6.2114525 0.92457443
4.5158572 -6.1667233 0.92510289
3.6814017 -6.1581459 0.92985177
4.559413 -6.155818 0.92251176
2.9898503 -6.0014257 0.9257285
3.7169404 -7.3867764 0.93778896
2.9146299 -7.1991434 0.93779564
4.8875179 -6.2870207 0.93956554
3.8318701 -7.4292631 0.94200879
3.9988153 -7.4267564 0.94632483
4.4536304 -7.4277897 0.94078499
4.5853858 -7.4046335 0.94552892
4.8559074 -7.3845692 0.94919145
2.8896749 -6.6483517 0.94402325
3.7273064 -6.4162893 0.94960392
3.6536491 -6.1674476 0.94910824
4.8172445 -7.3573217 0.95719689
3.0054369 -7.378212 0.96758133
2.9317141 -6.4911733 0.96072555
4.9000549 -6.4871812 0.96779931
2.9503212 -6.3667111 0.96080095
2.9713526 -6.3337193 0.96962476
4.8660393 -6.2929134 0.96740973
3.0012879 -6.2147069 0.96526521
3.7255814 -6.2142782 0.96182215
3.7469833 -6.1875143 0.9609921
3.8951528 -6.1756201 0.96415502
4.1791859 -6.1793699 0.968431
3.9510157 -7.4087048 0.97757435
2.9578614 -6.4183407 0.97151524
3.1064575 -6.186995 0.97776943
3.299216 -6.1851091 0.97797436
3.6339836 -6.1802812 0.97229654
3.8460679 -7.402585 0.9878881
4.5688572 -7.4048347 0.98455483
3.0195718 -7.3501306 0.98373866
3.8160336 -7.350419 0.98216081
4.8279529 -7.353622 0.98916829
4.8763275 -7.1553454 0.98659909
2.9590061 -7.0862765 0.9817552
3.7680984 -7.0563736 0.98025155
2.9430881 -6.6332827 0.9819634
4.8643823 -6.3770027 0.98909038
3.011287 -6.2796426 0.98570389
4.8440123 -6.2723641 0.98432052
3.5650585 -6.1910343 0.98990774
4.1210537 -7.3970294 0.9950791
4.1378832 -7.3952837 0.99774671
4.8822742 -7.0186253 0.9990499
2.9666653 -6.5298228 0.99041885
3.7844224 -6.482255 0.99482727
3.017031 -6.3156886 0.99732178
3.8665407 -6.1943588 0.99401695
4.6212616 -6.1960835 0.99515092
4.6771574 -6.1989641 0.99372
3.9783602 -7.3904209 1.0063885
4.8723087 -7.0833702 1.0031539
2.9812822 -6.551054 1.0028938
3.5427928 -6.1982284 1.0014999
4.5729303 -6.1998301 1.0053879
3.549901 -7.3860903 1.0152186
3.6418383 -7.3876514 1.0120093
3.6784501 -7.3836327 1.0180957
4.8236856 -7.2716393 1.0179993
2.9832358 -6.9437242 1.0126561
3.0289342 -6.3709202 1.016233
3.0337977 -6.3710222 1.019588
4.7724257 -6.2262402 1.0180545
4.5546703 -7.3559012 1.0266416
3.8107238 -7.3410168 1.023518
3.8187909 -7.3322735 1.0261761
4.7382145 -7.320941 1.0253232
4.8670602 -6.688406 1.0232726
3.0683272 -6.2998562 1.0266489
4.5871286 -6.2579031 1.026755
4.6323619 -6.2580609 1.0208778
4.6899385 -6.22087 1.026866
4.5266018 -7.3389912 1.0300756
3.0976748 -7.3264856 1.0377157
3.0406442 -7.161294 1.0311856
4.4648128 -6.2208467 1.0329024
4.331461 -7.3655882 1.0464082
3.1070926 -7.3242607 1.0440527
3.0277493 -6.7054749 1.0476673
4.8423514 -6.555707 1.0419172
4.5924177 -6.2698646 1.0439162
3.1375759 -6.2361064 1.0479909
4.2001753 -6.2247391 1.0415239
4.7773299 -7.2909184 1.054719
4.8053455 -7.1705198 1.0597229
4.8453927 -6.8138847 1.0523382
3.0362656 -6.7872801 1.0554007
4.8370013 -6.6291189 1.0528899
4.8134274 -6.4507189 1.0577366
4.6017256 -6.282023 1.0593492
4.6428313 -6.2819128 1.0542355
3.2331073 -6.234674 1.0569277
4.5190077 -7.3188701 1.0636976
4.7372046 -7.2925806 1.0621151
3.6424031 -7.3501482 1.0715139
3.1663318 -7.3118639 1.0773435
4.7019358 -7.2778668 1.0791993
4.6352639 -6.2981024 1.0747049
3.6841345 -6.2437444 1.072598
4.3889408 -7.3249173 1.0835378
4.6791768 -7.2730703 1.0879767
4.8022118 -6.7319012 1.0897449
4.5579872 -6.29632 1.0823482
4.5759907 -6.2982368 1.0825402
3.263535 -7.3299665 1.0992358
3.1012933 -6.7993031 1.091903
4.520339 -6.3020983 1.0941269
3.8220632 -6.2975173 1.0953778
3.3352985 -6.2570815 1.0926489
3.5543029 -7.3307362 1.1008635
3.4634085 -7.3258543 1.1071217
3.8642321 -7.3265615 1.1070611
4.0366182 -7.3289642 1.104117
4.1379857 -7.3258123 1.108427
4.3414254 -7.2805209 1.106971
3.1176441 -6.8120728 1.1007892
3.118993 -6.7863412 1.1016057
3.1382432 -6.5332942 1.1008847
3.6614277 -6.2668777 1.1073571
4.5808663 -7.2672744 1.112609
3.3245296 -6.7307544 1.1128017
4.6614203 -6.3601551 1.1103146
4.2699671 -6.2861109 1.11735
3.61303 -7.3112068 1.1259656
3.9424319 -7.3118534 1.1259007
4.7429094 -6.8753905 1.1274703
4.7555876 -6.7748442 1.1296412
3.3226399 -6.7418089 1.1221913
4.7609897 -6.7111406 1.1227672
3.1750259 -6.5579638 1.1227684
4.6792607 -6.4559546 1.1207064
4.6457953 -6.3288536 1.1276786
3.780056 -6.2906761 1.124422
3.2887337 -7.2964454 1.1319648
4.7046251 -7.1531892 1.1317946
3.1915874 -6.95891 1.1378711
4.4385386 -6.3184261 1.1333053
4.7085018 -7.0177832 1.143204
4.6443162 -6.5522671 1.1447688
3.4870827 -6.329092 1.1458247
3.9834075 -6.3251348 1.1470568
4.473053 -6.3101234 1.1466336
4.3806105 -6.3028893 1.1466591
3.4133608 -7.2824202 1.159181
4.1820703 -7.2843504 1.1569681
3.5738299 -7.2766814 1.15162
4.2033634 -7.2483292 1.1596431
3.626173 -7.2385683 1.1557479
4.6038022 -7.2035837 1.1549968
4.4444423 -7.1912117 1.1599429
3.3761547 -7.0620131 1.159094
4.6270475 -6.8762646 1.1519186
4.6047869 -6.6291695 1.1525004
4.5836229 -6.6116538 1.1550522
3.4132686 -6.5366077 1.1592212
4.6408696 -6.4519668 1.1574328
4.0811753 -6.3930769 1.1544421
4.4080892 -6.316155 1.1555781
3.3473439 -6.9949074 1.1686167
4.525383 -6.9934053 1.1632619
4.5300159 -6.9904094 1.1625733
3.3357899 -6.9287763 1.1645368
3.3457806 -6.9178896 1.1623695
4.5235376 -6.8890214 1.1667912
4.5690737 -6.7175655 1.1601362
4.4891095 -6.6201344 1.169964
3.3530462 -6.5975575 1.1686045
3.3399978 -6.5614977 1.1677866
3.3240864 -6.44555 1.1605387
3.6099892 -6.3953795 1.1625099
4.5442772 -6.3987627 1.1657633
3.3642106 -6.3297758 1.1660668
3.4477842 -6.3171501 1.166778
3.7357955 -7.2648039 1.1772256
3.5981998 -7.2314167 1.170294
3.4382954 -7.2198606 1.1712681
3.4601548 -7.2090793 1.1740861
3.4866533 -7.1841307 1.179256
4.3431873 -7.0347576 1.1762822
4.4037504 -6.8975601 1.1768436
3.2951736 -6.8042459 1.1729612
4.561904 -6.5119486 1.1793152
4.5667448 -6.5049825 1.1778297
4.3881407 -6.4979348 1.170786
3.3108883 -6.4584713 1.1795039
4.2637491 -6.4422669 1.1762873
4.2886267 -6.4202256 1.1729203
3.3227286 -6.3826513 1.1711161
3.3436263 -6.3714309 1.1752955
4.4399004 -6.3619328 1.1737425
3.4388962 -6.3384724 1.1798375
4.3474011 -6.338048 1.1721044
3.8065839 -7.2423677 1.1888738
4.1225476 -7.2436271 1.1873238
3.9370232 -7.2307029 1.1817385
3.5687151 -7.2006922 1.1815708
3.8815804 -7.1962528 1.1888099
4.1236806 -7.1234398 1.1861715
3.4211292 -7.097404 1.1813548
