# .PCD v0.7 - Point Cloud Data file format
VERSION 0.7
FIELDS x y z
SIZE 4 4 4
TYPE F F F
COUNT 1 1 1
WIDTH 1563
HEIGHT 1
VIEWPOINT 0 0 0 1 0 0 0
POINTS 1563
DATA ascii
1.5969114 -2.3825111 0.91910529
1.6533157 -1.9597094 0.9198482
-3.0823779 -1.386402 0.91795784
-2.656498 -1.2313412 0.91836238
-1.9585238 -1.2284085 0.91906369
-1.4849719 -0.99426824 0.91938978
4.713376 -0.98669022 0.91936803
-2.6446011 -0.94017601 0.91850275
5.1783686 -0.9319793 0.91900313
-3.5019054 -0.92771065 0.91782755
-1.6826348 -0.92532933 0.91926539
-3.3572235 -0.8505221 0.91797221
-2.7047825 -0.75886077 0.91853398
6.0136623 -0.45344338 0.91848373
3.5568414 -3.1736925 0.92524385
-0.11157562 -3.0614088 0.9250741
2.5649192 -3.0091493 0.92269397
-0.26375398 -2.9045274 0.92498302
0.29718849 -2.9043183 0.92435139
0.03944999 -2.5711145 0.92470419
-0.4900215 -2.5528064 0.92476314
4.7617559 -2.4716985 0.92511654
2.1414845 -2.434329 0.92147863
1.9982131 -2.3901038 0.92088419
-0.87281579 -2.3306608 0.92470741
4.7834973 -2.2899847 0.92500412
3.0816834 -2.0445805 0.92437792
4.5882697 -2.0405884 0.92478812
3.9132705 -2.0174747 0.92458808
-2.0798125 -1.8143803 0.92350543
2.8339233 -1.701295 0.92408627
-1.5843015 -1.5215871 0.92333913
1.0282993 -1.3612728 0.92292464
2.7897406 -1.318711 0.92382491
3.3415341 -1.1813837 0.92388654
3.4997704 -0.97188306 0.92379332
3.6475658 -0.87124145 0.92314041
0.82006419 -0.8581183 0.92337763
-0.76020372 -0.29381579 0.92027456
4.0602398 -0.26805303 0.92016447
4.4008551 4.82547 0.94355291
-2.0197854 4.8585238 0.94415367
-0.04093194 5.0265017 0.94720638
0.53482842 5.480072 0.95544934
0.98414588 5.5994434 0.95761883
-2.887521 5.6449928 0.95844656
6.4050841 5.6990442 0.95942885
5.8598061 4.7475824 0.96089953
6.1832018 5.811017 0.96146387
-0.99863911 5.8205252 0.96163654
-3.9879291 5.8649311 0.96244359
-1.7175111 5.9060678 0.96319121
1.226892 5.9706516 0.96436489
-0.64954638 6.1201024 0.96708095
-0.8127687 6.1361871 0.96737325
4.1882148 6.1702623 0.9679926
-1.9790151 0.34296501 0.97915769
-2.862052 4.7462306 0.97546679
4.1048436 6.3263254 0.97090197
-0.78794968 6.3611898 0.9715789
3.8026309 6.3672557 0.97169662
1.3837788 6.4389863 0.97308934
-2.8438728 6.4539757 0.97338045
3.6846972 6.7267056 0.97867584
-1.6772569 6.7313404 0.97876579
2.6963844 6.8315587 0.9807117
3.4621773 6.875206 0.98155916
-1.102706 6.9745159 0.98348737
-1.681672 7.1136217 0.98618823
-3.1623642 7.1292944 0.98649251
6.547976 7.1609993 0.98710811
-0.91768503 7.2477732 0.98879296
0.64225304 7.2660899 0.98914862
-0.024819711 0.1532039 0.99792778
-1.0825024 0.17353635 0.99813086
3.93344 0.25968322 0.99899155
0.19377187 0.33715525 0.9997654
-1.0094335 0.35080045 0.99990177
-2.4657688 7.4182811 0.99210358
-1.0126401 7.4807224 0.99331594
-0.095312953 7.59551 0.99554467
3.3240662 7.6181312 0.99598396
2.4305158 7.7101898 0.99759012
4.7153177 7.7445145 0.99814111
1.7650337 7.8559113 0.99992919
1.5724559 0.51151729 1.0015073
4.2830162 0.6285603 1.0026765
-0.071715295 0.7777676 1.0041671
-0.22895333 0.80663538 1.0044554
-0.14049464 0.97715324 1.0061589
3.1237607 1.0000818 1.0063879
0.1039139 1.1626607 1.0080121
1.2225477 1.2267632 1.0086524
4.4747605 1.2972302 1.0093565
-1.1372341 7.8766208 1.0002618
-2.9125571 7.8829565 1.0003633
-3.0921564 7.9267397 1.0010661
0.65500164 7.920064 1.0009589
-1.5605187 8.0786371 1.0035043
0.85678291 8.2621183 1.0064495
-1.6310074 8.3051901 1.0071408
6.7556319 8.4680796 1.0097554
1.8504685 0.34296501 1.0111158
-0.21236047 1.7124611 1.0135045
1.8322867 1.8001807 1.0143808
-0.84681964 1.959089 1.0159683
2.7936742 2.1304362 1.01768
-2.5556812 4.7428093 1.0123463
1.2869184 4.7426167 1.0144275
0.69393265 8.6195173 1.0121863
1.7477896 8.6775036 1.013117
5.5866909 8.6839218 1.0132201
2.3950987 8.8022766 1.0151198
-1.0357492 8.9129915 1.0168968
-3.8136792 8.9424553 1.0173699
-1.4324512 -3.1033449 1.0264688
0.57485437 2.3839858 1.020213
1.6802313 2.5528996 1.0219004
2.1081243 2.6940699 1.0233107
0.39566851 2.8335211 1.0247037
-1.2280917 3.1732442 1.0280976
-0.75948215 3.2271388 1.028636
1.2678615 3.2434318 1.0287987
3.8759844 9.1067839 1.0200076
-1.3232507 9.1318693 1.0204102
1.7496406 9.1848106 1.02126
-0.83425927 9.2198524 1.0218225
-0.99692309 9.227829 1.0219505
-2.2904086 9.2932196 1.0230001
6.7978559 9.4718113 1.0258667
-1.674943 9.5140133 1.0265442
-1.177847 9.6045418 1.0279973
-2.4641595 9.6682491 1.0288813
0.7454958 9.6631966 1.0288146
-3.7959468 9.674119 1.0289588
-2.0367682 9.7010517 1.0293143
-1.3440645 1.2492896 1.0381571
-0.63139331 3.9791584 1.0361485
2.0183868 4.0007887 1.0363647
0.5272091 4.1206493 1.037562
4.3649416 4.3179665 1.0395333
7.2040038 8.5896444 1.0342822
-3.7150402 9.8055906 1.030694
-0.99151707 10.312092 1.0373793
-0.051868677 10.457116 1.0392935
5.6710429 0.34296501 1.049915
0.99884784 4.648026 1.0428305
-0.77332067 10.583426 1.0409607
4.9704161 10.617116 1.0414053
0.046365261 10.70929 1.0426219
-2.3748817 10.734733 1.0429578
-1.247677 10.822268 1.0441132
1.5099444 11.067251 1.0473466
1.3297775 11.173706 1.0487518
-2.5169573 11.270122 1.0500243
0.98104358 11.275262 1.0500922
6.6604018 11.293259 1.0503297
4.7582984 11.378522 1.051455
5.5512271 11.391553 1.0516272
5.3457599 11.430336 1.0521389
4.2991452 11.489242 1.0529165
0.83697844 11.49605 1.0530063
-2.2261682 11.571256 1.0539989
-3.2129188 11.589056 1.054234
-0.20796967 11.63423 1.0548301
-0.44386315 11.664009 1.0552232
2.447706 11.798676 1.0570008
-2.5360014 11.833351 1.0574584
3.9807422 11.90253 1.0583715
1.7942829 14.052855 1.057151
4.5424232 1.8235958 1.0675037
-2.3065825 4.7375889 1.0686178
-1.9359506 12.05308 1.0603585
6.2814436 12.080897 1.0607257
2.7322617 12.149044 1.0616252
-3.6122248 12.324049 1.0639352
1.2285011 12.455737 1.0656732
4.4594493 12.586561 1.0674
6.066587 12.591748 1.0674684
4.0103421 12.621885 1.0678661
6.3511353 12.698141 1.0688727
2.3063693 14.166033 1.063621
-0.51056302 -3.3402901 1.0760868
4.5378723 3.0013564 1.0776322
7.21416 7.6843591 1.0732545
-3.9996414 10.176631 1.0795639
0.57041359 12.790569 1.0700927
5.4514604 12.809553 1.0702618
1.884413 12.858965 1.0705431
-1.6593995 12.963423 1.0711379
3.3279052 12.962447 1.0711324
-0.89029634 13.01451 1.0714288
2.4541497 13.079332 1.071798
-0.3707881 13.234844 1.0726644
-3.0641911 13.310159 1.0728592
0.3722465 13.422035 1.0736647
6.9836106 13.430943 1.0738001
5.4844971 13.459904 1.0739651
1.4660783 13.568699 1.074484
-1.9571525 13.65473 1.0746826
-3.0263972 13.73102 1.0749949
-0.16410422 13.770784 1.0753951
6.223999 13.800732 1.0759058
0.75160599 13.813341 1.0756744
1.3571668 13.935876 1.0763375
0.5959444 14.144173 1.07732
-3.0420671 14.155082 1.0771432
1.0273203 14.152097 1.07732
4.277606 14.2037 1.0829759
4.3080335 14.456924 1.0802504
3.5768414 14.473649 1.0812066
2.4225006 -3.0296278 1.0952303
-0.6325686 -2.9597082 1.0982757
-0.57606387 -2.9245658 1.0982429
3.7166715 -2.8810906 1.0983002
5.1148686 -2.883502 1.0910522
-0.57376713 -2.8134964 1.0981634
4.2900639 -2.6803367 1.0983264
5.3258429 -2.5781233 1.0985301
-1.0834484 -2.5311997 1.0980893
-1.0820388 -2.4786305 1.0980573
4.4408731 -2.2372608 1.0980791
1.5626038 -2.133539 1.0927721
5.400681 -2.1245062 1.0982685
-1.1157054 -2.1156714 1.0978478
1.3660775 -2.0650713 1.0937442
3.8608322 -2.005687 1.0977694
-1.719991 -1.9469149 1.0979838
5.8090572 -1.9488945 1.0953643
-2.7672203 -1.486961 1.0913697
5.6822214 -1.475141 1.0905638
-2.9500997 -1.4374787 1.0912485
1.4279547 -1.3664217 1.0943155
5.0369143 -1.1466583 1.0922519
-0.21752197 -1.0844612 1.0969937
-0.76446342 -1.0446994 1.0963328
4.2001371 -0.93325412 1.0942688
3.1310894 -0.85825205 1.0968219
2.6004415 -0.73035759 1.0965933
2.7275925 -0.68618536 1.0965993
-2.9177151 -0.62256283 1.0916185
2.963068 -0.4289369 1.0957913
-0.62036484 -0.3504512 1.0935657
6.507556 -0.26388949 1.0913527
0.46401507 -0.1034531 1.0945277
0.85364765 -0.091633826 1.0958157
5.140379 -0.016917288 1.0925694
5.4014015 0.083055764 1.0923896
1.6771884 0.11001474 1.0956851
4.5071745 0.14571695 1.09315
-4.0082541 5.4751735 1.0939109
0.15930343 14.692066 1.0936925
1.3159962 14.793297 1.0994797
-2.3311555 -1.5950437 1.1033772
6.226491 -1.0677476 1.1057853
0.00071340799 0.34129778 1.1015996
-1.3422564 2.0532854 1.1074505
-1.1252335 4.7344842 1.1020814
-1.3312346 4.7789912 1.107447
3.992135 14.8554 1.10303
-4.0110354 11.166987 1.1187166
4.6335649 14.2037 1.1193948
-1.3378792 3.2245831 1.1246967
4.4426727 15.185951 1.1219264
-0.23481822 15.207125 1.1231369
-3.9648662 7.3707457 1.1467195
-4.0101652 11.08399 1.1420442
-0.23563462 15.530335 1.1416138
0.54400527 15.574502 1.1441387
3.629796 15.59802 1.1454831
4.8824916 -2.1749129 1.1513613
1.9706165 4.7296848 1.1538091
2.2782242 15.785686 1.1562114
-0.94113916 15.796044 1.1568035
7.2010098 4.9679031 1.1627988
-1.3303144 15.131598 1.1651191
0.65220475 15.880318 1.1616211
-0.91094649 16.019476 1.1695763
0.022071183 -1.9223765 1.1753871
6.7576966 9.9809103 1.1732957
2.4568019 0.32867524 1.1820749
6.7329054 0.32837561 1.1839851
-3.564302 6.6473055 1.1862437
-3.7456741 10.926622 1.1846312
6.7328544 10.981519 1.1867344
7.1653624 11.137644 1.1860101
4.5311723 14.863371 1.1819136
-1.3391308 3.2642417 1.1925069
4.1754355 4.7259741 1.1938052
6.7477746 6.5984354 1.1998174
-3.556504 14.2037 1.1945187
-3.6391597 12.116099 1.2011021
2.5669839 16.665096 1.2064843
-0.23133129 16.693455 1.2081054
-2.6142554 -1.4361916 1.2137871
7.0134034 -0.15879512 1.2142072
0.75348097 4.7243423 1.2113976
-3.5210843 13.306003 1.2144499
-3.5781269 13.332652 1.2145218
6.899498 13.335867 1.2139807
-1.0426437 -1.6542274 1.2265332
-0.54395401 0.32171342 1.2264601
-3.3732812 8.2767887 1.2200881
7.1920443 13.485799 1.2279218
1.5779846 17.035805 1.2276766
-3.3242903 4.7220101 1.2365291
-3.6401508 8.9809122 1.231178
0.046197057 17.143841 1.2338527
-1.1013931 17.156931 1.2346011
7.0988197 0.012555785 1.2433146
7.2167835 5.2932281 1.2428091
-0.19525439 17.350037 1.2456402
-3.9787905 0.20141129 1.2519363
-4.0284567 5.6939812 1.2504914
0.99214792 17.482048 1.2531867
1.2940543 17.552505 1.2572145
1.0357771 4.7191119 1.2677691
-4.0019078 4.916924 1.2631996
-3.7084246 8.4368629 1.267349
6.8916454 9.3996859 1.2608535
2.0961256 17.615362 1.260808
-1.0697112 17.750036 1.2685069
-3.3619514 9.3826952 1.2871776
-3.625365 11.432266 1.2812915
-3.3023562 14.2037 1.2840707
4.5306401 16.995609 1.2821071
-0.20885348 18.006145 1.2831478
2.28321 18.038019 1.2849699
1.8275542 18.124235 1.2898986
-0.84239399 18.232195 1.2960702
3.1978531 4.7156014 1.3056076
-3.7786551 6.7322607 1.3029115
0.25048631 0.30748016 1.3172048
0.32521695 18.60664 1.3174762
2.7268102 0.30606213 1.3262453
1.028594 4.7136016 1.3271651
6.9336696 6.128191 1.3250337
4.5302939 17.925085 1.3211167
3.5387628 18.897335 1.3291004
2.0384321 18.941614 1.3240747
3.4271975 19.27286 1.3210257
0.59110785 0.30422565 1.3379538
-0.5567835 18.691996 1.3368254
-0.57769591 18.829327 1.3302063
-0.20082557 18.982618 1.3357494
6.8467593 6.1987133 1.3416384
6.8338308 13.622622 1.3404062
1.6080387 19.031897 1.3597009
0.1469264 19.083046 1.3586415
-3.0429506 19.189892 1.3569226
-1.3447278 2.7534361 1.3620971
-3.4568553 4.7105103 1.3604784
-0.076066196 4.710484 1.3607655
1.2666757 19.050138 1.3624594
0.8294301 0.29870436 1.3731551
7.1155472 13.749214 1.3728867
-1.3368335 14.122815 1.3735147
2.2968082 18.954243 1.3755631
-0.32947677 19.132202 1.3738148
4.5544252 0.3240422 1.3908485
-1.9243082 4.707201 1.3961545
7.2181506 5.1538601 1.3984681
-1.4975572 13.782492 1.3966208
4.5341196 16.566521 1.3995661
-3.424098 19.401226 1.3910551
3.4148314 21.408756 1.3923929
1.7985773 -2.2200587 1.4046717
5.2816191 4.7064834 1.4038839
6.7250919 4.7061381 1.4076074
2.6890647 13.263692 1.406463
4.2249408 13.287651 1.4060085
0.59810364 13.445268 1.4030184
0.63705051 19.024902 1.4060924
3.2795587 19.062084 1.4032943
5.490221 19.159483 1.4037416
-3.1337917 0.29510462 1.4116331
-1.5324442 0.29495135 1.4153757
-1.3477376 2.2929034 1.4172027
0.50166124 12.776889 1.4156983
-1.8221116 12.813271 1.4150081
2.989701 12.919856 1.412986
2.4332154 12.941757 1.4123244
4.5202112 12.964598 1.4121373
0.58527744 13.0495 1.4105266
3.3690062 19.965298 1.4120647
5.6998625 20.239197 1.4137934
-1.8403742 -2.2247083 1.4252778
-3.3634048 9.9380722 1.4211326
6.5654054 10.113158 1.4208224
3.661303 12.473297 1.4214579
4.3057237 18.695602 1.4258465
-2.3882811 20.318621 1.4248199
4.4989176 4.7037945 1.4328679
6.8437853 4.7039838 1.4308282
-0.3703742 11.567822 1.4386358
4.4869585 19.079664 1.4327639
5.3113537 19.266829 1.4397326
6.3735962 -1.0238547 1.4424064
7.0014844 -0.1693339 1.444191
6.6360354 0.2937896 1.4437492
-1.3516088 1.5027075 1.4496629
-1.0828981 10.999706 1.4494138
3.2912869 10.994436 1.4492338
0.37026766 11.184097 1.4459157
3.2788529 11.180483 1.4457515
3.3161988 19.125359 1.4442055
5.4704809 19.283863 1.4482433
-0.1747193 20.608215 1.4487371
5.9935799 19.797367 1.4520632
3.2934043 9.8928967 1.4698058
3.2628276 10.005008 1.4676929
0.53730696 10.036963 1.4676782
4.1612754 10.331888 1.4620831
-2.1354496 10.925704 1.4654952
5.3003416 13.730012 1.4692161
-3.583432 20.092005 1.4621298
-2.9996836 20.251221 1.4685112
2.2234676 -2.2344241 1.4725919
3.3251309 -2.0566781 1.4724593
-2.3456166 -1.8201916 1.4738686
-3.3757231 7.9428053 1.4711027
3.435149 9.8333874 1.471007
0.69298148 0.29202235 1.4869107
-0.19058692 9.0391483 1.4866079
-0.86066115 9.1717854 1.4840916
-0.4266251 9.2131786 1.4833064
-2.1072752 9.232337 1.4829429
-0.43024954 9.3120317 1.481431
-3.696476 13.728291 1.4875677
0.83493698 19.23727 1.4899842
0.99871296 19.230064 1.4873674
-0.11184347 8.3766842 1.4991758
0.047131419 8.4348326 1.4980726
-0.24688178 8.4686804 1.4974306
4.1448298 8.5159626 1.4961294
0.28727883 8.7924747 1.4912877
-2.2983937 12.937098 1.4965998
-2.4362547 19.286898 1.4939512
5.7583075 20.768946 1.4937571
-2.2142181 -1.6948873 1.5014219
-3.1682272 -1.0866758 1.5055249
4.8532963 0.29127336 1.5052035
4.5448127 3.4900529 1.5058513
6.3579893 4.6972356 1.5035614
-0.7663613 7.8177023 1.5097803
0.25216612 8.136241 1.5037372
4.7633872 8.2456255 1.5014999
-3.8518441 8.9265966 1.5021455
-3.8665552 13.151864 1.5080223
1.3724356 0.29092789 1.5136405
4.5458407 3.2864087 1.5156751
4.7443018 7.5812278 1.5142481
-1.7714497 7.6574306 1.5128208
-1.1575696 0.29030612 1.5288259
6.5881605 0.29048526 1.5244503
-1.3557413 0.87874109 1.5269452
-2.2264557 9.5094023 1.5228781
5.9777465 -1.7647523 1.5343125
-2.8283968 -1.6313028 1.5362488
-2.8041546 -1.4618758 1.530008
-2.8272762 -1.3810649 1.5325433
0.383479 0.2900905 1.5340916
6.5670705 8.7923784 1.5337958
5.6748495 20.246502 1.5384567
-3.8258352 4.6934657 1.5441949
-3.8516579 18.943691 1.5407971
-0.14512219 21.059437 1.5452187
4.5525608 1.8125407 1.5521746
2.3804474 11.500367 1.5512161
5.3131237 12.010258 1.5529552
3.3358545 19.043026 1.5694122
-0.70196593 19.565834 1.56754
6.7372351 4.6906524 1.5745208
2.3994694 13.140191 1.5721689
-4.0028024 13.996647 1.5708832
-2.9425595 20.829912 1.5729011
-2.4869328 12.551466 1.5837201
-2.8112898 20.913084 1.5819923
-1.9914272 -2.0465937 1.5995026
-3.7208655 4.6887612 1.5949018
3.3680139 20.131996 1.5959935
5.100771 -2.1642115 1.6056706
2.3943191 12.711187 1.6049285
5.275177 19.738571 1.6090951
-2.8340023 -1.5665375 1.6143265
4.5434084 4.3925056 1.613638
1.2760772 4.6869092 1.6148661
-2.4278827 7.5474672 1.6169024
-2.5335128 11.882092 1.6160636
4.338542 13.764845 1.6135
-3.8360038 8.6427145 1.6268744
0.79467034 12.281857 1.6265472
5.2297668 14.203699 1.6230841
6.4768238 20.59454 1.6281121
-1.343096 4.5690002 1.636297
4.8183174 -2.3689785 1.647491
3.3418231 0.2857151 1.6409518
-1.3556786 1.4888225 1.6424056
-1.343093 4.6167631 1.6454284
-4.041275 5.4722948 1.6400406
-3.8455687 7.2963343 1.6482072
0.84053791 8.359354 1.6430619
7.1876001 13.065372 1.6516912
5.6377335 19.980774 1.6509457
-2.5145793 20.976194 1.6563659
4.5498028 3.0846388 1.6667668
4.2574677 19.940901 1.6667731
-2.7456398 20.984528 1.6757778
4.5562963 1.5707479 1.6846151
-3.3662353 10.191117 1.6871073
-2.0395021 13.761612 1.6817298
-0.73544681 13.894824 1.6871021
-1.3380847 18.644926 1.6853474
3.4433212 19.998581 1.6957861
-3.9875302 12.909236 1.7071495
-3.5593109 0.28275135 1.7133353
-0.78843242 4.6750121 1.7122855
4.7400627 4.6749401 1.7127659
7.0228024 8.083786 1.7192454
0.57224464 4.6728811 1.7264137
3.8786328 4.672904 1.7262647
-0.24403858 18.70779 1.7266204
-0.61854589 -2.0653591 1.7359537
-3.1206844 -1.2045078 1.7399806
3.3359811 4.6720695 1.7317939
5.3397927 20.079842 1.7329723
3.3126068 20.191452 1.7342885
-1.3519773 2.9076495 1.7401913
-1.3489094 3.6911023 1.7449954
-3.782171 13.20079 1.756832
6.6223993 5.9149609 1.7625831
2.3444748 7.8998089 1.7627113
-3.7403977 10.044634 1.7629468
-3.6181583 0.28022569 1.7750189
4.5519242 3.1300464 1.7774642
6.5883236 12.181992 1.7783624
-1.1207714 13.915352 1.7723727
-2.8921213 18.709751 1.775012
-3.6278069 7.4184151 1.7805963
-3.7004025 10.045891 1.7872541
-1.3436756 16.355505 1.7804105
5.6304779 20.203325 1.7836589
3.8716776 -2.0772455 1.7905629
-1.3614156 0.23937973 1.7933407
-3.6960864 12.502429 1.7945359
-3.7745934 13.593407 1.7959404
0.70599484 4.6610508 1.8048522
3.2745073 4.661664 1.800787
-3.7407801 6.624505 1.8037652
0.73121929 10.747547 1.809294
-3.98753 12.852611 1.8026187
2.5648284 -2.3881507 1.8139552
4.1721187 0.27865124 1.8134718
1.4357865 20.120037 1.8190017
-1.3593514 1.5026606 1.821474
4.8863387 7.4484363 1.8296431
-1.3442609 16.688587 1.8233399
4.3200402 18.711134 1.8288342
6.2011681 4.6565461 1.8347213
-3.7015805 7.620842 1.8312033
5.3102465 12.17762 1.8347256
-3.6458697 20.071878 1.8339489
1.0236257 20.136299 1.8350523
-1.6137967 10.225956 1.8499393
-0.16611877 20.466368 1.8484886
6.5614243 9.4832602 1.8555267
-3.0414414 11.151433 1.851243
-2.956306 18.708862 1.8516446
5.6879106 0.27641389 1.8681139
-1.3505429 3.914124 1.8667462
-3.374038 7.9692535 1.8678814
6.8540883 18.707607 1.8642759
4.0622959 0.27630079 1.8708763
-1.3442688 17.654112 1.8788602
-0.015153205 -2.3094733 1.8892605
-2.1277308 9.8589725 1.8810813
-3.9529736 13.933971 1.8809621
0.56206656 18.705589 1.8845507
1.5622706 0.27690476 1.8928902
5.3419676 8.028101 1.8913833
3.7769752 10.217155 1.8917462
7.1013613 6.7831926 1.9019228
6.692935 6.8025408 1.9039223
6.9437637 7.1152363 1.9031739
7.0542059 7.5732031 1.9033176
7.0929275 8.5622425 1.9045808
-3.688817 9.0096045 1.9074152
6.7844296 9.359787 1.9086629
-3.5978954 10.954152 1.9098686
7.1609335 11.276072 1.9063244
-3.5724716 11.960837 1.9099309
-3.7489071 12.558923 1.9088817
-1.0213976 12.605635 1.9013746
-3.9135818 12.798138 1.9079336
-0.58583456 12.86753 1.9047291
-3.5922937 12.93885 1.9097241
-3.8841238 13.119576 1.9080678
-3.7743809 13.188742 1.9086773
6.8111162 13.24523 1.9094987
-2.5792334 18.703382 1.9067487
6.8736992 5.9661236 1.9138322
-3.8241169 6.0065498 1.9104148
6.7610025 6.0374022 1.9150449
6.6582165 10.873819 1.9106822
-0.78890908 4.643362 1.9221315
4.4652138 4.643239 1.9229515
-3.1830678 8.7772598 1.9260632
-2.1163962 11.30312 1.9238309
4.018548 -2.0997 1.9332031
-0.9208746 14.203699 1.9359775
-1.4398649 -1.8751249 1.9451861
-0.49329424 4.639926 1.9449158
-1.0550395 13.946106 1.9450006
0.6601299 20.406109 1.9453189
-0.80191946 20.653538 1.9455104
1.9624972 -2.4815891 1.9535537
-2.0430908 4.6387959 1.9524064
-3.8816898 7.1484852 1.9515322
0.81917042 8.8810921 1.9581896
-0.008698225 12.372034 1.954533
3.3767626 18.698936 1.9514325
0.71299577 20.442142 1.9576018
2.9136715 4.637084 1.9637594
2.8430905 -2.4224656 1.9758773
-2.4700704 0.28484601 1.9754846
1.5540075 4.6349831 1.9776866
6.0497746 4.6350079 1.9775236
-3.9547505 6.662847 1.9729795
-3.6644316 7.2810688 1.9727006
7.0320611 7.5089617 1.9798366
7.2464581 13.139383 1.9767282
-1.3579807 2.6597905 1.9803555
-3.2911284 9.4575472 1.9811816
3.3973081 12.226917 1.9875559
-1.6253877 13.785921 1.9856765
-3.8875821 19.202057 1.9849548
6.4204731 7.1531301 1.9935908
-1.381861 7.4035797 1.9903343
5.3193903 10.872371 1.9946178
-3.3387995 11.180477 1.9923481
7.2188768 11.987329 1.997175
0.31204605 14.203701 1.9984229
6.953229 -0.23655818 2.0051296
-2.2384727 0.28729761 2.0009828
4.8125215 0.2878958 2.0072043
-2.226933 7.6138797 2.0019341
5.4939799 7.6268344 2.0029836
-2.4353473 8.2763176 2.0079472
5.3226275 10.445789 2.0018792
6.1030788 7.0815191 2.0170786
3.6955123 7.3954573 2.019419
-2.170836 8.1599407 2.012145
6.5862622 8.378665 2.0139875
-3.6175382 8.4592056 2.0174692
-3.3938103 8.7046309 2.0152364
-2.5682554 9.0867062 2.0181174
-2.7745883 14.2037 2.0175109
-2.3507624 19.896305 2.0176692
3.7754197 7.3947001 2.0221295
2.3485882 8.5773163 2.02981
6.59659 8.8587904 2.0214427
-3.0840688 9.1001911 2.0203762
-3.8474913 9.1811914 2.0244882
-2.4573064 9.2627115 2.0235496
2.9084229 12.397027 2.0293205
-3.1952353 0.29055455 2.034857
2.5566926 4.626049 2.0369232
-3.3473365 10.21711 2.032279
-3.2791958 10.386843 2.0331917
-3.0988681 10.734565 2.0347245
5.6007071 19.380106 2.0388925
-3.5704706 20.365364 2.0348797
6.1480064 4.624258 2.0487986
5.435832 9.9288292 2.0412774
-2.4801004 10.440811 2.0422637
-0.50459862 13.981205 2.0459135
3.2787271 21.644526 2.0454297
4.8710423 -2.3559813 2.0501204
0.40818402 10.315002 2.0555487
-2.63256 11.32419 2.053175
-0.55465227 11.928375 2.0554922
-3.4859998 12.664063 2.0553801
6.5998788 12.773981 2.0598412
-2.4867616 7.0814734 2.0634701
6.7800221 7.0918074 2.0604539
-3.4965756 12.918993 2.0618258
3.129153 21.619162 2.0696354
6.6638265 13.156019 2.0775771
6.8406348 13.520839 2.0753427
-0.38318872 14.2037 2.0708694
5.2554884 14.203699 2.0715919
0.63265646 20.743124 2.0727727
6.8379622 -0.42482978 2.0893657
-0.62148511 10.184217 2.0811546
5.4803281 12.366385 2.081069
-2.2380102 12.882936 2.0877275
4.0387568 20.87501 2.0817084
6.9029779 0.2959893 2.091382
4.5621052 2.2524135 2.0959442
4.5562992 3.6778471 2.0939083
-2.814816 7.0810208 2.0995173
5.6624146 13.496162 2.095886
2.2698531 20.83655 2.0988324
4.5627141 2.151443 2.1055803
5.6400375 13.592053 2.1016529
4.9673095 13.264205 2.1122818
2.6283474 20.849068 2.1129603
3.5248959 20.954412 2.1188316
6.7914581 -0.49722707 2.126565
0.77895057 12.513738 2.129308
4.5493469 18.225996 2.121033
1.4290447 -2.947454 2.1309502
-2.1234365 10.702025 2.1385159
-3.4275415 9.9418097 2.141593
-1.361194 2.7425721 2.1507459
-1.353611 4.6542544 2.1578135
-2.1343386 9.4617481 2.1515985
4.5668344 1.3865411 2.1675122
-3.6148758 13.573697 2.1691442
2.4684918 -2.5723844 2.1793456
2.3742826 11.233762 2.1790292
4.0644794 21.013081 2.1706066
-1.357951 3.7440779 2.1894865
-2.1484928 7.910533 2.1817834
3.2775583 0.30547494 2.1900387
4.5653644 1.9793952 2.1994438
3.210088 4.6025963 2.1924171
-1.3508043 18.329964 2.1918769
6.4943304 20.698109 2.1995802
2.1242106 21.00334 2.1900272
-2.0761168 -2.0207601 2.2027829
0.014139145 20.080013 2.2018833
7.1033673 0.094912246 2.2127414
7.1345158 19.212452 2.2183294
-1.4791988 14.215255 2.2240386
3.2893996 10.156063 2.2430556
-0.27861047 18.669828 2.244009
5.6765528 21.273537 2.2448633
6.7016716 0.31166893 2.2544601
-1.7905455 13.383841 2.2568016
4.5562868 15.669119 2.2529008
-1.3562621 15.708479 2.2571254
-3.7833054 18.668283 2.2595873
-2.3833063 21.239084 2.2595742
3.0547578 0.31230772 2.2611041
5.9376116 0.31234878 2.2615311
2.3450203 7.5736527 2.2648017
-1.7338456 13.516388 2.2673898
4.5547643 16.9583 2.2644496
-1.599146 -2.4022999 2.2879398
-3.4840846 -0.67355847 2.2867198
-0.69023347 0.31459868 2.2849319
-2.4058826 7.0879345 2.2829556
0.77946007 12.596576 2.2859159
5.5784321 20.445297 2.2832174
4.5685391 1.6817573 2.2941096
7.2290134 5.0381098 2.299891
1.3566409 21.143522 2.2979155
0.019183217 21.672152 2.2906575
6.3234558 -1.2462932 2.3000927
3.8087046 10.85029 2.3008218
-1.6836486 7.3116541 2.3196278
2.3905499 12.664898 2.3164413
-3.4785669 20.579182 2.3186524
5.2785401 -2.0237267 2.322403
5.912394 -1.4768374 2.3280435
6.4394164 20.775284 2.3244398
6.3378477 -1.2281487 2.3335519
0.77838445 12.388035 2.3362658
-1.758695 14.233849 2.3367481
-3.7892225 19.490305 2.3318546
5.8603916 0.32156157 2.3490486
4.5641866 3.0435171 2.3495419
4.8130622 7.3057332 2.3408179
-1.4938557 18.660294 2.340044
0.26345843 21.123573 2.3446374
-1.3592257 4.2905612 2.3568273
7.2360725 18.658691 2.3561959
5.6453094 -1.8474948 2.3603842
6.6313739 -0.76343054 2.3607216
-1.4848399 0.32648069 2.368396
-0.87374556 0.32475272 2.3615997
4.9089909 11.399823 2.3694267
-2.5914154 -1.687742 2.388097
-3.0723662 -1.3082746 2.3833437
4.7114887 10.430057 2.3964505
2.5013535 10.79938 2.398416
-1.0532717 14.243736 2.3966868
5.6547055 21.303623 2.3903322
6.5869341 7.0785894 2.4064577
5.1932869 10.62711 2.4053974
3.6133831 0.33954048 2.4197621
-2.1379509 10.220634 2.417635
2.6264639 11.101954 2.4114797
-3.5617781 -0.54391915 2.4233527
3.9921639 0.34067976 2.424243
-2.7376933 7.2713056 2.4277461
3.9552951 -2.3347726 2.4354279
3.6843934 4.5381708 2.4310498
3.8053863 4.5366421 2.4365005
3.3423338 10.253052 2.4367299
-0.29300302 14.005241 2.452107
5.8210568 18.648624 2.4575965
3.9286551 21.502319 2.4538512
7.2131529 4.776166 2.4603176
0.71694642 21.288113 2.4626293
-2.7852933 4.5262995 2.4733698
7.171452 7.4644785 2.4721458
-4.0756927 18.855492 2.4780462
-2.3377881 20.35981 2.4754968
6.4411931 20.801781 2.4724202
4.0859404 21.581598 2.4759653
3.2587011 21.626278 2.4719558
6.0457191 -1.5005674 2.4864478
7.2152209 6.2654972 2.4842563
0.93532008 14.260468 2.4817016
-3.5827727 12.392267 2.4985995
5.5337763 20.749798 2.4947367
-2.4940562 0.361233 2.5050812
-2.9605565 7.239645 2.5060811
4.7429171 7.2589154 2.5085256
-2.3909659 21.197918 2.5021608
2.5993099 7.256969 2.5154233
-2.1520128 8.9990778 2.5191011
-4.0278101 6.4974594 2.5205317
0.031359706 13.03389 2.5284467
0.78572595 13.764648 2.5224881
5.3536348 20.335804 2.5223885
5.0040612 20.427921 2.5206323
2.3688641 0.36823505 2.5326214
0.31833667 4.5089388 2.5352566
4.1402006 20.639362 2.53473
0.36760134 20.848919 2.5358171
4.572926 1.7910298 2.5420992
2.8070822 4.5058603 2.5462306
4.5644984 14.953467 2.5470815
4.5069671 20.581875 2.5462217
2.0048864 21.447052 2.541153
4.5625377 4.4882774 2.5508783
5.8762312 13.816454 2.5566697
4.5648975 14.841291 2.5569768
-1.3615363 17.169651 2.5564394
-4.0293179 19.386635 2.5507588
2.9018433 21.720907 2.5570126
-0.099785924 21.760412 2.5542679
5.7053614 0.37520021 2.5600162
0.10011613 7.2395287 2.5779274
7.1566954 4.4961281 2.5809224
0.30613318 7.2362347 2.5897138
-2.964766 20.491039 2.5866387
-2.0237288 21.636581 2.5862358
3.8652725 0.38347113 2.5925469
-4.049284 6.8390174 2.5928118
-0.011286139 4.4898229 2.6034002
7.1228309 19.167862 2.6036806
-1.1334341 19.5849 2.6038201
3.4120078 19.596151 2.6038201
4.3839011 19.627472 2.6038201
3.2891359 19.711941 2.6038201
3.1825459 19.790792 2.6038198
-1.7509295 20.09203 2.6038201
-1.4608469 20.615728 2.6038201
4.7557583 21.225763 2.6038201
-0.15015191 21.301657 2.6038201
3.9535146 21.535139 2.6038203
0.9672007 0.39022571 2.6191132
0.31477705 12.684855 2.611618
4.1057549 13.905967 2.6236591
7.1090059 19.22373 2.6218846
4.1016989 20.761242 2.6253338
3.3326304 14.297812 2.6330364
-3.6847894 -0.34330463 2.6431267
1.3883895 -2.987443 2.6577227
2.6782603 13.365034 2.655592
5.4872122 18.61491 2.6569433
5.4199791 20.477787 2.6533127
7.0354877 -0.0033241659 2.6609845
-1.3680768 3.7302661 2.6730719
-3.5669308 11.607821 2.6705599
4.5625391 18.337116 2.6771519
0.7800082 12.665114 2.6876302
0.17528155 12.970924 2.6838064
-2.1148436 13.832873 2.6896238
4.41679 -2.4570866 2.6991508
-4.0688615 7.0208483 2.6934905
7.2737951 7.2100639 2.6901484
-3.4488678 8.6476555 2.6937165
3.4861977 -2.7634678 2.7058637
-3.1860247 -1.1477931 2.7086668
-2.7169209 4.4609489 2.7063293
1.7049444 4.4619341 2.7028174
-3.3368132 13.859691 2.7041571
-2.8555713 20.782269 2.7061162
5.5492287 21.243748 2.7047265
5.8711915 14.318905 2.7185197
4.5760589 1.8349307 2.7253799
-0.29761729 21.002338 2.7226696
0.040617898 21.060219 2.7298412
2.1124349 10.153256 2.7369227
1.3582698 10.247049 2.7397008
1.9030575 4.4506836 2.7429228
7.279067 7.1336904 2.7419319
0.80976063 8.6499462 2.7407374
-3.6882622 13.864598 2.7465298
-2.5181451 13.878542 2.7484004
5.6791091 21.299503 2.7434504
1.3730302 10.604328 2.7502656
1.0294319 10.899699 2.7590017
-1.3691062 15.303122 2.7581701
3.7963991 18.580431 2.7586555
6.7422428 19.654408 2.7512102
2.0836711 21.70332 2.757329
1.0999159 10.960655 2.7608039
7.1287651 5.5721121 2.7771792
2.2499225 21.733816 2.7728243
6.562592 0.44409645 2.7829602
5.7715397 18.572184 2.7829866
2.0674701 21.803112 2.7881851
1.7755237 12.098234 2.7944393
-3.9927077 5.6927991 2.8088152
7.2739124 6.6261692 2.8059058
-2.1684961 8.1340752 2.8054583
1.994422 21.870632 2.8068626
7.1508121 0.28973287 2.8118181
2.2233932 0.45685345 2.8120556
-1.3711607 3.6915488 2.8136573
4.1625643 4.4282432 2.8168933
1.3324118 12.727054 2.8130352
2.1904807 12.94362 2.8194396
0.57243574 21.879822 2.8198171
3.0902257 -2.9466689 2.8288255
-3.3112409 7.0862026 2.8243682
-2.1511021 10.464278 2.8226056
1.0721262 12.971828 2.8202748
-1.2637485 4.4210534 2.8309622
0.834656 7.7548084 2.8355751
1.7516441 13.358729 2.8317151
1.7250735 13.632216 2.8398032
4.9421072 0.46951339 2.8409297
4.5721145 3.6342282 2.8449488
1.0410054 13.931416 2.8486509
-1.3603926 18.550022 2.8483655
6.0056529 0.47697848 2.8579559
7.2932234 18.846191 2.8556046
-3.7539277 0.4824585 2.8704543
-3.350673 4.3973784 2.8772924
6.41465 14.374297 2.8765898
4.3781185 18.540607 2.8761387
4.7143922 13.002103 2.8840067
4.1026402 21.089508 2.8856397
3.1181445 0.49319828 2.894949
-3.918777 5.499084 2.8905406
3.8465164 18.53487 2.8930602
5.8539772 -1.6575288 2.9061637
5.9629307 -1.5619889 2.9090078
2.9172459 0.49591851 2.9011531
5.5999947 0.49580467 2.9008937
7.1238861 5.5046973 2.9014587
4.5840464 13.914496 2.9099305
-3.6725655 -0.49314821 2.9146519
-3.1898382 -1.1016372 2.9270337
-3.8560171 0.50428033 2.9202242
-1.7443949 -2.3546667 2.9451594
4.4757161 4.3629942 2.9445796
4.5705948 17.438848 2.9487846
7.3853378 18.543781 2.9410806
6.7259593 -0.60416186 2.9581919
-3.4699497 7.0899658 2.9565673
-4.1101093 7.7420397 2.9538572
4.574605 14.916715 2.9574432
7.3635583 18.683828 2.9529724
0.7620703 -3.0368114 2.9606428
-2.6534221 0.52375972 2.9646518
-2.2682941 7.1211438 2.9659326
0.35713971 21.750816 2.9677901
2.2754767 21.83976 2.9677899
2.1431317 21.843515 2.9677896
5.4751167 7.1224804 2.9769862
4.572926 16.421162 2.9749217
4.5810823 1.3645306 2.9884865
3.0161366 14.412699 2.980484
7.1992555 19.087612 2.9823713
-1.3812276 1.2512394 2.9942558
6.6460357 0.54168361 3.0055318
0.0009073019 14.419966 3.0001445
-1.4096661 4.3272123 3.0146012
0.5846203 13.149036 3.0152206
-2.3887744 13.968849 3.016592
-3.3711846 14.008096 3.025593
3.9521754 4.3153195 3.0378737
-0.5052377 18.486197 3.0366435
4.5824404 1.0234522 3.0473948
4.5786567 3.0446203 3.0446286
-0.54611069 13.241727 3.041389
0.64595634 13.017309 3.0615361
-2.7871125 14.002968 3.0647612
-1.3816916 2.1399686 3.0718014
4.8304448 4.2969933 3.0737374
7.2693524 6.1453962 3.075105
0.57528961 13.181763 3.0710621
3.7789121 13.25659 3.0703983
7.2726679 6.2376451 3.0880585
-2.7073851 7.1273565 3.080343
4.2398472 -2.5685878 3.0971701
-0.82443225 0.58732665 3.0928736
1.6348152 4.2840962 3.0989752
3.1693599 -2.77405 3.1076593
5.6340618 -1.8564396 3.1010194
4.4871693 4.2787666 3.109405
7.2317009 19.031097 3.1040552
-4.0260334 5.6860981 3.1164439
0.73780251 9.9602289 3.1183238
-2.3625886 -1.8911321 3.1294303
-3.7737236 -0.11945066 3.125334
-4.0947533 7.0323567 3.1258469
-2.5387385 18.457256 3.1220167
-0.77091753 -2.5797813 3.1325107
1.5250921 10.090045 3.1545343
5.9183216 -1.5668342 3.1684241
-3.5438275 -0.56952679 3.1642995
-2.2132182 4.248487 3.1686594
-4.0986519 7.1910586 3.16557
3.1543157 4.2440357 3.1773694
4.5739222 18.659122 3.1728783
4.5826054 2.799346 3.1866214
4.9760766 12.69938 3.1847272
3.4729064 -2.6006184 3.1950181
2.0688968 4.2348475 3.1953506
2.3619242 9.8958893 3.1976676
-2.4416564 21.326849 3.1925993
2.6944733 14.224934 3.2085207
5.5647883 18.411482 3.2050893
-0.21474086 21.883966 3.2017901
2.2762146 22.030205 3.2017899
2.5938623 22.190819 3.2017903
6.0422163 -1.4049231 3.2137275
2.4630446 0.65987635 3.214438
0.66154939 7.1534128 3.2174492
5.484509 21.4107 3.2153497
-0.76679438 -2.4398761 3.2269626
3.2149813 0.66366518 3.2207866
0.74496067 7.1829166 3.2251058
5.8358316 18.39068 3.2391686
5.8079624 -1.5444678 3.2467623
-0.7382161 13.344654 3.2422621
-0.19625945 13.346887 3.2466187
4.5817924 14.775856 3.2426965
5.0938654 21.57943 3.2465575
0.71474552 4.1896029 3.258671
1.8949726 22.240822 3.2580476
-0.19825566 4.1881485 3.2605066
1.5336807 18.376402 3.2625623
4.9231668 21.651379 3.2620118
4.4745536 4.1749568 3.2771554
0.82212591 7.5753455 3.273351
2.4214447 12.8984 3.270438
-3.0142424 14.086809 3.2724795
-1.0413994 -2.2685752 3.2980466
7.3031182 7.3457727 3.2922137
1.4838376 14.562456 3.3128624
-3.8706961 19.878046 3.3152785
0.095949702 22.151373 3.3142776
1.6019711 14.288679 3.3231153
-1.0090145 0.73445916 3.3313503
-0.6701411 7.621397 3.3390241
5.5997405 21.354322 3.3348224
-1.3272644 -2.0994301 3.3437123
-0.97892261 7.6406527 3.344038
2.9355927 7.6671233 3.3476582
3.6183519 14.141925 3.3482249
-1.3862414 2.4239893 3.3505433
4.585495 2.9550822 3.3556499
2.4995379 7.7117252 3.3589802
1.6370107 22.246782 3.3574276
-1.3862076 2.7409644 3.3667011
2.3621688 9.6227713 3.3638058
-1.7591736 13.679844 3.3663809
-2.9780245 20.291477 3.3618188
3.6428561 4.0992975 3.3726456
7.4376411 18.42005 3.3757765
-1.0564638 0.77186847 3.3831339
-1.9382633 7.8153543 3.3895152
2.364707 10.048657 3.3844559
3.9310584 21.977379 3.383543
5.0452747 -1.7962594 3.3901098
0.31175303 4.0850792 3.3905909
2.2196665 10.664208 3.3940072
-1.4229307 14.605201 3.3937726
1.706445 14.613502 3.4063947
2.9922841 7.940134 3.417098
0.26287186 18.285191 3.4119959
-2.817467 20.71487 3.4172859
-4.0086808 0.68131518 3.429451
-2.1734252 10.492646 3.4238513
-4.0092921 14.4123 3.4260552
5.0355406 -1.6693779 3.4379296
-1.388963 0.81193358 3.4385943
0.77179229 8.4060106 3.4399054
4.6361046 0.8169862 3.4455886
6.1337194 4.0412998 3.4458442
7.1568584 5.3250747 3.4464593
6.4250922 18.26449 3.4459121
-0.020055056 0.8269918 3.4594388
0.69498205 0.82713485 3.4596367
3.9747286 0.82558036 3.4574852
7.2018156 4.0523252 3.4516897
6.1576576 -0.96738935 3.4616952
-3.2874169 0.83442193 3.4697239
5.1449628 4.0230546 3.4688716
7.3045549 7.4338465 3.4609754
6.8409138 20.137131 3.4686089
1.4556828 22.231062 3.4604633
4.5891628 1.8039356 3.4798388
-3.8351083 4.0153227 3.4786305
6.0409184 18.246607 3.4752097
-0.79383481 0.84534389 3.4848428
-2.2290514 7.3807449 3.4889905
4.7319956 13.259051 3.4879577
-2.9522684 -0.88925266 3.4952505
4.5889797 2.2500694 3.4946761
1.2481995 22.095959 3.492769
7.0212293 0.16906258 3.507302
5.5681667 0.85734051 3.5014491
-2.2378013 7.1424656 3.5025566
3.7693329 8.30303 3.5094347
7.3541622 18.704681 3.5054502
-2.3833387 0.86994243 3.5188932
-2.0588462 21.222225 3.5165355
4.2038441 21.650806 3.513556
5.49967 -1.2459054 3.5246987
-1.8315501 -1.1764507 3.5254004
3.0930343 3.9821267 3.5205269
-2.2000065 8.3134375 3.5217781
-1.0899657 18.219114 3.5202532
-1.9432595 -0.1574291 3.53473
-3.6972198 13.631488 3.5319042
5.0588093 21.253788 3.5376887
-1.1894934 -0.83570504 3.5407591
-1.7295707 0.30858004 3.5448151
-1.9303949 0.42126715 3.5432687
5.3903608 8.2248335 3.5471187
-3.5274479 14.705135 3.5457387
5.1736608 21.172638 3.5455639
4.5070133 21.440828 3.5427594
0.042952031 -2.1362524 3.5557256
-2.1317101 -0.72373772 3.5553999
-3.709332 4.8980093 3.5507624
-3.8925278 5.1501617 3.5519893
-3.8986063 19.830011 3.5506895
1.8703246 21.852592 3.5546646
-1.3909197 1.527889 3.5692708
3.9841206 8.5198097 3.565089
-3.8771996 19.941185 3.5637875
1.1319282 -2.2033033 3.5721779
3.3001904 0.91388893 3.5742724
0.37272 8.5183115 3.5718656
-3.7070608 13.951952 3.5703566
4.5862803 17.003742 3.5701249
4.5852838 17.67075 3.5756097
-1.4657707 0.92867136 3.5863538
-3.2714672 3.9222713 3.5879433
-2.3696606 7.3646665 3.5857577
4.5876179 16.520155 3.5916927
-2.3054223 14.175123 3.6039672
-1.0489155 14.743671 3.6043401
-2.4139333 0.96081042 3.6126213
4.590661 2.7035289 3.6175332
-0.36668089 14.334204 3.6113834
3.6713135 -1.9594401 3.6284556
3.8626323 3.8771892 3.62533
-1.7716882 8.7165461 3.62361
5.3024359 14.760051 3.629247
5.2429986 20.887465 3.627018
2.3100758 21.550529 3.6287384
3.7643108 14.192844 3.6362941
0.91350019 14.763237 3.6340909
0.81939447 21.535101 3.6326933
1.3515753 -2.1194022 3.6492343
2.9679646 3.8510816 3.6469808
-2.188004 9.745245 3.6451771
-0.70320165 18.113678 3.6429744
7.1001434 0.49728671 3.659409
-1.3178439 1.0131564 3.6554034
1.0774024 14.77405 3.6505365
7.2668529 14.778894 3.6579015
1.8110037 21.409458 3.6682038
5.6349688 -0.22276269 3.6778338
5.746562 0.068558544 3.6785984
-2.2382338 11.787792 3.6716139
-0.79318029 21.181265 3.672801
1.2702887 21.38936 3.6731234
-2.6231592 -0.41840389 3.6806211
1.6714374 1.0513731 3.6866376
3.8038545 3.8074346 3.6831775
-2.6334724 7.1509767 3.6824827
5.0256319 8.9590149 3.6846032
3.6958945 8.9772673 3.6823618
-2.0694826 -0.35874549 3.6967108
1.4828553 1.0641747 3.6971002
-0.16903055 3.789712 3.697875
-0.9761579 8.9924479 3.6951389
0.65246171 -2.0386529 3.708003
4.6039505 -0.66153789 3.7073908
0.42277503 1.074635 3.7056494
1.1197696 3.7818801 3.7043698
-1.3877563 4.2026339 3.7098718
-3.9981411 4.7476244 3.7048249
0.68235153 9.9601679 3.701736
0.93387556 10.101068 3.7041693
5.6664557 1.0833843 3.7128
-4.0020456 7.6528525 3.7196305
0.74126792 14.383129 3.7154546
3.2061505 1.0929207 3.7205944
-3.5330496 7.1232157 3.7275791
2.937819 9.161211 3.7276621
0.12634943 -1.9486115 3.7355061
4.0608234 10.730207 3.7316287
-1.3924067 15.634888 3.7316871
-0.29505205 18.03294 3.7331524
-3.1337721 3.7370677 3.7415328
2.893044 3.7381744 3.7406149
1.8181279 10.04169 3.7400494
0.3487218 14.389496 3.7419076
6.6533351 14.849874 3.7421565
-1.7387357 -0.76826245 3.7553875
-1.2741965 9.2358398 3.7584271
4.9434257 -0.69498944 3.7603908
-1.1233819 3.7062795 3.7670655
-4.0265203 5.4947577 3.7668121
5.5353913 7.1546884 3.7630553
0.67043352 9.253047 3.7626295
-2.0032618 9.271368 3.7677939
-2.2976494 13.133838 3.7655067
-2.2649436 3.7010036 3.7714407
7.242383 6.1221204 3.7761211
2.4400189 1.1667422 3.7809284
-3.9520802 1.1753726 3.7879817
2.9625301 1.1760113 3.7885039
-1.3933021 2.8701434 3.7834153
0.10483587 14.890308 3.7856021
5.8823762 -0.065544337 3.7921324
-0.88309312 1.1886979 3.7988725
-2.3082666 3.6768823 3.7914445
-3.9014311 4.7853332 3.7960196
-2.1904516 10.234895 3.8089604
4.5947537 15.36393 3.8069911
-0.9237355 -1.5852313 3.8153315
-1.656445 -0.49845323 3.8192368
0.30521584 13.854025 3.8157022
-3.9656677 14.919495 3.8169622
-0.10210413 -1.7712915 3.8223631
4.3361497 -1.0205727 3.8232255
3.9865184 1.2276307 3.8288305
5.4196215 8.44944 3.8202989
1.2557662 10.07663 3.8227706
-2.3041382 13.132166 3.8284471
4.9126024 0.062642485 3.8352184
3.9865439 3.6151996 3.837976
4.1021872 9.5482635 3.832763
2.5017481 9.5813637 3.8345017
2.0562928 -1.9267368 3.8403008
0.92247331 3.6018457 3.8458986
4.5904999 18.434822 3.8461266
-0.58738238 3.5891845 3.85341
-1.7877589 13.230917 3.8583579
1.8318484 -1.9784067 3.8612854
-1.5748221 -0.74606812 3.8630154
-2.2396338 7.8426476 3.8654399
-1.3939431 16.586695 3.8623774
4.6560378 3.5605955 3.8703706
6.7959995 3.5605936 3.8703718
1.8533032 -1.8812717 3.8870401
-2.6530979 0.016197294 3.8866458
4.5917282 4.1625662 3.8894606
-3.8494964 20.070749 3.8843834
-0.13426554 1.3314373 3.8969264
-3.1117253 3.5137382 3.8981693
-2.1959569 9.7146807 3.8908622
7.0395408 14.849882 3.8970776
-0.0031077862 1.3498669 3.9090159
3.4401908 3.510391 3.9001551
2.9580302 15.004666 3.9084761
-3.8902848 0.80707622 3.9186077
-2.2489359 1.3536463 3.9114952
3.7130711 9.8543224 3.9101934
-3.5083892 11.406401 3.912493
-3.6157427 20.093611 3.9185035
1.9288812 -1.8117697 3.9277861
-1.6317401 -0.83359087 3.9250722
-1.4816394 1.3717661 3.9233818
3.6521411 14.278728 3.9342368
-0.40630579 -1.5089241 3.9458494
3.6892476 -1.4943954 3.9413433
4.9263215 -0.55601269 3.9420061
4.5963378 2.6922133 3.9444892
7.1235218 6.5158162 3.9416268
4.262753 10.806301 3.9473214
-2.6473808 20.397799 3.9430003
-1.122123 -1.3075935 3.9574692
3.4323547 1.4156245 3.952152
-0.57966667 3.41154 3.9587994
5.3592653 3.4227729 3.9521351
-0.74829078 17.774214 3.9579651
-3.6048582 19.856602 3.954474
1.6307988 1.4386717 3.9672709
7.1755638 1.4415324 3.9691472
1.1439531 17.770145 3.9610338
-1.1506643 21.053799 3.9611256
3.4594936 21.292824 3.9640038
4.5945325 3.8878469 3.9707978
3.9687009 10.641798 3.9710355
-2.186842 -0.28229976 3.9832175
6.9779363 0.60898924 3.9876316
1.8153199 1.4679252 3.9864602
7.0887008 1.4651499 3.9846401
4.5971966 2.5337915 3.9850211
1.5422671 3.3598948 3.9894385
7.1301827 4.2303905 3.9894571
2.3410554 -1.6753657 3.9944091
4.4902496 -1.2114811 3.9966302
0.30247599 13.900576 3.9993017
-0.8396095 3.328944 4.0078006
4.687283 3.3326919 4.0055766
5.4493589 8.1386223 4.0091543
4.6010957 14.331614 4.0050316
2.1987615 -1.6580126 4.0103035
4.5984426 1.7591873 4.0127683
-1.3973387 2.8722651 4.0164413
-2.5355208 -0.44188541 4.0200038
0.58903676 1.5286582 4.0263004
-0.68868423 -1.2597103 4.0309343
-2.4231453 17.676136 4.0319157
5.5254765 -0.45827982 4.0434089
6.8096762 0.20093411 4.0428648
-0.21503317 1.5837815 4.0492024
0.52727509 3.2537937 4.0446849
-4.0714092 15.183803 4.0445585
-1.4002097 15.411017 4.0402722
-1.8728081 1.6108127 4.0584903
-3.4518867 10.911778 4.0553846
5.5633507 14.337477 4.0528121
1.9914855 15.198584 4.0551076
4.606555 -1.0516931 4.0652561
6.3554287 1.636025 4.067153
-2.2931306 1.6407528 4.0687776
7.1120596 4.1791224 4.0639086
-2.1822312 0.40472645 4.0718927
-1.8502257 1.6513587 4.0724216
6.8624887 7.0852394 4.0784473
-2.2391236 8.7026148 4.0713682
1.404376 10.023647 4.0770617
-2.8453984 15.233311 4.0798912
5.3543549 17.622715 4.0713925
1.357219 -1.550766 4.0898066
0.52536917 -1.4537718 4.087851
3.66712 1.6851488 4.0840321
4.5990143 2.4071352 4.0827208
-2.8945796 14.36862 4.0847292
-3.6256638 14.877202 4.0869884
1.509989 21.260401 4.0878301
0.65091044 -1.4837615 4.0917821
5.5689292 -0.28400886 4.092813
7.2342005 1.5092961 4.0904317
2.9678819 1.7189107 4.0956316
-2.3119779 13.429621 4.0921898
7.0352325 19.92659 4.0975494
-0.50880659 1.7403431 4.1029963
0.50184035 15.262422 4.1006665
2.4109538 15.270662 4.1065474
-0.68632948 -1.0755666 4.1159153
5.9519653 0.084434621 4.1100655
-1.3996121 2.3673434 4.1187592
4.5993314 2.6424844 4.114419
0.42925358 3.0774553 4.113791
4.0407915 17.533066 4.115634
-4.1335726 18.404648 4.1164875
-3.9076118 19.437643 4.1162686
-3.8753829 1.1094202 4.1240802
2.5094333 1.7968731 4.1224194
-1.3997371 2.3218732 4.1233792
-3.5002182 11.890821 4.1215458
4.603878 14.52794 4.1298151
-1.4984256 21.065823 4.1293292
1.1985028 21.260403 4.1238928
-3.9171417 1.2091696 4.1337719
7.203176 1.8428589 4.1382198
-1.400088 2.1917965 4.1361876
1.8599126 3.0326233 4.131361
-0.50724339 9.8852921 4.139452
0.78496128 -1.3858509 4.1591816
2.7933242 -1.2749647 4.1579256
-0.11045322 -1.1538515 4.1503525
-0.96469492 -0.91501307 4.1568575
5.4952178 1.879596 4.1505637
3.8516631 1.8957965 4.1534648
3.5512657 2.9612072 4.1593485
3.8338053 2.9636059 4.1584086
5.6861801 2.9703362 4.1557708
6.343966 7.7480946 4.1506186
4.6010408 16.606018 4.1556334
4.5999451 17.182838 4.1506329
-2.3467917 1.9869399 4.169785
4.6001244 2.7606528 4.1669207
0.36755824 2.933032 4.1683459
-3.6759007 6.1913157 4.1642299
-1.6044338 13.494805 4.1608787
-3.5260408 2.8745141 4.1763954
3.0260253 2.8929415 4.1738605
5.7821975 7.6460891 4.1750393
5.6721106 20.540928 4.1769819
-1.7485445 20.945602 4.178216
0.20404796 -1.1712968 4.1812305
-4.0355659 2.0523307 4.1814938
4.523005 2.0549798 4.1819682
6.2785273 2.0617223 4.1831756
-3.5167816 2.0902808 4.1882896
-3.9343691 2.7928562 4.1876283
1.538756 2.8457778 4.1803484
5.2847619 2.8408682 4.1810241
4.74858 21.036251 4.1835775
-1.1513348 2.7058034 4.1996036
-2.872416 2.7304075 4.196219
4.9341993 2.749747 4.1935587
2.7138271 13.578093 4.1967483
-3.027251 14.416096 4.190793
2.066689 15.41251 4.1909332
0.13436717 21.191977 4.191318
6.4294043 2.1979721 4.2075729
-3.90065 2.2056165 4.2089415
-1.9473059 2.6598563 4.205924
-0.29713458 2.6533232 4.2068229
1.4374462 14.500023 4.2010198
4.2551422 -0.74325603 4.2122307
3.0197275 2.2878687 4.210712
-1.1117113 2.302098 4.2110076
-1.5752938 2.3281405 4.2115488
7.2169447 2.3409305 4.2118149
-2.3420191 2.4579327 4.2142467
6.6000891 2.4520807 4.2141247
6.6982689 2.4909539 4.2149329
-1.4243023 2.5863302 4.2160382
5.6086264 7.7057133 4.2150803
1.6549054 -0.95185548 4.2355814
-3.8283961 19.789091 4.2410221
5.4914188 -0.20215711 4.2526379
6.7601376 7.391252 4.2512236
6.8645744 15.546967 4.259068
5.6904125 -0.13979526 4.2698464
-3.5469332 0.61787659 4.2696576
3.7608161 -0.73579276 4.2707262
4.3416901 -0.51910883 4.2747784
6.8035345 6.6395054 4.2765708
3.134908 13.788209 4.2797952
-2.3129778 13.722904 4.2858644
-0.075688802 13.789735 4.2843456
4.5659719 -0.42236429 4.2917857
-2.8762746 7.876318 4.2990236
-3.4995878 8.7983913 4.2939649
-3.5042276 9.2354317 4.2947006
-0.99832439 -0.47273058 4.305326
-2.8004217 15.627973 4.3001165
-3.1814814 7.9870138 4.3104095
-3.501049 7.7673101 4.3210726
-2.2938721 10.936994 4.3294182
-3.5155618 15.701551 4.3258986
1.0947106 15.738567 4.3324742
4.4560623 -0.23820989 4.3466058
-3.4389079 7.9497433 4.3441396
6.1110144 14.465567 4.3486819
-1.3354617 21.069016 4.3540578
-3.5003471 11.266 4.3686075
6.4296951 15.894447 4.3601637
-4.032238 18.483578 4.3664351
4.6033573 3.2023647 4.3786488
4.5033855 -0.12893045 4.3881388
-1.4036701 3.0022018 4.3891659
6.8267879 5.8265486 4.3837547
-1.5151957 16.076511 4.3896923
-1.1501045 16.076546 4.3896942
2.4615445 16.795006 4.3850222
-3.7934637 19.793713 4.3866391
-2.1654849 -0.36485758 4.3970704
-4.0027838 2.5436096 4.3983951
-0.27858233 16.203773 4.3971419
-2.1731541 16.232628 4.3988309
6.7767057 16.231953 4.3987918
7.2400618 18.33433 4.3900146
-3.3927808 14.483659 4.4069529
5.5753121 16.421265 4.4098744
2.2229264 16.606546 4.4022346
2.6034505 -0.72029948 4.4163508
7.1026034 3.3186798 4.4134197
-3.4505489 7.7205281 4.4142022
-3.7290804 16.470158 4.4127359
3.4844024 9.8987827 4.4210835
0.050454497 -0.45342174 4.4324298
-1.1424593 1.8205041 4.4346132
0.29928115 -0.4947288 4.4473948
3.2817879 -0.33509147 4.448926
5.6422224 -0.20892295 4.4404325
-2.728924 20.01399 4.4405632
4.7326078 -0.014314139 4.4509859
2.679343 21.191942 4.4555769
-2.6674321 8.1507015 4.4727559
6.8556776 20.28364 4.4792118
-0.38901454 1.6278858 4.4833121
-0.36883062 2.0113633 4.4891462
6.9175701 4.5264664 4.4855061
-4.1575785 16.98885 4.4865685
-1.9525542 20.502056 4.4869494
0.041080266 -0.20183966 4.4940901
-0.54606134 0.071321018 4.496809
3.8803451 9.8655014 4.4979072
-3.4298761 11.069448 4.4923306
-3.9667876 18.390892 4.4925466
-0.96186316 2.2589784 4.5091629
-2.5357232 -0.023863673 4.5164289
-3.4251981 11.294628 4.5188704
5.0062413 20.879078 4.518795
2.6405826 -0.4102748 4.5253811
0.38970086 -0.25791651 4.5230727
3.6945181 1.6381905 4.5206008
-3.5879707 15.059465 4.5306716
-2.3239455 20.437218 4.5376725
3.8714812 0.36364752 4.5436449
-3.7653987 3.772711 4.5445137
-3.8383071 2.2627761 4.5504384
7.0402741 2.7391486 4.5504322
6.6106606 7.1664839 4.5502
4.9467516 14.480556 4.5505371
3.1866026 0.14216223 4.5618601
4.3767209 10.320234 4.5670581
-3.9559295 18.120718 4.5635638
-0.07480453 21.22168 4.5673532
-2.058794 0.035737589 4.5743122
-0.53130496 1.629439 4.5735836
-1.086948 13.886284 4.5724459
7.2569056 17.224464 4.5727706
-1.9920506 3.3817503 4.5866103
-2.3780646 12.04469 4.5882378
4.6100016 17.401348 4.5839958
6.9028807 3.984159 4.5993185
6.9019804 4.0406513 4.5923591
2.1357448 -0.32886308 4.6197166
-3.3266242 1.0380366 4.6186233
6.4496269 8.3000336 4.6116438
-3.8717346 15.299637 4.6161733
6.0674314 19.886368 4.6110311
4.247283 1.0695071 4.6360092
5.081203 13.608171 4.6315851
0.17538932 14.605347 4.6385341
3.3022106 21.248497 4.633307
2.3091054 -0.19915894 4.6422362
-3.9754157 17.611671 4.6456428
3.667201 0.88837117 4.6571679
4.7278109 1.472526 4.6564097
-3.502002 5.446372 4.6568656
4.9393301 0.43571025 4.6693091
0.083373129 0.67153567 4.6676879
-2.0094368 4.1063786 4.6607161
-3.4036779 6.4880357 4.6612186
-3.2834406 9.48312 4.6646171
6.7905455 14.634202 4.6666775
