# .PCD v0.7 - Point Cloud Data file format
VERSION 0.7
FIELDS x y z
SIZE 4 4 4
TYPE F F F
COUNT 1 1 1
WIDTH 1511
HEIGHT 1
VIEWPOINT 0 0 0 1 0 0 0
POINTS 1511
DATA ascii
-199.20535 58.726463 -59.681404
-385.4895 -116.88846 -16.206625
-313.00186 249.57298 -22.31241
-292.22253 -36.75246 13.825531
-197.37239 196.64787 30.537455
-298.49814 70.290451 -64.814445
-349.41974 166.88837 26.222748
-352.396 -119.28681 -42.738365
-227.6384 212.78766 -22.425926
-211.02417 -84.910973 1.3122039
-231.56586 335.24121 -51.224678
-204.89485 268.86014 -9.2248011
-220.29239 238.24565 40.84753
-211.84882 317.45248 19.796047
-178.28632 0.82527637 -1.4771146
-375.18198 336.72528 -38.561829
-252.94965 168.31491 58.568497
-322.69141 181.48695 -40.016243
-378.44781 95.484032 2.8773572
-208.77573 169.40808 30.119106
-238.44211 144.62109 -54.428352
-359.85205 14.549785 -59.6814
-322.75558 180.09109 -20.136194
-350.10272 -31.737341 11.416418
-289.965 11.022328 -42.562408
-325.75928 -138.24808 -9.8554258
-382.65387 179.11142 -40.646973
-239.80997 338.90106 -20.081314
-386.13696 -114.72768 -29.239136
-260.70618 252.00284 17.168438
-365.03796 81.326324 -32.765099
-197.3735 119.28258 -65.134743
-298.6228 139.67607 61.827938
-337.22821 177.61256 -57.475597
-231.87971 3.15904 -59.6814
-182.15456 117.81758 -57.608154
-184.4966 125.31277 9.0160074
-191.92413 16.510727 -1.1408905
-295.60889 38.894585 -61.996628
-308.41003 248.71208 -38.661613
-336.92419 126.17034 -65.007874
-213.77301 203.74304 -20.474449
-185.46957 137.59499 -7.1924415
-315.34479 16.129467 -59.681404
-330.76898 -118.37553 -19.455793
-344.17798 184.20534 -38.290443
-290.87683 294.19116 28.937069
-367.0455 15.277488 -25.612913
-373.9649 37.67749 -64.257111
-370.15625 186.76601 -55.358498
-374.01422 85.362617 -52.621319
-191.86276 272.76373 -22.773357
-181.50211 197.65909 -16.987768
-237.13353 148.82893 -51.191372
-379.11847 261.87656 -52.295898
-367.03513 42.486309 -40.221855
-256.76694 -92.092331 -38.968319
-205.14392 92.226837 60.277714
-356.89972 210.52048 42.517029
-312.42462 107.55727 -3.8176558
-380.82373 101.07468 -44.179909
-383.54459 173.87155 -20.293631
-187.1118 135.92693 0.26685131
-284.6731 -109.11726 -15.791601
-299.19858 339.30756 -15.475094
-379.40643 94.144798 -58.256737
-347.77722 -48.06015 0.82748556
-259.02545 19.558739 -66.262756
-375.34595 116.49374 -60.960773
-347.23224 -65.36351 -6.3179159
-337.54803 259.7478 -28.141197
-214.75555 350.21375 -28.386242
-237.36325 236.03905 41.80246
-361.58377 136.06387 0.0072889328
-259.33377 99.604599 -47.739368
-300.85471 27.190228 -64.143639
-263.79187 -65.462929 -51.514603
-361.74963 302.98529 -22.829025
-242.56746 -50.446327 -24.805902
-339.98398 -60.731163 -37.285629
-375.86328 229.54602 -58.027069
-191.87379 201.05162 -13.281781
-282.01797 -209.496 -29.933733
-250.33701 -145.87199 0.80117488
-253.80452 197.905 -5.6535187
-348.87811 185.42358 27.476151
-334.08896 -13.402127 -13.581593
-323.03314 280.34216 -44.384369
-196.31534 260.07013 -38.093742
-308.09052 -21.130199 -15.937191
-329.11484 35.200939 -65.067207
-308.80621 334.17511 -40.704853
-252.80411 181.57497 -59.640869
-329.35678 4.5665255 -59.6814
-280.56146 -171.7505 -1.23993
-266.37683 -58.918125 -31.75877
-270.63751 -152.80867 -39.889236
-317.12653 351.60257 -26.8377
-232.12288 287.45367 30.083389
-190.84094 -12.99887 -29.402916
-211.13116 -58.591972 -36.90435
-192.23062 -106.35744 -23.671562
-212.68625 182.06964 -0.7805903
-246.19028 342.89221 -22.156944
-275.93994 -64.391472 -63.282856
-220.12167 -6.2900763 17.14082
-230.65324 78.665955 -41.422512
-196.75722 218.34824 -17.247652
-264.80524 57.792374 -55.143768
-245.78407 -212.2048 -3.2570019
-310.14325 160.41995 60.169003
-326.53088 45.471176 -41.390221
-366.92273 293.96393 -2.5955558
-299.1456 -197.151 3.6170106
-366.81271 298.81262 -0.99127007
-287.13992 -10.229832 20.876316
-239.12146 212.006 -5.6512403
-382.17575 -37.191906 -5.9260006
-254.91147 325.20233 19.977325
-368.59152 34.496452 12.93099
-265.84949 124.10529 -55.984146
-358.02191 90.114868 -23.150446
-281.62805 200.164 -52.291698
-373.97513 79.393433 9.571064
-296.88403 162.42868 -65.541397
-196.3241 71.730057 -26.36404
-346.82727 149.79152 -11.222188
-189.27048 217.85727 -72.004501
-334.03867 103.39771 -59.681396
-361.06244 328.90915 -41.03619
-262.70767 192.80519 13.464808
-351.83044 68.792831 -65.180069
-186.84279 290.22107 18.79936
-201.28748 77.571396 58.889633
-181.32698 -58.12426 -61.873596
-283.37674 6.1217752 3.9357569
-340.6597 -191.42004 -2.342463
-285.07391 345.56506 -18.568945
-294.84451 143.70581 -59.380623
-191.93291 40.039284 -46.621983
-292.21747 -58.281677 -47.865715
-185.57434 59.49839 -52.560722
-213.20708 -62.33131 10.329714
-176.42789 -158.62941 -5.6490502
-206.57199 -87.708572 -47.74926
-376.02673 157.03181 -57.340706
-248.53853 -48.39164 -0.2251153
-224.91576 -134.30341 -57.175922
-351.83179 163.67131 40.361938
-317.901 106.09924 -11.494967
-213.78247 218.72812 -2.561518
-343.77576 225.74077 -49.936928
-281.90546 105.25115 -45.492912
-279.34283 -41.828957 -64.211601
-191.93044 33.670319 -45.292316
-296.83539 -176.4689 1.5220733
-195.57631 297.70221 -22.821745
-191.56136 92.135437 -65.210457
-300.66553 -57.982338 -50.642372
-322.31085 100.20538 -42.228302
-221.92767 277.86038 -22.475031
-343.3302 150.11893 59.561829
-373.82568 281.54855 -53.549065
-318.49588 159.85738 -55.442986
-380.948 81.153587 -11.909196
-214.09262 150.09709 -47.485607
-347.60687 346.70905 -23.936726
-177.57632 -13.553538 -2.3021603
-375.63321 136.01198 -8.2762032
-290.41629 132.44023 -49.571716
-369.97034 80.970879 -53.543987
-273.64844 -131.74036 0.306629
-323.75464 8.3231354 -65.019257
-380.94797 -20.438698 -41.423103
-191.40598 297.73807 -11.977149
-206.57201 -85.242058 -47.401245
-253.40477 -148.70262 -5.1153812
-291.32254 289.35712 30.210258
-188.98058 116.44988 -53.346336
-369.75049 213.42699 -17.156649
-297.8916 -76.64817 -18.782433
-203.07828 31.477083 51.152485
-291.49393 -58.820431 -55.873238
-201.82379 -129.01411 -78.61792
-200.16151 80.833435 -46.333805
-339.84045 112.31487 64.082214
-214.80983 -73.936775 -63.637184
-328.41562 290.45248 29.258255
-211.43393 148.04398 -1.2228184
-345.20889 209.24292 -45.225311
-317.78564 334.27713 -40.70224
-239.00894 -35.62104 13.07304
-225.63896 342.24091 -30.98753
-205.6246 271.85922 -4.3992767
-245.67726 35.998268 24.625868
-338.22501 283.06198 -50.209969
-243.91429 168.20786 -50.11676
-263.48749 195.04881 2.658247
-258.6777 339.81238 -8.3919353
-224.8896 -3.8785691 -7.6191745
-362.06354 20.361862 37.345787
-306.18448 -20.96092 15.036888
-224.11551 188.38878 -32.789749
-365.27396 33.411907 -56.356796
-314.97821 344.70761 6.1369381
-359.94699 85.713783 -50.516716
-309.27039 63.616451 -64.904007
-178.02 -4.7151642 -24.028336
-270.30557 142.08478 -37.808357
-365.39871 -48.014595 9.8710117
-367.04678 104.69347 9.1356945
-346.914 138.22374 -44.087624
-183.65973 108.51475 -61.06041
-220.91969 122.58122 -59.6814
-299.27765 -157.90137 -4.5198598
-313.95743 92.724831 -64.946571
-183.14566 231.79898 -17.042191
-258.31256 -17.866142 -66.594643
-233.42976 69.744057 -41.372257
-314.06073 218.09134 -48.161114
-356.70056 -93.791283 -52.427349
-295.55511 -73.107361 -49.362343
-181.00116 -94.189178 2.5372717
-246.50272 -48.607887 12.647638
-311.04242 1.1300793 -64.911865
-244.84625 12.493376 38.808594
-334.80276 94.027618 -8.6013327
-262.16583 -213.75949 -31.504974
-190.83896 -63.106102 -65.358109
-222.88197 88.435707 -38.155067
-276.11078 211.32118 48.640881
-180.35638 134.98715 -16.385984
-369.00156 36.987297 19.36305
-295.64636 135.84673 62.326069
-313.61362 214.75769 -22.419828
-286.30411 -165.92426 -4.6045599
-270.96704 -87.766556 12.464558
-225.6124 319.36768 -55.349243
-252.99814 185.18828 -54.412537
-268.98901 53.243744 -39.484188
-184.83606 78.16259 -54.003067
-275.65805 336.96994 -22.874403
-336.66074 149.05472 -61.381912
-292.36621 -122.66889 -67.452103
-267.80997 59.623817 -51.295952
-364.328 -107.09077 -58.814621
-192.01724 85.837364 -24.539999
-292.79309 177.85753 -29.780031
-367.11237 301.78354 -5.3834419
-352.396 -98.601204 -52.233643
-291.77576 297.69751 28.012676
-336.38348 -198.67648 -5.1441584
-285.79956 -11.451336 -51.221596
-233.96483 -18.65378 -59.482758
-334.77844 140.33669 62.34391
-178.021 143.65044 -35.965572
-193.64723 -28.366825 -19.90007
-186.20998 26.28392 10.549322
-170.593 216.9084 -83.964859
-210.79501 -75.588722 4.401628
-274.64182 -101.33843 -56.540154
-241.69199 19.411465 -44.70023
-212.35329 155.15915 -11.741389
-321.39587 97.538132 10.550282
-337.89001 -96.012741 10.95422
-336.65466 196.14832 9.8479557
-200.68864 250.99338 -49.01683
-310.63263 195.65717 6.5526991
-219.95277 263.42719 -51.441933
-274.59326 -17.200447 -46.035976
-251.83084 -1.3686954 -59.681396
-270.07706 -45.270699 -61.399944
-304.05981 248.96515 9.7932949
-276.04315 127.27572 66.02002
-365.95047 308.60049 16.872168
-178.021 -64.526253 -27.674717
-286.46954 -128.61948 -15.791601
-212.01672 148.8774 -9.4958458
-232.85193 30.388193 -0.71975577
-201.04272 86.989235 -50.506714
-196.51097 -174.46771 3.4302554
-249.49838 121.0251 63.509239
-367.74182 155.1613 17.928364
-379.78503 111.86534 -48.455696
-201.24896 -124.84952 -38.842926
-251.21367 317.6745 -22.729969
-236.19025 89.028801 -35.293606
-182.52597 -148.94165 2.875916
-356.1955 -117.80029 -36.679832
-212.30269 275.92273 -14.460243
-280.82452 180.57758 -39.552979
-202.47519 343.00586 -36.495758
-301.71558 30.287155 -59.6814
-314.70941 337.43909 -16.900608
-360.82373 -162.85245 5.0580702
-294.90747 -9.2117949 21.456652
-364.78741 92.578926 -65.197502
-380.94095 297.26697 -24.095608
-365.90018 234.89249 -89.875557
-337.86819 -56.106358 -52.161518
-288.29507 68.635132 -47.437046
-274.59204 -43.919014 -22.836535
-239.11954 198.62065 50.271755
-175.02992 -158.48372 -63.110298
-206.57201 -100.9279 -23.04904
-326.65985 4.4478865 -65.043182
-289.5553 -62.985748 -49.531597
-324.32504 -97.700302 11.303539
-182.06007 8.2740889 5.5230169
-197.13968 248.82611 -83.785614
-246.70911 250.6264 -38.168819
-336.00656 194.79556 -5.6540222
-315.82678 -54.142025 -17.536812
-319.4259 170.78206 57.329144
-291.24216 145.4521 63.853893
-261.60928 189.88992 11.710007
-306.67062 -165.5033 -27.424206
-222.35965 159.51215 -62.60891
-380.58624 -158.85825 -52.455837
-230.74263 335.81137 16.236221
-376.59784 216.92426 -50.501305
-284.12521 223.2027 45.80035
-214.63293 -168.5145 6.6265855
-261.98889 176.65123 -31.55209
-260.08826 -165.54089 -25.009968
-324.97919 342.89246 -22.156111
-171.91489 -138.01596 -35.717453
-292.06943 278.10474 23.233023
-238.82925 21.523001 -52.440376
-236.4424 74.659653 64.571632
-175.29852 82.934807 -4.4293232
-219.00699 -72.019341 11.322075
-183.02235 94.800552 -65.347023
-364.59143 331.44846 13.117859
-196.2966 -49.078457 -28.191032
-206.26266 108.2533 17.629459
-185.06488 -58.904984 -67.630699
-291.55969 89.142883 -50.712353
-344.23819 98.906418 -65.090767
-273.85022 -204.13591 -29.723511
-193.36275 164.90433 24.339207
-284.63528 -45.255501 -63.591759
-338.76035 270.53241 -4.3861923
-371.66644 199.22792 -81.412094
-222.36812 -173.12041 -16.288815
-246.25229 225.17685 -22.387568
-362.8316 -151.98715 -34.880581
-181.75067 -141.31607 -63.971252
-361.26044 -88.244766 -23.696135
-194.28271 247.5029 -84.936401
-194.53702 258.66852 -72.319069
-257.34872 23.678082 -64.835388
-374.07248 -12.772997 -48.931568
-264.69073 26.584143 -64.216309
-207.47688 -187.65097 -51.342762
-324.97345 282.76764 -47.754486
-264.42737 159.36325 60.944328
-285.49921 -118.32646 4.4849801
-380.948 27.112968 -22.353922
-256.70447 204.70819 -22.450943
-192.14061 315.08746 -2.237896
-357.95892 -7.7362185 17.729778
-307.35458 210.96829 -22.431561
-232.71413 -196.91609 2.4412761
-284.48709 224.03558 -22.391468
-226.57851 182.95709 -57.306049
-256.2052 98.356308 66.728249
-368.74658 -182.4856 1.0324991
-274.26758 -62.906715 -43.164921
-334.88287 192.18457 -57.013313
-176.69604 193.15268 -72.897308
-206.14037 -28.624931 11.706411
-192.82434 108.99002 -54.253643
-347.16989 -106.26367 9.3645039
-385.52563 -86.218338 -44.229473
-212.10039 -157.62373 -13.151045
-200.51575 -141.69629 -29.706984
-359.29135 135.40842 -5.5760069
-286.42984 -20.011669 16.075588
-262.39279 144.353 -57.03817
-186.20209 25.355965 -65.001289
-237.342 107.56487 -64.970276
-302.38776 -111.77791 -40.31955
-328.47687 -38.329712 -21.205864
-324.4043 88.295692 66.070038
-178.02 130.54567 -25.668816
-251.01382 220.44698 -46.197876
-317.70801 246.1196 0.26040649
-267.13803 122.77158 -53.376129
-286.14459 -119.1077 -67.452103
-287.38312 -53.126266 -14.145832
-191.91832 1.5244436 -20.865292
-329.78094 150.97198 59.925385
-297.75742 83.221306 -59.681404
-219.16637 258.9776 36.294632
-219.66327 300.77753 -43.448746
-383.21606 -192.10757 -32.952801
-350.75082 135.73473 -32.986172
-279.99365 68.775925 -58.137608
-314.00671 181.13623 -64.769646
-235.87833 -175.81194 7.5992208
-332.45709 152.2081 -61.385509
-178.021 330.02615 -10.490102
-301.9473 -102.1118 -49.457718
-258.99246 218.81462 -55.456001
-364.49237 -127.95811 -38.160992
-313.00168 298.00354 27.733374
-242.2975 339.42728 -15.715963
-252.35672 -149.64441 -23.609989
-377.22852 -155.88818 -26.004511
-199.10446 -194.16919 -36.000271
-254.13837 3.8837757 17.190983
-289.91727 267.05389 -35.898121
-256.94556 -165.99219 -4.1273389
-337.46204 341.60764 -33.048794
-371.306 225.15533 -53.624058
-178.021 -23.98951 -21.024124
-347.76758 -76.491821 -63.514046
-344.39478 183.60797 -37.39682
-200.08044 184.36816 39.54987
-323.32574 -2.7884955 25.088781
-211.68251 194.54741 49.611679
-386.66699 -126.90517 -86.487335
-323.12115 -137.68991 -20.72427
-362.87045 21.693653 29.722643
-251.08678 -108.3696 -9.2625017
-313.2399 -82.975006 4.3982882
-242.30885 110.17741 9.3678303
-281.01355 252.17065 17.658957
-367.02191 110.94728 -47.516487
-240.28529 6.8710246 11.7921
-321.75241 164.91698 57.10622
-303.45764 300.68182 27.237844
-213.77299 217.33795 -24.440678
-273.43063 -165.48923 -31.515652
-319.13519 343.17014 -25.584681
-231.94107 221.66557 -57.975758
-296.60727 345.90097 -23.830149
-307.91565 -107.25344 -29.4646
-223.20062 162.54681 -59.502094
-367.87982 -172.62038 3.2107801
-315.8848 -9.919817 -59.6814
-367.73923 159.84625 19.686411
-213.35109 171.29192 -19.986696
-330.28705 188.55807 -32.286102
-390.22699 193.74185 -42.280285
-346.89304 -63.003166 -64.3181
-303.61523 -56.018913 -59.351234
-312.94635 -21.486408 -64.813766
-361.69714 -132.44496 -40.44714
-180.83411 74.667664 3.4817839
-302.33212 -141.34497 -40.842278
-277.92023 293.71539 -22.625505
-229.29372 -177.88388 6.889811
-321.1731 -210.20619 -2.3061666
-265.37961 137.12868 -47.842834
-235.86162 -57.710117 12.133929
-262.30426 17.898458 -59.681404
-379.09668 22.271088 -58.891472
-247.17715 145.76845 -53.380703
-379.31061 261.61938 -23.954996
-171.466 -91.954575 -68.631042
-313.16129 -171.43523 -49.103569
-280.91351 -196.94705 -49.789925
-256.76752 -191.61378 -55.468857
-313.92807 274.63995 10.52474
-194.30508 -126.65298 -95.411751
-347.1716 -54.372574 -6.5910554
-175.52615 -79.701347 -39.144783
-295.37823 118.98433 63.954483
-367.79236 20.20816 15.183325
-311.17218 -86.136375 -9.840745
-237.04866 188.53853 -31.747353
-319.43396 96.71225 12.759417
-372.91757 143.90244 -64.645561
-357.56668 337.4928 -16.8384
-175.60352 202.41887 -51.097054
-328.9061 302.88812 -54.698662
-188.75604 298.48383 -43.644989
-316.37585 1.3526111 19.000061
-200.99818 -101.11681 -57.685528
-226.70123 190.28148 -60.166637
-376.57895 -139.46155 -44.86478
-305.77673 -120.2528 -31.151955
-305.08469 -75.811638 -62.803368
-363.5069 35.476456 -58.328911
-362.64969 69.236717 -26.58193
-275.37503 134.69304 -51.486877
-244.46555 -94.827057 -36.90168
-202.30858 137.29446 2.2940707
-279.07458 202.6288 -5.6712604
-190.819 24.876717 13.025947
-325.44397 334.59335 16.66217
-380.50021 -182.37634 -27.825863
-346.10284 90.612152 -23.814394
-245.07207 114.39173 63.836678
-279.85535 -171.34224 -50.884266
-218.8044 90.596634 64.927658
-344.49445 245.88522 20.850555
-302.20474 -151.92656 -43.382881
-299.74463 218.6347 -5.6763797
-243.06578 -201.85013 -35.136978
-359.81729 219.52353 -74.075981
-327.07187 -133.39073 8.3523874
-384.44818 202.57161 -16.870708
-304.32596 12.225378 21.216444
-181.01495 22.644857 -55.630013
-202.78419 34.690239 49.812675
-179.99219 293.78986 1.0238459
-257.87527 223.51105 -47.016899
-209.03998 101.57581 -65.112389
-359.11108 37.655224 47.355621
-179.23326 -174.00809 -38.021984
-345.12445 171.67831 -64.729988
-308.97723 3.3576512 31.318211
-352.57684 194.15251 48.954605
-181.89955 -29.291525 5.0837641
-358.7774 -185.6492 1.1314249
-197.08624 -125.82789 -21.078007
-180.95709 156.19852 -54.83744
-362.79947 2.1684036 26.034428
-356.07504 40.181751 -38.680916
-185.42896 -130.17108 -73.801781
-312.62549 -103.11711 -41.612041
-323.34845 256.43573 -24.539141
-278.20123 108.56934 -49.499134
-179.91678 223.15128 2.6737087
-360.49823 248.75551 -72.821266
-215.8542 -65.090935 -50.237595
-341.9447 175.31628 -33.666996
-192.14713 278.76917 0.72522926
-304.91278 -67.756027 12.487755
-246.9715 2.4313819 -0.51766586
-177.93622 113.64614 -2.4375889
-348.94031 184.13486 25.808815
-377.418 -19.970821 3.2425675
-295.03998 -152.74539 -37.663475
-346.4411 173.90213 -3.0286365
-380.948 -63.118526 -18.762882
-244.22163 275.62653 14.00421
-337.19193 225.72601 -58.911182
-257.6857 -145.91899 0.1410014
-299.21109 -178.4986 7.8784871
-196.83466 270.84317 20.154945
-369.70654 -183.47562 -49.672165
-308.72641 1.119336 -2.202492
-312.1803 -30.340672 13.861948
-314.77112 251.9052 -39.227669
-300.21243 -142.59311 8.570879
-297.04037 237.0654 -22.351158
-335.66949 178.52707 -60.462158
-254.68317 271.14685 -22.401245
-217.54083 28.708029 -59.681396
-268.98901 50.239315 -46.450363
-259.08279 96.439552 -29.909073
-345.20676 204.63814 -42.591557
-177.54916 256.60025 -75.571381
-257.40292 -76.728569 -40.276367
-183.8374 336.99841 10.371149
-345.20007 229.9614 -31.11829
-373.01968 122.52833 -53.615261
-342.04401 -172.97794 -53.942539
-380.98932 29.43894 -6.9765701
-386.66699 -151.31909 -46.335732
-347.43701 -51.684196 -3.3432035
-201.2319 -94.429657 8.5170231
-308.07239 230.69186 -22.370626
-303.62207 156.40283 -51.559898
-221.72809 262.27826 -50.025627
-373.19165 -130.96962 -39.446777
-263.48044 -30.085348 -18.651285
-316.52655 107.73125 -64.946312
-206.57201 -149.9769 -37.53215
-186.00938 127.40208 -65.172913
-260.44836 -172.07536 -36.618572
-341.50623 159.60609 -56.248432
-282.64594 345.18988 6.1331072
-205.9003 159.87459 48.507668
-283.05908 70.449394 -53.584045
-179.76826 -22.468681 -5.9350357
-355.7182 -156.66127 -25.259583
-244.48683 -114.44112 -48.902107
-262.80338 -154.49985 7.5519571
-339.43756 110.12969 9.117733
-347.87756 96.887314 -41.063087
-271.9079 -150.61674 -15.791601
-236.89967 -193.67786 -49.813568
-191.95447 126.61003 -40.120132
-360.84146 256.29623 -66.868683
-213.32538 14.752735 -65.203484
-249.55234 295.14169 -43.903305
-284.23083 -67.398651 13.009314
-277.87668 27.119085 -59.438644
-231.13712 196.60423 -5.6537294
-197.77315 200.71088 28.100939
-217.6512 -40.8466 8.4730282
-377.60895 -53.40699 3.8164988
-343.76776 -131.28996 -57.45512
-326.95566 90.771873 -59.681404
-293.91287 19.226753 -57.996197
-365.86938 253.02043 -78.244614
-333.44531 237.1321 -54.563572
-178.021 -161.35466 -13.966022
-289.965 42.795986 -43.166946
-213.70328 175.01709 -25.03956
-202.5918 -192.47118 -9.9500637
-347.38406 293.54944 -44.039803
-320.66602 -99.754402 11.353786
-372.80331 93.935471 -64.914017
-225.77127 -37.48317 12.411866
-170.59302 196.94487 -42.46389
-238.24471 227.04552 43.759792
-247.64951 271.54178 -0.40005207
-223.17949 -43.939667 11.959493
-281.80276 196.22433 -46.624599
-210.50739 -50.369797 -56.863605
-192.75276 198.63011 23.89167
-379.57053 -128.80373 -93.439095
-371.64984 -155.04358 -73.516617
-241.44923 78.306534 64.855682
-170.59299 196.46751 -63.108467
-312.74573 -93.356873 -25.676065
-289.56122 59.69722 -48.702503
-196.94888 -68.059814 8.7830706
-289.10977 214.38275 -22.421127
-360.01135 200.39842 -52.910233
-191.62714 269.36841 -15.42872
-191.91695 -2.4918575 8.7453365
-178.83305 349.73843 -15.409925
-352.396 -84.63134 -43.347534
-268.827 12.200968 39.879196
-264.8685 270.34805 -39.474625
-343.14441 303.63126 24.357563
-323.35941 228.51364 -22.377235
-191.04292 43.578571 -53.498623
-273.9556 -6.9421635 -9.969471
-361.97388 153.88472 35.533989
-230.05545 71.819664 -65.068268
-213.45218 226.01276 43.244682
-361.74429 -61.45591 -64.491188
-335.23376 81.914993 65.45359
-263.67047 42.415459 -66.553757
-197.57491 25.565304 37.693569
-355.55234 68.999077 -59.6814
-290.20139 36.920769 -50.650639
-353.20111 -69.193169 9.734725
-237.33083 -120.93517 -7.306211
-339.45483 -90.471497 11.015518
-237.52786 -182.77924 6.0822401
-182.39111 44.149689 -64.053757
-374.62436 -54.002201 -62.983963
-357.7149 311.94156 -22.824165
-340.25464 -23.548012 -64.997978
-359.09927 -37.658226 -64.848396
-315.78979 96.480423 6.0890932
-337.50537 279.43243 31.449158
-185.09625 274.50888 -49.384933
-336.5412 165.65155 -62.415985
-336.17859 257.13275 30.596762
-178.9501 234.57318 -75.542786
-346.73032 302.80127 23.992069
-260.83826 349.33289 -24.72279
-347.13541 164.71887 4.0122871
-367.67426 -183.08025 0.57877725
-308.87759 103.16467 -26.788778
-193.34731 -159.96585 4.4803991
-253.61032 222.51715 45.552292
-366.42743 326.37299 1.9576075
-283.1084 -19.748545 -53.863899
-366.16666 193.22488 -32.395424
-346.66971 -149 0.34419572
-178.02 3.6973789 -23.647602
-268.98901 25.185345 -45.820797
-279.33917 -172.76036 -40.144558
-287.94983 -130.83696 4.4849801
-338.39246 18.355192 41.668316
-370.32333 220.51155 -42.251873
-201.63684 -192.69832 -0.82459539
-198.43329 34.01833 46.484497
-175.11722 -145.30952 -18.402565
-252.18747 -172.77159 -40.813221
-339.12811 285.34909 -51.983604
-174.18683 234.99734 -32.63958
-257.978 -172.53973 -27.550091
-203.43288 130.30713 59.878254
-312.54599 1.2387811 -2.0225241
-367.745 -117.51501 -48.983017
-343.7738 -50.353329 -6.8028221
-208.13481 303.0184 -43.269115
-180.0515 248.08771 -59.716721
-178.5988 294.87192 -4.5827446
-203.29893 274.1825 -40.666771
-214.15154 -46.204136 -64.542152
-226.3649 96.272675 14.43867
-296.3551 -73.397789 12.589892
-243.4082 -144.34172 -23.132761
-212.73225 -84.725533 -18.885607
-324.59085 287.57883 -44.52235
-259.31094 136.54576 -45.31118
-293.40268 -158.48822 10.364242
-291.022 -10.153533 -62.389603
-375.65036 -47.376633 -60.84193
-237.91417 -133.8316 -16.283106
-201.34979 -95.136398 -71.386986
-273.95261 -193.84012 -26.643785
-340.69055 127.09948 -59.647926
-332.21405 265.26666 -52.658916
-357.30823 50.696045 -65.237984
-279.89117 -11.201706 -66.592499
-278.37311 -85.2416 0.23602928
-295.50116 4.8720412 2.4435489
-380.948 265.18298 -9.0204363
-274.38007 260.81845 -29.122082
-312.31287 329.08347 18.592861
-301.77585 -114.60063 -52.937786
-170.593 229.61855 -85.654739
-363.50101 -107.15295 -49.67115
-346.07401 -163.31908 -7.4541569
-343.30939 296.46515 26.271696
-371.31567 -68.28289 9.8577652
-355.37344 -155.41072 6.387475
-277.75409 105.15558 -47.913315
-353.76013 107.23041 16.464312
-181.24084 153.74863 -55.522247
-371.5184 220.20839 -48.447403
-281.51791 86.461281 -45.388672
-187.09756 127.6375 -67.105652
-184.24477 -60.71767 -62.812706
-185.73637 -21.089146 -24.916779
-251.74715 254.80916 -22.724331
-361.18121 199.78041 -78.814835
-239.27414 208.7081 -35.833611
-339.60733 -101.88186 -13.726835
-191.46594 44.035587 -51.99398
-267.23044 -116.0211 4.4849801
-227.55565 -61.891266 -40.633148
-236.55402 -107.93115 -14.415716
-178.02 98.850853 -17.406542
-224.92766 105.74109 23.794724
-278.97781 -85.74662 -56.249157
-200.52261 91.039299 -40.3246
-195.0452 -22.976322 12.170478
-319.39548 145.09106 -41.939472
-223.3754 170.60791 -60.709293
-264.16425 62.419678 -60.0979
-176.26312 88.741936 -41.230965
-221.77124 221.61768 -54.098061
-365.6004 -26.801296 -41.694981
-223.95277 58.053493 65.349121
-275.01312 9.5044661 -38.185482
-225.24857 258.0809 -26.344955
-341.77509 311.04968 -22.68936
-341.68817 -34.271309 -19.998367
-284.53677 -35.071178 14.185257
-356.44696 35.524422 -55.322212
-326.89999 -200.8232 -33.973186
-272.28976 267.14648 35.873219
-373.37024 236.87845 18.826664
-319.10278 -99.772324 -22.087032
-329.60919 -48.154976 0.066102982
-260.77151 173.01051 -37.289082
-279.4043 -202.44716 -41.349892
-187.05661 65.215393 -52.41597
-186.36368 -176.81676 -53.376209
-295.26544 61.002899 -67.076004
-307.10904 -146.5076 -10.753119
-196.38567 -202.95773 -4.4713788
-278.20563 64.458328 -51.171181
-261.58057 258.93423 -27.073017
-199.09058 -127.62727 -39.784321
-307.36066 214.22003 -22.421494
-359.45337 148.47821 39.50531
-286.39551 3.5942249 0.76042342
-224.7612 136.38115 61.626247
-178.02 129.9747 -13.438272
-219.22183 -174.03522 1.5470808
-373.93134 -11.331521 8.8837318
-261.93982 -16.392708 -66.659485
-358.21304 342.62558 -6.896853
-367.01715 108.75745 -32.592445
-311.84732 135.8588 62.107193
-341.73138 42.480431 -41.190506
-261.57834 124.70449 -59.6814
-334.51117 283.46539 -50.154457
-200.31894 220.30806 -23.510342
-253.24931 98.827026 20.366234
-179.89888 7.8964844 -57.737156
-219.80777 157.55026 -58.112064
-380.948 -141.23177 -12.538254
-333.4278 140.56104 -58.651039
-191.17868 131.83249 15.054408
-355.59015 274.87079 1.9995728
-208.543 180.06958 -33.75272
-228.71246 165.51518 56.307938
-323.57422 -125.07911 -23.231636
-266.98779 284.73517 29.4053
-273.0376 -113.601 -0.90252137
-319.16223 178.78848 -24.859447
-324.86145 117.55058 -64.967361
-257.31955 -150.79712 -50.60294
-301.82101 99.85347 -44.061668
-201.21198 167.38348 47.914474
-183.68355 2.1815977 7.4625192
-196.21915 -157.43634 5.0845852
-224.11063 -146.7831 2.4997072
-352.396 -89.245415 -26.45126
-183.89944 -11.577869 -59.590187
-292.48645 -152.17603 -17.622938
-195.31123 144.42679 24.526112
-224.05304 108.30724 64.809021
-197.04443 201.39462 -82.70047
-201.82635 -100.77563 -49.501358
-224.37317 199.55676 49.221882
-272.67474 -112.65208 -15.7916
-177.91107 193.42094 -16.051815
-283.29691 47.738365 -55.601677
-186.44347 64.658432 -65.568512
-293.05811 97.087822 -61.410179
-313.49921 5.5488987 9.0897169
-329.59775 4.0463781 -59.681404
-192.72751 327.80524 -17.008564
-202.21301 109.59496 -65.129669
-319.93665 -148.37448 -17.452312
-375.36438 12.186403 -58.896973
-367.0134 124.56858 -28.884958
-253.39462 27.323498 -39.983135
-268.79922 -67.266937 -60.393513
-292.49072 33.972004 58.272003
-316.55652 -173.1817 -15.055764
-287.69324 -49.870831 -4.3017421
-178.02 5.1703482 -26.238087
-292.92072 114.64609 -66.204781
-226.65924 179.02708 -23.986622
-245.28043 -26.822689 14.144382
-327.78439 195.17996 3.5149536
-247.11456 -40.411938 -44.481556
-297.5217 -46.83255 -58.339649
-212.5029 289.95514 -22.541834
-335.40216 248.63937 10.769114
-183.50366 -106.49091 5.1678348
-271.89709 -124.9948 -8.5414553
-254.3864 92.316544 -38.326225
-363.95404 339.62604 -10.056365
-203.45343 127.22636 -65.092255
-313.97626 -137.62688 -40.728336
-194.06503 -113.84485 -76.520905
-333.09567 100.36423 -41.400749
-302.10367 141.90894 61.535156
-298.4827 249.27377 10.780602
-348.82327 99.888397 -42.380669
-304.81555 149.39877 -51.080883
-253.61838 253.88498 22.206535
-194.90416 32.595528 24.188461
-372.52808 331.37982 15.23569
-183.24908 -147.74171 -31.849276
-380.948 249.63333 -9.656106
-275.51828 96.544998 -54.279457
-255.48271 -30.922951 -64.576202
-336.90833 -97.387131 10.955833
-193.11996 56.763748 -55.27198
-383.92355 145.1299 -6.3966007
-225.29227 160.33559 -51.292427
-370.96954 55.9188 -52.323895
-281.79449 292.12039 -22.616327
-299.5119 319.73468 -41.883606
-264.6254 -73.740929 -51.904198
-349.35635 107.39909 63.04261
-228.37166 -0.54275715 18.617464
-203.87343 279.17996 13.054073
-316.78 318.19342 -42.02113
-243.07005 -147.19159 -0.59360284
-302.1662 350.84192 -27.676121
-367.39438 319.86902 -10.44765
-263.1384 -43.577316 -58.392159
-178.021 -83.484299 -12.626595
-250.53755 37.731472 -39.687222
-231.43262 9.789155 35.448235
-382.11023 114.69888 -42.714844
-192.86913 326.68817 -17.653461
-234.57687 319.5564 -41.914188
-291.4632 -14.802589 -14.042072
-284.85114 275.39908 -44.995647
-209.05002 338.11063 -6.2011046
-253.5945 81.678856 -38.153042
-251.20396 -70.370468 -63.34985
-192.71986 144.95752 18.780338
-374.38687 118.61906 -54.735664
-364.35889 186.90016 -47.62635
-302.92822 246.80898 1.9337091
-342.45233 -186.6075 -1.737957
-353.11932 305.84778 -43.039413
-380.948 311.73602 -10.23786
-178.021 -45.790573 -41.126541
-332.08643 203.74174 -59.056335
-343.21945 224.82921 -52.137535
-261.11505 204.31398 -5.652483
-301.95978 -54.766876 -19.062666
-376.96478 -72.945366 -46.567764
-356.08975 58.547508 58.977249
-170.59302 237.32675 -81.979675
-251.12494 -79.554955 -61.584263
-185.49153 256.53262 -15.820521
-284.58182 -76.674164 -51.082649
-219.19078 100.67378 -39.788109
-284.24991 -172.03969 -37.266037
-345.34042 -175.50206 -54.03566
-359.83014 223.79803 30.275221
-371.05212 31.571102 12.194763
-338.00824 78.468399 -59.681396
-326.46133 -43.379162 -58.480667
-355.05826 141.03259 -65.11615
-332.35379 -61.513451 -39.517151
-303.61761 -33.065117 -58.898277
-339.06854 224.48337 -57.223495
-267.45691 9.3106642 37.358318
-225.67638 80.376701 65.551079
-178.021 295.54208 -20.623871
-331.80615 84.246849 -59.681396
-215.86641 222.19029 44.44553
-312.30722 237.24942 -43.452892
-229.68552 -118.33686 -58.839218
-336.27075 145.80701 -60.554958
-191.95135 109.58585 -15.876803
-180.63091 276.32098 4.5667663
-178.02966 340.28717 -24.166916
-206.25014 105.7915 -13.00456
-332.68121 314.83887 -22.728222
-191.91306 -11.913996 -36.78833
-214.20004 294.6868 -22.574883
-327.91489 7.3533678 20.222116
-239.18974 92.419006 -16.354952
-372.07886 -126.76781 7.3627801
-208.45477 175.07028 46.999119
-345.20154 196.08122 -34.957703
-293.49951 -64.667801 -50.613953
-209.81723 173.15045 28.517612
-310.84201 255.61487 37.940605
-235.50433 3.3059678 -5.6844349
-223.79828 99.888397 -43.358353
-307.85825 240.22559 -45.117599
-365.29688 224.78387 -15.598273
-250.22549 161.22687 60.039318
-302.59497 -127.617 -35.408669
-373.44339 94.04129 -52.565594
-191.38879 83.927094 -65.22599
-222.79761 -114.05473 10.496574
-188.80109 207.51169 -21.15556
-217.8073 -119.71873 4.1999574
-226.7224 -49.197338 -3.0378594
-337.32257 219.2328 44.899944
-258.68558 267.40707 -14.926442
-243.92485 -192.70186 3.9466157
-339.04852 198.68816 -59.730988
-308.12408 197.30594 -60.393654
-181.09149 221.226 -33.861229
-249.95169 59.379364 -41.073208
-276.61014 59.382568 66.940262
-315.28857 -50.470863 -24.813393
-191.94452 122.30069 -51.111214
-310.13193 198.2029 50.972912
-230.12877 27.545738 -65.064041
-342.30023 -98.937943 -37.440193
-337.7467 74.673676 63.921684
-290.1629 35.711639 61.718868
-189.32339 213.09492 -39.207348
-234.97041 117.9375 64.979645
-251.41628 -192.78867 -21.358824
-346.65369 164.85728 -4.8450098
-203.97229 7.9141159 18.63306
-289.40799 -57.102249 -33.85675
-195.69353 -9.4656954 -65.348602
-315.89487 23.633121 -38.786392
-264.48209 -186.71208 -1.6328301
-283.66318 196.57289 -5.6541934
-285.32645 130.04895 65.791824
-286.68689 -105.774 -0.91620308
-185.06848 -0.63079071 9.0132189
-328.27069 341.57306 -19.706861
-349.4567 4.7568736 12.828211
-349.91339 343.12997 -5.8947263
-289.96503 -28.021955 -44.566326
-233.32011 -80.865303 11.611103
-226.67082 172.94124 -62.186913
-298.46222 -96.13372 2.733011
-378.07599 -13.355476 -60.98307
-320.1048 5.1557837 2.9406672
-180.19203 -33.65694 -52.115051
-313.3024 -63.973251 -46.73856
-336.07346 -172.87987 -20.974855
-277.80051 274.61121 34.039806
-354.50333 -89.651932 -22.827961
-224.14886 98.563148 -59.6814
-319.98117 180.59364 -40.875332
-178.02 78.599541 -32.943932
-313.76688 269.39542 -47.650055
-257.61313 -202.91183 -3.1425979
-380.38354 225.86804 -51.07571
-294.92194 62.205688 -56.99218
-290.55298 172.13855 -48.134262
-211.06364 -118.41122 8.9260912
-201.90984 172.06963 50.543182
-373.62338 218.76321 -65.469101
-242.0809 -54.962078 -53.097176
-177.06738 -98.966499 -66.213577
-339.06995 110.81044 12.493322
-326.1106 156.69527 -51.235409
-214.00974 158.80309 57.404381
-267.97662 -188.72614 -1.7913847
-181.657 -129.76181 -94.978676
-300.44934 85.369736 -54.494804
-238.60721 -171.73167 -43.333237
-369.42538 -153.35271 -76.144203
-362.62469 80.36322 -27.38026
-331.35178 259.41821 -27.758858
-194.20145 -0.24302673 21.473015
-201.6225 -136.87111 -77.268394
-252.18878 155.45294 -42.20834
-372.89816 -48.575798 -64.691208
-194.04976 -5.7308626 9.0346022
-341.50369 39.401318 60.157532
-183.6059 70.978691 -61.006798
-299.89984 5.2765121 8.5743923
-259.97723 30.805897 55.275322
-222.48534 -166.03099 8.203517
-234.81161 -6.6668386 -9.6596565
-248.41765 100.38961 66.419441
-352.396 -93.856796 -50.509689
-195.32961 -119.87398 -96.086182
-317.55176 271.06262 -48.904999
-201.80026 100.90266 -37.517067
-345.03137 169.60168 -33.302544
-336.15637 217.36974 -53.620461
-331.61908 206.83081 -58.210892
-372.52994 221.65756 -60.521885
-325.30032 90.525383 -65.017914
-271.75439 -108.89999 -15.791601
-210.68747 195.68089 27.065435
-360.52499 -157.8029 5.4230757
-189.04189 6.5863957 -52.229721
-380.948 100.05929 -20.411671
-270.10349 -153.0802 -49.44672
-316.90765 65.508972 66.1689
-335.89963 145.80701 -56.93396
-278.2901 173.72981 57.102028
-250.14853 303.8801 26.321453
-179.47278 205.97466 -14.312132
-181.3757 220.20084 -9.8730917
-225.57381 283.02853 -22.51634
-357.43631 87.119507 -53.303101
-213.03568 -63.192764 -21.600395
-178.81482 348.20648 -18.003246
-193.30344 -24.834187 -47.526623
-254.56581 -198.66354 -44.958359
-274.74872 -171.75307 -42.868874
-263.02277 112.26852 -59.512787
-324.49377 -58.259087 -29.849184
-191.91895 3.416708 -30.249924
-282.33197 298.38321 27.848032
-332.64282 246.63948 -56.770058
-282.95752 -152.65173 -34.365486
-184.23528 31.819229 -55.222076
-293.23651 260.03613 37.209396
-288.04565 6.800653 12.325146
-214.09933 172.02959 -56.04361
-217.49387 225.37189 -5.6490817
-238.82904 208.47888 -22.439266
-187.39459 232.30608 -53.478874
-201.37469 -99.034821 -39.825485
-273.93781 -58.14127 5.9589977
-240.75323 97.326302 10.12333
-248.2908 -192.91068 -2.2162952
-380.948 12.425041 -40.132366
-362.68915 51.680351 -26.675724
-359.41806 197.20538 32.43911
-343.241 -191.34445 -48.483791
-357.81552 -69.327965 -49.491718
-314.25601 201.25253 -32.415127
-283.81772 103.16492 -45.995049
-306.07996 191.59538 -62.424198
-224.34998 259.77798 -50.374454
-363.49011 75.567879 -58.336994
-250.2218 286.52805 29.224487
-384.90921 245.75334 -63.165962
-283.83908 121.30388 -48.749519
-263.30304 -152.87012 -42.053337
-214.45686 -10.914646 16.276138
-213.41992 -66.726181 -26.289537
-215.58076 188.5201 10.585636
-220.37512 141.57201 -59.273788
-309.60803 270.13849 -39.209808
-343.71716 29.381496 50.125534
-316.3421 213.81155 47.035229
-233.29425 23.511929 -59.6814
-191.2309 210.58997 -19.752068
-376.32437 -3.1009903 -64.572502
-363.81305 313.49994 9.8585644
-336.18756 338.76215 -4.3648653
-250.02066 -71.558769 -59.942524
-379.38428 -20.640184 -38.051674
-332.37534 255.9568 -50.90757
-292.46545 164.48759 59.882767
-221.68857 47.155098 -14.437799
-334.51318 340.02542 -7.9069066
-264.50998 101.8887 -60.263214
-261.20676 315.49374 -42.230415
-347.18707 164.27869 -42.437042
-380.99097 -84.681328 -31.248257
-293.78821 68.44899 -54.236462
-291.63358 -123.93221 -15.791599
-350.6098 94.76384 7.2957516
-257.16736 301.26147 -43.400646
-302.17877 -107.11238 11.25762
-187.33678 -6.1211853 -53.946014
-196.32559 -98.701225 7.6575909
-360.99338 300.67871 13.376631
-374.12442 -62.438004 -61.810211
-372.08881 -157.52377 -46.652199
-366.72015 -9.4763317 -65.377487
-261.67316 181.58136 -55.888451
-238.87932 -194.60736 -9.3169479
-211.98358 -140.92276 -9.1760025
-186.77271 81.67453 -66.342216
-185.89255 269.08185 18.150101
-349.91013 273.84329 -39.992882
-178.021 -173.11682 -9.9774542
-267.02658 150.48715 -63.633247
-358.1752 181.6203 39.091854
-180.18913 -11.035115 2.0897179
-222.59503 16.907917 40.634449
-288.10425 51.196945 -47.232933
-205.41641 -85.794121 -25.375463
-205.78293 101.57185 -59.681396
-324.14508 99.888397 -58.260567
-351.65695 5.6088581 19.546391
-380.948 -67.9104 -11.196177
-213.18829 185.20857 -8.10007
-181.9838 115.44423 -63.219269
-197.16098 -32.888577 11.155949
-374.49057 11.553017 -60.949883
-191.95355 122.44182 -40.909515
-186.33641 262.76428 -61.307507
-173.51309 -149.26607 -83.450356
-183.5636 141.4265 7.9475002
-345.72797 172.69409 -17.041483
-352.396 -129.92505 -25.275951
-380.948 4.1908932 -17.981401
-378.35556 225.61305 -73.086716
-294.21909 119.38937 -55.323082
-198.86798 -83.373901 -57.556671
-242.96729 -131.7587 8.8941307
-278.05157 277.71317 -45.319191
-320.65381 -147.13974 -18.282438
-226.38846 -126.79935 -16.170746
-301.98505 -57.821434 -64.183006
-352.396 -164.14026 -42.902565
-373.75671 20.096691 -52.595982
-288.47354 181.5947 55.451534
-322.11926 30.017906 -38.32756
-186.43591 263.29141 -55.571259
-259.13385 10.117939 19.129498
-196.22513 337.84735 11.258441
-299.06494 279.80344 32.674461
-207.48859 10.76882 33.881466
-352.92984 62.156933 -38.803158
-177.37636 246.97206 -44.181591
-235.58823 -14.451777 17.228052
-293.88553 141.05249 -41.385761
-353.42725 246.93304 36.647194
-268.9137 238.80962 41.974911
-170.70737 196.96581 -60.529892
-335.06604 227.02455 -55.455544
-252.91139 -173.68008 -5.2764759
-187.43622 85.106361 -65.242226
-264.81238 103.39421 64.957237
-200.246 109.44664 59.481483
-190.60092 -13.013324 -34.885963
-380.948 -155.05765 -8.6920319
-277.10526 30.071518 -48.120853
-299.04578 -151.3765 -15.847957
-354.0065 217.54655 -49.476311
-364.37378 201.05913 24.55665
-189.52658 295.44339 -43.890724
-237.69113 147.48839 62.300842
-200.63564 174.7802 40.18652
-290.55859 -1.9357615 -22.495514
-319.03079 136.80891 63.822865
-203.70255 -196.72792 -1.6280887
-329.96884 248.15683 38.929764
-342.68384 215.69865 -5.6506443
-369.12921 -190.959 -8.3840532
-289.50092 336.10471 -11.790961
-250.59866 203.36166 -54.40966
-362.3923 -103.85153 7.5251608
-369.03976 -140.61862 -14.870987
-268.98901 44.829735 -43.786472
-265.13156 97.467056 -57.740597
-201.04872 -93.755447 -39.238548
-191.92235 11.73704 0.17708641
-286.85779 -48.4986 -59.178589
-369.1308 351.66086 -25.092281
-359.47491 -184.16875 -52.568386
-365.10867 -138.46559 -65.95137
-265.49918 62.483597 -64.69249
-191.91722 -1.2154398 -26.295782
-360.9819 226.45197 -33.792202
-218.53102 240.42551 40.510468
-201.09164 -112.29999 -89.927895
-211.026 219.14684 -8.170639
-315.27814 -133.41446 -24.204746
-376.74594 -140.78223 -66.910049
-372.83017 109.52201 11.156208
-312.39801 -88.080696 -48.110466
-288.10278 -76.667084 -42.460644
-306.29205 185.72586 0.24098653
-244.8356 170.92805 -52.136887
-188.06859 -189.2303 -0.61477196
-341.56818 -99.581329 -60.79425
-211.52333 -137.68282 -56.949982
-370.57175 27.610147 -65.340988
-259.04675 -77.7136 -15.678232
-178.50107 -34.070122 -1.1091933
-272.01123 289.7937 30.103243
-171.10678 198.08528 -48.753773
-385.01947 256.59824 -21.196053
-218.79649 41.09594 61.124107
-267.1987 -55.21003 -31.148384
-307.77472 203.43414 -54.201145
-232.14835 251.98935 17.99007
-358.79736 283.46234 -44.861847
-320.13974 213.42386 -46.124992
-227.25058 333.56546 -22.849827
-326.1572 224.1926 -22.390614
-208.17255 -106.05135 9.1629314
-207.86543 173.70549 -52.693172
-277.24152 157.74199 61.763592
-314.76706 -109.28459 -24.616879
-307.32117 300.70255 27.195332
-363.12427 84.387894 -65.204491
-360.65927 257.69266 -51.880196
-273.18387 198.53471 -5.6552391
-294.68384 -152.8389 -40.954338
-192.86462 35.369308 24.075741
-274.21997 -61.356674 -44.287235
-289.03088 -153.89008 2.8406696
-266.20276 -206.67139 -27.785366
-208.22359 60.983639 63.333908
-343.21472 -198.28638 -7.5861397
-239.64368 -34.156269 -19.927401
-246.60028 10.241008 36.994263
-367.745 -114.11034 -62.606667
-373.29965 97.819298 -53.782169
-204.04941 190.71432 -20.64946
-380.33356 146.90729 -1.1432438
-310.23361 -50.901482 -7.7183437
-220.42305 -148.9064 2.0278053
-305.94955 238.88123 -44.181114
-350.58054 -181.774 3.3719168
-276.20917 129.97528 -45.708794
-290.49893 -165.6497 -7.7409544
-184.651 120.89619 -53.468132
-361.01654 231.13417 -8.3240051
-367.56323 -6.6554518 15.95984
-361.51556 318.24213 10.842343
-287.65616 269.06168 -9.0788002
-280.64926 80.985474 -50.650208
-211.13107 137.30244 -46.780537
-340.4657 -132.6425 4.1507297
-195.39194 247.14299 21.903158
-335.92462 118.62199 -59.681404
-220.77835 85.709961 -59.6814
-266.121 -171.43245 -49.144848
-212.94362 -80.476006 -21.213572
-273.39093 159.6801 -36.896027
-381.17529 249.41168 -15.951828
-283.84814 3.7817612 -48.716053
-203.77289 12.396392 20.791016
-332.6575 248.02914 -56.581123
-232.10913 -146.68011 7.1463346
-320.80182 211.83795 -41.701267
-382.02701 333.18625 -19.130299
-177.79616 -54.752468 -6.3196025
-309.31952 344.03656 -33.254944
-283.05481 -60.153011 -44.94648
-179.22034 214.88062 -0.056897402
-181.91475 310.66544 8.5106182
-242.22333 302.22699 -43.326881
-226.15965 -127.69939 -19.6017
-369.38062 -12.269773 12.270756
-184.36406 -48.143864 -60.682007
-184.81688 228.3287 -48.334206
-286.10367 -131.4381 -15.16533
-332.50671 -123.24851 2.8320982
-274.73978 306.4458 -22.698753
-327.15381 97.767761 10.466797
-343.25076 -144.96594 -47.322273
-313.90607 -172.35355 -31.21368
-264.30798 34.499321 -60.114544
-311.77328 112.1356 64.032478
-214.28247 204.76959 47.853058
-334.91461 108.27448 -0.14542639
-251.49149 93.611023 0.55577588
-245.45908 -13.157832 19.221264
-321.30057 25.342337 49.22963
-233.11671 -210.01489 -4.7226496
-238.11293 -56.869102 -2.6262121
-307.05167 53.890705 -59.681404
-181.92938 -16.358654 -63.107746
-314.9993 286.1402 30.772924
-323.75195 -50.71843 -7.5037794
-367.888 229.32013 -40.885994
-191.94186 67.454475 -48.526947
-367.034 45.499817 -47.779999
-282.61136 180.17119 -48.398006
-313.86786 158.56828 -51.15889
-297.15121 27.890511 -60.212528
-316.86316 -151.40921 7.0588903
-299.435 -56.467957 -62.587845
-245.86674 261.55273 -29.943268
-189.515 221.62741 -59.401096
-271.34183 165.78511 59.763786
-179.67928 -20.537424 -24.769184
-341.74701 189.12691 48.357151
-200.28642 257.27747 -57.54081
-263.94824 -114.25766 -58.327183
-342.92105 22.768785 -38.884205
-244.10605 135.0502 -50.650585
-244.19975 40.817844 -64.947556
-258.57584 -77.138657 -56.099747
-345.01111 334.66754 -43.738457
-293.23816 -34.578232 -20.009361
-261.27646 222.42874 -40.403908
-272.06525 -116.12038 -7.0480199
-191.94586 83.605644 -47.020771
-248.47684 -117.81639 -27.225254
-383.73358 -90.725288 -34.644543
-255.09938 102.79992 18.3909
-313.37448 51.448463 65.621002
-234.30901 -138.04584 -19.690945
-328.63553 143.3466 -56.000137
-346.48285 325.92368 17.568556
-312.12567 255.62677 26.703896
-211.88136 166.72728 50.860847
-312.85687 195.96136 8.5398617
-203.56906 -22.610271 -59.322369
-310.85992 -47.31229 -58.320625
-351.29724 -176.14925 -54.161804
-179.98834 351.04431 -20.903179
-233.63066 283.31766 -44.869865
-243.21268 257.54901 -39.459717
-356.61713 -147.63068 -53.322742
-274.25629 165.04196 -48.625206
-370.56012 223.90628 -91.342163
-256.04681 -126.40553 9.8189144
-231.47482 167.04295 -42.508797
-265.68771 143.4547 64.027496
-178.28819 15.215855 -43.365105
-245.9003 -26.276966 -17.486225
-363.26611 214.05551 -36.630081
-206.57199 -83.80246 -59.113693
-334.27762 277.29797 -47.93013
-201.44283 -122.33879 -30.821075
-214.92407 7.8687878 -0.45772478
-255.83778 78.253838 -59.681404
-362.21173 26.276691 42.734627
-251.16887 -123.2525 -29.344076
-324.52008 147.23898 60.627846
-302.95715 5.3095045 -64.844551
-183.46967 154.41286 -58.580181
-204.42892 97.238335 16.675388
-213.94157 108.80548 62.013977
-373.04095 25.449234 -67.630699
-213.76306 208.72885 -36.72401
-171.01654 197.96965 -48.048973
-377.35095 213.69135 10.801181
-210.79237 -172.11896 0.64798748
-348.03815 200.70572 31.689316
-203.57986 -198.34186 -36.892303
-372.08673 73.492081 -67.630699
-226.5921 351.69073 -26.75712
-256.77368 -121.60071 -38.449066
-383.91748 188.77248 -41.18
-342.59134 43.141136 -41.179489
-335.83044 285.83496 26.84556
-208.17781 47.165878 -40.473736
-315.73483 198.23083 -5.6534662
-286.91013 257.03281 30.76388
-237.02582 -43.437572 8.276247
-366.22751 189.30403 -67.491814
-268.77094 -165.59193 -18.994621
-375.69736 34.932392 20.875467
-298.01389 -22.523146 15.119856
-202.36505 92.11808 0.53540748
-178.021 -64.389748 -9.8610458
-334.83618 -167.0406 8.1812792
-380.948 12.497383 -9.9940128
-229.25847 -60.656219 -9.3576899
-253.24097 178.94276 -29.073929
-180.32669 169.96341 4.9455509
-379.64648 211.44872 -69.447456
-187.36148 110.14761 -53.543663
-296.52814 -33.047729 -61.829941
-380.948 49.995285 -29.405602
-208.91525 26.464758 -57.753838
-336.55518 143.59082 60.797832
-199.37189 172.2406 35.646793
-215.13501 234.98111 -22.357208
-180.26149 101.05759 -59.690609
-198.9964 -186.60072 -49.607391
-241.84781 224.72424 -47.476871
-249.13316 304.18964 -43.165569
-369.95227 218.41138 -16.37582
-346.36371 -158.09912 -16.250519
-224.24545 -9.007844 18.828102
-380.948 114.79697 -30.379124
-257.01135 -144.35298 -43.48328
-297.65308 63.076805 -59.6814
-199.43645 -58.569893 -49.839325
-183.89227 -23.423695 -62.059731
-228.54225 195.32968 -24.931643
-179.57721 2.3100405 -49.508842
-239.57281 -62.978138 12.152083
-268.64645 3.3707705 -26.947723
-340.41315 94.680969 -3.591639
-210.33281 186.39822 34.09922
-259.04669 -15.504482 -59.610424
-191.95367 116.6364 -29.671291
-189.73209 236.91776 -61.483223
-389.71967 250.63634 -43.485744
-342.10931 50.917953 61.835144
-343.89609 99.888397 -39.136761
-279.59085 -34.013847 -64.211601
-376.48831 145.67622 -58.344734
-311.06601 36.808289 -64.916061
-267.15555 -82.960953 12.495117
-366.61166 230.7195 -8.2753696
-263.4313 44.821388 -61.784691
-213.73822 -72.796967 -30.301151
-237.70569 49.324116 -41.294865
-291.90494 -45.3965 8.8504915
-279.00726 131.82004 -55.908783
-377.37711 0.94739532 -57.338013
-281.67645 52.327969 64.782318
-308.94714 -195.8887 -6.9067659
-196.49814 241.76033 -9.6482391
-339.26508 -82.843552 11.158476
-277.61533 -20.770559 -54.63644
-331.79153 -62.648613 11.763046
-258.40076 248.31845 -22.316452
-170.593 195.79996 -59.950085
-327.11365 221.82935 44.678303
-367.04291 22.445181 -46.355713
-351.23383 122.60194 -65.080696
-193.15117 -85.482666 -25.795879
-298.10999 297.58493 -22.618082
-353.35724 85.8013 -29.920055
-331.34406 -170.401 -11.522449
-206.21008 81.757851 -65.161102
-354.31464 -2.5140142 -59.6814
-291.20856 248.84662 -22.31496
-236.6691 79.63932 66.141655
-225.48181 219.68024 -46.515537
-367.02655 92.285995 -51.684029
-229.08856 15.460882 2.0770533
-370.31442 -131.2137 -20.053717
-193.20747 184.44412 -26.583353
-363.1218 195.12277 26.816456
-371.57846 -199.58572 -5.8603058
-357.20822 100.52892 -38.589172
-380.948 125.75931 -18.543787
-278.10583 113.55677 -42.103577
-332.69092 -91.422363 11.189036
-182.94322 117.91898 -57.343094
-357.91705 -88.150345 -42.036518
-205.01105 -193.56596 -21.117836
-282.38327 342.52203 -31.870621
-212.40422 166.01823 -5.7701406
-383.34689 -106.75149 -4.2673473
-203.50784 144.60158 22.206253
-292.31372 212.57126 -5.6743207
-221.49866 132.91815 -65.001953
-341.99866 345.27869 -31.695133
-180.66342 128.13684 -60.514091
-282.75452 259.29297 37.687035
-195.8205 -8.6848049 15.803053
-338.28976 105.60368 23.786932
-212.51201 -88.893333 -16.449648
-266.07904 340.06961 -16.892618
-349.27713 -90.237503 9.6317835
-334.78925 -104.56303 -48.419334
-344.37549 170.08653 -59.95108
-310.93781 136.03954 -62.582542
-296.25848 173.78708 56.401569
-367.02866 61.645592 -14.838453
-308.58951 -2.0828133 26.67861
-297.79153 342.52197 -37.791561
-173.46837 234.76694 -13.424902
-201.93553 -102.28761 -66.602249
-317.04794 128.14415 -64.912079
-339.30579 179.35442 -28.811668
-354.36581 328.18991 12.267103
-378.56879 130.66187 -38.335068
-239.5041 286.05167 30.664904
-346.18228 260.57642 -19.305805
-348.00256 -67.612518 2.703352
-181.35223 203.87976 9.7297306
-305.77774 -209.30234 -36.16077
-264.34564 -53.015465 13.095066
-178.021 343.23315 -13.42065
-318.82413 -208.7312 -30.189281
-331.63901 135.38318 63.24538
-344.83365 64.062424 -41.143303
