# .PCD v0.7 - Point Cloud Data file format
VERSION 0.7
FIELDS x y z
SIZE 4 4 4
TYPE F F F
COUNT 1 1 1
WIDTH 1559
HEIGHT 1
VIEWPOINT 0 0 0 1 0 0 0
POINTS 1559
DATA ascii
770.58832 -587.83209 918.47229
-597.58167 -595.40479 954.33252
-1800.5875 -562.43713 1026.9542
-1663.4254 417.12912 319.22443
-222.93961 112.70528 513.41437
-1869.5522 -520.65259 1066.3734
929.20972 -791.49121 877.59686
-2480.3047 127.68855 423.92645
-1155.7992 -750.17029 949.19653
-534.2757 -781.73444 664.81317
416.51535 -77.696381 1194.7003
800.62628 -360.69995 285.00003
107.46466 365.93652 290.64813
-181.23755 -837.31866 852.63428
-105.93298 -763.56787 1014.9756
-565.72913 598.81171 1232.4922
-1002.2832 -746.65051 308.08755
-2181.4241 -574.93848 1016.1813
1008.3666 -729.24597 311.36908
-1299.7568 -829.53601 564.22046
-851.66809 -715.28058 256.25885
-2315.2112 602.09174 988.0882
785.31372 -759.00781 568.69019
-1467.9258 -116.3313 310.66678
-1065.5568 -639.13599 1334.8757
-1496.5969 -482.53192 1302.5239
-635.97357 -185.21214 907.75214
-22.903244 789.30725 572.9762
1366.5464 725.8219 661.95074
-153.64876 365.98544 1396.3379
-1004.282 671.60657 844.17694
-1167.1592 507.41278 297.50128
-268.96765 -409.77972 1416.2524
-2399.3457 -27.028517 917.51819
-1253.865 -780.02704 582.58447
-616.12543 -291.48309 1009.1896
509.93762 694.9021 680.052
-1534.651 765.78827 407.73468
-706.04968 -705.55591 1188.8936
-1697.7852 2.2795696 1226.3867
-1731.832 -153.4769 322.21881
220.54898 781.56854 744.42767
-601.07416 677.87036 812.01367
-0.62962341 511.53 290.76617
243.34891 700.33142 914.94019
-1303.9196 -737.92804 133.65218
1299.7457 -682.09277 194.63487
-922.66211 371.97943 1432.8695
1541.6874 692.77911 625.45624
335.8772 -137.47427 464.71375
351.40015 -129.85768 1231.0872
-150.26935 787.34937 523.65308
810.15076 47.647026 967.19446
293.16876 -143.46042 303.1629
-310.46106 697.00171 431.57599
-1990.4479 -708.72961 1020.9597
1826.0835 -184.36452 590.57104
-604.47021 -501.95898 1009.5085
1095.9065 -729.24597 301.95126
-343.95654 538.78705 1379.4067
1571.9127 -311.83264 822.7915
-1563.8507 -575.99457 990.3584
-816.79346 355.30594 1435.1416
-2231.2642 492.97641 1010.4969
-249.34174 -61.569988 428.33945
-228.01688 421.60114 411.68304
199.14314 775.81036 420.33362
428.13269 471.39233 302.64999
-913.89099 543.25555 1378.166
-602.08496 792.92749 699.66315
-909.53723 482.56311 291.75842
1928.146 119.56834 438.7149
798.3468 -540.58398 551.97858
-1057.8293 -184.41212 1449.0709
-675.09998 -577.41931 306.84363
-322.04474 -189.62344 618.06042
-37.684692 -30.307514 435.25601
-968.04858 -685.43835 307.95737
-388.39893 -436.12726 614.82233
-1393.317 723.40985 46.719097
295.76312 -811.89514 271.92755
-1465.7266 315.33157 758.90558
-1230.9617 -116.1087 300.2941
-1341.2809 382.37494 788.31964
-165.42549 -558.37683 1385.7205
772.95593 -756.95605 917.80414
281.03436 369.14786 1248.4512
1159.7217 -724.56848 406.90213
1470.1918 -771.9342 692.50708
-2294.4834 194.12128 347.92053
565.14862 -252.89456 926.25452
-1283.2482 729.79535 912.65906
641.77625 429.1889 290.06485
-1137.0466 -322.51181 1433.7202
-236.50497 545.5213 1367.5359
1192.7764 179.38934 902.48816
-197.18781 -384.95651 305.02676
780.26813 -519.13843 955.89453
1717.4646 -409.03156 720.00476
-272.23441 -818.46881 275.75949
-554.94788 12.78067 306.38626
-397.57422 420.84894 1417.2141
-1874.8087 779.57556 479.35535
983.43365 -540.58398 567.41687
774.63892 -669.27014 555.14484
78.867096 -581.16418 475.74774
931.91071 401.64978 285
1804.469 -273.25946 612.35699
330.22058 762.81482 362.41818
1839.6056 -195.50935 435.91348
-818.17279 305.62512 1436.9034
-1455.8488 -718.58398 247.39787
697.66016 379.12091 1009.748
-824.78931 267.50201 291.66589
379.85468 -980.27637 950.93445
1868.7819 439.93237 517.42297
-1398.4719 775.24139 855.75555
-1472.207 432.63135 1167.8328
414.52451 106.66534 290.31293
-1408.9685 -658.28461 1272.9685
552.67316 537.80505 917.18848
-1718.4261 735.83246 309.32495
-1587.0786 648.07703 319.68256
837.034 248.26871 285
521.21368 -555.29492 917.97089
-1708.317 -855.58447 373.82614
1204.8291 -435.46866 285
1939.2534 78.868484 519.18506
555.53949 316.28436 924.30951
470.14496 -157.43378 415.54877
-1324.6232 588.27948 750.32129
-1401.6289 -250.14464 1389.995
1539.5504 740.93933 511.04407
-2426.187 12.109849 672.08466
1631.2726 -488.99954 649.00098
790.26282 -540.58398 543.84729
-1263.8013 -212.05003 301.73163
-516.23029 -258.02951 942.67621
1644.5422 -547.73596 686.57202
-2151.9604 -162.49121 341.25494
40.540871 31.15823 1382.5122
-731.09827 794.00427 698.91467
900.44446 -704.32159 397.92804
433.54749 -301.66132 290.29218
1408.9526 -54.273769 285
303.07947 -855.63245 770.66144
-1396.817 481.29343 909.45862
316.51901 164.49609 821.32141
-706.83704 670.13159 923.89191
-350.20993 145.52641 549.16479
925.74487 459.41595 600.2179
-49.175911 44.478012 1403.4536
-2098.0356 38.210175 338.74048
1408.5477 -628.85254 326.78131
-452.58618 525.8078 291.25958
1528.45 745.87036 440.39706
-1276.5258 536.98523 634.67773
-2168.0962 670.48706 342.0419
-1846.2076 211.39723 1115.3983
-620.77454 -785.11139 641.38641
921.97064 -848.46033 748.08905
933.05585 -843.56049 378.32953
-1564.7767 99.762772 1303.918
-339.57043 -599.15747 693.24792
434.23447 142.46338 600.04688
-177.63359 -764.21454 316.93344
-231.15704 -292.13892 305.15576
1681.9534 492.19345 651.31079
-120.52487 -697.6676 290.89703
-1523.7688 -476.75497 1287.6869
455.76453 -572.61719 369.74908
-174.08896 690.28381 930.66846
-526.98059 579.35559 291.34079
1017.6335 593.38965 898.04926
-1792.8173 -135.79169 1163.7092
1941.1187 -196.90398 501.52423
-224.0013 -14.119999 305.12836
1344.3912 669.98254 254.52945
1319.5653 629.92279 834.16888
-2473.0698 -609.37622 467.66449
-638.36676 -244.80331 1443.9954
-488.97998 -551.18646 500.75684
327.64041 388.7897 290.40778
-1132.5319 88.454498 545.02441
462.46152 55.663628 462.11563
954.37909 -432.66818 285
-578.3634 166.17984 723.18201
12.890442 -483.95169 1358.0969
188.93431 -153.36676 1317.8186
-1229.3137 -438.30414 1412.6921
-428.53448 517.01239 798.75427
-1686.2987 -680.00427 1145.2444
-2011.6234 724.16614 334.71811
438.89841 63.355247 304.18179
-1650.0684 -101.59535 1032.842
473.64551 287.31085 302.47705
-2345.2771 751.12683 615.07831
-55.747879 16.289629 1401.9802
-1532.6919 158.38795 987.59656
-489.25439 795.31628 562.9895
-2423.1865 -141.45427 790.79028
-1902.2772 -776.86078 407.78058
-1861.8619 274.13538 1039.3171
1692.5596 -583.77936 658.10736
844.54382 -540.58398 326.04114
-1316.1328 684.47266 578.60413
-1495.3137 648.88464 1052.4012
1398.7937 541.64679 393.75815
352.54968 -769.31427 362.6918
-2394.3081 -627.68481 651.06494
-2028.3765 388.96707 338.69424
-2213.1929 400.207 271.78009
-601.07422 -446.14639 291.42166
1510.901 419.47711 285
-722.41919 -568.36316 1419.7198
-2384.3555 -409.40555 921.41351
-1227.7236 741.94629 867.34119
-1142.2712 -742.45044 262.90765
1856.9 -553.73407 495.72559
-1573.9373 -720.16052 457.08325
-2094.1411 582.23846 303.83716
-1358.6652 -731.67432 1135.3562
-1365.3792 565.25977 1299.913
1043.9255 -601.65344 675.54602
-1562.9556 266.24365 988.26782
1773.3732 116.21535 695.25409
-1687.3188 758.97803 882.40479
-1850.2773 -115.60677 327.40353
15.765624 521.98236 568.13116
-1231.9728 -877.38788 527.70319
-2489.4036 13.217591 376.22464
-628.98865 412.3053 1026.5247
-1479.1648 559.41602 636.15491
-1558.8723 346.61188 978.73157
-1590.4385 -710.87286 1144.3799
-1052.2281 470.31088 308.27606
-1261.3455 -214.37166 598.17889
-261.63666 354.42001 305.27136
-1874.1704 324.87082 328.4494
1052.7526 -810.55042 815.63116
1012.0359 690.72223 359.95276
-1423.3278 160.07881 967.28528
-855.81207 -587.87201 1411.677
-456.69937 -722.50989 306.01358
-2455.6143 247.48575 324.4978
1752.7076 149.15533 644.66089
873.55981 214.66138 285
-1213.0481 696.74951 1023.8244
-954.29407 210.7558 1446.3955
1922.7867 -220.33362 525.26904
-2112.4846 5.7894745 339.41422
-463.3186 549.45477 568.80725
1658.3945 717.94385 508.67871
2.7319801 -160.8958 338.36099
693.43176 712.69012 396.69687
-1433.436 606.63306 137.93364
-551.24878 -562.53351 652.17694
1210.6448 745.69489 722.33862
91.716217 -867.28979 581.97986
-1170.0146 -542.18317 535.284
-2411.3342 -35.964832 683.2923
-890.10999 699.72308 601.92426
712.52905 327.92377 285
-419.8974 -311.32214 1435.2434
1255.0012 151.92696 285
-338.6217 -239.58586 1434.3492
-1595.1425 789.89423 74.653328
-747.90588 372.073 1430.0366
894.0152 776.26349 712.98083
1891.4172 -341.71512 271.75061
437.54907 352.81631 598.06805
300.54681 384.24902 303.13489
-882.71753 32.970642 608.88184
15.363647 670.55493 852.9588
1028.465 -790.37988 2.3790374
-358.7916 -629.07605 627.01727
-147.8092 682.50055 314.09265
615.8877 -0.23823237 1080.9746
-717.29126 -816.32172 923.4032
-637.71124 -149.01364 291.46167
103.13313 -686.23938 1238.9425
-874.02722 -259.32941 1449.1404
-1567.14 -317.78226 998.04041
365.97354 -287.46393 682.0282
-801.70795 -750.38739 291.64069
-24.345394 -651.24414 1320.9879
1010.9613 648.07703 246.18787
-1894.9093 316.41861 329.35721
-2206.6182 762.18964 627.33588
-77.612556 685.18213 335.54688
-1892.0966 -0.0011702776 1099.5449
-0.57552385 -458.26819 411.68301
-1290.1509 -681.4989 273.76205
-82.522598 449.49011 1375.5596
-1619.3438 349.69931 1019.6595
-1848.7897 -353.27039 1106.1743
-832.7702 80.08432 1452.9043
-289.31754 -394.8363 1419.5812
-744.61285 296.84903 307.10693
-131.3204 405.2851 411.68301
60.111122 701.62152 916.38147
-2497.158 -185.65041 402.00385
358.16043 280.77966 949.68073
-424.75745 -761.49365 794.10602
-1987.8164 131.99866 333.60101
-1509.358 138.34448 1333.8379
-968.82233 -877.57819 591.74622
-529.31555 684.64111 763.61035
1257.1615 -684.4989 194.98322
-1546.6973 -729.24603 272.32196
287.45569 -780.40686 928.53119
857.5918 599.63995 506.43149
158.04387 313.08502 935.74121
249.52843 175.7029 1281.5424
-1482.5586 148.3329 1009.2377
-2340.4778 260.51581 350.08743
1102.8909 267.51294 913.08429
-2423.8716 -587.81677 321.3483
530.9223 161.89684 1125.0211
-371.1315 351.85175 532.65985
579.74542 211.85178 1094.848
-2443.8064 -670.04993 411.30331
681.85681 -385.22256 1026.7849
-416.41071 -12.425089 407.54565
-592.3667 -270.25299 1135.6267
-1345.7941 799.93085 719.15601
-1940.7729 -438.55634 1050.1909
-1189.1331 -785.4281 993.99152
-227.95068 413.78214 291.01434
-1193.0309 -722.29346 258.79309
-555.79626 -483.6012 1423.2054
-2403.1692 -754.77966 631.75659
1806.0298 82.365028 647.21399
-2116.0388 -525.34283 1027.3247
465.46729 -774.23999 695.8241
281.91953 -644.96252 1203.3315
-564.50049 -741.72363 306.4234
453.73822 693.61139 290.27011
-1660.3101 774.41602 462.96176
-1521.7391 111.00265 892.0083
-79.455292 676.10205 817.30603
1445.0984 344.1954 285
-821.74048 170.38742 1449.3721
432.65997 592.69373 615.84625
366.26358 -353.59088 683.02612
290.24023 784.82214 668.59399
442.33987 592.38397 290.28259
-1084.8942 388.96127 291.94983
1035.5852 -716.23975 1.4222872
-185.41701 -771.77979 265.25494
393.24432 610.2251 908.03918
-1636.1245 761.30432 360.16504
-278.4231 -160.43889 340.26242
-1437.0508 797.24927 763.33551
-1405.9189 77.471405 307.95255
955.95862 -858.43323 34.307625
-650.16846 319.15158 994.74146
355.61337 -783.23145 533.25275
1220.2751 789.94409 139.42215
-876.64142 -350.82172 1443.0012
-55.137955 692.44812 707.65192
371.25531 248.31685 917.79663
-972.94037 -178.85698 307.97537
1175.123 456.35968 285
-809.06995 4.8394461 1453.8132
358.85016 774.25702 767.00659
-973.74011 -350.68256 1438.9822
625.32452 699.47937 512.07416
-1650.2814 -640.58398 308.43234
371.77847 -580.39203 906.65515
1212.0728 -372.89304 893.9162
1284.9777 599.60016 169.72479
-1364.3412 789.84265 429.63528
1664.6094 568.61591 598.84766
1697.6741 499.61047 651.74976
372.67752 681.87195 743.37677
-2310.834 214.78879 1020.7704
1565.5337 370.73972 813.20825
-1078.693 -762.745 343.3172
1246.3896 595.99084 617.92706
-954.24353 674.44299 817.2641
1148.4135 -805.90619 789.09235
916.22284 604.78833 486.84006
-1508.2094 -71.681305 1343.0776
608.53125 -33.399136 929.79504
-1504.0753 801.349 748.47906
-785.39276 -601.39172 503.68591
-502.71124 -736.08752 291.31427
-105.02425 123.21928 304.67618
-1204.1702 -70.228394 299.1214
-804.13538 -280.41571 610.11725
-2261.821 734.01917 733.84631
156.56894 -30.347546 449.19086
-249.54048 413.29962 411.68301
-78.236969 -268.35785 304.57446
-2378.0244 610.09137 712.48682
337.37674 -771.54034 908.73773
-854.40765 795.42206 697.09857
-609.18079 -722.37622 1145.6265
1037.1984 789.82068 530.21948
-2499.0002 347.26276 598.89539
-2308.064 -789.81836 807.59204
-58.719604 -835.93298 849.62939
-2414.467 -388.55899 752.48651
-1753.8287 -867.09106 356.49014
193.21579 -582.27264 290.55453
-2030.0892 -159.00966 335.57217
678.89349 776.97369 456.11942
-530.8562 326.17886 1144.5457
-390.23285 -873.17365 689.15955
-773.62872 -861.9845 809.8374
-1571.6023 -826.85022 469.01996
-901.33893 413.34625 291.74948
1195.8044 -847.45386 381.4696
-999.21948 390.84265 579.36798
-135.34857 790.39307 683.31848
-1168.007 56.366081 1439.9536
-1305.5103 -288.46774 704.36694
-1490.4 637.41492 286.39642
441.71765 693.11182 991.151
-702.64526 429.37604 1423.3621
-1928.4939 -796.7478 937.50146
-1998.8381 223.72362 1052.6323
-2476.5095 -528.73096 452.14697
-1126.4645 670.79431 1080.8379
-1747.7424 113.03388 1036.4337
358.08463 -617.99756 290.37454
92.015068 181.7193 303.92737
-1674.3025 622.4082 329.98019
-1441.9719 -699.70685 701.66687
1124.3831 750.26782 441.91876
1604.1162 236.25107 812.44226
1460.072 763.867 463.9072
-1253.9512 575.26624 507.35413
-13.929413 129.91138 290.78067
-22.654495 702.07428 533.9765
1053.8811 775.01099 296.30118
-1010.1476 558.6449 308.116
-1235.5808 -629.05518 1346.745
-1724.4285 -770.05945 555.48914
-1454.6453 -31.606171 310.08545
-2351.2288 -412.19241 350.5863
930.94312 58.013149 285
447.17834 329.62479 335.8479
-547.25159 134.52097 982.6474
-658.0437 -612.19165 306.77887
-1765.3716 -160.58398 1051.4185
-2378.5325 237.64328 989.80383
369.85928 -522.42792 909.87073
-1573.9668 -304.14157 1013.9841
-117.29 107.36021 1409.7103
-1691.7968 -729.24591 314.69769
-1255.3491 749.76678 896.94397
355.64178 2.9767685 685.67896
121.6913 -121.94903 1248.5601
-1791.087 600.54333 189.09677
-511.67358 343.11868 1430.7159
474.07645 78.300865 454.94641
-65.204399 407.67029 1380.1064
-1449.968 559.41602 596.06531
796.62543 459.41595 460.03586
-211.30789 402.19516 1400.0385
1336.2655 -795.37146 395.59277
-487.39801 -342.22156 306.12988
1708.7147 98.450577 772.66895
-1986.0234 -320.84485 1052.8535
-615.20221 -78.956238 306.61542
-1495.6592 637.41498 226.50815
-240.33127 680.13831 305.1904
-1633.8171 -262.84149 1254.4718
-767.47852 -835.30774 882.38586
976.73596 -213.95853 937.00732
1369.9713 430.26053 854.29541
-1270.8859 770.46698 887.79626
-1475.4456 -871.1123 77.740311
-2297.3154 -793.68066 817.88989
-2097.9509 -40.057442 1050.7012
-1112.6068 682.82074 758.57495
-992.47229 793.32892 483.53156
-1099.9143 -770.12683 268.49881
-411.51099 -144.77333 379.6347
-2417.7141 48.485828 852.62146
-2076.7617 -204.95958 337.74847
481.62473 -107.16762 924.03821
1822.9385 -15.26638 285
877.86621 322.44449 921.30212
-1322.366 320.82806 744.89398
-956.00446 330.14563 590.3158
-2515.7124 133.60919 572.78497
-1340.7974 51.874908 787.26501
-268.85663 154.95874 1428.9601
-1883.5618 -866.64099 424.27051
1245.6899 -688.01019 349.50534
-659.23053 140.70404 964.58887
-1275.6263 559.41602 459.1684
-1411.0803 -46.653992 940.57056
-1312.3544 -832.10693 575.29688
-263.60193 -324.69662 1422.848
330.16791 783.79974 505.26147
-621.224 -760.50806 1043.3209
-308.20578 202.31256 411.68298
-659.93146 -781.52087 515.40088
1840.4126 -248.29916 570.70215
-1037.0342 664.86554 1093.3757
1095.1517 762.07129 725.39844
-442.20877 -768.17084 331.51605
862.01257 -865.58398 242.5842
-1787.926 542.33881 324.67422
752.54749 764.34546 265.92599
-1741.2209 -640.58398 606.9259
-1069.3835 270.6163 561.43439
-1787.614 768.31262 127.43715
-426.42584 378.93533 716.83575
-548.86096 -560.73047 1407.1724
438.09317 -751.15582 990.49414
-563.34485 -449.74677 999.7345
-1123.5776 18.406374 1448.0896
454.52631 -685.19336 1098.4584
91.93634 163.52525 303.92764
491.9274 -758.99957 290.22842
-13.211426 143.21872 290.77991
1062.5992 -372.58307 918.03729
-615.8551 765.08105 359.17282
-246.16933 757.71436 829.58551
1242.9764 695.0813 74.75853
-533.75128 203.99219 306.30548
566.88312 -565.32123 918.93903
-823.17993 691.99719 698.10938
-461.61618 -709.18439 1160.0171
152.35889 -564.76801 290.59915
-1051.9476 33.271545 565.96533
478.82779 409.49149 1133.3212
-1279.9741 652.55872 642.96906
631.42651 651.67859 256.86914
-1198.3611 343.45837 298.8671
-2436.1145 -657.19098 340.87164
439.59198 -63.607208 290.28558
640.22797 -417.33899 1048.7251
-992.54706 152.99919 1449.5581
-796.92975 368.73004 607.27032
795.63342 -365.64362 924.52545
-1429.998 -554.35596 1325.2996
-62.505325 329.30994 290.83371
-669.30054 -662.54694 291.49615
-644.93591 -218.81613 904.44086
-328.12964 -767.78229 335.97458
-684.31604 -368.10352 291.51254
-2504.0359 249.19724 479.46478
-867.59583 272.88074 1439.8081
-2190.7883 -353.5238 1030.7241
-1487.2883 -829.75568 456.44186
-890.55542 -7.1497803 606.89618
-586.11151 540.47668 1382.8997
945.27612 677.73132 19.2556
-419.72983 493.15533 291.22369
477.40106 -472.35266 464.30688
708.37073 -220.03072 285
-803.45178 797.08209 547.40027
564.00024 777.04053 731.09589
-552.38654 -468.02133 291.36853
-1263.6077 -845.4032 240.32425
-299.15259 789.88678 599.08179
607.58704 -579.55933 1043.6373
-1941.0686 -844.72913 339.06506
-1543.9678 232.1261 989.89526
946.18744 -385.35284 934.29169
-1274.2407 -261.71896 629.18378
-997.90137 451.97531 308.06955
-568.14691 217.91689 695.75452
-28.324005 -81.703766 290.79639
-781.06708 533.33508 1392.6277
-882.47656 -779.10864 556.88733
-1949.026 637.88629 331.79645
-1141.4191 770.15295 370.30222
170.33002 -767.90869 353.13843
1062.5018 -729.24597 315.46204
-1516.6414 -683.20209 551.56396
43.460808 -147.90881 515.26074
-1468.3699 -197.61887 1041.4854
-600.61444 32.362091 291.42114
-1520.0769 -710.20905 1164.4349
-2027.8582 -693.5603 1019.4879
-1355.6226 -136.86664 819.60266
-245.24373 780.01471 429.00507
-499.39334 725.21655 934.17181
201.80707 769.94464 792.24091
-1391.2144 -373.5603 897.23755
1776.2471 249.0916 592.66815
-362.76785 68.20742 651.03998
814.14197 -84.813416 926.78296
-379.39001 436.82672 305.71887
963.99139 -83.670319 940.56641
1478.2999 108.08133 285
173.48462 -274.46536 1319.595
-1408.895 65.01799 935.80371
-1500.4572 -605.58215 842.30487
-1512.6179 -100.58569 1055.8048
127.8644 297.46832 1331.3588
-1336.0248 271.53455 304.89307
403.59183 590.35461 657.06464
1966.1702 3.7223511 483.36499
-1485.9524 614.1228 807.64203
-1944.193 -9.9330406 1064.0931
-1232.3345 644.64728 1147.6196
690.99042 731.30573 303.45633
1814.5278 225.91969 594.92798
-1254.7065 -657.00214 1290.9341
651.7243 267.0036 290.05399
1256.0312 -540.58398 339.31305
-1039.0503 692.40454 682.34839
-640.26501 -779.2583 444.5163
1932.819 245.01364 511.51825
-1030.5563 -422.85822 308.19467
-1867.845 645.1156 1028.1102
-824.38086 413.35309 615.88422
1811.639 311.66064 431.7684
-491.79431 176.55647 878.745
1646.7528 109.94846 285
-1563.1453 -859.10645 111.25175
-2219.0439 739.72888 692.02405
1193.752 -690.62598 643.75586
1698.3257 643.74103 546.6676
1220.2404 -171.90634 900.83777
-1323.9028 -132.97589 748.58954
-916.0896 -184.54762 307.75928
-1831.0881 -809.57904 426.00943
725.99957 460.17578 486.12183
-1262.889 -730.44568 216.41031
-1129.8925 -134.2043 1447.1654
-557.33514 284.74393 666.99652
-204.26019 205.52652 411.68298
742.45184 191.13145 285
-263.14029 90.255981 1431.0245
-1876.4266 -839.60309 475.15024
-768.75488 -607.89734 307.19968
211.2054 -662.48578 1235.1616
-159.8143 -463.05829 304.88477
1038.7424 -724.30908 675.02625
763.63806 779.66882 678.65289
-1653.8297 -640.58398 622.89624
-789.90588 -695.95593 1212.7581
939.0506 -864.43903 560.0094
557.03638 -401.2298 302.1601
-242.80896 389.75488 411.68301
-590.83771 780.88086 431.27518
-628.3689 -340.2912 1155.9126
-1246.3661 -9.6148872 1433.1107
-554.68158 389.22092 660.73651
482.9751 296.45102 922.11536
854.36499 -544.26715 622.09241
-760.64948 -270.88721 1447.6818
-432.83551 440.09229 711.41345
1949.7781 -62.65683 503.93634
1887.708 -108.67177 538.77893
1153.3796 186.33693 908.78625
-2103.2468 670.88062 339.02225
-561.90515 -609.62451 680.64679
1691.1707 -503.13971 718.29651
-1509.3594 -306.18726 312.48047
-69.034599 -41.414551 304.5394
-202.1727 597.63269 1247.5227
1130.9683 753.37726 449.26926
-510.05701 -361.68802 910.21472
-1651.0514 167.68124 318.68277
-2050.6958 543.49359 336.55875
1230.3723 -2.6580811 285
1005.033 -507.83759 285
-2228.0205 378.86218 1019.9489
-367.14249 -287.62656 291.16629
-474.70193 145.19461 306.08112
-900.99579 673.78094 825.20959
364.45459 217.94066 744.20245
168.27733 -222.27209 1324.8008
-569.3374 -611.05035 728.39307
-637.90039 431.78583 885.25024
281.28104 -697.23291 1175.6355
-331.67999 -174.80058 602.02563
-1548.3291 139.08765 1113.9009
1672.1426 713.2085 497.49365
-477.36688 -515.2702 833.47345
141.86273 650.64594 303.73792
-414.05185 -441.65277 305.8512
324.78424 512.40088 303.04279
-556.77466 -850.57935 832.70068
879.40735 639.04413 636.9176
-1030.994 339.86118 1433.6681
-948.36047 -20.610046 592.25226
-950.00769 796.88806 672.59363
-419.10776 -111.41902 305.87006
-141.62885 790.91882 639.90936
-1974.2817 192.05325 1056.1
-1697.4651 -687.02368 58.189701
-1643.0129 -758.62207 655.01105
1205.856 734.32867 743.55701
-1557.0659 -496.97308 974.51245
716.43848 430.74951 922.21143
1175.2898 -562.89349 652.94977
427.30841 -821.01331 982.46216
-704.16974 -782.57617 965.98352
-1761.3484 -374.55984 1032.4716
-140.45319 222.03073 1410.1382
1362.8435 432.41766 285
-1261.8024 -715.17371 517.58063
-467.71298 -779.38855 437.94748
-480.19922 -783.6806 548.54907
468.17029 373.19836 561.98474
971.77258 -755.21497 254.38071
1022.2706 459.41595 651.49084
-1119.5706 -779.69611 608.64526
-2108.9067 531.07935 361.12683
-2441.4238 -438.27863 637.84717
1714.1406 655.01605 275.32306
1506.697 -138.08994 845.7442
589.70105 -737.16144 1007.0621
624.64026 200.13446 912.42145
-605.79944 429.75201 1131.8328
348.98288 674.46002 896.67657
1118.23 -97.731003 285
-802.82446 671.26129 936.07446
-1327.0032 -474.1377 756.04352
-1371.9385 -187.58914 1409.2728
-89.056709 -741.6261 1079.9456
202.5031 729.03296 891.44189
-2407.062 488.14453 361.66019
-1643.353 600.16956 566.14539
-822.73773 -106.90482 615.41614
1753.0547 660.91595 504.25455
400.65088 -44.200069 1204.2021
-651.25616 -181.35367 1446.4952
-394.90656 656.58105 1098.082
1410.5847 -552.34406 303.50119
-670.38196 -407.65747 1436.4985
-667.90686 761.82001 345.08231
-1078.5933 235.83237 1441.1346
-377.70538 61.862144 530.85828
-1117.1759 -34.545815 291.98511
1304.9154 650.62958 145.08797
-562.80945 -47.800716 353.15927
-341.76059 -481.46854 305.57642
-323.76984 -399.77487 495.0011
1120.2719 -639.85638 887.03589
-915.06641 -645.23926 1326.7305
1234.7874 459.41595 528.01251
1631.2522 483.97699 651.81189
1161.3191 -128.56038 911.10242
-2473.9568 -144.67358 328.71817
-196.16495 779.1676 425.00317
-1374.1086 523.96082 859.92554
-2153.9265 -588.30005 341.3764
-1465.64 188.18176 1354.7367
-131.69604 -361.44833 304.77777
-22.283424 18.557922 304.36172
-531.1272 694.41931 702.90924
166.94463 67.253174 394.99283
-550.1366 -340.45636 306.36835
-783.23303 8.1932373 586.63397
793.72937 783.47998 576.20557
-1495.3308 -655.521 830.24017
380.60852 784.16418 503.61099
-1417.9983 -649.40741 1286.8619
-673.12903 792.38757 723.1156
-1611.1071 -400.35681 1020.8928
-544.26318 271.29504 984.63098
-509.47183 -726.48083 1145.093
445.9368 690.67554 903.85962
-1375.5399 -504.27274 1365.3688
87.094414 -393.4238 515.21558
-651.0238 -513.10309 306.75204
291.99481 -359.0162 303.16736
357.05981 156.93153 688.56494
-810.69867 225.43082 307.35825
-131.33583 344.95636 304.77618
-338.87753 -587.01819 501.87024
-382.8446 700.38098 508.47476
606.29547 352.55615 917.55798
396.23355 51.901764 290.33292
-67.43544 -665.1698 1286.2428
-911.50037 -109.66492 601.59021
-818.16193 715.38269 291.65866
434.09866 -471.92322 606.81226
716.08264 -760.90802 468.35666
524.58899 23.033421 1132.8654
-710.36951 -472.49976 291.54099
-279.23767 -106.0021 1434.1368
-890.57227 378.79678 307.66165
-541.88257 -510.92007 1072.2501
-1475.1298 761.84949 594.25665
-1290.0671 170.2043 1419.0551
-2477.0271 113.60201 479.47852
-550.19629 481.58636 982.1922
1821.499 549.40674 504.33514
-995.39075 -18.332287 1453.7021
-863.81116 148.3035 613.67151
116.40157 -153.42795 368.13443
-952.58105 693.93372 490.62006
-146.18533 -575.37311 411.68298
1819.6868 412.87762 543.90161
1731.9808 -662.13641 362.80267
1121.2529 637.41498 437.07828
-608.24207 265.49695 803.73926
-1333.0905 496.47656 1372.579
-526.45056 218.83708 1099.6595
-1442.3339 99.233047 1008.7426
951.06946 -353.02328 285
-596.09729 605.45544 1248.3434
-1866.374 -859.75513 666.90039
-323.50787 1.3830948 1437.7614
-476.07852 -148.71495 516.39343
-1584.2698 -888.78851 706.76587
-1457.7966 560.27484 739.79797
548.44476 539.07922 290.16675
-1362.3291 -364.73257 306.04446
220.0347 683.13812 331.12433
-963.80847 -875.164 606.02856
985.81738 -718.58398 405.36951
-208.88794 672.43561 1048.7965
-1013.0206 -122.63107 575.8717
-611.85492 -776.94086 396.40112
-1714.1399 107.0972 1210.5165
-1029.5635 -263.77872 571.68085
-821.82214 690.39148 708.44904
425.53778 -277.45819 290.3009
405.83673 -413.7373 642.88715
-1463.0743 -773.30823 14.977979
485.57544 -270.16412 923.25879
1008.1802 687.81989 5.1047058
440.35242 -948.13782 1020.1152
-1653.8917 -464.95514 318.8071
-233.0972 -539.02661 305.16339
-2095.3528 69.844833 338.61536
-2418.1746 242.25426 732.61871
-1469.8632 -334.81097 1030.1412
424.45416 535.74902 914.37488
1105.6346 -725.25684 7.9904504
221.69283 -688.75104 1200.444
418.89606 -764.01782 770.159
-47.111786 565.61945 304.45612
-1953.1907 -464.67725 1047.3298
640.82892 -470.48108 290.06586
-2462.4165 -711.04199 538.03827
-209.64821 -434.84344 411.68301
-1341.5813 -189.9655 1411.5172
-1894.5868 -860.1665 770.70892
-1481.1477 -52.626709 1046.6621
-958.68195 153.80627 291.81207
867.38885 6.5947571 966.28235
146.75449 455.04175 290.60522
-506.94617 -563.02203 534.12299
319.88513 -49.563484 727.28668
-1812.3018 -876.32495 540.84576
-452.38837 680.38757 793.64648
-13.462469 664.65637 1065.4705
180.61879 -248.01151 1317.9539
-1068.0864 -218.29501 1444.3774
-2472.1934 195.78168 333.30121
-1937.4524 755.61633 859.80829
-2044.3619 -395.22235 1043.2664
162.69608 551.05518 1267.8226
-1048.2806 674.6803 1068.7366
1742.9988 437.09143 617.3147
-2514.3994 -231.14871 519.36835
556.90894 317.99722 290.1575
-541.47272 249.49503 1439.5212
571.6991 430.28995 921.58344
-435.38187 785.51746 775.28656
-1484.0812 807.09277 698.26514
460.36652 74.108505 412.27234
-889.08301 651.19507 1124.8663
914.94446 29.578245 938.84692
-1662.8019 -729.24597 220.35814
-1350.5027 -640.58398 331.42279
1811.2899 122.27534 374.7261
-2483.6687 -351.37524 430.32971
-565.33179 17.23616 306.42572
-1770.899 789.05682 442.39374
-1320.0908 -21.358854 1419.8678
-219.50905 -274.3027 411.68298
1074.0392 -718.58398 218.37915
879.85828 767.40271 325.92621
406.67984 -750.60107 1013.4719
93.461456 157.83115 1358.2883
-1632.9459 742.09033 159.73772
-2261.9492 -529.56793 1010.6484
1037.5669 704.35938 608.84399
467.88437 -757.72198 806.24713
391.88763 255.60345 677.617
-445.32892 -395.08685 305.97003
-1570.6415 -528.38574 1076.8663
-1595.329 -550.99335 1012.6912
-1977.8438 -739.77515 1007.4164
412.41324 -121.89163 628.0954
-1807.1877 622.37811 461.74689
-1963.2626 766.71545 354.76331
66.856781 -271.14502 290.69247
777.46545 78.522324 927.15588
-589.96381 739.37427 909.31042
-1529.6311 -228.59021 313.36783
1792.0891 -611.65283 295.03021
269.09146 86.217682 303.25439
-2284.3032 41.449551 1030.3981
-914.03754 -868.75403 454.75027
-123.02421 -205.99706 1412.9208
1007.1287 344.91022 285
-826.14423 -487.87851 1426.8027
-553.65485 -20.87833 1446.0912
-1061.2861 409.52206 291.92407
-1574.7548 310.4678 1016.5969
-933.82257 119.24278 291.78491
658.12115 -297.91022 1048.5137
-1376.3704 766.79932 895.75366
967.18341 -842.54248 356.51025
-1418.8379 -832.77234 207.32359
1840.1906 38.861206 570.78918
1619.2164 521.11572 710.89105
306.16089 -653.43311 1198.3065
-2130.6133 -840.64667 661.41089
-1843.001 559.41602 412.09625
133.75597 -251.37747 303.76871
-1455.9004 -420.43317 1108.3373
-1506.5166 461.27673 1055.7678
-888.42865 -603.67487 1398.5898
-173.62988 -480.31018 1395.4316
148.68985 122.53247 290.60315
666.33398 -29.508797 931.32227
-514.4834 -148.10913 659.76331
-1110.0005 669.59991 871.06915
-1508.3145 648.07703 399.02798
1149.6456 -814.69318 20.345673
266.13107 -357.28995 303.26566
-626.03723 -409.78351 1432.3752
-413.95233 -165.17149 448.884
827.12537 -690.41888 601.07568
-612.66418 782.73389 793.9541
467.1189 -555.58374 568.5412
-2354.5356 -24.745451 1023.814
-886.40503 546.89081 291.73318
104.13322 -23.197783 1359.4908
-908.75525 -400.39584 291.75757
79.540405 -504.88907 477.02905
-200.98026 -541.51593 290.98489
-1958.1525 -493.80069 1044.8966
-469.14618 311.64581 803.43665
-608.14343 -876.95361 554.61603
-2402.0225 -165.39128 899.60559
-346.98294 -820.14282 900.15381
1030.7485 -174.54112 285
-122.60605 -189.5145 290.89932
760.56848 424.37891 921.43323
-1333.6692 -752.51532 968.14294
-419.73279 275.50214 427.52917
-681.2182 -654.83051 306.86697
-351.16339 559.0401 1340.3834
841.87866 602.84949 612.48352
1324.2766 58.238251 285
-2390.3579 735.9071 565.51025
-556.30157 64.828857 291.3728
-2226.6436 -767.60382 344.75989
1279.8308 -323.65076 285
1768.5952 -713.79108 442.09735
-991.40369 426.07532 1423.0701
-2301.1462 137.17683 348.22269
1316.949 52.919662 285
1785.8712 -308.10535 285
1389.6167 326.99463 858.33643
1284.5321 -586.34186 864.21405
-1268.9526 653.6925 202.04353
-846.81458 143.6745 1447.8304
-987.37891 -424.38779 1435.027
608.48682 -762.46503 770.39642
-548.40637 209.89133 291.36417
105.21583 -48.773727 303.8772
-1341.3325 -424.20737 1391.5842
24.423485 -237.34247 1376.8441
-1428.7124 99.303864 308.95029
1164.6853 -729.24597 374.33414
-732.33826 556.28577 1347.004
-442.0224 -321.26956 1435.7261
-2121.4346 -786.2085 308.35864
-826.88007 619.40778 291.66818
-73.79174 693.84167 290.84604
-751.45972 -571.20905 291.58585
1872.4458 -200.91957 436.96304
-1209.0906 -763.50317 1033.917
-448.15436 175.07745 291.25473
124.34836 660.33105 1073.5066
80.222626 655.20081 1091.2563
-838.54041 -765.01062 343.66718
775.57397 -71.38031 988.34155
-1196.6471 -779.76721 588.30249
-626.12469 -429.07111 852.52686
-2411.0632 -113.57054 876.81091
1480.2915 -330.6806 285
1026.375 -712.53711 606.01135
1269.9852 497.11877 601.46674
998.94067 -845.93188 230.1767
-244.05623 -165.8208 318.77698
199.65875 -458.60712 303.51831
1094.939 -574.19617 669.66101
-1495.9902 559.3775 311.89523
-2372.5723 -666.58618 823.72211
391.01193 255.39932 949.1582
-508.73938 125.65967 1445.5642
-1551.6489 39.295807 1053.3374
-481.36584 555.20654 291.29099
-1392.9255 -672.12463 1254.092
-1550.2814 516.77557 1053.8713
-870.41394 -91.02977 291.7157
-2176.4099 -527.15802 342.4209
-547.97229 -851.43835 829.73889
1174.3439 -715.6228 30.768005
383.36203 664.54926 888.74811
-137.06749 128.25478 411.68301
1057.5261 -846.26721 728.82019
-1089.6172 -878.18091 739.43347
-764.05743 -131.63802 307.18127
23.043455 424.1636 535.32953
-486.74408 -488.11887 1420.0753
-1491.8186 139.08772 1038.7739
-809.28229 -740.97913 307.35391
1124.0081 645.83295 168.64563
-643.30273 -676.9021 306.72287
-825.49005 585.43365 1280.6871
-1875.9976 -834.68982 476.28857
-526.99658 136.94019 1444.9316
678.31592 -345.31451 928.25214
-49.408195 75.671471 478.3501
-1031.1447 -462.74255 1426.3494
1378.272 -217.07236 285
716.36334 646.81866 469.25061
1248.5769 -717.12781 616.74304
-1394.0588 648.72858 1124.8699
-1433.5168 761.33777 865.44318
600.30798 -853.39368 755.28314
-154.14511 287.72662 532.57611
-2498.05 198.88925 453.39328
-314.06094 -325.2608 1427.3005
970.46313 715.94409 10.17275
288.41962 -759.52228 300.06049
-267.2644 364.93323 305.29272
-593.91876 -161.21736 1445.8156
1360.8744 522.06836 496.08398
-2214.5708 -604.18347 1009.8984
-1519.702 637.41498 427.83545
-797.6991 -142.28589 291.63632
-1436.1654 -64.533249 995.28748
-108.21164 471.8324 304.68829
129.7529 240.92422 938.5141
826.87378 -685.77429 361.72369
-24.809387 -445.60043 290.79254
-1476.2712 -723.64734 784.31421
466.02991 175.47026 419.2406
133.51215 789.84717 543.74591
1009.4154 310.85507 285
-1905.9075 -878.63153 530.1886
-467.6987 -606.94043 840.13416
-1075.3833 -636.30249 1344.4523
-1831.8059 -46.138912 1140.6946
1783.0923 172.58783 590.69629
621.59839 -833.83472 816.00806
-1607.875 578.32031 659.45105
-577.51477 -166.9093 856.72845
1520.3877 -521.45355 812.66083
-694.4248 -44.004974 291.52356
-2417.7917 -338.15176 697.20105
-530.75598 111.29826 596.86517
-245.44632 519.72162 1383.8835
-1551.6382 694.74054 1021.0034
-1281.2831 -852.37146 198.73277
-1347.0266 -684.58398 187.13934
-1209.2546 233.99683 299.34393
111.67429 129.28256 893.93591
-1690.4915 -871.10364 109.91185
-345.1037 332.28528 291.14221
-2039.7482 -860.75427 620.9624
1742.9707 -220.91978 732.17072
-334.95685 -777.33972 405.77545
-1571.1899 -855.58398 481.05695
413.72543 -340.83575 1185.4453
-290.00861 370.47516 502.77588
-653.6839 132.94322 1448.4419
1476.3206 -827.159 274.27542
-838.64166 325.04739 1435.3546
431.83618 740.76416 281.52136
-784.75525 315.35443 307.25949
-367.50909 -503.44257 502.10944
560.66504 713.40973 891.32837
-1745.1443 -856.29663 90.53524
-1391.0601 292.43719 896.90094
588.22913 196.70543 1090.7716
724.27094 -855.16235 743.99274
-285.58771 -535.44635 1401.8938
-1222.5291 -593.70227 1389.9368
1631.2618 -477.26074 632.21912
-1226.8556 674.96277 966.22729
-619.37231 -510.92014 1033.535
-196.30228 47.482941 290.97977
403.01123 -42.700302 635.68604
-2058.125 582.90454 314.27786
65.753632 -284.24258 1366.4565
-2132.063 -578.08276 1021.1759
-182.98676 545.41772 1364.3723
-1712.8746 -401.08441 1186.0228
638.58008 -158.23358 930.03448
-1947.0157 -686.94916 1027.5341
-690.75281 -544.80219 1422.1898
-2492.6909 175.74911 622.87402
482.34146 208.95567 923.22913
667.96448 335.62128 926.38379
-30.068933 -703.37122 1185.927
-1722.8687 -855.58398 218.34726
-399.2142 218.99109 640.40936
-881.41913 640.0072 291.72772
-1150.4548 -745.56714 926.08417
-816.7821 103.37198 291.65717
-1905.9825 -852.79529 823.7088
-1190.0824 -640.58398 304.10013
-1454.7705 -861.73633 288.02771
604.24817 -275.16199 1081.4197
-1563.123 -245.21065 314.83386
406.71805 337.74902 946.75232
-1568.5704 318.61304 315.07233
-2393.4214 501.53278 694.10614
-623.47498 -167.05754 312.88055
532.39929 211.49785 931.51245
465.05237 -187.55009 302.5097
358.21216 -557.44244 290.37439
-380.37476 -358.11758 413.20758
-226.7973 748.81128 872.80334
-1223.2424 528.9917 299.95624
356.97714 -498.37366 1200.3363
757.53046 767.11322 238.01682
-445.33234 -309.46317 744.16315
-42.575859 -763.92822 1011.0754
-118.98868 -661.13934 1293.342
-2231.1594 577.0575 289.17371
755.13519 -438.8183 285
1710.6382 78.939407 724.64795
1414.2809 771.97791 451.57367
-650.09863 -517.57385 918.32507
202.33476 -752.62671 887.43811
-1347.7461 -163.50708 802.422
-813.48822 695.04907 453.35706
-1804.6213 -248.84799 1147.085
-644.14221 342.75894 901.26062
686.10571 64.40284 929.92444
529.05249 226.80685 924.78711
-1732.1949 -871.03735 160.57584
-584.48834 -613.97083 291.40356
-1330.361 790.01093 196.06911
-414.36456 233.33737 1434.7286
1306.8077 617.00586 839.26282
-1452.377 -415.79892 726.73889
-1996.2 -860.50598 418.77759
-1202.3564 -406.08862 526.87952
-1761.0419 -0.41395569 323.49741
334.37653 514.62872 1194.8994
-13.767269 678.86896 799.04553
1750.03 -309.12317 640.55182
111.74017 362.96344 290.64349
374.89078 141.48181 667.62952
240.34076 -449.72919 290.50308
-1217.8895 697.08215 443.63293
627.71997 -623.13098 1023.7496
-1513.5984 -729.24597 408.41092
434.39819 362.87573 602.94897
1277.1558 735.54779 594.42371
-348.06375 497.2785 291.14545
-1458.3481 -473.43253 1037.4253
-2035.6907 577.17401 289.50333
618.38208 -284.35934 1072.688
-348.81726 -196.661 411.68301
-1246.9375 -574.3822 1394.05
-1667.7592 -589.63269 1015.7457
-74.33728 -376.56793 304.55975
-558.93097 237.65628 671.22644
-1863.6195 703.95874 495.09335
-1115.6539 798.06946 728.39569
715.15039 -295.51202 1015.2502
305.05841 105.95741 303.11774
-1349.0671 -513.29822 305.46399
-437.40884 -655.69348 291.24298
-752.03137 -154.96024 291.58649
1674.7993 -468.98029 640.71893
99.189804 -856.81653 414.63138
689.11523 -728.47754 383.01746
1660.803 43.677547 798.78088
103.73969 -778.95496 467.6611
-1572.2859 701.46912 1002.2018
-1365.7446 391.55469 841.6814
-1123.9 518.31573 291.99243
-274.58881 757.72467 328.59061
1273.7581 -625.0097 856.38916
1966.1699 -79.14801 343.03394
35.643257 -79.485573 1384.7379
-559.89728 67.412033 316.59393
-570.24915 685.67432 1037.8096
-369.13828 -637.24622 291.16846
-1531.0535 -591.29401 913.76172
-238.38147 281.15393 1417.2957
-110.48367 531.75464 304.69693
-749.18988 484.47858 1411.635
-2089.4363 -863.74384 538.89661
-464.73401 505.45538 306.04321
924.21161 176.19962 932.13086
-238.42184 768.79968 816.72266
1129.3171 767.88501 284.38593
-2509.0796 70.944489 613.4826
882.50854 770.74127 548.04199
-779.74603 -690.92285 568.82501
886.64038 -751.96582 639.81653
-1831.8247 795.37854 633.10706
1311.3263 -22.253803 285
-1480.7456 533.66595 1290.0156
-569.979 -273.62091 306.44373
-563.3783 356.99115 1428.1561
-1064.9865 -684.6405 1237.2007
-378.85199 248.42078 564.34656
-1237.5649 -723.33801 1153.6671
-1211.5194 783.35547 415.46283
1686.3097 -156.58717 785.36609
-1640.2122 773.01526 245.2131
-947.70605 685.46063 371.2124
-1583.5543 -706.75616 999.58765
-1996.155 -71.062325 1059.6877
-1155.8792 574.22095 538.95728
350.7019 278.82938 699.56476
-1534.7529 648.07703 242.68074
-1168.1752 46.106457 1444.1619
-48.939819 -713.77496 304.46356
-888.64484 -750.22595 1078.8723
-2349.1904 -548.47076 997.88239
-797.72748 506.81073 608.29199
1797.0432 -439.0853 398.53369
1444.3611 617.7077 802.80121
825.28223 731.84662 96.088272
-1075.1312 48.779716 291.93921
743.76892 -829.64362 285.65799
-1499.0715 102.42863 1053.9235
-1288.5419 233.12277 663.56909
-444.54633 792.40131 641.81152
-804.5498 495.9642 307.33466
-348.88416 -572.20959 688.38324
449.64868 216.00124 780.19824
-723.0708 -118.13584 291.55484
-1372.2832 783.02441 836.05121
-1777.1313 -112.1705 324.20169
1538.092 -819.33099 535.84845
395.14429 -721.5733 1085.3586
387.4249 -62.688858 652.95166
108.73967 651.40057 1100.9968
-1118.4476 -88.907013 1448.6428
1299.6478 616.4472 153.34976
-926.58771 631.34857 291.77704
1397.8168 99.589767 285
1360.8914 -460.69421 860.34558
-1296.3506 538.41302 1350.6479
-2098.8699 732.51843 317.54785
-547.17389 -483.78986 641.00562
464.44043 -375.32141 302.51199
-1111.8542 -620.69879 1366.3459
-1327.6924 -576.90527 1376.4059
285.77448 602.81628 1185.8184
-437.52466 -177.52518 815.14893
-1485.3141 180.65262 1006.9324
1405.9294 -796.44727 670.15637
226.59325 -845.06946 362.79575
-1850.1421 -99.165794 327.39761
133.04918 570.03784 303.77142
-2178.9116 583.45203 312.72827
-321.65649 -779.16479 291.11664
1737.2145 -155.83838 754.06757
39.773205 -671.01349 1256.6588
1054.5005 779.85748 195.85886
-1403.8861 -820.33057 935.25989
228.47659 -69.266167 1298.3861
-486.39816 642.71228 256.44583
1545.9304 -805.73035 319.48053
-594.63348 687.71619 946.96191
-1499.9401 -864.94159 648.65149
-356.10608 425.35764 482.21149
-782.16388 531.75586 539.32629
-1420.8217 596.73926 961.81897
-1448.3345 218.72943 1021.8315
-179.04758 -730.06268 1115.7588
-1683.5508 73.819717 1033.2433
-975.48438 -11.678814 1450.803
400.63202 181.90395 639.5033
30.880974 244.63208 1374.0532
-2312.3333 -419.28961 1012.8208
-524.28015 -606.42737 306.27032
-437.62585 460.9993 1414.9761
1898.3999 385.89996 487.15744
-1549.4174 -640.58398 496.10031
1591.3406 -810.68109 429.48755
4.755662 661.79517 1073.8857
313.63287 73.097435 820.12134
-959.33618 -599.97382 1399.3915
1005.3946 459.41595 508.5481
1377.6061 349.69775 859.18091
-92.304413 496.98886 1374.3972
-214.83804 493.43268 411.68298
405.03036 -262.4032 1195.8584
444.57019 -866.20795 546.44812
680.97504 100.52451 929.75549
-334.03775 -570.91327 291.13013
1404.8618 -684.90887 368.90637
-2419.2466 686.6156 449.19751
1808.2921 -125.3876 646.04517
-1219.9326 -456.63831 1411.6765
-51.743774 -553.56415 547.51465
-79.632812 -778.76709 453.37064
-1250.6841 -505.95926 1404.7405
-688.46497 -188.38148 306.89404
-184.24648 231.19742 290.96661
-1633.1047 -772.8092 656.23584
-1206.6393 68.368912 1439.7404
-1655.2659 667.37201 1004.7404
-1353.9651 667.38171 954.63678
-1384.937 784.41602 203.5867
-184.83052 275.4938 290.96725
-82.632904 -777.84271 437.25299
1035.6792 648.07703 192.75128
-1062.1848 -834.42236 346.14111
-2378.5337 -330.71069 982.14795
-2351.7087 -667.93286 350.62753
-2419.2778 -266.55698 681.83734
1674.8076 -89.092552 792.03723
899.45917 -683.20276 542.85168
-785.20905 -208.49113 505.48529
425.06616 751.23993 331.29901
-2160.814 -858.2738 549.36243
-494.77106 -150.90266 361.32251
-741.33167 421.93481 1424.6017
986.61578 -540.58398 408.87823
-1823.209 780.86005 527.49664
-877.54883 579.03839 1294.2288
-1457.8881 -527.04102 1061.5723
-1061.7261 179.71407 291.92456
-448.80035 -751.37939 911.18713
-1061.9911 -694.21429 1216.045
-411.76947 -241.65927 711.50854
-2104.9829 763.14539 394.96347
-1737.1519 -39.929707 1202.7814
1474.4041 -59.013313 285
-143.25729 491.34216 304.82147
-165.95795 691.88519 713.70868
1009.6984 -540.58398 647.05994
1760.885 255.05344 682.07104
-1665.1571 -9.960083 319.3002
1117.6952 -729.24597 349.28366
854.18591 740.10327 834.11304
-165.75455 -626.48706 1352.3795
-240.45636 -762.8476 783.29938
-1480.1558 -667.43756 793.67444
956.38708 -247.09045 285.00003
20.771116 -519.7171 529.22015
-2030.4031 -418.67493 1043.2837
215.06653 655.14661 257.69391
1342.5554 -830.24286 240.86049
441.73489 169.25737 1175.5039
107.20686 422.58896 811.83069
-576.24579 -470.72424 717.78125
-914.85626 578.47949 1295.0193
-885.56915 -459.51306 307.64359
-796.1134 -831.07239 299.60767
-737.7868 566.15063 1324.7166
-1463.022 -720.87701 752.38861
1813.4303 2.6530638 608
-660.33289 -123.85231 1448.0891
929.07446 -838.83862 390.84106
-223.03798 545.84589 482.0387
-152.23735 91.968063 532.10297
-1497.4786 -220.256 1165.2068
323.26215 697.71747 911.57227
1247.9121 -762.73145 78.571754
-556.45856 -492.83441 1205.3802
-1214.5054 -826.39203 916.09558
483.00183 -750.0506 546.82111
490.31842 -861.09143 592.24854
684.65607 633.1543 350.24298
1745.7008 -494.12866 634.74207
246.70618 606.41449 290.49612
-635.04224 -401.07269 1436.3831
840.2561 -559.12665 917.91217
459.72659 -292.68021 1162.9583
-1004.8585 600.31671 577.93945
1575.4614 -464.86212 285
350.68024 -48.407608 1232.5785
-781.72211 -308.76093 1445.6722
-343.21069 125.45125 499.97858
787.20679 600.81958 273.49014
1011.8268 -835.64191 763.28149
763.28284 166.10965 989.73071
366.21976 133.38953 302.88528
-907.17731 -781.81531 977.61243
1941.1859 -138.38922 518.02332
-1978.2529 -870.71307 554.79156
-102.63348 -287.18973 290.8775
-1132.2722 -392.07797 295.97418
322.99414 -214.04709 1244.0405
-1787.2854 627.51477 1067.702
-742.84735 -499.26382 1425.0312
828.50555 -683.15601 432.03125
3.2920818 791.71246 547.03552
-1415.5023 -855.58398 408.22552
602.88568 -560.81738 290.1073
-2423.8408 -130.26694 776.67163
-515.4408 262.58832 306.2359
3.0998192 -715.97894 254.06282
-1475.3364 -668.6861 1245.72
298.91806 351.591 745.48401
-615.06219 -587.59503 1412.6406
539.69965 -481.61517 290.17627
37.664185 71.606079 290.72437
-1527.9185 103.85603 1055.8975
-576.00232 -469.85547 306.46683
-1557.5857 -400.16647 1113.6177
-2012.1621 670.65967 989.93433
-1827.5439 798.30829 611.05029
-1756.9764 501.17389 323.31946
-2001.4913 433.4772 1039.3524
-1521.8021 601.15582 49.32785
-559.85376 503.63684 1412.7914
1683.9917 313.91586 285
-1062.4065 779.61322 408.86075
-1055.5912 291.56171 291.91785
-1545.6426 57.686661 1318.6396
-512.72571 -351.48679 549.10205
-641.32446 -296.34528 306.71494
-781.77954 -242.87126 291.61896
402.46149 233.58304 832.17737
1845.5782 -417.60187 543.53479
-304.55618 769.76636 379.42236
-2305.7139 -408.67444 1014.4293
-1429.3683 -530.93372 1331.3735
-695.38623 317.07559 291.52463
-1048.9712 -351.20178 1436.4973
372.591 424.61127 683.05438
1141.9312 -867.65503 660.29889
-2343.6897 -750.82043 777.65784
1382.85 735.17896 628.20685
1339.452 -597.10657 845.48035
-2149.8701 -317.73785 1036.879
-1060.2767 -413.62451 1430.2584
1340.3862 -557.16925 855.94476
-218.82616 366.9819 305.10867
1494.6038 -221.05762 846.0141
-2399.1509 -476.36557 863.34033
-0.62341309 80.629761 1391.8738
-589.41516 356.4877 753.18683
430.53958 728.7196 960.73828
-1993.166 378.16122 299.39886
-1285.7257 -138.67703 656.79755
-1187.7664 -666.49457 305.21375
-19.976582 -134.87825 1393.7957
760.38342 -647.26807 534.91516
-2223.417 501.99957 1010.6592
-1777.6705 -640.58398 549.33179
775.38019 -857.25018 210.63586
-93.29483 -245.41354 304.63165
-2418.7798 183.57901 813.28479
-1904.9133 -375.31345 1041.9641
-101.06775 -338.68286 290.87582
473.36646 537.28601 290.24869
229.81079 101.30519 1295.191
-1694.801 -139.25006 1034.8984
88.297089 281.17398 760.28949
-739.16028 -543.29077 291.57242
-1731.2892 -598.76758 322.19504
-1376.1953 582.83569 1274.6278
763.26465 -556.336 539.00391
-185.74518 -660.13251 1294.0176
-193.58984 267.27496 1413.9794
908.89325 -540.58398 364.26279
-504.23895 747.91315 886.48303
-714.90979 -350.44727 291.54593
-762.02307 -759.86261 795.47314
-1929.3756 -794.50519 941.14874
385.43402 399.37564 302.81226
-688.25037 -629.06677 306.89368
556.22711 251.42233 925.56738
-2201.2607 -845.22852 448.62732
-1511.28 -730.21191 1130.9219
2.9696293 -198.38055 411.68298
-512.36121 5.5924015 1448.454
1966.17 -22.772621 368.35791
-2236.5867 733.21887 747.36285
1322.0698 763.67236 196.53955
1140.1666 756.41248 174.30502
-207.13409 -160.34764 340.62671
546.47913 637.9541 1037.8379
1676.6504 583.26105 380.26593
-1566.1931 565.19458 1047.6581
-442.40082 -871.2168 596.76862
-1249.7445 -756.68286 829.27594
-1768.3477 604.97083 243.40169
-1242.2272 -471.83716 552.21167
1227.1899 334.89725 888.83661
-560.27386 129.94458 1443.2944
48.26358 56.25 290.71277
-1833.5769 773.15503 388.02945
-1817.7104 681.79077 152.29436
-1288.4569 559.41602 324.35114
-1110.7809 -285.43564 308.49945
-1810.9633 207.82129 1138.8356
-1302.0796 467.99786 696.11841
-328.75912 -738.38281 1094.723
-657.99902 218.65033 939.18579
-511.11252 535.16132 544.94781
-1864.9858 541.74786 357.01639
307.45978 696.28528 925.61786
-1455.7161 -315.70645 1112.6726
-1254.7758 515.25238 582.38306
1782.3052 282.76785 285
649.8064 489.88773 1021.0388
-317.83789 369.18573 496.45764
1734.4332 -319.58401 730.89734
-519.99438 539.88617 769.86792
-445.48535 -176.00565 436.90002
1060.0868 -825.24512 608.13
466.87152 -189.3764 922.93439
-933.93719 17.761963 307.8269
-57.660313 292.55865 1390.7631
1931.2766 -325.34116 514.31958
1384.3746 539.93805 445.40488
-43.302094 432.30963 304.44162
820.65613 479.67462 918.12921
-775.58447 -534.95251 307.22556
-1073.4359 -112.48811 308.35733
-302.46313 72.019958 305.42648
-470.07385 -478.11047 1420.4548
-608.93372 -51.693268 291.43024
-660.58618 753.85632 313.45511
927.32758 695.72357 656.07031
-662.10388 446.75128 291.48828
-652.02039 -296.39697 1444.4001
1966.17 81.163094 424.60107
1395.6572 -727.16608 405.05087
-999.33453 349.84879 579.33887
469.3494 221.59402 432.92502
-1455.6293 -316.27255 1115.7899
-1750.3545 -722.04211 1067.6854
867.22205 -553.31812 925.25677
-1699.2844 537.59705 1146.8787
458.06335 75.799393 386.26575
-1258.0229 623.84686 272.4176
-1397.988 -210.19156 912.01282
-1088.4907 -728.21796 291.9538
-560.29077 -873.87317 697.20349
-215.61777 -732.69501 305.0972
-2265.1812 338.77271 1018.5082
-2130.9292 -302.43652 1039.6479
-1241.2458 -552.70996 549.85217
587.53204 698.60822 648.79321
-2215.7725 -679.9129 344.26331
-1813.5555 349.39847 1033.0547
-870.2066 611.11359 307.58414
-1343.8058 -487.8331 1382.884
-351.18982 -298.34393 1431.6326
