# .PCD v0.7 - Point Cloud Data file format
VERSION 0.7
FIELDS x y z
SIZE 4 4 4
TYPE F F F
COUNT 1 1 1
WIDTH 1439
HEIGHT 1
VIEWPOINT 0 0 0 1 0 0 0
POINTS 1439
DATA ascii
-0.17504251 -2.3297114 0.18478543
0.1255682 -2.3224893 0.18244597
-0.66302389 -2.3129578 0.18379501
0.091802292 -2.3188181 0.18252353
0.015860744 -2.2858334 0.18145379
-0.93547249 -2.2632737 0.18106274
0.45566815 -2.0563769 0.18199125
0.39641723 -1.9402606 0.18848005
0.39649886 -1.8935826 0.18251865
-1.4400089 -1.6432816 0.18456109
-0.20520276 -1.1141715 0.180907
0.14161044 -1.1015465 0.180907
-0.67477149 -1.0487472 0.180907
-0.028421666 -1.0406325 0.18090698
-0.75845039 -0.97696698 0.180907
-0.38251838 -0.94484425 0.180907
-1.1194201 -0.93115294 0.1808463
-0.96497083 -0.9307636 0.18084559
-0.27186489 -0.90745556 0.18090701
-0.8043375 -0.87091219 0.18075669
0.13338967 -0.83941716 0.1806474
-0.38787013 -0.82144195 0.18889382
-0.21399921 -0.82534468 0.180907
0.16655362 -0.81112826 0.18049319
-0.30489394 -0.780195 0.18090698
0.045841038 -0.74331135 0.18058714
0.068700202 -0.67896813 0.18035816
-0.90127695 -0.63621509 0.18040869
-0.94698715 -0.59650248 0.18034983
-0.72447914 -0.56246519 0.18066631
-0.69856107 -0.5583294 0.18072745
-0.2016508 -0.42418981 0.18051732
-0.85383368 -0.32468793 0.18211311
0.073428012 -0.3017441 0.18281929
0.40518111 -0.15267019 0.1861378
0.24252757 -0.069649607 0.1824851
0.10392684 0.059580632 0.18600638
-1.2712027 0.083864041 0.1848051
-1.1142575 0.083514772 0.18139894
-1.4416113 0.12880757 0.18074374
0.1042162 0.42667893 0.18258855
-1.3720045 0.68288583 0.18057419
-1.2772709 0.93734056 0.18207288
-1.0792806 1.2626607 0.18646616
-0.80491388 1.2717795 0.18620372
-0.45860189 1.3573327 0.1886487
-1.0785472 -2.7635226 0.19788803
-0.347204 -2.5686419 0.19825007
-0.045098726 -2.5538723 0.19541375
-0.12011059 -2.5278387 0.19468656
-0.63918138 -2.5192215 0.19545306
0.1240816 -2.512547 0.1920203
-0.65304732 -2.4753788 0.19297794
-0.60473502 -2.4726577 0.19280815
-0.19736534 -2.4770441 0.1927309
-0.81508517 -2.4672511 0.19225925
-0.64723659 -2.4560719 0.19188407
-0.64529181 -2.4468532 0.19136205
-0.089949824 -2.4447017 0.1902692
-0.81435579 -2.4361224 0.19069818
-1.4173869 -0.40777156 0.1904999
-0.12142549 -0.26929989 0.19584616
-0.090769112 -0.26379266 0.1989954
0.12539534 0.31127465 0.1956813
-1.1600795 0.344381 0.19741964
-1.3341136 0.69603407 0.19992264
0.20881487 1.1362965 0.19606398
-1.1214366 1.1848315 0.19598466
-1.2079026 -2.9135859 0.2050578
-0.030143272 -2.78722 0.20703848
-0.74642682 -2.7689235 0.20797296
-1.1244121 -2.7279227 0.20298828
-0.83423603 -2.7249041 0.20507887
-0.71960151 -2.7204363 0.20573992
-0.97276872 -2.6887016 0.20218623
-0.80949968 -2.6881509 0.20342028
-0.35300997 -2.6000252 0.20002341
-1.4418318 -1.4883977 0.20100543
-0.12124591 -1.1821077 0.20637214
-1.4088672 -1.1537061 0.20300226
-1.4088351 -0.84961152 0.20850958
-1.4496007 -0.7045992 0.2086027
0.43671757 -0.50395828 0.20293207
0.15585157 -0.076986685 0.2026957
-1.2092021 0.72002798 0.20673029
-0.58059669 1.1992903 0.20789373
0.036512185 -2.9260659 0.21110536
-0.094346225 -2.8175697 0.2157651
-0.66999763 -2.806438 0.21045169
-1.1904957 -2.3364878 0.21260893
-1.2816961 -2.2720783 0.21348216
0.44390684 -1.9268919 0.21457277
0.43698049 -1.2280231 0.21407154
-0.38228008 -0.71806383 0.21301225
0.037307285 -0.23160018 0.21739046
0.40303245 -0.0027084332 0.21229865
-1.113979 0.61796999 0.2152594
0.10543098 0.69734883 0.21858665
0.27051312 0.86503446 0.21635675
-0.87566602 1.1993862 0.21081187
-0.66287351 -2.9904463 0.22614613
-0.5915072 -2.9979043 0.2293523
0.15492889 -2.7789464 0.22722811
0.17305279 -2.4521446 0.2279489
-0.18114334 -1.2144945 0.22200878
0.43087223 -0.4105638 0.22657248
-1.4327052 -0.26137954 0.22535841
0.43461692 -0.2693269 0.22277924
-0.13373253 -0.22051571 0.22926235
-0.77017534 -0.2197656 0.2299912
0.24920984 0.045780644 0.22690186
-1.3441484 0.44283855 0.22317354
-1.2251723 0.69368821 0.22275376
0.24919194 0.71057236 0.22393441
-1.4399548 0.72300524 0.22606337
0.078363486 1.1736891 0.22537816
0.266334 1.1757295 0.22173291
-1.0152071 1.2302291 0.22609292
0.15075827 -2.9925058 0.23658612
-1.2971182 -2.5863166 0.23380378
0.26105255 -2.3392336 0.23598443
0.38625211 -2.149534 0.23177159
0.15842721 -2.029583 0.23253466
-1.4566174 -1.6731372 0.23754326
0.44213739 -1.3441495 0.232181
-0.61824757 -1.2547629 0.2392052
-0.25106341 -1.2468469 0.23744383
-0.60749143 -1.0758529 0.23221575
0.11485866 -0.99457836 0.23115352
-0.34603447 -0.93790263 0.23174077
0.4009876 -0.57865393 0.23020934
0.42209241 -0.50209975 0.23107615
0.41836357 -0.48824108 0.23061138
0.42588031 -0.35091862 0.23131411
0.39310598 -0.2686846 0.23907192
0.10374278 0.067280099 0.23671623
-0.36415687 -3.0186405 0.24451935
-0.86112386 -2.9969723 0.24984261
-1.2336245 -2.9507203 0.2464985
0.29253435 -2.7578781 0.24491096
-1.1780571 -2.7486043 0.24862871
-1.4536338 -2.7017303 0.24159016
-1.2814976 -2.5047755 0.2415361
0.099981278 -2.5076315 0.24426371
0.48333669 -2.4793115 0.24106684
-1.2416389 -2.3820572 0.24357386
0.39670324 -2.1421127 0.24444517
0.15902692 -1.9653013 0.24354716
-1.4093559 -1.8074217 0.24558643
0.44660586 -1.8083026 0.24988414
0.44383729 -1.6111727 0.2428408
-1.4093024 -1.5704732 0.24631092
0.44262299 -1.4407794 0.24410945
0.39690414 -1.3804747 0.2485276
-1.4127375 -1.3124897 0.24994282
-1.4159069 -1.2582246 0.24845758
-1.0744451 -1.2573882 0.24920201
-1.4177233 -1.1622574 0.24727347
0.1963955 -0.69453174 0.24441922
0.38128036 -0.59184504 0.24488895
-1.3912592 -0.49197322 0.24816099
0.34404954 0.68605608 0.24476917
-1.3624741 1.0154259 0.24180552
-0.51666671 1.314308 0.24338257
-0.86014009 -3.0087011 0.25803259
-0.17598876 -3.0071507 0.25686312
-1.0128579 -2.9997282 0.25947148
0.021642484 -2.9934833 0.25642475
-0.59727263 -2.9441204 0.25471938
-1.4603739 -2.3310509 0.25028485
0.48398191 -2.2483332 0.25336698
-1.171401 -2.1229568 0.25607377
-1.4867896 -2.0315025 0.25816718
0.15849963 -1.9784174 0.25784501
-1.4184769 -1.8135118 0.25875571
-1.457762 -1.7865856 0.25423825
0.40075293 -1.6583848 0.25640607
-1.440733 -1.5842358 0.25189272
0.43931136 -1.3485469 0.25110325
-1.451878 -1.3003387 0.25168151
0.43936002 -1.2918663 0.25024599
-1.353628 -0.96484089 0.25841129
0.37652841 -0.90903723 0.25507826
0.33456427 -0.75986177 0.25653902
-1.4144125 -0.39504761 0.2570135
0.38061881 -0.21775147 0.25297773
0.34793741 -0.017155185 0.25626853
-1.4663706 0.3947562 0.25039873
-1.1329653 0.69316721 0.25018826
0.16188695 0.72309047 0.25258511
-1.0917015 1.1755198 0.25433111
0.094753243 -2.9960098 0.2631014
0.12126161 -2.8318739 0.26496026
0.1548506 -2.7569292 0.26726887
0.48475593 -2.2928402 0.26478457
-1.3372005 -2.2856746 0.26851091
0.49411452 -2.2598844 0.26910579
-0.71794462 -1.3064585 0.26780823
-0.16347 -1.3054152 0.26932192
-0.037886165 -1.299578 0.26861212
0.32352626 -0.72189379 0.26601565
-0.99519092 -0.67440754 0.26324874
-0.37290108 -0.56244051 0.26888964
-0.74231052 -0.19440939 0.26052588
0.24813002 0.68699479 0.26227665
-0.61354524 1.1769209 0.26447508
-0.34996581 1.1768085 0.2683804
0.10865866 1.195755 0.2662757
0.40140575 -2.7864594 0.27626491
-1.3739504 -2.7594528 0.27296305
-1.4557761 -2.7118638 0.27522346
0.45245123 -2.5056169 0.27123904
0.36081082 -2.3086867 0.27554202
0.15702394 -2.2860599 0.27490067
0.15709944 -2.2736993 0.27157751
0.4737553 -2.28 0.27293566
0.12503971 -1.2166587 0.27469671
-1.3751101 -0.63602525 0.27771157
-1.3531934 -0.4545882 0.27342975
0.33905858 -0.41598463 0.27445403
-0.35335535 -0.37189624 0.27434093
-1.3993535 -0.32768911 0.27352798
-1.1693774 -0.068480007 0.27771372
-1.3800887 0.082139343 0.27638069
-0.061304636 1.1987429 0.27141893
-0.94500148 -3.0491333 0.28956479
0.40736911 -2.7863498 0.28304479
-1.3871453 -2.7642341 0.28226769
0.38516819 -2.7652936 0.28806028
0.1550338 -2.7055962 0.28110147
-1.4256654 -1.9739926 0.28183475
-0.61033863 -1.0634519 0.28905517
0.2717241 -1.0357503 0.28668302
-1.3819007 -0.80404699 0.28673548
0.37480021 -0.54786408 0.28090817
-1.3896241 -0.23452397 0.28486362
0.44722557 -0.099874839 0.28049424
-1.1196175 -0.084677421 0.28438103
-1.365289 0.15109655 0.28766233
0.10410897 0.70382792 0.283499
-1.0645671 -3.0418401 0.29359394
-1.100563 -2.8388829 0.29203123
-0.60347915 -1.3209826 0.29939425
-0.050932501 -1.319649 0.29693383
-1.3757551 -1.0874099 0.29455724
-1.3155962 -1.0313079 0.29662824
-0.6234113 -0.95819235 0.29324207
0.14700514 -0.8926149 0.29375216
-1.2135007 -0.8527621 0.29988492
-0.38339305 -0.84120023 0.29289949
0.21267501 -0.75178295 0.29560748
0.35884243 -0.69102442 0.29363459
0.44065905 -0.43589473 0.29463461
-1.3432763 -0.39613685 0.29380584
-1.4347343 -0.11646949 0.29977897
0.40990812 -0.07375215 0.29333997
0.45489541 0.10274785 0.29587075
0.23317529 1.1508619 0.2946772
-0.0098487344 1.2437878 0.29124874
-0.75869954 1.3177284 0.29260805
-0.45058444 -3.1042242 0.30083498
-0.93053341 -3.0694323 0.30312631
-0.65750909 -2.9130759 0.30174959
-1.4668262 -2.1253536 0.30008161
-1.4492003 -1.1787744 0.30465859
0.37966734 -1.1200551 0.30952334
-1.3092575 -1.0944902 0.30012038
-0.61091125 -1.0862299 0.30020899
-1.1300299 -1.0769076 0.30446514
-1.4444741 -1.0423856 0.30442429
0.29388386 -0.89213729 0.30245653
0.24801198 -0.88485324 0.3034651
-1.2749102 -0.78216612 0.30334365
0.32510325 -0.22031409 0.30379844
-1.2958804 -0.076364927 0.30781153
-1.3444461 0.1475112 0.30806383
-1.20454 0.28821385 0.30327612
0.37700862 0.54953271 0.30410683
-1.4263332 0.7578674 0.30439606
-1.4087893 -2.7162974 0.31862903
0.48136896 -2.5700603 0.31281403
-1.3815242 -2.3129637 0.31847656
-1.3986928 -2.1252961 0.31609052
-1.3660746 -1.133009 0.31876802
-1.2030013 -1.0563732 0.31774411
-1.2285385 -0.8134101 0.31828502
-0.32756662 -0.68117845 0.31712323
-0.27885661 -0.67027855 0.31456357
-1.4570709 -0.52334011 0.31477517
0.22947481 -0.32483035 0.31572232
-1.3109791 -0.076806068 0.31260973
0.39945495 0.88792711 0.31433818
-1.0009234 1.1496903 0.31514311
-1.0000918 1.1846906 0.31945521
-1.3637121 -2.9180458 0.32964855
-0.4800092 -2.9021916 0.32941636
-1.3787161 -2.6115558 0.32960501
-1.1703227 -2.5204072 0.32559615
-1.1305628 -1.0601871 0.32770622
-1.1424332 -1.040864 0.32267329
0.25403979 -0.86690497 0.32170537
-1.4525232 -0.81520319 0.32357711
-0.37917387 -0.78138894 0.32854775
-1.2838366 -0.71080387 0.32069871
-0.995125 -0.65238041 0.3241879
-1.2414401 -0.5563072 0.32262456
0.28397694 -0.3821559 0.32305038
-1.2271149 -0.3147406 0.32492357
0.43765089 0.65491498 0.32419702
0.27082288 0.91226065 0.32465047
-0.74088794 1.1766747 0.32360047
-1.0894314 1.1819547 0.32023546
0.25617406 -3.0060487 0.33400023
0.19406934 -2.7779815 0.33612606
-1.4837054 -2.4938769 0.33036128
0.39988834 -2.4152539 0.33699834
-1.2938393 -2.0168722 0.33924556
0.41963547 -1.5603065 0.33725598
0.41692212 -1.4251223 0.33313924
-0.69735694 -1.3369958 0.33140349
0.10606333 -1.3312175 0.33106574
-0.24003249 -1.2668843 0.33228397
-1.4265757 -1.2137399 0.33007985
0.30611056 -1.1611919 0.33669919
0.24379116 -0.34063506 0.33218345
-0.13684627 -0.14946444 0.3373431
-1.3657362 -0.079271249 0.33677188
-1.2674302 0.0079399319 0.33264241
0.25583622 0.068789691 0.3368597
0.18660934 0.27900022 0.3392598
-1.4068303 0.30165166 0.33941978
-1.3900244 0.68191791 0.3317343
-1.1606191 1.1291798 0.33634904
-0.49252799 1.3734628 0.33968091
-0.79453361 -3.1171083 0.34439179
-0.056280185 -3.0947633 0.34298444
-1.2784069 -2.9371717 0.34291676
-0.1885221 -2.9323311 0.34542215
-0.056420952 -2.8905826 0.34621251
-1.2815592 -2.4260592 0.34704041
-0.29602072 -1.3459053 0.34235674
-0.13681592 -1.3419765 0.34459209
-1.1273301 -1.2191168 0.34849501
-1.4473078 -0.98462522 0.34997606
0.43254855 -0.96364003 0.34804296
-1.1688898 -0.83011681 0.34140116
-0.6256671 -0.66494197 0.34307232
-0.84781855 -0.64502084 0.34313077
0.4453401 -0.34826806 0.34316632
0.22958256 -0.30380756 0.34548655
-1.2246915 -0.2994107 0.34099334
0.42872405 -0.13818558 0.34004608
0.41080365 -0.080106683 0.34309649
-1.407148 0.35225025 0.34272707
-1.2194152 0.68189138 0.34503061
-1.2812839 0.91674221 0.34746781
-1.3715454 1.0173528 0.34653223
-0.91638809 1.1845124 0.34867215
-0.14148062 1.2874368 0.34869251
-0.362515 -3.0977449 0.35101241
-0.10310508 -3.0662582 0.3591305
-0.62224007 -2.9618177 0.35148054
-0.50862408 -2.9233098 0.35361969
-0.36043492 -2.9151542 0.35386848
-0.25520873 -2.914052 0.35419059
-0.19586544 -2.8779531 0.35586333
0.22099973 -2.8704062 0.35632783
-0.75778091 -2.8571043 0.35705277
-0.33531398 -2.8592334 0.35693845
-1.2920585 -2.8360662 0.35283938
0.15803702 -2.8211327 0.35318381
-1.4965655 -2.5077813 0.35689417
-1.4814812 -2.4389453 0.35532501
-0.18116754 -1.2747004 0.35555089
-1.1249605 -1.2424381 0.35187849
-0.8611995 -1.1357629 0.35298014
-1.4443282 -1.0432585 0.35852969
-0.2003435 -1.0185241 0.35692269
-0.40278965 -0.83856368 0.35895348
-0.60568506 -0.77255791 0.3574689
0.15204641 -0.73651159 0.35020584
-1.1088679 -0.68097478 0.35097879
-0.69266868 -0.67354184 0.35077548
0.29711607 -0.082217187 0.35935023
0.25026742 0.04119299 0.35030121
-1.4705061 0.41479978 0.35595742
-1.3441567 0.4621934 0.35478044
-1.3379377 0.69535446 0.35491189
-1.3151405 0.69856924 0.35360825
-0.50247455 1.154127 0.3530134
-0.76922983 1.2039349 0.3579652
0.0073290118 1.2125828 0.35982421
-1.094752 -2.979367 0.36455423
0.29804105 -2.7503412 0.36803851
-1.381617 -2.3811247 0.36385342
0.16877528 -2.01981 0.36657101
0.2476341 -2.0198154 0.36816955
0.33688524 -2.0188665 0.36043388
0.44409347 -1.6887201 0.36911675
-0.62389588 -1.3427496 0.36877781
-0.76354325 -0.89635223 0.3672156
-1.2676669 -0.84805119 0.36574903
-1.4584354 -0.7681185 0.36247849
0.13476616 -0.7024349 0.36465138
-1.4597577 -0.65036917 0.36028817
-1.2902544 -0.64626503 0.36590171
-0.11138328 -0.64541727 0.36287716
0.14637282 -0.13458365 0.36984095
0.38027316 -0.071565174 0.36134017
0.37953877 0.074983224 0.36301261
-1.1308039 0.70389223 0.36202878
0.31249517 1.1253436 0.36618924
-0.72117972 1.1764426 0.36884084
-0.16949709 -3.0694506 0.37777525
-1.1023669 -2.9701858 0.37818396
-1.1823528 -2.8812385 0.37941208
0.19612643 -2.8814428 0.37616262
0.37325838 -2.7158155 0.37414062
-1.157021 -2.7006648 0.37347308
-1.4294461 -2.6135051 0.37660813
0.36091256 -2.4058056 0.37173918
-1.3816189 -2.3637273 0.37022865
-1.3815585 -2.3289912 0.37112525
-1.3263842 -2.2446477 0.37025627
-1.1716056 -2.109565 0.37844172
0.40092251 -1.3556054 0.37203428
-1.4306109 -1.2364225 0.37886831
-1.3370885 -1.2235305 0.37649012
-1.2516859 -1.0648502 0.37148041
-1.040434 -1.0587258 0.37571004
-1.137297 -0.99494225 0.37451184
-0.38652912 -0.99516743 0.37571713
-0.2570391 -0.92054319 0.37363547
0.027979178 -0.92057854 0.37535709
-1.2700928 -0.81863666 0.37916782
-0.82279414 -0.65285712 0.37790304
0.2093603 -0.25730583 0.37487587
0.41103694 -0.13330042 0.37899148
0.44051149 -0.13144672 0.37191433
0.36402434 -0.069417328 0.3786355
-1.4628731 0.68837428 0.37105128
-0.70962381 1.1517962 0.37510231
-0.93062216 1.3166223 0.37722725
0.13745682 -2.7075889 0.38368526
-1.4800092 -2.124351 0.38590419
0.15729047 -2.0791121 0.38157794
-0.72276717 -1.3538415 0.38146606
-0.63353497 -1.1695058 0.38898626
-0.65791196 -1.0771124 0.38832098
-1.1371988 -0.97443634 0.38360757
-0.37694839 -0.82031107 0.38839293
-1.3055648 -0.53195632 0.38372463
-1.2994314 -0.25295219 0.38461801
-1.3824202 -0.18835582 0.387869
0.35156804 0.42810342 0.38562101
0.27283198 0.87188184 0.38700581
-0.40147525 1.1526232 0.38575917
-0.72188306 1.1763804 0.38142341
-0.2630477 1.3592254 0.38827753
-0.10568385 -3.0846839 0.39823511
-0.14288077 -3.0672016 0.39281261
0.15575191 -2.9030476 0.39418888
-1.3090551 -2.8372211 0.39123592
-1.2132603 -2.607909 0.39461496
0.30560303 -2.4741857 0.39155406
-1.4612095 -2.431231 0.39735374
-1.1709557 -2.3370941 0.39409071
0.45311475 -2.1607542 0.39011958
-1.2162569 -2.1284597 0.39204177
-1.4660639 -1.7831323 0.39562163
-1.4136232 -1.3944912 0.39661354
-0.25156426 -1.2878543 0.3905755
-1.1952806 -1.1890457 0.39078501
0.019526333 -1.1248026 0.39707708
-0.64298737 -0.99246377 0.39142638
0.076692164 -0.92981184 0.39592814
0.17632711 -0.88564998 0.39901751
-1.1697783 -0.77239853 0.39059722
0.015307345 -0.73073876 0.39642733
-0.8845619 -0.67437172 0.39209092
0.16263644 -0.12388089 0.39432275
-1.40391 -0.020081174 0.39426476
0.27928483 0.086336076 0.39800835
-1.4863476 0.57819116 0.39782012
-1.1424854 1.1429548 0.39806247
-0.13003674 1.1495841 0.39313063
-1.2634518 1.1673329 0.39140543
-0.72306442 1.1763146 0.39473879
-0.37785345 1.3805501 0.39759833
-0.57518744 -3.0874383 0.40860742
-0.022891993 -3.0519888 0.40764263
-0.89606225 -2.9655716 0.40496626
0.33829042 -2.9493098 0.40753669
-1.1466746 -2.9297254 0.4082844
-1.2779267 -2.8972514 0.4025467
-0.99617648 -2.8577614 0.40302217
0.15616912 -2.2919662 0.40970418
0.35304767 -2.2900157 0.40954113
-0.68229121 -1.3625988 0.40195161
0.095963478 -1.279552 0.40844262
0.17842875 -1.1301758 0.40063509
-1.0618639 -1.1121769 0.40435618
-0.621158 -0.88305128 0.40283313
-1.4604721 -0.84596586 0.40821606
0.16369992 -0.80837119 0.40760499
-1.2769442 -0.7947526 0.40740484
0.049232125 -0.75855398 0.40213099
-1.1145746 -0.72044212 0.40536895
-0.35154727 -0.7242412 0.40685484
-0.2605741 -0.69886678 0.4005729
-1.464959 -0.61461926 0.4038077
0.44276658 -0.13103953 0.40018341
-0.72816706 -0.1212604 0.40353543
-1.1672533 0.32448402 0.40037212
0.10329964 0.32956821 0.40776211
0.38302541 0.38337654 0.40213299
0.46987396 0.42807379 0.40446645
0.10344043 0.50158042 0.40475523
0.41689169 0.67299926 0.4014048
0.45383963 0.6713407 0.40635678
-1.2991819 0.85795629 0.40909457
-0.75192142 1.1509471 0.40977353
0.076729625 1.1558721 0.40592384
-0.99813235 -2.9660928 0.41058707
-0.87096715 -2.9668922 0.41071066
-1.3332655 -2.8526599 0.41113162
-1.2345657 -2.7116179 0.41548145
0.42359164 -2.7115691 0.41228649
-1.3263541 -2.2764709 0.41462937
0.484487 -2.2485197 0.41427279
-1.2396662 -1.994858 0.41533333
0.30558705 -1.2425457 0.41125026
-1.3451636 -1.2395102 0.41430336
0.27551723 -1.2281619 0.41907269
-0.21911268 -1.1271292 0.41064948
-1.1539613 -0.89101249 0.41295943
0.081439137 -0.83383667 0.41294318
-1.2696726 -0.79980028 0.41764385
0.4063549 -0.063734382 0.41106153
-1.337603 -0.016916852 0.41215366
0.37700015 0.36708423 0.41834211
-1.3721352 0.39405495 0.41797197
-1.4620507 0.40311834 0.41470262
-1.1147078 0.65713471 0.41857877
0.065564945 1.178997 0.41813618
0.0050582653 -2.9733651 0.42042291
-1.0455205 -2.8055773 0.42574632
0.46247265 -2.3817842 0.42526385
0.47124958 -2.1494055 0.42757732
0.45092478 -2.1385806 0.42679477
-0.21737456 -1.2981913 0.42441922
-1.3700988 -1.2788635 0.42819685
-1.3237339 -1.2514145 0.42311996
-0.64922333 -1.2243319 0.4277707
-1.2351923 -1.1849 0.42833248
-0.38697362 -1.1791083 0.4241941
-1.1648474 -1.1566699 0.42540908
-0.36455041 -0.89099967 0.42792895
-1.188315 -0.14507335 0.42880648
-1.4401835 0.10762481 0.42010874
0.38378781 0.32506683 0.42988437
0.39780712 0.67137253 0.42686647
0.25755486 0.69565684 0.42310625
0.30167204 1.1447865 0.42079955
-0.014046808 -2.9667733 0.43561918
0.17898485 -2.9379191 0.43469054
-1.1720123 -2.9277875 0.4328683
-1.2297537 -2.9095085 0.43177217
-1.3569585 -2.8312387 0.43528265
-1.4979761 -2.4926875 0.4314087
0.15511937 -2.495055 0.43596596
0.48929289 -2.4730387 0.43450129
-1.482583 -2.2211874 0.43252826
-1.256615 -2.0329285 0.43923765
0.44808602 -1.7147206 0.43059114
0.2715264 -1.2414067 0.43250197
0.44320571 -0.9711495 0.43421134
-1.1464757 -0.8094238 0.43436021
0.44935995 -0.80249566 0.43428549
0.36989728 -0.18251839 0.43058157
0.18480653 0.69234568 0.43493131
-0.82107192 1.3356644 0.43483984
-0.04650145 -3.0968497 0.44954059
-0.41021538 -2.9505186 0.44975704
-0.062879235 -2.9511404 0.44830468
-0.99379891 -2.8894584 0.44524828
0.047638111 -2.8890619 0.44867799
-0.99553525 -2.7880516 0.44891751
0.31507906 -2.590292 0.44693136
0.48446655 -2.5892839 0.44445992
0.31592038 -2.0337267 0.44219702
-1.0295162 -1.1363907 0.44622728
0.24839923 -0.93284523 0.44563505
0.44791466 -0.85584474 0.44464964
-0.89385509 -0.17806724 0.44029438
0.19485742 -0.15877351 0.44760191
0.26933482 0.52656037 0.44308764
-0.34122136 1.1512382 0.445622
-0.40390825 1.1759588 0.44251138
-0.85447156 1.3212 0.44474798
-0.22981422 1.3316791 0.44387168
-0.60047138 1.3434958 0.44946647
-1.1715158 -2.9410775 0.45244539
0.17381603 -2.9237432 0.4515413
-0.065432914 -2.8995066 0.45265722
-1.3687328 -2.7621303 0.45408735
-1.4658289 -2.5706651 0.45663375
-1.315419 -2.4995317 0.45819354
-1.4618236 -2.3759313 0.45103291
-1.3001355 -2.0089569 0.45557731
-1.2879468 -2.0084174 0.45207494
-1.2564477 -1.0622823 0.45182902
0.44861305 -0.8492353 0.45617145
0.059657343 -0.11255942 0.45613986
-1.3721473 0.41791198 0.45747754
0.24616054 0.54969847 0.45396179
0.45863929 0.54709667 0.45231888
-0.16510998 0.67509079 0.45908111
-0.026143815 0.67742038 0.45874995
0.18187964 0.68352842 0.45836696
-0.96662009 0.69095647 0.4586713
-0.49213833 0.69137776 0.45881757
-0.60117275 0.70193309 0.45910314
-0.51385748 0.74574018 0.45890951
-0.72667766 0.77129865 0.45964795
-0.012805428 0.8367033 0.45870879
-0.59298432 0.87779427 0.45943099
-0.50095344 0.88955802 0.45918751
-0.54771757 0.90529376 0.4593403
-0.96060145 0.92970216 0.45797864
-0.23725197 0.97672129 0.45703703
-0.12920016 0.97084582 0.45634931
-0.088217981 0.97839236 0.45721543
-0.285595 0.9938432 0.45759723
-0.83800268 1.0159036 0.45593652
-0.24828994 1.0121526 0.45687252
-0.1259065 1.0255972 0.45645392
-0.23176554 1.0647148 0.45613903
-0.2637642 1.0828624 0.45644659
-0.93612838 1.1485672 0.45108259
-0.098719209 1.1570449 0.45515868
-1.0181161 1.1717732 0.45225433
-0.75475472 1.1705464 0.45338205
-0.65422297 1.1738989 0.45314059
0.27889296 1.179064 0.45504263
-1.1987826 -2.9405789 0.46372119
0.49030891 -2.2307599 0.46910843
0.17736772 -2.0238657 0.46298909
-0.76406294 -1.3815625 0.46888223
-0.61583489 -1.1330599 0.46545902
-1.0856581 -1.0884492 0.46032023
-1.459955 -0.97515178 0.46352071
0.39512217 -0.06834127 0.46847171
-0.082207426 0.59419483 0.46070758
-1.4016298 0.79830843 0.462807
-0.010611403 1.1862857 0.46596423
-0.87808299 1.2985364 0.46481416
-0.35100007 1.3228097 0.46844101
-0.28757823 -2.9542031 0.47510344
0.46827468 -2.6877406 0.47378075
0.15450233 -2.6079738 0.47147268
0.48911923 -2.597141 0.47224197
0.47426403 -2.5049767 0.47097981
0.1556538 -2.3181009 0.47610509
-1.4499023 -2.1812482 0.47985578
-1.4038284 -2.1573772 0.47156882
0.35311902 -2.0104105 0.47072446
0.44710994 -1.7119631 0.47782266
-0.61624712 -0.59441406 0.47230366
-1.3197516 -0.040828865 0.47981396
-1.2812548 0.0044760876 0.4745332
0.41244707 0.0069609405 0.47863352
-1.4753958 0.26390326 0.47672299
-0.61107421 0.63945329 0.47906223
-1.2360332 0.6519047 0.47341108
-0.80367947 1.1038615 0.47822133
0.23111135 1.1935244 0.47497153
-1.2087775 -3.010551 0.48385027
0.036484323 -2.9248285 0.4898926
0.21639243 -2.907809 0.48494875
-1.256356 -2.7762392 0.48955229
0.15278512 -2.5800126 0.48016921
0.35588732 -2.5640504 0.48951897
0.31583047 -2.0467765 0.48239911
-1.1966347 -2.0356159 0.48837921
0.37102169 -1.6535904 0.48511246
-0.26281598 -1.3145303 0.48880848
-1.2676438 -1.2951466 0.48314735
-1.2803185 -0.73077065 0.48922107
-0.37369713 -0.71979922 0.48026523
-1.1153811 0.085434549 0.48171085
-1.3720783 0.29599166 0.48567101
0.45673573 0.34259528 0.48360288
0.45046452 0.38129908 0.48980877
0.33160287 0.61663431 0.48476729
-1.0681545 0.72821492 0.48394948
-0.82282948 1.1978858 0.48044723
0.014365261 1.252836 0.48100385
-0.61531919 -3.1021085 0.4997063
-0.15996218 -3.0994964 0.4976548
0.23960367 -3.0183513 0.49625552
-0.47000235 -2.9573908 0.49366593
-1.2215997 -2.905705 0.49108654
-1.1924647 -2.8865135 0.49567759
-1.4528856 -2.8165312 0.49962121
0.078766905 -2.8154151 0.49755013
-1.1701915 -2.7149577 0.49853405
0.19819921 -2.704354 0.49817663
0.15612832 -2.6833491 0.49156451
0.46509117 -1.9025537 0.49421299
0.46336263 -1.8908594 0.4938783
-0.86805153 -1.1443598 0.49691847
-1.0569334 -1.1133642 0.49517095
0.43998286 -1.0864102 0.49087134
-0.56528509 -0.78536958 0.4997929
-1.2492954 -0.28413925 0.49624121
-1.4717031 -0.12978873 0.49402228
-1.1502162 -0.1064331 0.49023896
-0.83830321 -0.10722494 0.49391615
-1.3166721 -0.058240332 0.4928956
-0.17603903 0.61720818 0.49627474
-1.2777791 0.64191878 0.49350592
-1.3133682 1.1200147 0.49704808
-0.13486707 1.270067 0.49431106
-0.73670059 -3.1447933 0.50936782
0.19838801 -3.0274944 0.50377291
-1.225047 -2.995945 0.50148368
-0.7019639 -2.9592476 0.50932419
-1.1324019 -2.9344687 0.50139153
-1.4632277 -2.6760259 0.5074451
0.38449305 -2.5496678 0.50533235
-1.4770913 -2.5061634 0.50728083
0.49257946 -2.2888458 0.50856352
-1.0082479 -1.3892634 0.50671852
-0.31782728 -1.3812562 0.50266331
-0.87371004 -1.1455184 0.5027985
-0.48627365 -1.0003396 0.50433075
-1.3015194 -0.88863868 0.50048745
-0.43047795 -0.59358388 0.5027678
0.24557362 0.054229837 0.50355643
-1.3406353 0.47452378 0.50725907
0.10305265 0.58429468 0.5012868
-1.0855788 1.0835264 0.50782692
-0.47275347 1.2584829 0.50213677
-0.49378788 1.2830999 0.50096565
-0.12778458 -2.9942949 0.51520312
-0.82964826 -2.9597101 0.51394606
-1.0779732 -2.9492989 0.51071972
-0.87559229 -2.9495404 0.51195711
0.33536774 -2.7985823 0.51015359
0.478836 -2.3926299 0.51736546
-1.1733073 -2.196183 0.51585346
-1.169081 -2.1875708 0.51862502
-1.1776694 -2.0686731 0.51967037
-1.3347712 -0.7206412 0.51897258
-0.47446337 -0.58749521 0.51008862
0.10275009 0.14810343 0.51795298
0.30642319 0.46475059 0.51825362
-1.3334873 0.66354501 0.5124312
0.16812055 0.67245281 0.51699346
-1.123395 1.0664247 0.51094747
0.10680407 1.1626343 0.51508057
-1.1159515 1.1970191 0.5156135
0.029061135 1.1963124 0.51714796
0.019035958 1.206851 0.51679868
-0.81288606 1.242721 0.51088846
-0.33953962 1.2490256 0.51919895
-0.62483394 -3.1442368 0.52618176
-0.92123675 -3.0844259 0.52381229
-0.61369145 -3.031414 0.527107
-0.16925266 -2.9620662 0.52814299
-0.14673103 -2.9623053 0.52989423
-1.3466043 -2.7018924 0.52796179
-1.3601067 -2.6667056 0.52352959
-1.5044497 -2.392355 0.52167195
-1.4738808 -2.3892736 0.52171028
0.29057676 -2.0703013 0.52400231
0.39845335 -2.0301335 0.52052975
-0.033835266 -1.3898715 0.52273941
-0.37196895 -1.3310173 0.52307683
-0.1202579 -1.3364391 0.52613676
-1.1963164 -1.2694625 0.52663708
-0.46282518 -1.034762 0.52388573
-0.48772866 -0.78813517 0.5233767
0.28108335 -0.17903928 0.52218091
-1.1154399 0.19804169 0.52435583
0.45438218 0.43862963 0.52574229
0.013085125 0.56953073 0.52293652
0.39463475 0.59203649 0.52870423
-1.47442 0.67887914 0.52533305
-1.1692932 0.67206371 0.52278256
-1.2882864 0.98217869 0.52929848
0.16185364 1.1365068 0.52299374
-0.10730509 1.1980184 0.52743512
-0.66730607 1.2528046 0.52831197
-0.63126761 -3.1413193 0.5326907
-0.55006742 -3.1385078 0.53090185
-0.84929872 -3.0284576 0.5393641
-1.2937539 -2.8556795 0.53737336
0.27118924 -2.7638555 0.53546768
-1.1993967 -2.659806 0.53568393
0.27566916 -2.2135963 0.53484803
0.33445603 -2.04231 0.53124183
-0.42444786 -1.2489768 0.53217494
-0.84024525 -1.1568887 0.53838885
0.23392439 -1.1324695 0.53353345
0.3235999 -0.78304231 0.53545654
0.4545987 -0.69157308 0.53793806
-1.3633306 -0.51571643 0.5338881
-1.2927151 -0.27781945 0.53784716
0.13084657 -0.18746224 0.53449535
-0.32540211 -0.11364851 0.53378767
0.46212763 0.191506 0.53050679
-1.2370315 0.62015402 0.53708529
0.26028672 0.62061262 0.53500235
-1.2724353 0.89278334 0.53860265
-1.1382706 0.90340263 0.53561211
0.30051544 0.94524437 0.53469312
0.032523982 1.0009153 0.53782409
-1.3433301 1.0392716 0.53616154
-0.098512091 1.1271083 0.53893965
-0.6763314 1.1459301 0.53745371
-0.37455058 1.172109 0.53643453
-0.4030323 1.1878383 0.53571737
-0.47165918 1.191322 0.53609741
-0.38533354 1.1916806 0.53530025
-0.89397305 -3.1242239 0.54257703
-0.15948807 -3.0290542 0.54518306
0.072151035 -3.0225399 0.54111028
-0.32121021 -2.9650602 0.54689205
-1.4863402 -2.2213717 0.54643381
-1.3106966 -2.0809746 0.542907
0.44133773 -2.0370045 0.5423646
-0.3275227 -1.3781352 0.5442512
-1.2489172 -0.047540091 0.5473752
-1.2981051 -0.010716829 0.54284275
0.10925487 0.26867622 0.54582673
0.30068588 1.0590812 0.5426842
-1.2167377 1.1015924 0.54497123
-0.66237211 1.1108904 0.54067701
-0.044608261 1.1384068 0.54059064
-1.0202146 1.1560304 0.5404281
-0.5388186 1.1973008 0.5484761
-0.032650653 -3.1094818 0.5525679
-0.90786922 -2.9969344 0.55978835
0.20226073 -2.7770083 0.55900931
0.29579014 -2.7503138 0.55295074
0.4148939 -2.4799404 0.55988628
-1.2092514 -2.3817894 0.55084634
0.44849479 -1.760397 0.55264962
0.39660829 -1.5904402 0.5521543
0.094275706 -1.3242725 0.55482298
0.28957379 -1.3199818 0.55570912
-0.94104224 -1.1624591 0.55831861
-0.2115522 -0.25779378 0.55521047
-1.1581883 0.23460913 0.55032182
-1.4571552 0.27633655 0.55553377
-1.1132896 0.28101671 0.55084288
0.093162134 0.60965532 0.55666274
-1.2140963 0.61133951 0.55470282
-1.4176006 0.64923179 0.55090237
-1.2827429 0.80908829 0.55066794
-1.3254848 0.8553673 0.55836803
-1.2035458 1.131796 0.55065185
-0.62787664 1.180076 0.55200005
-0.52210933 -3.1501069 0.56170946
-0.14841947 -3.0307145 0.56536078
0.079745665 -2.8997025 0.56505942
0.25714684 -2.2783391 0.56898648
0.31263006 -2.0612223 0.56635773
-1.3046304 -1.3195875 0.56734061
0.30633181 -0.92553324 0.56336451
-0.67449027 -0.28430086 0.56627887
-0.96990442 -0.2766546 0.56620574
0.10261966 0.3060939 0.56054664
0.35214776 0.38298425 0.56054282
0.45815754 0.40012583 0.56166565
0.36098382 0.60572499 0.56133801
-0.72578084 0.63306028 0.56490791
-1.4146562 0.73119986 0.56994498
-1.4490258 0.76759052 0.56589574
0.10216565 1.0142429 0.56510979
0.215793 1.0698677 0.56420946
-0.026467409 1.1087248 0.5672614
-0.70887327 1.1401712 0.56787533
0.23172823 -2.7526107 0.57832259
-1.1710035 -2.4647152 0.5738889
-1.1712902 -2.3526707 0.57118362
-1.5060869 -2.3486886 0.57280922
0.46889803 -2.3396134 0.57741773
0.29153344 -1.3120513 0.57632196
-1.007 1.090302 0.57597208
-0.66052735 1.1392566 0.57132816
-0.6851877 -3.140166 0.5840795
-0.98765898 -3.1034369 0.58678919
-0.048342038 -3.1065612 0.58741134
-0.4689956 -2.9710333 0.58021963
0.15453725 -2.451386 0.58963263
-1.1964937 -2.3745875 0.5861125
0.15628174 -2.0298765 0.58728099
-1.4763377 -1.8857607 0.58182544
0.46823162 -0.015476836 0.58147556
0.46660966 0.13712141 0.58177352
0.1093334 0.58686745 0.58623219
-1.4561715 0.73253012 0.5812251
-1.0609125 0.87061894 0.58677834
-1.2308874 1.0115105 0.5890733
0.38270903 -2.773778 0.59832305
0.36861557 -2.7487373 0.59798634
-1.3855735 -2.6141076 0.59147835
0.48937881 -2.5453572 0.59875512
-1.4940946 -2.0015767 0.59288841
-1.2777945 -1.3171562 0.59008712
-0.21504688 -1.1731725 0.5915314
-1.3219665 -0.91327858 0.59534389
-1.330072 -0.82354933 0.59114349
-1.4674053 -0.55812949 0.59528017
-0.24869278 -0.30375892 0.59859657
-1.272432 0.10831213 0.59811831
-1.4793084 0.3106482 0.59495759
-1.1153716 0.44557077 0.59878564
0.25742084 0.86853075 0.59755898
-1.348305 0.98553228 0.59344131
-1.1787035 1.0220848 0.5959121
-0.94120014 -3.1068451 0.6086846
-0.44833291 -3.0299597 0.60765976
-1.4424853 -2.8118405 0.60592067
0.18783322 -2.6418014 0.60281271
-1.5081388 -2.4411678 0.60013533
0.16615333 -2.1369135 0.60514474
-1.4787924 -1.9317647 0.60665077
0.13654327 -1.3937957 0.60664856
0.417117 0.57605487 0.6084522
0.1610146 0.62991321 0.60725957
-1.4375175 0.64678591 0.60064059
-1.3316925 0.87234145 0.6027472
-0.20013836 1.0509202 0.60814226
-0.94223189 -3.1058769 0.61264437
-1.1495149 -3.060246 0.61508799
-0.76638532 -3.0004849 0.61093944
-0.50787097 -2.9795723 0.61149341
-1.373493 -2.8210533 0.61381221
0.48886728 -2.2772961 0.6164645
0.074244961 -2.2571754 0.6139878
0.13583705 -2.2278352 0.61237133
-1.3348147 -2.1457384 0.61192262
0.40882316 -2.1440387 0.61083245
0.33505183 -2.0971072 0.61327749
0.40981436 -1.4142778 0.61428684
-0.12964292 -1.3657577 0.61855352
0.28857505 -0.30576259 0.61638665
0.35917133 -0.21307334 0.614308
0.23489317 0.62302887 0.61777794
0.38311449 0.62511373 0.61261016
0.29353482 0.78902328 0.61001152
-1.3627329 0.92732334 0.61911094
-1.3263662 0.96604645 0.61920911
0.12238598 -3.0602934 0.62954235
-0.06668099 -3.0013421 0.62515748
0.13538337 -2.516186 0.62452281
-1.2388481 -2.43117 0.62137735
-1.5072752 -2.2093947 0.6245653
0.13428164 -2.178535 0.62393218
0.38121822 -2.1663761 0.62728548
-1.4995655 -2.0851572 0.62555677
-0.18590146 -1.3899729 0.62731969
0.26313347 -1.3380275 0.62881213
-0.28367651 -1.1541609 0.62024903
-1.1580404 -0.33459532 0.62461603
-1.4509964 -0.17622089 0.62913126
-1.4201362 -0.021501256 0.62971431
0.24188767 0.45967034 0.62120098
0.13151607 0.6215086 0.62155652
-1.437309 0.64006603 0.62040728
-1.4183371 0.79899848 0.62252271
0.36559445 0.83485144 0.62023443
-1.319638 0.94371271 0.62445617
-1.2235175 1.0283046 0.62091601
-0.4862566 -3.1308088 0.63107944
-0.45543462 -3.12275 0.63617718
-1.3547843 -2.8053603 0.63720644
0.13937102 -2.3982735 0.63128513
0.13827376 -2.3546755 0.6353687
-1.3025372 -2.135 0.6384424
-1.4078245 -1.8072059 0.63820851
0.28978175 -1.3569764 0.63387156
0.44756734 -0.919478 0.63266647
-1.3387889 -0.52073121 0.6334033
-0.95103467 -0.44879633 0.63312042
-1.4662628 -0.34974903 0.63194549
0.45205832 -0.29336038 0.63412452
0.34462169 -0.25474855 0.63713771
0.15656988 0.23362067 0.63282239
-1.1130062 0.28978106 0.63774008
0.10235585 0.5058403 0.63272381
-1.4205867 0.61900246 0.63052613
0.071202874 0.66088885 0.63842356
-0.65056926 1.0115778 0.63868129
-0.092651188 -3.0856087 0.64261538
-1.1171539 -3.0326991 0.64847976
0.37350205 -2.652452 0.64475256
-1.4926503 -2.6077371 0.64842921
-1.1708149 -2.584836 0.640315
0.15444718 -2.4023287 0.64059722
-1.4141593 -1.6404222 0.64777589
0.41635579 -1.5025586 0.6421864
-0.20364979 -1.3898036 0.64379424
-0.33948421 -1.2963636 0.6431666
-0.34070879 -1.1117798 0.64432573
-1.4606862 -1.0103656 0.64386731
-1.3258241 -0.64768904 0.64099026
0.45067465 -0.4457882 0.6417017
0.3026894 0.082986102 0.6405378
-1.3503771 0.19217436 0.64973545
-1.1517618 0.23405746 0.64036369
-1.4861361 0.2455872 0.64371938
0.24329618 0.26754418 0.64898556
-1.1906302 0.61125338 0.64997983
-1.0657644 0.83882779 0.64042485
-0.73008108 1.0627571 0.64268428
-0.33879638 1.0692894 0.64170706
-1.118235 -3.0291815 0.6564911
0.28644443 -2.8518543 0.65962476
0.15379581 -2.5432324 0.65416503
-1.2971425 -2.5156915 0.65987265
0.18172535 -2.2096455 0.65348518
-1.1263888 -1.4241799 0.65160894
0.37741712 -1.4298948 0.65362096
-0.8406769 -1.3738608 0.65614128
-0.53252304 -1.3522118 0.65969712
0.11276724 -1.1212394 0.65532511
-1.3224572 -0.61270243 0.65716285
-0.86994803 -0.51118797 0.65438962
-0.36938632 -0.372664 0.65400666
0.46851704 0.027454797 0.65815574
-1.3710783 0.21906137 0.65926671
0.32988256 0.21982725 0.6594249
0.24216667 0.38713077 0.65156162
0.21751355 0.60939479 0.65362763
0.1399496 0.93633205 0.65912104
-0.39184049 1.0428361 0.65636116
-0.44427854 -2.984983 0.66961098
0.45304167 -1.8931231 0.6677947
0.4509919 -1.872003 0.66345096
-0.094894812 -1.3944067 0.66031384
0.32517573 -1.3980925 0.66069925
0.027443694 -1.3612782 0.66035676
0.43917426 -1.1334946 0.66351813
-0.7453137 -0.59138989 0.6659019
-1.1429768 -0.35269803 0.66009188
-1.3072457 -0.23909275 0.66390008
0.26865828 0.24097179 0.66373885
0.38486093 0.24974102 0.66551358
0.46100348 0.48820144 0.66273612
0.315274 0.60236883 0.66286033
-1.2781068 0.77772105 0.66111183
-0.64020354 1.0180943 0.66731644
-1.0739784 -3.0339928 0.67779958
-1.1719725 -2.1627901 0.67854285
-1.3615751 -1.3985431 0.67363191
0.29011312 -1.3532434 0.67957473
-0.35994276 -1.3483677 0.67433488
-1.4626729 -0.32766765 0.67009991
-1.2892511 -0.29529011 0.67980111
-1.2900331 -0.28953716 0.67679739
-1.2655847 0.1514509 0.67714179
-1.239681 0.28869197 0.67197478
-1.3892788 0.30457178 0.67145658
0.10203929 0.34456047 0.67888248
0.16350412 0.8749072 0.67679209
-0.032331876 0.90118748 0.67782044
-0.97635841 0.97077775 0.67043716
-0.718063 0.98580515 0.67975008
-0.40211925 1.0107119 0.67209184
-0.91511035 -3.0607247 0.6886282
-0.96508968 -3.0527706 0.68860829
-1.471071 -2.5606532 0.68045032
-1.2613668 -2.5627034 0.68129152
0.39682108 -2.4500642 0.68252277
-1.3246466 -2.4280865 0.68700665
-1.2760388 -2.4295528 0.68671131
0.34466243 -2.3200407 0.68932074
0.18450451 -2.3105788 0.68707269
0.168092 -2.2891908 0.68225288
0.41795141 -1.4991614 0.68849534
-1.1582688 -1.3174546 0.68933517
0.016789451 -1.2032981 0.68185073
-1.2906027 -0.99521005 0.68360889
-0.77089 -0.39918536 0.68801039
-1.3234854 -0.21880068 0.68599647
-1.2325397 0.32299361 0.68404204
0.47504789 0.44089213 0.68577272
0.1733745 0.87033629 0.6820612
-0.27120018 0.90280133 0.68863976
-1.0297657 0.9388473 0.68459672
0.016974969 -3.0389681 0.69165516
0.20446543 -2.5027456 0.69403225
0.38915658 -2.4020445 0.69205177
-1.2559648 -2.3727603 0.69175613
0.285521 -2.2660673 0.69768596
-1.3413841 -1.3884614 0.69059408
-1.4619646 -0.92809922 0.69138229
0.27751386 -0.88511294 0.69741035
0.27811185 -0.86747366 0.69895196
-1.2966955 -0.83622181 0.69428742
0.10187733 0.16447552 0.69229001
-1.1127491 0.281775 0.69245863
-1.4284281 0.47286257 0.69744325
-0.19747752 0.63047224 0.69579524
-0.71560442 0.64121687 0.69442177
-1.327722 0.78872263 0.6926626
-1.3504096 0.81174362 0.69804358
0.21211815 0.8221553 0.69139504
-0.95706838 0.92063886 0.69590181
-1.241413 -2.4424918 0.707672
-1.2575428 -2.2865794 0.70256269
-0.34154314 -1.373015 0.70685118
-0.77001441 -0.5370909 0.70916653
-0.97762758 -0.39521536 0.7095381
0.36836433 -0.20689863 0.70604658
0.31919235 0.81258392 0.70773137
-0.82820535 -3.0667496 0.71187663
-0.2126835 -3.0684524 0.71689403
-1.5013188 -2.1320758 0.71227843
-1.4986509 -2.1265254 0.71927345
-1.4876014 -2.0770674 0.71994185
-1.3459482 -1.4125537 0.7186681
0.2918669 -1.3632439 0.71793252
0.27530718 -0.7585209 0.71126789
-1.4565501 -0.37619442 0.7168541
-0.39598447 -0.30378443 0.71856403
0.31486216 -0.2923913 0.71854353
-1.4233146 -0.16144584 0.71747971
-1.4891016 0.27013752 0.71516025
0.24662191 0.36120397 0.7197451
0.10641947 0.40934214 0.71340829
-1.2012105 0.42190614 0.71034169
0.14789574 0.67743582 0.71313047
-1.3496221 0.71631503 0.7194286
-1.2082722 0.7775377 0.71649182
-1.2142198 0.78239799 0.71708417
-0.22946908 0.81552231 0.71876425
-0.93546581 0.88753456 0.71229482
0.38578564 -2.722347 0.72095597
0.27239743 -2.3907564 0.72152126
0.37106293 -2.3448281 0.72538769
-0.23823592 -1.2230716 0.72627658
0.11658321 -1.1988572 0.72217035
-1.3772093 -0.23133056 0.72229546
0.40817502 -0.14624132 0.72238547
0.20917431 0.25788936 0.72556943
-1.21429 0.7167151 0.72334909
0.08947847 -2.9366708 0.73527044
-0.6401422 -2.3208086 0.73393172
-1.4501841 -1.5667703 0.73032689
-1.2469738 -1.2347316 0.73903674
0.43823549 -0.89099669 0.73515028
-0.69778287 -0.56650329 0.73572838
-0.94159973 -0.47619796 0.73476434
-0.76450104 -0.37109232 0.73632252
0.071012631 -0.29593447 0.73860282
0.2726754 -0.29814005 0.73415518
-1.3404799 0.036171496 0.73221111
-1.4348751 0.16787884 0.73679137
-1.2994879 0.67149401 0.73876601
0.38798121 0.68335766 0.73695892
-1.1960196 0.72969866 0.73052865
-1.347046 0.74179614 0.7307688
-0.36626762 0.85966301 0.73532999
-0.88365662 -3.0563648 0.74680841
0.073408805 -2.9409084 0.74577606
-1.5029948 -2.457571 0.74406958
-0.74548084 -2.4447911 0.74929625
-0.69848651 -2.3535552 0.74895424
-0.4961561 -2.321986 0.74955666
-0.62003046 -2.3040714 0.74897736
-0.85126364 -2.289639 0.74831116
-0.67337245 -2.2721775 0.74859142
-0.92695427 -2.2681632 0.74828678
-0.42002669 -2.2505927 0.74946272
-0.48298544 -2.2336409 0.74910843
-0.62150604 -2.202198 0.74385589
-0.90288419 -2.1945529 0.7482003
-0.34991857 -2.1812832 0.74932623
-0.13742526 -2.1398168 0.7499342
-0.48576659 -2.1147213 0.74842596
-0.86449897 -2.0984535 0.74809253
-0.70652688 -2.0985343 0.74809229
-0.64001387 -2.0939975 0.74808693
-0.78683978 -2.0689764 0.74805683
-0.94746894 -2.0596209 0.74804837
-0.083996207 -2.0528605 0.74962699
-0.087192133 -2.0420353 0.74957669
-0.31665215 -2.0013943 0.74843848
-0.55518043 -1.9926524 0.74796933
-0.87733126 -1.9869859 0.74796367
0.45256311 -1.9846565 0.74829066
-0.91060251 -1.9600539 0.74793297
-0.54463804 -1.930656 0.74789989
-0.46129391 -1.9112438 0.74787635
-0.60225087 -1.8931665 0.74785709
-0.30036414 -1.8747675 0.74783534
-0.1786783 -1.8513038 0.74812311
-0.85318309 -1.833261 0.7477892
-0.11943129 -1.8361399 0.74826604
-1.0187602 -1.820949 0.7477755
-0.90749854 -1.8200173 0.74777341
-0.39199713 -1.8026361 0.74775308
-0.44860357 -1.772926 0.74771923
-0.41346389 -1.7760272 0.74772215
-0.48756564 -1.754398 0.74769759
-0.71407628 -1.7279444 0.74766803
-0.14043458 -1.6835344 0.74761599
-0.093442731 -1.6823387 0.74761462
-0.48672673 -1.6728752 0.74760473
-0.67471766 -1.6428809 0.74757093
-0.57254481 -1.6428347 0.74757063
-0.85496897 -1.6381669 0.74756604
-0.76015782 -1.6208279 0.74754608
-0.0036970456 -1.4087201 0.74584609
-1.4546587 -1.0787773 0.74117571
-1.4505153 -0.55096728 0.74633253
0.35406119 0.095101923 0.74820864
-1.3829396 0.13460504 0.74392527
-1.4047055 0.1434835 0.74133074
-1.1159999 0.17850758 0.74965513
0.33741349 0.1780127 0.743209
0.34988266 0.17899199 0.74204332
0.42352021 0.2143299 0.74969101
-1.196218 0.24341385 0.74054551
0.061165057 0.56351662 0.74292934
-1.2511116 0.697685 0.74167991
-1.1961472 0.69208503 0.74115527
-0.8354733 0.7382502 0.74495882
0.064187571 0.78880608 0.74963772
-0.81892365 -3.0649297 0.75256276
-0.83912385 -3.0218222 0.75879943
-0.40994504 -2.4174933 0.75042886
-0.17086551 -2.413626 0.7513296
-0.18819368 -2.3467438 0.75088489
-0.35130209 -2.3227658 0.7501201
-0.060220394 -2.3162994 0.75123131
-0.1775219 -2.2631581 0.75047541
-0.78947759 -1.858104 0.75811553
-1.467108 -1.8210032 0.75809896
0.27567905 -1.385306 0.75582016
-0.98568445 -1.3791819 0.75550878
-1.0524348 -1.3634486 0.75620931
-1.4556158 -1.2451602 0.75152647
-1.2598765 -1.0309241 0.75480074
0.43329927 -0.87322742 0.75692374
-0.84281951 -0.6107322 0.75063294
-0.32399851 -0.28213519 0.75736296
0.4396497 -0.010395267 0.75888115
-1.2214261 0.045359638 0.75345206
0.24213287 0.10640532 0.75710821
0.25674227 0.12336667 0.7545113
0.42272881 0.18941773 0.7537092
-1.4327747 0.32957941 0.75455308
-1.1490312 0.53339863 0.75024951
-1.1856086 0.63282514 0.75717169
-1.3156966 0.64991111 0.75759292
-0.88917506 0.69231921 0.75890326
-0.42740759 0.72849977 0.75739467
-0.0678166 -3.0509107 0.76784587
0.25690642 -2.9292192 0.76311827
0.48585454 -2.3909857 0.76521784
-0.021332784 -1.647735 0.76077247
-0.92173111 -1.4068267 0.76731205
0.14467207 -1.3732135 0.76692808
0.1114172 -1.206846 0.76380843
0.25680074 -0.71560919 0.76904625
0.26257044 -0.59664214 0.76337743
-1.0134836 -0.57151121 0.76720536
-0.75509453 -0.4556548 0.76659524
-0.16794196 -0.26163742 0.76696426
0.0076463129 -0.26044321 0.76185179
0.45480368 0.42757076 0.76298755
-0.89329696 0.66665757 0.76785284
-0.88374209 -3.0354977 0.77478206
-0.52600646 -3.0000236 0.77060926
-0.51905042 -2.3172278 0.776021
-0.23543693 -1.9264917 0.77163672
-0.97432482 -1.689787 0.77540654
0.43866569 -1.4094913 0.77169335
-1.2982415 -1.3502429 0.77770925
0.1032812 -1.2745417 0.77804154
0.42967248 -0.94215488 0.77311611
-0.73700464 -0.33875504 0.77694881
-0.19244161 -0.23596446 0.77968645
-1.413636 0.44942912 0.7760306
-1.0020967 0.55021113 0.77151191
-1.2562351 0.59636343 0.77538168
0.36633331 0.59618378 0.77693951
-0.53068942 0.69299328 0.77166408
0.15542121 0.70409518 0.77845037
-1.064149 0.71994472 0.77653855
-0.97608006 -3.0481853 0.78641671
0.40719038 -2.7603266 0.78408146
-0.91261053 -2.4968638 0.78060865
0.48300058 -2.3180201 0.78268987
-0.65070927 -2.2033527 0.78522623
-0.4026154 -2.2034316 0.78204948
-0.10491647 -2.0976429 0.78889608
0.30665383 -1.4252656 0.78327006
-0.32402879 -1.3860809 0.78262198
-0.23766355 -1.3770554 0.78361988
-1.2338985 -1.3229074 0.78834063
-1.2876484 -0.46086407 0.78248727
0.39680907 -0.41683447 0.7894541
-0.041706264 -0.21912302 0.782902
0.21451657 -0.20595002 0.78220153
-1.4506333 0.43397826 0.78611273
-0.81126356 0.5577842 0.78978169
-0.74703336 0.57083195 0.78168821
0.22389784 0.57828987 0.78438258
-0.60429323 0.61333835 0.78009385
-0.63192284 0.63918918 0.78796077
-0.98977065 0.70656669 0.78314686
-0.7797938 -2.458302 0.79561496
-0.67359704 -2.3770938 0.79381359
-0.16791847 -1.3863642 0.79309523
-0.15186933 -1.2577677 0.79347169
-1.285678 -0.50755095 0.79422867
-1.2762885 -0.33037773 0.79897302
-1.2972157 -0.32490897 0.79501665
-0.91353494 -0.32129693 0.79845715
0.34424388 -0.26129201 0.79503417
-1.15263 -0.19008237 0.79006124
0.15270966 -0.16709958 0.79952896
-1.3041883 0.53882259 0.79238391
-1.2900679 0.53684747 0.7942428
-0.82764149 0.5412299 0.79483086
-0.67996323 0.57484072 0.79053372
-0.96329653 0.58179402 0.79532552
-0.93525511 0.58294863 0.79588252
-0.30887002 0.59823751 0.79784167
-0.60936636 0.62209052 0.79536223
-0.46904439 0.63525665 0.79183531
0.067096837 0.66416425 0.79616213
-1.0320818 0.67461586 0.79390168
-0.29426295 -3.0822382 0.80383205
-0.11450415 -3.0625312 0.802329
-0.78050846 -2.2705867 0.80966645
-0.58207071 -2.1895013 0.8030026
-0.29686812 -2.1334906 0.80300182
-0.64478683 -2.1208496 0.80300248
-0.66172642 -2.0515857 0.80300224
-0.63843274 -2.019048 0.80300206
-0.35872096 -1.8432479 0.80300087
-0.56001443 -1.7842233 0.80300105
-0.33424947 -1.7769756 0.80300051
-0.64456517 -1.6800292 0.80588752
-0.71827084 -1.3682172 0.80169499
-1.3902133 -0.49376017 0.80972219
-1.0740967 -0.34349823 0.80599725
-1.2526846 -0.26979452 0.80499429
0.40149653 -0.031042896 0.80185115
0.43580598 0.25780046 0.80871987
0.34987551 0.47013438 0.80773717
0.37042761 0.47276407 0.8094871
0.067110166 0.55909419 0.80120814
-0.56044596 0.57716233 0.808635
-0.77112079 0.62916237 0.8090958
0.013717027 0.64939678 0.80161047
-0.36477309 -2.9942856 0.8142435
-0.90182233 -2.6539328 0.81686282
-0.73038721 -2.4584365 0.81884253
-0.20607008 -2.4585946 0.81146765
-1.4686356 -2.185204 0.8124314
-0.29107693 -2.0317943 0.81285346
-0.088632219 -1.8198867 0.81615531
-1.0063716 -1.637588 0.8101154
-0.87921131 -1.4101357 0.81759989
0.088494942 -1.3189975 0.81461781
0.40769517 -0.91518539 0.81485623
-1.4165939 -0.81592 0.81121659
0.27683622 -0.4543142 0.81169599
-1.3604956 -0.20665218 0.81021291
-0.064484693 -0.1508166 0.81187183
0.36599928 -0.0079366155 0.81267333
0.15670034 0.40793896 0.81079638
-0.2533969 0.4906913 0.8186124
-0.29427308 0.51888245 0.81037885
-0.46218228 0.64297676 0.810619
-0.69021964 -3.0775552 0.8275913
-1.0663939 -3.0168676 0.82796174
-1.2774739 -2.9313335 0.82979882
-0.37209317 -2.4586151 0.82791096
-0.39619511 -2.3679171 0.82632905
-0.75194687 -2.3548453 0.82204074
-0.65272725 -2.181268 0.82672918
0.086958691 -1.2704141 0.82463622
0.22852558 -1.1719246 0.82696164
0.39542496 -0.94585675 0.82505155
0.25171298 -0.83148873 0.82947022
-0.84256375 -0.32851848 0.82133621
-0.52958894 -0.18470876 0.82193953
-0.43322349 -0.18264671 0.82037544
-0.26340318 -0.12746195 0.82035422
-1.1097052 -0.063842721 0.82263649
0.15443191 -0.055610731 0.82359809
-1.3331454 0.34671068 0.82969499
-0.4222565 0.45852894 0.8297472
-0.65214241 0.46303666 0.82723951
-0.59209281 0.48677558 0.82206923
-0.5846284 0.48628384 0.82637823
-0.95624757 0.58035851 0.82269776
-1.0647167 -2.9990227 0.8384757
0.44043121 -2.4675951 0.83361572
-0.76354903 -2.1400254 0.83563393
-0.09707424 -1.9864438 0.83216012
0.025734186 -1.3708124 0.830989
-0.24058226 -1.2481759 0.83911747
0.38766277 -0.98420227 0.83162785
0.3217814 -0.19120531 0.83477259
-0.72116625 -0.00093622645 0.83981335
-0.10470477 -0.0013308898 0.83721757
-1.0066205 0.019580394 0.83384144
-1.1039937 0.067209542 0.83332992
-1.0995233 0.35432455 0.83312505
-1.0425594 0.3876766 0.83417296
-0.12641214 0.42959505 0.83626306
-0.7344265 0.44670346 0.83910912
-0.72812217 0.45812649 0.83343458
0.16181159 0.49975964 0.83472598
-0.68423301 -3.0731306 0.84352642
0.014198069 -3.0022759 0.84999478
-0.89607 -2.7932425 0.8403917
-0.90898478 -2.5856576 0.8435849
-0.58043253 -2.4586091 0.84226143
-0.53299135 -2.4586535 0.84760642
-0.39035261 -2.4405365 0.84725857
-0.65253836 -2.2569511 0.84051746
-0.087581053 -1.8213547 0.84753668
-0.6562016 -1.6380218 0.84778154
0.39098161 -1.1435827 0.84381169
0.39313954 -1.1204358 0.8403976
-1.3509967 -0.75157624 0.84534538
