# .PCD v0.7 - Point Cloud Data file format
VERSION 0.7
FIELDS x y z
SIZE 4 4 4
TYPE F F F
COUNT 1 1 1
WIDTH 1569
HEIGHT 1
VIEWPOINT 0 0 0 1 0 0 0
POINTS 1569
DATA ascii
4.7954993 -88.346497 24.707865
178.29662 -91.914299 64.811516
0.37846458 -78.299866 33.185741
201.00409 -59.301453 65.442085
-1.3110931 -35.470486 28.089314
123.61813 1.5280387 27.608362
32.486259 -55.178894 21.967628
66.202675 -59.346783 27.340218
87.132957 -90.853706 40.35759
91.327942 -94.066376 22.170965
74.754868 -20.282808 48.986851
213.80499 -41.235424 53.714104
-29.163921 -92.677948 60.360737
52.652569 -70.430481 16.6691
134.99805 -38.825634 16.6691
82.208199 -98.870102 46.044624
23.506149 -63.403755 74.381828
152.94098 -49.61861 57.9006
136.76773 -5.0445223 17.986322
14.903144 7.3595433 1.7073375
213.80499 -77.876724 40.668499
-56.957294 -80.444397 52.057098
-9.6198902 -16.425301 36.435631
-1.9958962 -94.878998 20.987946
24.381069 -76.481102 58.904034
61.284489 -53.797096 16.6691
93.299393 -67.818848 16.6691
126.25713 -28.989519 37.395508
-37.600334 -89.513153 16.6691
160.84407 5.394908 47.862209
87.579422 -47.984386 16.6691
8.8967342 -89.138702 19.782108
31.296329 -15.80261 18.991571
132.16998 9.2080898 16.477554
135.51833 -89.868217 17.126125
-45.063007 -37.656067 48.341145
-46.70311 -34.850281 17.926701
218.242 -10.128865 28.75555
97.225021 -4.7007833 84.735313
-18.476997 -4.0902815 21.215132
78.565529 -27.631121 74.311523
145.84575 -4.9484916 47.826374
117.92307 -16.40403 64.796371
168.40155 -36.950317 16.6691
-0.66376144 -17.548046 50.560162
208.27898 -95.790688 29.371342
-48.079124 -42.278679 45.325935
141.37448 -21.314142 46.168911
165.50082 2.2721827 46.204815
140.71837 -97.370499 45.897133
-55.734188 -81.542061 34.545025
154.19569 -62.188526 60.706608
84.672699 -48.83112 92.214302
-16.327047 -80.980003 16.972164
75.476326 -12.2019 70.090332
15.810608 -48.814854 60.072052
-47.947109 -59.075348 17.971264
131.49274 -8.0750399 22.489407
-57.06168 -79.07901 28.316267
107.91336 -21.899616 16.6691
57.581333 -58.357803 25.872423
53.09079 -27.646053 32.275093
196.34515 -77.691101 16.6691
25.685413 -45.0481 34.156075
-22.273182 -27.674866 32.574085
97.840622 -86.441216 82.393097
211.867 -31.623255 42.185703
109.11546 -89.324364 16.669102
24.011433 -87.560722 60.187294
16.982775 -54.970745 31.401281
-50.093071 -62.583691 55.470512
147.22563 -93.409363 66.786224
-20.518127 -32.916 64.380653
113.4418 -69.233688 51.432449
181.23141 -62.856113 66.564034
-25.296467 -14.153363 22.917789
170.97134 6.9474936 61.601192
-47.834557 -51.300198 45.479401
142.53577 -74.459244 32.221344
17.351002 -64.269173 47.928055
123.36021 -0.10918865 27.309334
17.508463 -9.4264641 46.434666
41.950439 -10.67186 16.669098
127.02088 -10.667203 40.74865
49.748413 -2.4968922 18.646101
14.014848 2.1413906 39.144196
-34.111778 0.0035782754 16.6691
-55.942497 -35.36972 23.550817
-2.9104085 -48.976486 47.275887
69.596199 -33.043701 35.803692
171.93027 -93.430801 63.84861
131.11127 -35.220558 16.6691
103.27999 -51.220837 16.6691
0.83699906 -26.936108 35.529991
137.34288 -57.201996 92.169113
67.332466 -39.75293 16.6691
62.122711 -16.538099 26.730196
167.13188 -0.076611757 72.898972
146.00189 -7.9268727 47.846931
74.20266 -83.3265 47.587601
60.211906 -86.772667 47.185501
64.397614 -26.923054 26.966599
209.64127 -87.883957 18.993841
-9.6935425 -29.413692 46.788795
25.978806 8.1237793 69.668808
38.736362 -74.970856 51.533218
188.92322 -97.504242 57.733749
0.38799512 -8.6775532 48.087051
148.73195 -88.610603 17.705299
144.52692 -0.91395497 28.45854
-39.572136 0.3168745 16.6691
149.20638 -80.82901 85.059868
35.584595 -3.5260246 28.675913
213.80499 -71.449554 39.611614
122.36143 -9.9033279 55.54987
-53.828117 -34.02581 19.150881
213.80499 -59.633404 43.231407
137.27127 -97.107697 61.403072
118.78677 -42.671402 20.773399
16.690081 -14.489226 43.111671
128.18907 -33.886337 92.213913
-9.9454756 -86.255051 44.560883
139.54562 -47.072777 24.841955
57.042736 -51.548996 18.931744
88.685333 -44.191475 20.773399
134.3215 0.80861819 15.458138
39.980946 -98.870102 53.931244
-17.840899 -40.038692 44.688831
160.0795 -31.802179 47.962872
154.14075 -1.9942164 41.598328
167.44748 -5.601182 63.157692
28.945477 -46.777985 39.203175
-42.389389 -93.993263 55.477421
126.16663 8.0297489 58.248119
128.2626 -31.435406 47.024395
43.749874 -50.513416 48.929577
-37.797794 -96.71833 49.54081
147.70743 -92.131104 53.874668
30.566914 -93.012253 37.090057
117.33288 -65.98658 16.6691
123.36624 -11.506726 90.655769
60.705872 -29.1618 18.423777
165.71033 -24.176582 75.973305
47.357162 -90.649292 56.371597
108.7591 -65.180779 27.932281
145.25708 -0.91395497 24.011456
-20.610535 -31.674822 34.06649
111.04226 -96.757935 31.69005
36.608837 -42.335182 32.809399
-54.915417 -86.300049 34.770996
61.281345 -33.962727 90.17421
62.669178 -18.362137 28.517933
161.71022 -98.789452 56.19257
132.75822 -13.048658 90.868126
-19.064537 -34.546345 43.718193
61.627796 -32.680946 90.23938
189.04387 5.2858086 26.042259
94.614464 -70.773438 16.6691
21.611427 -3.1610322 14.145742
133.2059 -85.469856 84.568695
134.25523 -82.517258 35.72876
-19.202585 -55.2244 40.184692
89.613693 -80.999603 34.448669
88.667923 -13.305523 24.302078
12.051614 4.9688301 36.773521
-47.274696 -29.849287 23.536705
139.28119 -97.421967 45.009441
75.970039 -67.864357 16.6691
155.85963 -40.31702 82.077011
-2.1945741 -74.79361 20.621506
196.2088 6.8337488 46.711441
121.99184 -48.511951 92.21431
75.527344 -41.289234 31.0035
29.024849 -68.472527 39.099735
95.815262 -70.02224 91.590286
55.150597 -74.94854 16.6691
216.78871 -12.137473 25.976662
144.94797 -15.006352 38.174438
72.016541 -31.140987 16.6691
172.40057 2.6587934 15.274769
123.17966 -1.4925163 26.20208
202.73557 4.8864799 24.400391
49.239113 6.7635274 32.212875
93.68486 -22.246872 91.688385
84.818489 -90.88356 72.443375
131.62354 -92.131104 18.780359
123.52442 -79.198166 75.818771
120.3065 -26.6092 76.593246
-23.401609 -77.320747 28.567585
51.392883 -97.03582 61.625759
45.897564 -52.313473 16.6691
166.35056 -96.024826 45.85284
188.42297 -34.597378 16.6691
13.681844 -99.396202 40.304848
117.94749 -74.306534 39.489246
-55.887691 -78.527977 33.847626
34.262024 -65.480087 31.868843
21.322466 -80.980003 36.231022
-59.004898 -44.573341 47.569206
116.55951 -32.632397 92.157288
37.313614 -20.161634 42.449982
62.152538 7.3145156 35.041977
142.71658 -52.377167 16.6691
122.37956 -91.678688 23.699724
115.49905 -32.049908 32.540764
135.51335 -28.32004 16.6691
15.013913 -19.849586 68.338997
140.54532 -81.897491 27.309105
42.412552 -86.343567 16.6691
66.327171 -32.052063 44.566071
-44.260262 -63.651199 34.955544
125.72198 1.9761546 40.503128
34.631268 -45.048096 40.269009
16.535526 -18.335697 49.295185
80.139366 -3.9167693 16.6691
130.0273 -73.691299 59.828613
56.600685 -42.131889 32.809399
-4.6855006 -12.874077 28.257713
-48.893368 -32.861969 20.988216
213.80499 -18.37155 63.247047
3.8448682 -18.390198 49.07159
154.39938 -23.01572 82.749268
16.116449 -18.051453 69.121902
-3.8444905 8.272501 55.336098
125.11501 -84.944458 32.86412
129.91515 -71.509964 58.691044
159.59953 -87.778351 48.026062
62.606945 3.6152759 21.198696
70.913879 -31.615358 55.443195
89.813568 -93.518898 66.358627
-17.701866 -6.3786669 64.414169
-21.024033 3.4493661 62.172562
163.26176 -22.94211 62.615803
146.13968 -10.10708 41.115509
100.55402 -20.242266 91.597885
-46.536308 -44.455048 42.514538
81.723785 -24.860933 16.6691
29.443289 -72.894165 77.535721
87.214706 0.5547778 38.763107
18.397007 -45.0481 27.919971
70.469505 -61.191574 34.957878
69.861526 -28.949961 33.418713
93.381989 -98.238182 39.290497
22.502377 -92.131104 56.598618
16.357555 -99.39621 41.193768
-21.800812 -96.411789 59.235088
19.27627 -1.0944014 22.365854
184.33037 -42.02142 25.516323
42.931179 -57.814636 84.362732
120.017 -14.519711 78.040543
218.242 -32.431896 28.557823
133.5488 -68.034355 17.411644
155.28204 -94.878998 19.575577
218.242 -6.4820299 28.610697
183.27681 -59.200764 28.060253
95.526031 -84.587601 30.008598
-45.906113 -37.903694 48.343098
33.041122 -71.511055 55.742805
-57.77 -3.1251791 50.000828
165.4136 -68.051437 76.088959
121.40627 8.5534821 49.898045
213.80499 -76.13166 58.222565
47.588356 -4.5061798 30.032795
69.634293 -51.293755 30.300194
55.178219 -61.63382 32.087818
196.09164 -87.668839 16.6691
68.615112 1.6437578 16.669098
136.3629 -64.399338 91.844147
109.82835 2.7489026 60.47097
114.29102 -48.496361 41.441799
38.747734 8.7738504 55.122044
-50.131371 -49.574402 31.997898
17.351002 -72.476837 28.585062
12.526644 0.11196423 47.978065
73.291939 -44.687698 16.6691
144.98273 -60.830444 38.2603
170.20276 -4.9239297 31.83106
-44.964043 -54.762066 29.579639
2.2359352 -62.323608 32.020004
172.00909 -61.924427 72.202805
148.08162 9.2080898 0.92975396
50.903179 -66.8209 30.254547
162.21481 -63.255737 16.6691
151.2294 -1.65746 35.009361
165.46236 -19.960867 16.669102
8.8520565 -5.8904581 48.46183
53.771645 -77.970802 24.996887
-55.555393 -48.096291 36.338402
43.597107 -57.147362 34.880569
-48.923981 4.7120767 31.555393
27.58127 -3.5233903 74.592102
97.089645 -70.459267 24.873461
157.02493 -38.505974 81.36451
-49.357105 -54.137005 55.779114
4.1122255 -97.814621 59.139858
52.998142 -51.315605 16.6691
59.006683 -38.547199 21.483332
-25.35273 -88.493637 22.490412
-55.530045 -11.59192 22.634066
61.291679 -98.870102 54.023903
46.649296 -34.304798 28.711956
8.8799515 -13.74847 25.508358
113.37514 -66.508148 51.252094
96.073608 -1.042529 28.516132
148.2117 -54.067364 46.229088
65.848907 -44.019287 32.809399
-17.696291 -50.551361 34.204399
74.619324 -98.150871 38.842258
1.1546383 8.869875 -0.23630784
-52.822372 -71.369049 17.054195
93.026878 1.7721515 49.550022
-0.99898416 4.8269243 40.409752
213.38953 -25.572678 24.93614
41.140079 -64.596252 24.204321
121.99494 -0.79099667 21.810511
143.88774 5.7266393 46.59465
178.21404 3.7211907 65.872292
184.95822 -66.106361 21.871265
-49.770721 -39.930099 25.777573
23.069477 -9.5386972 58.410316
152.95316 -18.804064 57.930588
116.01854 7.4995308 35.991966
171.24561 -21.580715 16.6691
92.265724 -88.746475 25.168049
10.012319 -98.870102 54.721684
122.22874 -88.070251 20.542009
137.82248 -80.501312 90.379997
188.6597 -97.579697 38.590919
-16.218803 -61.899837 65.1092
52.289433 -70.473175 16.6691
0.2660352 -34.701504 50.84837
109.97162 -4.5061798 30.570377
11.162628 -0.91395497 10.927435
1.5337026 -75.191643 31.298752
163.78012 4.9606552 9.7160454
145.70076 -57.674145 88.288422
-55.907806 -38.56797 33.881184
-21.531862 -97.260353 35.200634
124.56248 -23.801411 30.854536
18.926844 -57.542599 20.075718
124.58302 -96.573875 30.744984
-31.986359 -97.007942 49.068085
23.26643 -38.327507 32.809399
-31.728115 -15.865666 61.654755
113.44843 8.1600342 39.383385
48.27113 2.4359026 68.750961
77.964485 -0.39819747 29.375111
122.93738 -64.636581 62.727242
15.452862 2.387394 21.584652
-46.638668 -28.45505 44.06126
75.188194 -40.512505 33.310631
134.54068 2.0348301 33.550392
-6.3331642 -87.421303 17.35861
-19.016342 -48.241783 32.895073
185.55994 -79.209114 17.300171
-7.2632952 -80.979996 42.261055
26.949028 -46.64286 32.809399
57.285931 -87.709579 79.552261
22.124548 -26.714415 22.239246
38.002861 -63.460384 44.575222
-6.6276703 -39.975513 49.013607
34.644375 -79.142174 30.945797
13.693564 -87.818298 32.465668
159.43982 -43.501709 79.887993
-48.985641 -28.199402 22.799259
51.865791 -46.716309 32.809399
123.38892 -62.4846 77.31842
130.77635 -41.262028 18.17832
68.834137 -69.426636 54.875549
43.267841 -51.262474 49.325493
211.52594 -93.459221 51.286186
146.81421 -92.364075 69.127419
163.32941 -92.214691 52.026745
21.821733 9.2080898 12.458294
132.14723 -52.342373 16.6691
154.28175 -94.221458 45.949429
118.72365 -1.760893 16.6691
128.33983 -92.131104 45.530933
139.42618 -94.828178 64.649101
151.45258 -57.768848 61.149521
39.597855 8.7738504 47.177399
117.66377 -0.44274026 75.19838
136.39784 -87.17218 17.073442
140.99442 -34.885567 16.6691
207.34702 5.1238232 43.735863
149.32709 -88.610603 36.986328
185.10013 -93.514145 20.792702
3.9490411 -11.915935 32.398598
44.546837 -47.439457 44.85997
100.7741 3.2770236 63.768898
128.76305 2.0348301 43.108986
165.73651 -10.212292 41.146141
-0.78175604 -2.0300801 14.3944
111.55386 6.7217064 31.998188
19.884146 -56.990658 71.995071
101.60956 -1.3670764 27.23671
142.14429 -35.549507 90.462959
11.849957 -93.575867 65.052589
108.40957 -60.773445 92.007866
33.201946 -70.250412 60.457436
16.885763 -29.729885 35.282669
69.683197 -28.726938 54.133621
-41.084026 -1.3172588 16.6691
-1.0216208 -16.425301 46.079197
-13.058237 -96.590858 60.486122
-10.205309 -60.860947 51.817699
65.189514 -38.547199 21.55744
86.993713 -80.524689 28.197973
104.77303 5.9672761 28.653072
-30.093647 -29.308485 62.290512
66.262939 3.8925161 65.488541
47.093006 -11.608963 16.6691
-15.00618 -45.018661 65.27681
1.7390602 -1.65746 26.302816
13.739568 -87.818306 19.777771
61.691151 -39.235783 16.6691
160.99808 3.1464596 58.099243
-44.724731 -43.920612 20.741592
5.6333957 -14.355495 23.59964
-47.361855 -95.22879 32.283684
-10.423671 -8.8668232 65.45282
124.04333 -11.045577 75.449463
173.29401 -3.9501307 41.659065
141.91646 -81.533302 37.586025
10.8423 -88.610603 18.068602
176.11409 9.2080898 28.121693
1.7976671 -22.449211 66.433846
162.50842 -77.251007 77.477081
53.521011 -97.019363 33.032486
144.74458 -97.986748 58.679588
75.129013 -38.547195 26.821701
-15.684618 -47.733093 47.797047
-22.187239 7.3340983 41.40414
32.508957 -48.322845 57.194584
59.145638 -4.5061798 26.510973
3.1686342 -46.347389 33.344971
17.351 -77.250885 32.007889
120.12593 -6.3718185 43.381653
24.950787 -99.396202 25.479826
123.97806 -65.223068 68.452774
142.99643 -88.834419 77.032936
90.297104 -98.640366 49.905495
97.577744 -75.849777 24.891388
126.40044 -77.359344 19.388403
48.298035 -88.101357 20.280914
128.16895 -56.481319 46.525169
121.04056 -58.545944 47.307079
20.868809 -3.39816 17.900534
-25.864819 -83.785652 18.600567
-49.275375 -63.651199 24.455008
7.3426824 -0.91395497 27.703421
50.979492 -89.056 16.6691
25.93153 -21.513979 58.086132
-16.566988 -68.858177 29.5853
0.63983393 -0.91395497 27.926928
127.22511 -92.131104 30.102776
77.04126 -61.202934 65.787361
60.015625 -46.138458 16.669098
132.81508 2.1040325 69.494263
53.481598 -34.304798 25.137133
198.58205 -56.342083 16.6691
130.8394 -17.386009 39.488445
116.4268 -62.481636 58.374092
121.7137 -87.775864 19.674427
181.34703 -13.507597 66.218475
67.734947 -57.328819 47.599953
54.255291 -73.671951 16.6691
124.82852 -79.001236 30.822319
-5.3820033 -50.688137 51.322701
151.81027 -39.450344 16.6691
154.17148 -0.41828799 25.495594
-57.461525 -1.0152586 47.622841
200.30264 6.4814196 39.72636
37.057491 -36.790756 25.12007
141.40839 -8.306179 29.439074
94.28653 -0.87049931 76.156448
17.316664 -22.212929 18.042805
165.38902 2.5243554 68.552849
37.96035 -7.3925314 18.534227
108.83807 -72.717834 25.798149
-17.984785 -62.5378 40.661346
24.416159 -25.645252 58.257782
1.7020354 -73.664268 17.221842
142.70872 8.7738514 47.923992
28.138557 -93.518898 55.902374
110.5592 -16.346031 26.7318
76.560852 -55.432693 92.214302
168.49011 -41.80101 74.354401
49.976868 -90.400909 16.6691
212.14749 -16.370209 21.624569
131.77399 -37.595901 40.205738
11.99095 -93.785217 65.0327
104.45786 -45.274498 16.6691
-23.574848 -11.31767 28.489939
108.0716 -54.808552 25.80228
149.37679 -5.7509885 83.985916
199.18848 -96.673569 34.662727
130.92442 -65.217697 16.6691
149.93648 -64.593636 48.364944
69.567482 -74.937294 33.417953
24.279736 -39.028625 25.384649
117.71124 -14.622807 16.6691
77.31385 -27.290304 62.52346
34.312519 -71.47216 54.467312
129.25485 -8.2670612 53.364723
32.875046 -91.543182 16.6691
213.80499 -78.754837 48.277657
-15.658142 3.147661 11.399478
140.60208 -31.826296 91.336182
40.869446 -49.070953 41.097034
41.259575 -13.24341 24.196016
121.59019 -65.957504 20.718594
185.65184 2.978776 64.820175
-21.212181 -46.393284 37.172466
164.41718 -1.65746 15.889883
53.46077 -91.66423 37.756744
105.57511 -19.807461 91.578247
133.65688 -83.153732 89.756279
68.693108 -45.0481 20.988518
61.333359 -67.6577 35.347885
125.5181 -70.858337 16.6691
3.8539157 -60.549904 31.169197
110.90582 -37.581898 35.433853
36.08226 -67.656326 56.86351
75.485306 -83.3265 60.635513
60.302216 -20.795843 16.6691
2.5452142 -61.065323 49.716831
21.197105 -47.224762 24.253269
51.494152 -10.42 20.951393
2.8633275 -53.687729 39.916306
100.47607 8.0211153 58.274864
52.140381 -67.234558 24.933306
152.46432 -86.996231 81.150002
32.335323 -61.079575 34.785408
112.5191 -58.694256 19.453854
21.561256 -80.980003 13.252245
41.330265 -9.0948248 26.955589
24.052744 -55.49432 74.728745
160.42868 -93.441498 44.961723
-8.5984001 -37.100258 66.032257
60.138359 2.3990312 68.833542
-4.9215393 -75.28167 22.156128
-3.7297873 -90.619499 14.408802
96.536758 -70.615051 91.563522
97.001106 6.6887808 31.829149
150.93207 -2.146888 41.456638
118.82657 -49.764969 16.6691
30.953815 -88.968498 36.585835
106.386 -94.755859 47.638912
17.351 -84.127655 31.593946
25.324242 -28.000298 42.067459
-50.379364 -42.087082 23.494789
185.75211 -28.137072 16.6691
69.397423 -93.51889 63.316093
127.20319 -27.792509 41.609543
104.52011 -0.81421137 76.03038
-15.595025 -17.527336 50.330677
5.9023943 -1.65746 23.478802
99.278244 -11.504639 24.967289
173.73117 8.0177479 58.282188
4.4276319 -38.291161 48.209743
26.896179 -77.368698 28.718338
1.45855 -25.801786 50.869568
142.44266 -9.7590923 31.991562
-56.090446 -53.047382 33.0135
70.285553 -28.997808 34.325993
74.11721 -11.489696 45.55827
28.999487 -3.1385839 16.6691
-30.998329 -7.0776272 16.6691
17.999386 -84.542259 36.106781
-12.30114 -99.396202 35.747604
105.95834 -28.820007 25.413719
92.680618 -17.943447 16.6691
-16.052753 -61.623604 50.881996
16.954678 -49.386044 32.525425
-59.004902 -19.694014 47.170444
128.56084 -15.162049 48.809017
-13.920457 -94.161484 36.684937
-46.975632 -61.851425 34.501728
31.195766 -45.0481 53.06015
160.55156 -8.7177629 61.989868
17.08391 -21.776192 27.355059
-12.707339 -96.314697 30.510202
57.601982 -90.26944 16.6691
143.93913 -11.255405 35.684727
37.896099 -7.4201856 19.02228
110.52276 -67.197884 44.90477
128.27449 -55.294823 47.087814
-6.4082899 -1.65746 27.020702
104.54656 -19.247272 91.552963
170.54861 -37.532639 73.095779
195.1989 -86.45182 65.021927
128.24092 -9.2449493 46.908882
4.241673 -28.659985 44.145981
-49.318417 -85.037949 16.6691
151.78044 -27.84553 84.489716
0.27085742 -46.113163 50.845978
90.197472 7.3740396 35.347649
213.80499 -18.890884 58.542358
152.03966 -3.8933935 55.676178
84.279068 -26.566425 30.140497
90.543205 -18.541655 16.6691
36.425751 2.5749145 68.439613
38.116959 0.20916986 17.344654
-15.363588 -30.349363 46.7034
31.438013 -98.87011 47.281853
107.25223 -14.527825 16.6691
38.143398 6.8975267 32.900883
145.0233 -98.870102 49.6791
22.05991 -5.2469931 44.549393
-12.090768 -33.684212 49.009499
25.250122 -31.913494 75.488708
170.48221 -96.16539 31.292389
61.323593 -84.587601 26.961134
140.13524 -94.231522 41.543995
34.837982 2.0348301 45.026283
-3.5164497 -33.788578 66.4207
107.30678 -56.521347 25.839602
96.076538 -26.816799 25.486149
53.210663 -34.304798 31.614876
5.8758702 -87.818298 24.080067
77.078995 -15.721405 69.02491
47.399986 -98.870102 44.464897
52.877781 -38.547199 16.999084
70.477295 -45.0481 19.42786
18.139357 -14.15703 24.223715
145.62085 -89.635399 16.765675
145.5806 -11.574237 34.152882
70.372971 -45.048096 28.238983
95.172844 -84.587601 32.545547
61.532295 -23.840611 32.313725
213.80499 -9.6914959 39.451744
165.08769 -93.006783 67.68792
190.49112 -0.29110807 64.952965
-25.186039 -2.761569 23.756409
37.232964 -92.466576 68.897827
75.66391 -61.118256 66.417007
151.17067 -78.110512 61.196659
193.52705 -65.435371 65.824066
47.423515 -16.769403 24.63003
100.07254 8.7738504 46.847481
-6.8879495 -4.1676054 37.764992
-39.873135 -53.347553 59.384377
94.45031 -70.841957 16.6691
193.7822 -28.513563 16.6691
-46.84729 -32.456089 40.463036
166.14397 -0.91395497 23.061838
125.19879 -6.7589493 33.185268
61.611866 -61.984661 25.528053
13.474152 -85.579216 44.190292
74.412827 -33.696018 92.205315
67.032013 -94.401237 23.426228
16.369749 -42.473854 55.927746
99.347466 3.4226501 65.283516
19.286562 -25.547478 58.838806
151.39807 3.6169994 -0.49086362
-57.961174 -44.913261 43.651745
106.386 -95.840233 41.337879
19.934608 -10.516939 39.581741
16.47665 -42.176167 51.650707
8.5822344 -81.408035 66.024414
30.960173 -71.563148 37.579109
174.68719 -22.968 70.51944
-8.5711403 8.0586443 54.703812
-19.131516 -11.902596 33.314915
51.623055 -82.269547 24.86673
35.523087 -82.167038 28.824438
-9.1722708 -20.744143 49.26442
12.293149 -39.202274 67.594833
137.94482 -28.343252 20.891304
63.842258 -79.760292 16.6691
3.8556175 -54.750484 38.967155
7.3777432 -88.346497 18.076496
76.512955 -68.353989 59.050159
50.120441 -15.234502 24.808119
115.80353 -33.043701 44.127129
137.3846 -36.291771 19.508684
41.765919 -69.392189 34.146542
-18.49814 -56.021797 50.105179
12.773577 -32.620407 67.480446
-5.1724319 8.7844658 43.850285
170.53694 -93.188683 11.587804
132.22954 5.856039 40.555382
128.98399 2.0348301 41.07893
26.987242 -3.9529345 28.945105
-20.070721 -21.983393 42.387779
19.931335 -78.040955 60.968559
176.911 -65.925102 65.490166
81.852654 -85.970161 83.448143
50.380299 1.6327922 16.6691
180.48148 -82.798233 33.861397
107.423 -91.688751 16.6691
22.168436 -79.493637 22.390881
7.4477496 -0.91395497 19.481873
-22.434381 -24.807446 36.178223
205.25325 -79.021835 16.6691
-0.043030739 -73.481476 16.815868
119.67845 -71.309448 91.532166
58.343582 -32.160179 16.6691
122.44695 -57.586544 54.407463
16.674446 4.9688301 18.071629
34.354301 -93.305489 31.646082
-19.246277 -65.463875 29.5853
152.71753 -90.499825 73.302864
173.8399 -0.41786337 69.454819
85.699898 -32.057594 16.6691
47.98814 -49.426186 32.809395
5.6525035 -56.09346 30.771729
122.46358 -72.856201 23.948677
-46.422157 -63.720085 26.178225
-51.197548 3.6566229 31.931137
176.64975 -99.396194 24.724224
53.818417 -38.560184 27.861027
172.48808 3.8814549 20.953859
50.259735 -6.339365 35.632389
63.347218 -3.2562351 81.499893
-6.4863267 -58.175011 27.026299
-46.667183 -44.902645 46.428505
75.231934 -70.003677 50.664352
107.96951 -40.196392 36.6045
37.747807 -44.832333 31.003502
74.947205 -73.256065 49.663139
109.95672 -27.094601 30.594299
66.80677 -48.647045 31.0035
22.820869 -9.9417696 43.939598
140.45398 -46.254108 91.496483
2.3606234 -52.590481 43.618973
56.016651 -43.685055 27.730301
35.953796 1.0522605 52.820747
113.71371 -61.421886 16.6691
149.43054 -0.91395497 24.50746
-10.876371 3.1874719 11.665655
4.0096741 -48.94128 46.51968
21.292608 -12.419183 16.6691
11.132116 -74.729294 20.419273
5.1436605 -10.539383 39.474838
116.46833 -72.686539 60.102226
212.80238 1.2760696 29.552616
24.512135 -90.999657 16.6691
58.110458 -33.111679 34.133141
39.742924 -54.806206 51.673923
65.951096 -74.592552 27.165558
176.00392 -3.6609955 28.89365
145.07037 8.141016 57.903385
84.983078 -34.281246 16.6691
218.242 -49.701752 28.866596
209.35959 -58.464622 65.015236
43.229168 -53.334393 46.998802
83.992508 -72.555702 26.882362
109.47511 -31.57567 26.826315
109.60141 -10.42 20.661812
7.7804885 -94.557884 45.708305
25.80291 -48.877342 31.0035
-37.015987 6.5321121 37.325794
23.691971 3.4226503 56.932297
37.886585 -45.0481 25.086275
162.9473 -0.91395497 26.565006
88.173393 -78.062897 24.190247
149.7997 -34.390106 50.148151
151.12515 -91.419342 61.204273
4.3920784 2.36006 27.22266
213.00688 0.5468114 51.093037
126.0773 -63.155426 36.634705
79.875092 -89.400185 27.452242
77.534393 -35.11866 16.6691
138.34274 -89.635406 15.742335
69.330948 -40.758926 91.725807
42.543373 -45.048103 32.478802
92.926338 0.073424421 36.392193
82.233856 -73.406837 16.6691
127.06053 2.0348301 40.641613
162.89073 -51.733673 16.6691
189.24458 7.1162949 34.024239
146.91481 -41.601986 43.028488
22.876371 -11.873804 32.614803
71.184769 -5.5763297 86.696327
-9.3485594 -0.91395497 25.185589
63.970119 -81.816185 16.6691
3.3845172 -56.551701 44.354221
38.826462 -32.272858 47.440903
73.772285 -45.0481 17.63236
38.100086 -74.457939 44.874996
197.5759 -27.262249 65.617218
125.44304 -97.188766 61.151939
192.66519 -48.635399 65.868088
130.60153 6.4619298 39.232269
99.307304 -88.790253 27.179922
-43.937294 -44.742027 38.129284
17.54982 -92.131104 23.232109
-2.5074923 -98.47699 48.449036
188.349 -46.85791 66.088585
-57.710907 -50.150692 42.890961
125.21716 -35.391197 19.715618
89.443123 -72.009987 24.381823
97.823357 -6.1647081 16.6691
138.35266 -63.97155 91.863472
149.9332 -19.590893 16.6691
-9.3810968 -30.103825 27.026302
173.34354 -88.5336 10.28566
141.15768 -93.292786 60.008682
63.282547 -31.586523 39.53994
-43.85479 -39.88163 36.470837
93.457588 4.0085359 65.228683
54.080322 -89.189911 76.23674
130.15021 2.0348301 34.416405
70.219437 -92.284302 18.713055
145.51221 -41.592976 88.403702
106.38599 0.15895128 20.695164
83.534981 -67.242401 16.6691
119.24779 3.2483809 66.931213
30.222652 -57.542599 42.845497
25.145601 -55.444378 33.595253
24.052172 -93.518898 65.009895
110.29202 -96.521667 63.218769
116.02192 -76.869507 34.451912
84.446053 -76.819038 90.898552
1.9088082 -53.113571 52.104599
-35.342388 -4.7220621 60.128998
164.89134 -69.38269 46.457275
38.592232 -18.246792 16.6691
2.1400833 4.9688301 15.171926
58.051735 -50.308914 32.809399
137.86652 -92.131104 45.885544
23.941208 -78.791664 28.515991
-21.487446 -32.218876 36.482651
36.173779 3.7663748 65.771057
131.51268 -82.586433 40.005192
165.52774 -0.91395497 31.622023
99.109833 -47.26582 16.6691
53.168583 -17.303337 87.350967
96.328423 -36.39352 16.6691
41.114449 -90.988037 72.209473
123.31998 -21.435459 26.652054
61.486786 -5.9616241 31.312017
95.444374 -65.871529 16.6691
112.13757 -38.020164 36.6045
154.57062 -87.818298 32.0224
-46.776627 -25.478645 35.656879
-44.555031 -4.0450106 56.885349
44.13559 7.9462395 58.506855
157.81801 -1.65746 15.852409
-0.59292269 0.16875792 47.957912
-25.653206 -87.484009 20.208109
120.74943 -15.881256 79.739029
152.48466 2.6700954 68.226433
208.46585 4.825273 53.989113
-14.757526 7.2996225 50.632584
81.422775 -47.704353 92.214302
125.07851 8.7738504 55.313972
-10.54826 6.3397102 61.68626
-53.744095 -91.561752 27.07394
109.20474 -96.41304 63.555313
176.81494 -92.586273 23.406204
182.00317 -11.577612 31.13559
73.963432 -64.061516 16.6691
-46.523449 -57.294701 20.136999
148.71297 -9.8078861 85.483101
78.02317 3.1750991 56.424301
-19.47683 -44.597832 41.273499
167.85571 -55.134239 16.6691
136.84471 -98.870102 54.530869
159.03072 -87.818298 27.281403
-49.017914 -49.574402 38.480606
-44.365059 -42.764778 39.153767
158.31117 -0.41828799 27.693457
-18.129303 3.9232402 26.976791
50.251572 -44.369141 41.876713
16.414043 -85.285049 59.172234
-14.331244 0.47116721 21.463842
138.2724 -84.058693 87.729347
124.57191 -10.599038 68.814079
158.58299 -89.548767 75.432976
204.37598 -18.401167 16.6691
117.55952 -50.291447 20.773399
107.03764 -3.8701239 82.874893
38.291443 -1.1032414 16.6691
36.674747 -29.596569 52.097485
133.34439 -16.001799 62.8508
-16.207388 -55.720219 28.293148
41.856865 2.1716905 56.371601
70.458633 5.7211275 27.879066
47.168945 -89.289764 24.145628
136.28403 -81.037193 15.119724
100.46181 -92.888458 19.238726
193.11891 -85.086784 65.242836
213.80499 -14.655798 42.620438
135.76819 2.36006 14.467537
127.3475 -0.55262971 75.444504
98.873993 -52.49279 92.214302
65.33667 -43.628494 27.730301
0.064680815 -78.026031 31.60651
129.13335 -84.753822 52.498203
114.8798 -52.514301 30.351772
128.51698 -74.943077 16.6691
135.39186 -59.475292 16.901974
-57.1367 -54.715412 26.403704
88.46418 -80.142815 24.663319
135.50925 -70.155525 16.869516
-3.4365962 3.6945868 40.819084
167.88704 4.5106416 45.216393
-9.1394939 -32.569954 27.0263
41.196297 1.4393113 70.98307
56.535118 -16.538099 25.636347
153.847 -10.250788 60.136551
32.525208 -91.404152 71.277382
24.011965 -71.499367 63.67308
25.63331 -93.51889 49.711464
126.48827 -22.862896 38.373451
89.737038 -94.097137 65.245834
0.13966036 -97.343727 41.062054
17.318398 -73.445465 58.096832
149.47212 -17.788597 85.437622
78.870255 -70.220306 70.349686
101.16621 -91.059486 16.6691
46.072601 -78.534607 25.8897
33.965538 8.7738504 55.637756
-57.275124 -19.529263 52.118118
62.359947 -51.549004 17.737986
-34.528801 -89.40625 16.6691
47.503338 -53.367706 86.107635
137.51042 -89.349777 62.701012
5.8166227 -68.853302 30.498871
-58.756859 -57.320343 50.480194
152.50764 -99.396202 42.768322
28.021332 -53.717903 27.730301
24.353323 -0.24996495 16.6691
91.290512 -37.581902 22.687477
44.517548 -48.688057 32.809399
14.019839 -25.569881 63.420769
4.5842662 -94.878998 15.232203
125.24637 -72.640564 91.454857
100.35331 -25.399399 91.830734
33.304226 -35.343414 25.89554
158.85545 4.894136 15.803361
17.073959 -4.7908511 42.390289
75.427315 -76.891899 78.581039
72.434288 -15.770949 66.059067
1.6329688 4.5652361 34.101185
-55.092117 -27.209818 21.78121
149.25015 -30.247431 48.791908
130.12599 -64.755219 60.887985
38.544922 -95.296829 64.388733
-10.465376 -1.2828542 23.556238
29.834103 -44.589783 35.744099
47.855713 -91.252319 16.6691
-48.990082 -49.70797 55.93301
3.8428733 -25.675718 48.14085
17.351 -62.288795 35.761864
89.006607 -68.213684 91.671944
38.624382 -69.634125 25.882809
82.446724 -91.651939 70.722412
142.57306 -89.635406 13.105448
38.128124 -76.545784 51.561169
114.16666 -91.167351 71.807762
57.237007 -43.677757 35.744099
-19.827877 -41.123444 31.300743
37.467903 -19.843082 81.61869
213.80498 -37.549335 63.813477
-43.110245 -34.673111 58.232712
86.948982 -59.832119 26.925089
93.801849 -34.304798 33.308117
133.62358 -4.6246533 41.625294
29.196541 -92.131104 56.05098
17.351 -74.470154 38.564522
16.583445 -91.718178 53.619793
105.09099 -0.7913779 32.647442
212.49475 -38.05415 34.7967
-19.644112 -34.502628 49.321281
121.392 -40.151337 30.583197
130.57574 -82.619141 20.340452
113.68726 -4.1857324 83.581726
108.83683 -31.501301 27.526213
211.47324 3.463299 57.1031
117.60846 -33.043701 51.176781
18.866974 -2.4095137 16.669098
-29.376385 3.513618 21.074745
101.32847 -93.256134 62.994473
24.350159 4.6343856 42.814892
51.776291 -70.052856 24.909897
81.996864 -35.771084 16.669098
2.6907654 -68.717163 28.208023
21.29493 -70.275925 58.062599
-21.390106 -27.513996 31.327534
127.42724 -43.37355 35.096069
136.55388 -97.474472 60.266731
17.351 -63.916576 54.743195
14.714815 3.6965065 39.604561
134.64815 -60.733925 42.41164
-1.8959203 -88.610603 35.640385
3.5686672 -76.587723 27.640375
60.423027 2.2313318 43.848724
27.821751 -7.7593665 23.29369
61.512409 -14.816714 36.905846
132.03662 2.761832 53.960075
17.046129 -59.038334 51.47691
40.590652 -20.429813 16.6691
-9.7064486 7.3157177 4.4586654
64.733826 -7.6540508 29.765604
22.748791 -92.099197 14.633975
-53.828716 -79.107933 19.12804
205.78149 -25.502609 65.198029
20.692047 -82.366272 17.289804
112.65318 -19.492355 27.975971
-55.477207 -16.791897 22.545086
5.7928371 -34.374596 31.748903
18.329872 -52.122467 58.983658
86.820541 -72.555702 29.832283
131.29021 -24.758924 18.036219
167.50137 -0.91395497 19.354172
64.994263 3.4226499 59.50975
66.869865 -45.0481 26.347303
-11.608607 -0.19961834 12.984674
154.23096 -89.138702 28.049152
18.274096 -8.0750399 5.9228024
149.9839 -96.705666 62.648712
76.569839 -93.270309 55.998627
177.03174 -36.793705 38.357384
172.17789 -99.396202 36.371437
17.987511 -77.675621 59.097603
44.647797 -66.8209 33.530891
-28.821625 -97.073105 40.53846
46.241013 -32.528191 16.6691
-12.99601 -97.954308 46.854919
70.678833 -31.295204 34.758018
77.188934 -71.023956 64.026993
136.72841 -92.402657 69.040977
31.130232 -8.3713589 77.557541
177.33218 -51.818058 37.965843
76.509361 1.1656554 71.595993
39.246059 -39.317726 27.730301
22.537699 -67.841873 61.683029
-47.817348 -51.920601 38.654324
35.489731 -36.481918 20.602039
122.28693 -78.28109 24.02816
51.556458 -94.322433 23.178429
117.10123 -61.932762 91.955521
153.38821 -89.523621 41.632286
54.541798 0.012194663 27.114647
86.262222 -40.683125 16.6691
-2.17893 -0.55718154 19.683084
62.823872 -8.980422 39.145092
105.63264 -39.668617 41.441799
-48.664253 -25.601212 46.395187
211.35898 -94.339737 39.516975
112.96944 -43.945274 92.214302
-14.74242 -20.421776 47.798676
36.328659 8.7738504 54.630512
110.85162 -83.309921 89.406425
205.61267 -95.682877 58.230247
97.908623 -38.930374 16.6691
94.96376 -52.42527 16.6691
152.22163 -89.826355 74.811264
67.734711 -70.667229 16.6691
84.213585 -66.117699 16.6691
69.511322 -68.4767 56.707855
132.10497 -33.47607 62.870403
73.831161 -23.005104 69.082108
143.58487 -86.012772 34.810478
-33.314411 -9.2932348 61.048103
18.671053 4.9688301 15.295382
103.83301 -48.961308 92.214302
93.955505 -34.304798 36.026474
53.043159 -18.716536 24.991352
66.991211 -67.376328 49.889107
-3.8853309 -20.225658 27.026299
89.274178 -66.8209 30.444389
-18.422447 -18.233374 48.788059
116.13528 -19.412508 16.6691
10.32891 4.417098 64.82399
141.93864 -98.653397 37.606297
54.131737 -26.297592 25.043619
207.37012 -47.802727 65.116867
123.19749 -36.637554 92.214302
20.671947 -99.396202 6.5474262
151.80188 -1.65746 19.416431
169.95348 -98.498779 39.206047
197.757 -28.168629 65.607971
175.53058 -66.477982 70.02977
202.00272 -94.357384 22.04381
106.87996 -52.514305 34.529514
150.13422 -57.41914 61.369923
149.27228 -87.818291 21.151329
112.24532 -10.994247 27.495014
-57.033749 -75.658546 40.69001
-23.597599 -97.415329 44.571625
-11.684306 -25.532692 47.001301
149.35213 -88.346497 22.140526
199.271 -52.442802 65.530624
211.867 -56.227196 41.707169
70.538086 -35.892448 16.6691
162.72478 -56.93692 77.879486
25.73562 -24.679405 32.045139
27.579876 -19.09284 16.6691
213.271 -90.140755 52.247139
137.62282 -27.662802 91.932915
-23.621689 -54.913254 63.803864
-48.673759 -95.436218 49.982227
99.420601 -73.768776 25.027704
129.92786 -80.334435 58.800163
132.70349 -98.312477 50.519218
171.08322 4.3973026 32.014862
22.264256 -12.715281 44.41544
153.18835 -29.949572 58.511066
96.645844 -40.567829 36.6045
123.33772 -37.229965 26.708992
99.913788 -65.176949 91.809052
-44.436977 -50.125011 38.628456
111.2585 -65.504311 16.6691
0.29218674 -12.700745 28.802765
213.80499 -69.437538 59.952633
65.561005 -13.016976 46.164421
109.63876 -43.282585 92.214302
119.13243 6.5185909 30.955263
80.855606 -90.112106 74.171249
107.85301 5.3354225 26.666306
36.273705 -18.046799 52.499813
3.3200793 -49.04974 30.824173
74.760674 -73.923439 79.487816
129.96495 -40.281029 59.159363
-6.8020759 -18.44973 27.026302
202.36954 -61.152332 16.6691
26.429667 -55.224037 16.6691
71.974121 -30.705471 92.003143
116.7426 -76.2276 59.728554
118.26192 -35.710136 92.214302
109.57262 -89.268257 76.061256
136.18425 -90.020126 43.590031
99.168785 -52.514305 29.857483
17.093019 -50.199371 26.990574
97.835388 -71.32048 24.92141
51.102394 -34.304798 25.607525
-54.197762 -93.364189 48.164059
153.57539 -99.396202 41.682346
100.22601 -86.457146 16.669102
78.358917 -48.523224 16.6691
78.806534 -13.824364 69.747719
-2.0788183 -28.164703 49.383781
-48.696239 -59.280968 46.503273
125.64235 -20.546335 34.885448
152.10989 -92.099197 14.097099
20.264713 -80.980003 37.105667
108.50746 -82.716423 28.232943
-0.8977533 -49.710724 50.191429
-20.485407 -50.763577 28.465416
103.05926 -59.364937 32.000755
14.392355 -87.818298 12.493835
22.956657 -1.9484522 43.884148
-12.37649 -58.179531 51.322701
28.794727 -72.469986 77.18631
61.226128 -12.545933 33.335754
121.56422 1.9440206 69.852654
41.816929 -62.693993 16.6691
39.882439 3.4226503 58.583748
-12.640067 9.2080898 36.648952
76.607346 -45.0481 23.652967
192.36041 -83.837585 65.387077
34.236084 -25.593407 80.327896
111.53148 0.13702768 36.450256
-44.1726 4.2666039 23.47514
-1.5217495 -0.22545576 47.835644
207.12973 -75.747025 64.887985
150.62566 2.7575006 18.10808
62.809265 -6.7918692 27.842407
88.433746 -10.42 17.417046
212.95714 -5.9511156 23.705336
153.36258 -42.882015 83.603767
23.434702 -48.711937 22.443233
99.849052 -50.58844 92.214302
130.26312 -14.103596 62.360058
16.649967 1.3897023 44.716576
5.9557428 7.2129402 60.778797
122.72865 -77.861221 24.755527
35.102848 -89.425827 29.838963
-9.7128325 -87.421303 19.308558
150.19115 -94.878998 22.560333
101.02836 -55.583885 16.6691
171.54669 -65.556755 72.461617
157.47314 4.9688301 30.93321
205.89328 5.5117497 61.822304
119.56242 -93.045914 19.491722
103.62049 -22.210581 31.936333
74.765518 -10.6667 75.678627
-45.804802 -56.438499 18.899151
119.05129 -17.896437 16.6691
172.49448 -88.100723 70.640373
149.6165 -98.87011 48.689392
130.2923 -28.823929 62.673241
17.351 -83.757545 23.031715
-48.899563 -42.311272 23.579578
4.730998 -65.656792 32.446949
128.53232 -11.529739 48.634789
-10.379764 -14.3629 39.157345
24.6418 -78.14566 61.065079
151.55469 -32.670193 61.132439
3.1060526 -39.840458 48.00296
128.29222 -65.144203 36.223175
167.30487 -70.776535 16.6691
2.8960516 -73.024811 66.273842
160.98456 -39.353127 62.136272
122.15744 -38.781471 23.044579
142.71722 -92.09919 38.223156
113.46758 -65.76017 28.769951
74.434036 -83.418915 16.6691
172.31984 -38.349167 16.6691
213.80499 -10.809124 61.554947
62.554729 -83.3265 33.390572
13.026941 -70.283554 67.717224
176.93781 -5.4722514 21.361813
109.44188 -6.2546387 16.6691
-46.666027 -34.958549 30.445927
50.179886 -61.218731 86.930336
151.56868 -31.50069 54.513821
31.457623 -17.695292 16.6691
174.55774 3.696516 57.961174
50.726517 -10.00554 32.500813
139.53796 -57.943977 45.408188
21.833241 2.0348301 23.782272
33.200062 -59.648087 39.341122
151.79124 2.0348301 60.672161
-31.104073 -92.632622 59.840717
37.330811 -0.34621501 51.352715
123.31242 -4.5328031 27.1621
121.392 -40.504635 20.98299
183.43375 7.9332094 43.513901
-39.264626 2.7514746 18.80818
148.78142 -67.11692 47.635117
40.293873 5.754591 27.984293
28.571064 -55.365471 77.425201
128.14478 -40.595306 46.396225
-19.12727 -30.831858 39.907673
68.943451 -57.252167 50.285416
70.624039 5.2432885 64.365067
127.79195 -14.071838 44.515244
63.742767 -5.4104757 16.6691
150.04422 3.5359287 25.095936
3.5524178 6.7027807 62.273376
-26.31971 3.9765577 22.470839
37.830399 -62.306606 16.6691
120.51009 -61.909531 78.084358
11.563834 -14.621917 22.761921
128.39488 -8.9825783 47.795521
-48.017708 -51.920601 30.276987
3.8956795 -28.774376 38.556473
60.428787 -37.118889 89.958786
182.67795 -80.503746 29.506823
-43.183174 0.59641504 16.6691
135.67667 -4.98318 43.200661
211.37373 -93.748703 62.274723
16.604046 -29.04002 46.55381
33.003273 -86.276825 16.6691
143.37593 -87.421303 11.279174
158.31403 4.3455276 45.394478
148.89835 -85.608063 0.02080676
116.23343 -91.198441 40.657112
136.11098 -6.3286967 15.45344
-24.539476 0.12251653 26.161114
72.462967 -85.777168 83.880371
23.601326 -10.087533 41.786621
-38.509701 -54.079529 59.822166
162.25645 -18.285252 16.6691
74.359978 -78.879829 76.60746
95.181427 -97.211479 61.081558
148.31427 -83.019493 46.482239
124.22163 -17.165871 29.663515
122.4276 -91.413513 24.312851
95.017166 -25.630747 16.6691
108.9192 -67.941078 27.500069
27.695791 -8.0750399 20.307484
50.277809 -91.070152 16.6691
123.70938 -1.082732 27.901033
55.746658 -66.155663 16.6691
67.498665 -83.3265 31.493599
157.1003 -85.400726 48.355103
148.61566 -20.798992 86.081902
91.725044 -50.76796 16.6691
100.97372 -17.485323 91.458801
146.11517 -15.151812 20.086521
98.467628 -18.003078 16.6691
24.736748 -91.348022 71.403168
24.770208 -14.92046 21.823219
75.540947 -18.715292 69.95932
166.59607 -86.790024 3.4854145
149.90129 -83.924446 4.0577002
33.605614 -90.001587 74.418785
77.651733 -27.226509 16.6691
25.311626 -68.152512 58.167686
22.415428 -66.3927 62.583427
80.759369 -34.79932 92.214302
58.161171 -65.015175 25.326908
125.85558 -71.99823 16.6691
213.80498 -64.720482 54.582275
13.623508 -81.830978 66.932442
112.4714 -5.7672901 40.045486
22.273003 -56.955364 16.6691
-20.308548 -97.281212 35.265411
35.038574 -23.973455 29.994091
214.19606 -84.830521 29.116692
2.8120127 -84.943176 41.650341
170.26408 -90.699295 43.983829
21.999578 -39.85577 19.157238
4.2088861 -28.572401 44.546997
191.32385 -97.350418 48.572174
18.990189 -69.171837 71.235954
66.991211 -48.880871 32.809402
11.92486 5.2420282 5.1818814
158.57701 -92.099197 21.445578
-19.102898 -35.663795 43.498413
34.701157 -25.36236 80.553589
176.22168 8.5450583 54.264229
69.891472 -7.128366 52.70829
155.85547 -74.229462 48.51899
86.002449 -78.763275 90.630699
51.074776 -6.8805552 34.336212
1.6334056 -27.68465 33.429157
57.60001 -20.23525 16.6691
150.74403 -8.0758896 83.89122
-44.456455 -85.432251 57.026081
27.439495 -6.3064938 57.671345
10.367599 -80.980003 43.063202
153.72784 -98.59996 50.801987
179.0108 -40.182961 67.921768
-50.310631 -33.140106 34.145592
30.813196 -84.075645 37.423431
13.377695 -33.715317 64.621574
77.200256 -45.0481 32.702423
49.701561 -60.683002 86.78804
26.099203 -12.228258 41.472813
194.74556 -18.147678 16.6691
121.54657 -44.109688 16.6691
107.97218 7.9053383 58.633568
3.0396032 -88.346497 17.413055
17.540798 -12.505289 46.421268
119.16789 -4.5147038 84.318535
6.8331833 2.36006 31.17112
189.81769 -96.132973 28.77446
9.61619 -17.414148 66.078949
61.038387 7.2153683 60.771267
19.800615 -14.510277 23.112984
145.9792 -92.131104 59.716805
205.25005 -61.121666 16.6691
2.2747576 -12.288005 30.488243
133.23431 -69.331673 16.6691
150.55893 -80.298798 84.393051
32.3433 -45.0481 43.143917
53.639603 -86.810547 47.185501
88.888557 3.3702729 20.016518
146.20644 -58.352604 41.28027
85.693878 2.4876294 68.635109
126.47406 -35.260086 38.313366
38.175346 -26.910393 45.107067
35.271446 -96.318398 29.454432
86.80983 -30.715473 16.6691
-22.166924 -0.4474833 31.889078
-50.270885 -39.647411 32.68906
151.12857 -10.167007 84.075714
-45.677299 -53.198685 47.671967
121.5896 -91.17514 18.731718
87.064407 6.8237314 32.522049
205.01721 -55.032345 65.237068
23.346878 -70.976257 63.021393
-56.434593 -15.62328 24.533295
213.80499 -66.873878 40.532894
130.74783 -92.131104 49.416206
121.88594 -72.6241 55.31691
139.3824 -91.788422 70.416702
180.44467 8.1670084 56.691319
197.76636 -82.307236 65.17128
80.672348 -75.361313 16.6691
100.68694 -93.348717 19.45726
158.06989 -70.753304 80.404892
137.22223 -77.552658 19.107965
76.094238 -22.619757 55.967354
170.81627 -93.669891 30.648441
66.169106 -21.97674 48.134392
116.25241 -5.8918362 52.597176
137.92273 -14.133804 20.836746
109.42319 3.2444487 66.940025
16.648369 -11.732275 33.34153
151.59259 -45.23716 54.572842
-47.827499 -39.710587 37.162815
153.64287 -89.138702 20.20919
22.456842 -97.264801 44.267666
101.03276 4.0354896 22.301283
37.876118 -13.563106 81.55838
105.33092 -69.841042 16.6691
-54.198586 0.91497535 25.365732
125.41148 5.8636594 32.229969
17.016474 -27.985008 30.053066
-49.05872 -37.756348 20.803925
204.06133 -22.138275 16.6691
166.48254 -22.193373 16.6691
-18.334946 -35.120453 36.73999
127.17543 2.0348301 35.233665
40.668869 -50.745819 34.239197
87.915207 -47.012947 92.21431
138.05545 7.9086628 44.794102
213.80499 -46.626472 32.460976
203.64597 -96.207695 42.509319
2.9517376 -0.91395497 25.648928
201.3862 6.3881655 45.536659
52.133274 3.4226499 64.585457
-18.986853 -45.222767 38.452202
66.824631 3.4226501 57.828773
-53.188797 -27.072075 17.820484
79.194443 -93.518898 64.722855
-1.8954487 -87.818298 34.829967
162.25623 -92.099197 19.026363
203.99814 -15.888227 16.6691
49.179707 7.7941475 37.504696
24.28113 5.6876221 35.012024
107.13194 -72.555702 26.024542
34.2285 -15.29844 20.634731
54.389378 -46.205742 27.730301
200.61813 -70.1371 16.6691
199.63504 -94.613495 23.041597
94.124252 -59.962265 24.551792
-11.596086 -40.14056 27.026299
124.64808 6.5946493 62.694416
146.50186 -16.682753 42.009361
-50.143246 -94.890343 43.905529
21.33691 -73.024124 61.662731
65.174179 -7.1782036 26.7318
120.13652 -20.877728 73.651474
137.89018 -19.757776 62.681553
-46.383705 -39.894386 27.365753
213.80499 -82.832703 42.770466
142.98984 -20.850954 33.341934
17.097517 8.7738504 53.113075
26.261154 -7.2492099 14.120575
197.12953 -67.248016 65.64003
131.63518 -85.536575 30.488079
23.040089 -37.011612 31.0035
-6.6095729 -16.425301 30.409046
160.46658 2.36006 9.0442791
90.828217 -92.064224 16.6691
60.92643 -59.349537 31.915569
86.637581 -23.022625 34.036587
75.749474 2.9094076 53.65377
161.63187 -89.988266 62.118431
15.744001 -98.87011 48.384682
-0.85424221 -96.376678 63.211514
17.351 -65.782745 31.222069
-42.458122 6.3126016 42.616081
35.267994 -73.109695 29.440302
115.96968 -93.704956 20.583748
125.39041 -92.336426 43.488434
136.56001 -71.306725 17.473717
158.55333 -44.152126 48.163799
32.05228 -13.512808 78.776154
42.620296 -39.890594 35.744099
123.58311 -71.469543 27.496042
142.03574 -22.437489 62.377769
15.86972 4.9688301 5.8400102
58.342045 -6.4427099 47.185501
-45.530769 -61.311592 23.107769
100.00151 -4.5061798 32.89743
213.80499 -6.1476774 41.88089
61.363472 -98.293747 50.181442
112.87881 -27.16671 91.910522
122.33187 -43.034225 24.369467
56.05302 -16.538099 27.18749
28.849121 4.997673 39.328747
-6.7373443 -88.610603 21.903233
-19.461166 -24.203661 38.979298
-33.435333 -96.88192 43.08709
-37.527431 6.5060558 39.294907
48.228073 -89.415482 16.6691
8.1555462 -88.610603 26.583126
106.386 -91.614151 21.120214
144.59647 -16.2815 88.263351
150.01157 -60.337505 50.671009
20.468431 -92.099197 11.124117
4.5167599 -24.395309 37.133476
183.89262 -7.025856 26.573786
-43.94091 -65.874657 21.604601
40.496471 -38.547199 26.902971
70.01812 -90.415703 73.491264
-1.2095752 3.6347413 47.876736
36.799728 -18.553772 51.972103
77.394943 -20.965612 65.543686
46.573868 -77.099602 17.311781
21.377172 -47.344994 17.133652
54.483524 -65.117691 16.669102
6.5379562 3.5911376 3.7616229
126.17975 -87.311455 80.443985
126.6366 -39.30801 16.6691
132.5679 -23.111349 62.865089
211.867 -32.986042 45.746254
58.353985 -4.7680187 16.6691
99.571808 -44.693096 92.214302
147.30698 -1.65746 13.578753
157.46198 -94.878998 16.343788
51.171749 8.5154381 56.743332
143.70955 -3.3519905 35.118156
20.886215 -69.670631 17.960676
94.344482 5.748507 27.965174
121.67249 -18.847387 21.604517
151.86581 -0.91395497 30.528486
-23.424374 -44.826813 29.273626
13.890438 7.3144045 60.464439
66.544098 -49.045212 16.6691
69.538986 -75.332901 90.613205
91.384933 8.7738504 55.289371
81.756485 -43.452557 27.730301
99.14621 -54.788902 26.081854
162.12596 -99.396194 43.243393
-8.9384003 -27.130371 51.892101
71.224411 -65.887581 91.593025
100.0966 2.67187 58.751038
143.38022 -0.37675881 75.050598
53.46389 -39.740665 16.6691
81.549225 -58.794937 92.097183
35.590599 4.5588989 28.661415
174.1841 -14.487757 70.570763
55.074532 -92.152733 69.600769
-26.707077 -96.627731 32.131695
-12.033604 -99.396194 13.003955
73.335716 -1.8493549 16.6691
9.9189634 -87.979469 48.321369
146.7697 -2.1876907 42.670353
38.00864 -38.62727 31.046127
-2.316385 -84.104156 5.0775471
117.78846 -33.043701 55.45821
170.22961 -2.5413656 13.549014
100.16642 -98.870102 52.417564
82.573547 -75.870445 16.6691
-5.5660105 -0.91395497 17.48756
85.207108 -14.909893 25.151451
85.496201 -90.563774 73.159615
54.377724 -34.304798 29.858427
-2.2550743 -8.0750399 4.7389946
175.19778 -23.152567 65.129372
17.351 -75.959511 39.716427
121.57134 -70.688103 80.384895
63.853321 -51.549 27.324383
120.72768 -73.565811 69.972275
144.02087 -85.636124 35.886478
-53.141254 -60.046181 17.721546
80.59893 -94.41127 64.880661
75.919556 -78.427101 76.988434
19.725451 8.7738504 48.149574
97.030563 -30.828274 92.075836
148.69568 -31.577177 86.457245
-7.6492147 -87.421303 15.278956
-47.090195 -64.296341 32.217213
101.46049 -87.911514 20.684446
-4.7318311 -81.971581 43.997139
35.787933 0.55185235 47.185501
19.125059 3.9161186 40.827599
158.07594 -40.428986 80.721909
125.45475 -98.870102 46.21624
75.237648 -95.517738 26.936911
17.351 -76.168869 31.027979
120.85959 -14.880716 49.745819
25.297237 -97.770477 12.192872
15.225934 -75.89946 24.098598
91.037453 -32.595112 16.6691
125.66502 -35.008301 16.669098
25.225664 -88.531158 59.389057
17.456247 -27.765522 16.6691
-44.799381 -50.2118 40.304195
130.17661 -32.536804 38.678585
144.35803 2.36006 38.497807
41.897842 -65.84063 16.6691
89.15451 -62.100067 34.116478
-8.4500504 -29.079578 51.892101
106.50652 -72.039078 91.499222
83.942444 8.7738504 49.125046
111.98586 -27.424759 27.266962
