# .PCD v0.7 - Point Cloud Data file format
VERSION 0.7
FIELDS x y z
SIZE 4 4 4
TYPE F F F
COUNT 1 1 1
WIDTH 1611
HEIGHT 1
VIEWPOINT 0 0 0 1 0 0 0
POINTS 1611
DATA ascii
1141.3088 1894.3595 476.98407
1319.1095 1523.8796 659.96576
400.22192 1947.9805 106.73457
1006.6935 1347.9482 332.16769
1177.4976 1277.25 282.87405
1138.0515 1227.6897 582.42383
894.79327 2138.7109 429.79294
827.74695 1894.0715 610.94611
1073.0878 2114.3457 403.42102
772.79352 2344.4023 111.93493
835.58557 1678.7175 646.43976
1147.0033 1392.0322 281.72018
626.33496 1790.5758 363.86816
1200.9485 1179.3043 434.10629
825.43518 2305.022 269.47205
1310.9938 1388.4545 660.82172
924.92566 2085.2766 238.3414
807.82324 2333.7878 213.39249
1306.0094 1615.2043 228.44316
1535.6416 1490.1475 284.39682
1155.7506 1465.1802 339.80609
705.22083 1799.8335 176.83083
1436.9778 1759.0796 230.22119
474.7482 2168.6101 376.55173
1401.4552 1280.6797 347.052
1552.1492 1505.1992 249.58316
439.80933 1907.9978 194.86726
1302.7452 1279.9429 401.93207
839.92914 1990.4956 414.00958
1448.171 1705.7021 385.08514
1055.4673 1959.4644 239.88586
759.71753 2228.6816 406.84366
579.27295 2273.4463 392.92712
545.34973 2005.0823 407.88223
1278.5337 1273.426 220.41466
725.22894 1896.0735 435.3136
756.37476 1885.7695 238.48268
1124.0972 1595.4146 659.15259
677.12219 1834.0216 176.62338
1429.8704 1563.4601 285.60504
716.40363 1904.436 155.73453
899.47009 1728.5686 309.65906
1090.735 1965.6703 240.10904
1568.1914 1621.0289 289.7337
969.29187 1383.7068 420.24866
825.40601 2367.8274 355.05585
843.96088 2321.2678 273.38412
871.19641 2099.9365 449.85809
1324.5768 1262.481 496.00397
1448.6282 1665.0377 430.42471
674.30511 1734.4319 608.92603
1443.527 1667.2928 162.349
1471.5908 1364.7961 485.05209
927.1554 1495.0291 469.96872
987.62524 2042.6292 330.5304
1471.7001 1690.8403 134.94296
458.00412 1928.8041 111.82321
1058.6191 1330.3572 179.81621
1219.7173 1883.7822 178.26491
1067.0278 1830.918 425.46304
644.19275 2075.4053 136.07452
1508.5627 1684.7178 392.01282
1208.7146 1642.095 173.96924
837.065 1799.149 278.97424
1245.7886 1224.2285 460.45743
1306.5422 1699.3417 283.97449
914.22296 2212.636 416.89731
1029.4274 2180.75 448.08926
746.80994 1724.4442 239.39572
893.29346 2269.9543 150.50827
568.7478 2237.4282 144.75027
934.45929 1760.6497 272.73737
1574.1945 1619.0856 327.05008
1487.0188 1696.0614 518.62219
1446.0137 1629.4867 31.584612
1104.2351 1281.5056 233.02933
1211.0828 1771.1492 243.53802
501.96368 1846.9915 362.36285
1004.6688 1541.1859 280.77405
914.17249 1595.7249 348.01392
1030.905 1328.3074 252.55322
745.0484 1650.8989 239.82843
1347.2158 1813.026 475.13629
1059.6414 2126.4541 238.90388
1114.0289 1898.9407 448.9588
1424.3496 1729.6753 491.31311
900.84149 1852.2444 177.30762
854.16931 1537.1848 466.91217
389.29364 1979.2278 238.71136
1051.3857 1381.3904 180.45065
1177.0168 1760.7911 653.73059
1156.8107 1916.5995 239.74094
783.99902 2024.5857 137.25038
1572.6721 1554.7014 650.56641
1036.6543 1312.3342 402.38071
1171.9521 1676.1527 141.79457
1207.103 1953.1124 638.05054
993.50598 2054.6855 176.94193
962.18945 1405.0948 595.1947
416.64545 2049.9756 364.63678
945.46991 2247.7729 328.89578
443.4057 2095.0918 252.85074
735.68219 1827.3601 602.8064
550.44147 1799.8966 85.980255
483.9888 1991.1287 87.56636
949.73962 1963.6655 621.95093
1337.807 1730.0013 191.29001
1296.4575 1292.5276 657.1687
1562.2212 1518.9873 399.57584
1027.7336 2076.8496 361.91428
705.7403 1885.8004 238.16318
432.44315 2133.7297 371.12738
964.01965 1957.1741 199.31075
745.22974 1713.6482 627.54492
1008.5573 1381.8077 348.31537
827.6264 1946.9783 176.74811
1233.5005 1824.9321 282.61914
1345.7666 1438.2202 210.26431
625.08466 2260.9863 299.98624
893.58887 1649.1918 592.71558
1066.4353 1505.6415 653.29309
1292.2106 1901.0558 214.17189
1213.3351 1499.8461 660.03271
886.16992 1883.7451 627.04797
1519.4729 1639.6221 460.72992
905.03857 2001.4077 601.73901
716.63916 1739.1719 359.13446
776.82623 1604.3064 177.72089
1252.9835 1254.5358 653.98993
1067.2656 1589.2301 238.81078
556.05115 1800.5751 71.467064
1368.0253 1276.8914 283.15472
1470.231 1600.9784 164.15602
1387.0505 1767.8998 399.82816
709.26782 1777.7849 607.91516
993.14807 2142.3491 176.6487
863.22284 1521.2897 452.31369
678.72363 1907.6155 449.63516
1261.7754 1614.0857 657.70453
882.79266 2272.5701 74.450073
1159.4031 1217.9313 282.7558
1090.9852 2095.9836 310.39828
748.87878 1615.0896 181.51259
1419.1979 1617.7119 360.27408
1205.5774 1274.3765 212.72383
1330.9441 1209.0602 450.43347
1078.5896 1304.9434 471.53162
1355.7635 1796.292 76.334267
855.46533 1498.0348 461.28931
1357.5576 1261.3433 511.82031
824.33356 2286.0244 79.884026
758.79822 1983.5673 355.02826
1324.8617 1302.7375 279.01053
1322.5482 1223.4254 460.62238
1085.5739 2077.7825 615.32385
835.8606 1829.8002 350.40616
990.97974 1375.0912 601.85754
760.43524 2395.0454 287.41971
681.80542 2315.1614 237.51483
1153.7704 1366.2998 361.00659
1313.5012 1843.0618 422.07034
631.30841 2257.5518 386.88708
962.46527 1422.4269 131.76347
1161.8466 1651.5542 178.84573
1143.4507 1220.191 562.30005
1333.4037 1827.0303 477.72372
624.53479 1803.8989 238.1452
760.22772 2017.6045 243.41914
1238.3171 1341.3795 209.15947
515.12244 1841.469 408.22552
1431.9558 1743.6887 589.56348
1151.4834 1264.6277 91.244362
641.97119 1873.4066 340.78262
877.64496 2234.4426 168.12677
1043.5227 1338.4839 152.59308
468.39972 2151.4138 180.3746
1373.9979 1751.5453 484.26437
938.15234 2216.624 269.78214
1023.1672 1841.121 652.67047
852.93445 2005.8961 366.58319
769.3432 2299.2021 131.57085
735.3067 1618.4701 257.23749
831.9585 2279.739 72.336029
768.64398 1593.0601 182.93475
956.10095 1847.4567 177.50766
1022.4167 1427.0439 36.667793
949.26428 2249.5061 193.26016
1085.8478 1684.4833 178.48285
562.37305 1786.5833 373.07288
1357.9707 1758.4462 449.48566
995.02948 1727.1731 657.65381
1049.8711 1819.3604 655.36157
631.79498 2269.1726 345.22083
1061.6016 1607.2289 656.61169
935.6593 1422.9369 511.24731
1455.4072 1615.4763 57.267036
1226.6255 1194.7842 411.80658
667.35278 1881.8739 344.08142
1307.5303 1827.6898 238.8259
1432.8081 1401.1956 343.11017
469.00754 2109.7432 320.3804
1496.7421 1513.6324 654.81555
1021.0433 1668.7449 656.84302
745.19733 1882.5946 570.24127
1448.4255 1644.3174 98.109833
876.46466 1969.2544 176.83659
669.37988 1829.9526 395.86642
1177.3109 1445.0406 336.73041
448.39664 1923.8374 276.54959
974.66364 1428.5486 157.21233
787.97266 2280.7981 188.76297
860.14777 1650.6157 335.13785
1398.4775 1272.5546 374.66205
1476.2974 1641.7333 223.06763
1236.9961 1838.3903 282.51581
917.81232 2240.9126 291.02087
1124.2275 1942.5238 177.75108
1210.7689 1188.3732 326.13843
605.20166 1970.8975 290.12637
790.66443 2365.5547 237.59126
1080.6171 2035.7568 177.2952
613.34644 2122.416 163.34505
868.20398 1641.639 384.43079
1472.9261 1618.3187 48.133831
1074.9548 1284.0402 101.06528
902.04901 1506.969 239.11087
504.82489 2179.5288 138.21353
1220.3804 1843.8271 178.40022
1013.4395 2062.7395 309.77902
1287.9442 1265.8606 293.8996
1197.5824 1175.9949 447.16751
617.04102 2154.8787 238.12831
877.55688 1758.6481 277.56226
1016.7904 1709.4332 658.06281
622.97491 1839.2074 466.30356
882.89429 2064.8164 360.62463
1315.9209 1844.8772 482.73157
847.83984 2079.2214 340.54105
625.17853 1836.4761 185.80402
1052.5312 1863.8824 651.96942
623.32092 2282.8367 234.06743
486.35846 2153.7603 188.57832
822.13647 1552.9866 178.04268
754.30023 1913.5172 272.47488
1381.2903 1731.3916 410.8252
1008.2471 1998.0911 239.39291
1559.9412 1533.9062 284.36621
1310.5436 1263.6091 261.04333
507.93542 1967.7101 210.57265
899.03534 1449.948 294.75665
562.29449 2204.1672 251.23793
1374.3907 1696.5642 55.220455
657.03094 2250.8315 225.43204
1137.785 1631.3805 141.86
1395.7128 1791.9048 296.06918
735.76031 1783.0916 360.02194
599.09277 1754.9971 320.76703
987.16284 1411.4216 202.78104
1053.7642 1330.1013 465.64905
577.49042 1721.6262 504.7515
1063.4595 1865.5201 358.42859
853.83191 1639.109 452.63196
588.72382 1941.9241 415.68915
1108.9904 1531.1979 656.19641
1012.7786 1807.6998 239.84183
621.39471 2227.6577 237.13615
1111.767 1432.634 280.12885
1231.5007 1726.3688 283.4632
880.06677 1642.2251 595.10773
1191.5306 1222.5956 282.90094
531.18121 1944.2168 146.47156
720.56104 1628.4048 352.01169
1031.687 1847.5254 400.26654
705.49487 1864.2932 450.76938
967.60242 1386.0122 426.11218
666.92767 1820.3497 368.41541
1223.3329 1476.6241 281.54663
688.38098 2332.3684 241.70325
554.55963 1983.6062 143.49609
1006.6608 1826.6056 239.93994
970.25897 1513.0387 283.38107
1319.7617 1628.9445 166.59097
1120.4026 1690.9119 141.38538
745.32709 2390.3052 300.66629
1390.6398 1690.1425 143.16257
1370.4393 1714.7643 649.51007
485.52307 2046.7493 396.98804
922.29626 1430.6117 456.37372
616.56641 1868.1077 236.13013
1480.4791 1679.3302 470.522
602.71814 1968.3151 157.63588
651.27094 2293.0879 288.08102
837.70679 1683.8513 646.35364
345.25418 2005.3258 369.57898
721.3764 1875.0874 444.8985
871.17377 2090.97 461.67694
780.13635 2168.6711 133.62521
848.25793 2225.158 240.90363
1534.0411 1487.0182 227.87036
1254.4796 1741.0642 238.6828
1130.3054 1525.1321 252.90146
1001.8984 1355.6743 98.502441
823.78491 2252.9333 190.07516
1383.0529 1341.558 336.0687
1184.7297 1482.26 658.06689
1474.2505 1713.3661 331.41122
1439.5485 1708.8987 647.27466
1151.7368 1202.9133 269.00339
1568.791 1484.8297 390.68115
1005.1576 1615.7024 174.09866
1315.5586 1877.7053 415.44385
485.47559 1932.0769 9.3534126
385.45737 2066.4988 296.39777
903.34351 1717.5098 181.56305
1192.2013 1589.5059 250.14508
1379.5363 1489.8712 659.55444
1382.8439 1249.3 286.89832
1271.764 1721.8218 276.86823
1382.8071 1802.6833 318.75598
1121.5746 1897.2112 498.01953
669.32227 1724.6152 238.90614
1259.0261 1579.4635 142.92854
945.82812 1476.9719 467.7879
446.43365 1902.5203 333.84726
926.09393 1447.7448 238.80968
1379.157 1250.687 378.92291
1420.5659 1567.7756 654.69995
645.08118 2290.5483 185.86279
1383.8389 1591.6343 282.47696
890.20508 1809.2135 640.49835
833.4679 1730.0305 239.90851
582.04138 1804.5802 146.62532
876.93121 2102.3184 435.67383
1055.9628 1392.0134 357.96716
770.74384 1993.4436 180.35561
960.25745 2174.6951 468.44199
1142.4349 1285.3435 206.69435
1001.3111 2013.1646 239.25819
1027.5026 1352.0415 134.80429
602.85809 1847.0736 65.913795
1549.2842 1634.6348 511.27075
921.73254 2154.7014 156.41368
769.63776 1985.5662 466.78159
877.21069 1703.2603 349.67761
1207.3215 1950.084 239.68686
657.96039 1691.002 276.01608
394.62592 1954.3232 261.01584
625.31567 2134.4751 170.51268
1045.6985 1430.3323 60.944252
1103.0023 2047.2877 629.93921
863.31976 1637.8854 520.30505
1060.3176 1587.9227 655.87689
1549.394 1643.8857 223.91812
1017.9622 1352.8186 629.49622
1030.5571 1665.3481 178.3624
1418.5422 1552.8879 655.44666
1217.4895 1710.8401 290.42761
1451.0243 1698.8422 281.66162
1397.5991 1752.1394 283.85556
743.37823 1817.5652 430.84265
675.19641 1857.9216 461.05145
805.86383 2137.5901 416.16287
1463.2025 1688.9725 360.91974
1030.0391 1511.0811 259.03748
822.75275 2031.1639 252.33401
1386.5175 1806.7535 371.03674
662.26471 2340.2488 399.76736
903.19434 1929.0776 138.57529
1561.1898 1509.265 422.71924
1411.0029 1742.29 376.34909
876.20837 2103.1489 323.47894
1390.8518 1234.5123 306.46524
870.33276 2145.4387 265.58273
898.70892 1836.7476 177.35214
835.43793 2329.9143 245.06287
852.60059 2038.4182 506.60492
492.26849 1976.4644 125.91944
808.41919 1656.7441 242.74713
591.3573 1958.9423 133.76953
1289.9689 1268.5237 497.04874
529.91962 1848.5215 124.8998
1024.9611 2162.2449 357.39383
1427.0754 1712.8745 647.83423
1597.9318 1585.2244 263.12247
700.18115 1930.1682 335.21509
609.81653 1864.6062 161.21292
1310.2434 1873.9194 241.56415
456.85028 2098.3792 300.4118
1011.0919 1893.1479 177.53865
492.21356 1940.0636 80.325844
1089.1954 1300.1626 152.18848
956.37018 2242.1938 190.45706
971.40015 2138.8069 422.05215
1271.5048 1847.0839 355.69659
767.25507 2387.415 237.51105
947.41107 1418.2017 597.40491
671.58551 2249.6233 227.65395
833.70624 2033.3622 288.75089
1080.2412 1917.7908 246.02213
568.79224 1885.502 241.55258
955.87537 1465.9703 471.49289
737.35468 1616.4148 255.78001
911.08453 2253.0327 102.08231
764.92847 1584.0425 191.00668
1326.0962 1202.8602 426.76935
1376.3706 1347.2253 488.90234
907.08148 1684.3746 365.76724
833.19031 1936.0656 600.39276
768.26868 1909.4006 565.5694
694.5271 2103.9897 289.20776
1041.6041 1310.1672 446.82092
1135.0604 2061.3521 139.6243
985.43408 1425.6699 284.19205
582.48279 2024.5939 288.52228
1354.6885 1445.4976 662.42798
773.04681 1983.5061 448.03223
1021.0095 2165.7883 275.20544
1538.1409 1491.124 229.65359
715.99274 1929.7654 356.74542
892.39703 1458.0811 331.58435
1203.0659 1188.2273 282.92984
1250.3378 1670.8727 174.89166
1540.2893 1643.9828 507.75394
412.51306 2034.9526 186.89795
1468.8516 1684.0486 371.37357
642.27783 1810.8948 426.78125
903.18445 1449.9641 458.47034
1071.9227 1910.1919 304.55011
1280.6447 1898.084 557.80518
937.99139 1794.2163 177.62468
1559.641 1627.9814 349.97339
942.26624 2250.9761 331.70563
1399.8119 1756.5656 420.42627
1080.9854 2126.3618 151.451
980.28351 1589.8872 360.13916
963.63562 2186.988 309.67941
1361.7263 1751.1218 258.9621
896.41534 2172.3945 97.352951
746.17969 1726.342 351.37518
1476.6873 1674.9685 322.3349
1244.6741 1871.1517 646.24268
1189.7227 1167.4888 246.3905
1132.9441 1923.5715 334.0499
569.26648 1894.6924 97.818008
1332.2957 1558.0903 282.12354
652.52081 1813.4081 397.09326
1314.1909 1874.6959 422.84232
1518.8477 1497.6947 581.55078
954.88373 1572.0674 239.15521
1278.6663 1640.5211 142.67297
684.28955 2319.7405 307.46292
1539.5195 1653.7606 297.14767
399.22772 1967.8644 394.13611
700.56512 1664.01 566.07697
779.70441 1569.2683 251.93704
783.62982 2018.4526 441.80774
1098.6998 1936.75 286.46155
959.92877 1783.5918 177.73318
456.00348 1957.4641 26.4582
1078.3727 1802.208 239.57608
1220.3052 1245.7601 283.04318
823.9447 1972.0391 176.65234
650.77106 2204.2893 237.901
1525.4725 1656.7898 547.40106
629.59369 2312.4988 340.43896
1159.7578 1205.6322 579.28479
927.36389 1607.1794 178.21237
715.18469 1757.6108 358.91821
850.24451 2325.5754 129.09326
1405.7412 1257.5662 520.2738
1463.2358 1442.196 619.11475
622.9187 2259.166 284.26959
874.78143 2317.6851 395.97067
1014.8979 1372.679 403.17358
885.37109 2313.3628 218.94846
1461.9037 1615.1631 285.27695
630.98578 2281.272 198.64314
1274.063 1922.145 296.31537
479.22784 2121.1602 282.41571
881.21838 1754.9177 263.64322
1474.3464 1597.1888 651.67548
1305.8401 1887.4236 409.80099
883.33234 1943.2899 138.36502
968.30115 2224.9409 302.84
779.44305 2176.8191 289.46164
1056.7163 2064.6787 177.11923
922.78857 2133.5823 238.03645
1168.7643 1885.6736 648.11676
927.27246 1607.6844 255.46698
570.8396 2049.9927 246.2686
1315.2249 1797.4812 405.88812
1077.9688 1782.1187 239.4975
1178.7194 2006.9172 489.974
911.09174 1506.0403 178.49509
806.724 1973.953 421.4075
1384.8777 1798.7124 512.37085
783.91913 2346.803 396.83441
1182.292 1342.2693 236.86951
1005.3445 1364.1787 621.47516
1238.2277 1233.0204 652.6427
1133.0315 1902.9121 396.43588
1034.7915 1319.8503 318.34131
981.73383 1366.8004 165.99757
1195.5066 1977.1101 615.65015
758.06232 2331.2654 131.52051
933.28674 1435.2856 619.01074
1112.7086 1509.4972 307.62335
781.88251 1988.1184 243.9783
916.66064 2189.0818 38.532661
912.34216 1476.1774 386.08441
1216.8411 1765.4081 283.07181
910.7486 1440.1108 286.79309
1383.4919 1233.5736 363.89362
1014.3489 1332.6481 29.052181
802.99451 2274.2661 157.41507
1133.1331 1250.7054 467.15656
1294.2963 1247.5737 270.35141
1324.423 1302.968 492.72226
1073.3446 1399.6353 23.469461
948.92688 1441.1741 295.12518
1317.9807 1875.2815 336.36002
1416.1029 1394.3542 396.51346
1107.3235 1459.5002 279.47168
916.55127 2096.6323 176.54581
1411.8942 1775.7174 322.9389
1157.1992 1419.1086 654.71375
983.40649 1377.7308 536.25854
515.08112 1935.395 64.502457
768.24084 2337.8413 150.8942
846.17102 2346.1738 136.48746
1528.7599 1662.4001 302.06308
818.2074 1985.476 248.06656
1267.9148 1885.7944 380.67554
1065.0444 2062.6284 239.36185
1426.8589 1521.4537 283.67996
918.02393 1574.7566 280.24371
1132.6782 1483.552 655.6521
1112.2979 1545.6543 172.20099
919.51703 2230.8716 416.61203
393.5426 1961.0062 130.19069
1117.9813 1532.6207 229.70715
798.85297 1598.2399 239.81425
811.79474 1809.0525 144.81665
795.67908 1670.4813 240.02954
708.54858 1652.4153 150.912
727.11523 2194.1875 230.5977
846.21851 1750.405 640.96875
599.19879 1749.7605 324.34375
924.82947 1996.3611 162.05951
1432.8976 1659.1194 73.612541
516.2774 1922.3363 256.76651
1301.6826 1620.1711 341.22034
868.33679 1499.2645 612.48962
779.57349 2064.4727 417.44785
1407.8226 1779.7886 313.16599
999.362 1922.6313 239.99641
1317.8259 1603.3895 178.4418
1496.824 1475.864 645.53351
1371.528 1696.9434 280.03339
440.25998 1982.6095 55.606174
1170.5721 1750.6333 143.31415
921.94385 1679.2936 461.20493
602.3418 2018.489 139.06815
740.16461 1907.2832 420.99841
1338.5431 1365.5751 217.07103
875.52509 2203.0293 290.92841
870.05878 1492.1637 545.35461
711.61188 2085.8181 414.47833
1145.4902 1854.9341 239.5369
843.66064 2349.5784 345.99811
920.66699 1700.1891 145.51878
1248.7833 1227.5646 566.72754
776.39856 1816.4491 616.39288
1249.4908 1709.5281 653.6228
1382.4514 1770.5811 372.28867
714.93958 1638.7821 246.12158
1069.4465 1310.7323 121.20691
895.81268 1909.8387 243.00865
1129.2888 1437.1371 280.40198
1591.0775 1505.8019 292.09467
759.06299 1810.9288 314.15915
838.83911 2247.7019 252.86577
1040.4705 1332.1095 115.36256
1072.9529 1820.4891 140.29295
1128.0781 1902.0754 506.66586
940.18469 2144.0542 358.42905
985.79089 2045.7361 348.40015
880.47986 2188.4341 206.97273
1160.6689 1506.4825 279.60522
1311.1488 1843.7312 397.94641
782.99023 1843.8081 346.38461
1286.7837 1349.5608 213.35175
776.55841 2003.3837 323.04379
1112.1583 1654.6599 238.88507
986.47937 2082.7441 176.82504
1113.5861 1915.3466 239.89659
1189.9398 1292.4237 295.64206
1385.1191 1235.2296 435.05872
1031.5646 1357.3152 84.790871
684.41089 2372.3301 398.60986
568.07257 1907.4564 220.79854
1140.8613 1916.136 370.56952
1085.142 1710.9355 178.39238
1247.7943 1374.3961 304.95099
751.57959 2229.8533 271.71967
915.07886 1429.6553 345.44839
917.8623 2019.2791 238.69516
920.63428 2092.1973 176.57419
813.19672 1679.3541 177.59164
989.08337 1359.9009 384.78711
1308.354 1612.8599 218.29239
771.14056 2150.0381 169.28806
1411.1948 1769.2393 285.01962
1450.2697 1575.2861 285.57843
884.42859 1653.5281 405.11597
1354.6241 1332.3885 242.9951
1313.1215 1862.7148 586.15063
482.05618 1971.3667 113.57495
761.36334 1742.722 351.32077
932.98773 2173.0071 189.24042
828.51477 2359.5015 390.27289
593.41492 1811.425 289.24603
1079.3121 2077.4331 139.86975
1100.3606 1520.5027 184.06009
1368.5715 1743.7673 233.95459
1155.5881 1880.6897 648.81232
1205.2163 1256.6483 110.33562
1228.2961 1956.4778 498.86826
1519.4546 1665.5533 207.05597
880.78369 2285.0664 120.46216
881.90637 2119.4761 218.6413
1274.5054 1296.7537 656.29218
1264.2969 1242.6368 426.98071
1278.6628 1795.9365 648.63892
803.69202 2276.0696 167.81583
1116.979 1550.2659 166.51645
1573.2223 1619.8872 82.081009
1399.9933 1539.2089 283.20575
1120.6497 1616.8701 238.71767
595.38446 1762.639 501.73245
703.65222 1836.4469 575.88446
1126.3469 1884.2971 239.72525
1166.6371 1634.403 142.01939
967.80591 1990.1104 239.18596
1084.4196 1301.8073 426.63416
576.51965 1777.7119 349.48929
973.6109 1737.292 140.19331
1170.2352 1450.6315 164.07239
1039.9448 2153.3059 278.62573
705.31061 1880.25 379.45523
822.13367 2371.0991 262.25772
1080.6847 1816.0597 178.02731
800.77484 1955.0081 297.48267
1338.7633 1316.8137 333.11295
1246.9001 1225.7781 597.1283
1108.6357 1970.8445 272.27286
709.0835 1962.0352 237.8884
649.98523 2021.623 414.71808
877.29175 2159.7339 417.58365
1243.0188 1250.6006 653.40991
1433.7729 1539.9714 363.15176
1145.2942 1818.2007 285.28143
1008.069 1962.7034 177.29688
1441.8896 1341.973 513.11737
1455.8245 1434.3969 498.08911
1308.6089 1241.394 336.43411
1315.0209 1329.2618 659.16437
1019.0916 1613.1024 654.80792
1213.3065 1212.4763 282.99075
1070.1799 1731.8867 658.82697
877.3371 2232.7061 250.30081
485.99414 2076.3179 398.26208
1156.9672 1553.1055 659.22864
1308.7722 1287.2766 222.11978
552.43604 1867.3174 18.920925
1526.2173 1533.8265 284.58182
971.29871 1792.3546 139.83926
1120.479 1324.2781 279.52502
581.12878 1809.5808 329.33926
1254.8656 1677.7749 289.70312
835.0282 1596.2726 177.94125
1115.8228 1357.5909 236.1539
466.64648 1885.2705 56.996452
762.36121 2015.3621 419.20367
1215.6849 1183.9602 396.01205
433.75824 2079.8506 238.03247
858.3833 2015.5972 544.42224
671.78735 1829.668 431.00937
1046.7012 1583.1312 655.06616
1129.5819 1649.8384 178.74396
1210.3656 1260.6044 203.59019
500.67624 2190.1401 400.05911
1095.5396 1919.7954 350.7027
1286.4778 1264.4285 303.42599
1312.0402 1712.2767 283.883
904.63654 1768.2034 177.60022
1055.4341 1323.5793 96.633461
415.85974 2053.5488 367.50507
528.15985 1961.2948 408.9668
1010.6712 2175.0049 487.42563
1163.6368 1562.1228 142.44691
1073.8147 2029.0767 357.15408
1099.2085 1254.8103 469.13574
868.83923 1883.1135 262.97211
793.46997 1944.2115 310.77032
839.06366 2029.5332 500.45374
1202.2122 1268.4342 652.09119
1549.5648 1590.6332 207.24004
959.29712 1562.797 237.40814
1260.7097 1289.7386 216.86258
807.04199 1776.425 629.68011
1522.4359 1618.6831 427.33878
1106.3818 1698.7306 659.12988
936.12555 2106.0811 431.85004
788.66589 1900.6707 238.59642
666.46527 2027.2483 415.52216
1518.335 1492.3242 325.98651
838.4776 1980.7347 238.42746
988.78693 2159.4214 434.43848
1569.4243 1547.5413 351.02783
507.76404 2203.3098 395.841
421.51855 2054.27 375.54739
994.03491 2193.0769 338.45999
1096.4968 1252.4967 369.54718
496.21094 1852.7429 333.81354
916.07556 1454.1301 622.76538
1479.3702 1645.1747 285.08237
517.23065 1832.7554 227.18639
1201.8546 1304.2981 292.25354
689.51257 1968.4871 270.43021
1401.6172 1275.6895 392.62201
663.18573 1957.6511 206.54539
752.89819 2006.6333 419.16324
1308.5471 1843.0679 314.45221
1046.4016 1850.2836 239.88661
890.89795 1866.8916 264.19577
769.42151 2151.7576 173.96332
814.67206 2037.5728 196.33865
1108.8348 1245.8066 342.17255
1243.5844 1669.9265 655.70062
1285.0792 1836.9211 646.55713
839.82385 1603.7854 429.93591
1065.1676 1664.9075 658.79425
1124.5538 1917.5598 647.76575
1243.0974 1849.282 282.44427
1395.8405 1755.7585 311.14566
1145.1543 1906.1169 239.74243
461.31876 1994.0236 50.036816
1361.7869 1796.665 449.68533
727.28345 1794.2759 425.52795
1458.1138 1729.5042 302.69562
995.22913 2168.0547 176.56999
1528.8075 1507.257 457.34741
1089.6196 1532.5422 238.5249
1412.0918 1752.4902 121.90571
914.61987 1683.4326 177.91589
1011.1992 1385.6588 492.04666
539.19501 2132.5557 397.87045
767.62054 1897.1782 580.6665
813.5235 1541.1089 259.58347
1538.3384 1654.9384 347.02972
1334.5099 1646.4856 138.39644
1367.3016 1717.4583 83.046661
845.03088 1511.6221 491.77377
1594.0173 1551.3179 375.15399
1366.1047 1657.5017 153.25479
1252.4668 1595.3772 658.9137
1414.4315 1611.0566 285.13666
1515.5476 1494.5918 645.77771
584.49689 1880.4312 31.171299
1020.09 1703.7715 178.19952
729.65125 1618.3252 411.38019
825.03363 1772.4523 350.42688
1356.5778 1564.6406 154.02542
571.58478 2049.2449 237.08299
1479.8136 1638.7524 358.44366
654.2594 2052.7986 136.27606
811.48944 1825.9623 354.8779
822.04999 1901.2114 238.80368
1117.1085 1257.8058 639.02875
701.37073 1933.1797 245.79852
1119.9863 1446.9263 280.00137
1440.9993 1383.4771 198.55351
1551.6351 1637.886 457.35645
763.00409 1985.9019 196.43793
1174.9424 1667.8981 178.83493
823.17902 2021.2964 490.34131
1123.2814 1427.353 653.4129
841.12183 2291.9419 9.6446285
1141.9768 1207.3131 316.71881
957.54932 1702.4005 655.01764
866.49469 1523.5525 284.40222
1003.4824 2148.7246 238.45386
1470.1914 1710.8638 537.92145
892.75336 2093.0476 487.46945
1491.9563 1675.0874 261.81458
1071.4948 1838.1163 177.92323
1146.3687 2045.0249 239.92894
1197.1796 1339.03 654.05725
1090.9886 1263.4948 473.51422
1382.1541 1766.7456 27.942492
817.09705 2294.9917 97.90686
1127.5671 1337.8586 650.82434
410.04337 2045.4917 324.77148
1458.3698 1315.9431 427.37567
484.31158 2141.6648 228.17343
811.17572 1971.1956 275.52316
1003.1118 2183.344 479.80811
772.40649 1988.0314 280.04129
603.92664 1745.0366 222.75194
937.1709 2228.7544 417.08051
769.14246 1866.0731 176.8228
634.33521 1714.6257 289.435
974.34534 1451.4906 367.07166
943.65961 2173.7358 448.04453
574.40796 2206.894 381.21747
1466.6249 1308.1823 488.73331
1031.2023 2179.6221 519.08331
1203.6011 1989.6533 410.14502
805.34314 1970.0947 176.59686
1598.0408 1587.5262 345.52606
544.4397 2178.0327 373.05554
1457.8218 1732.1423 246.43854
997.2074 1788.578 239.8235
1076.5889 2195.1545 464.57983
869.64343 1883.8555 257.94617
1540.0514 1493.1326 259.68445
1183.2084 1238.0282 156.32011
1034.7456 1446.3218 284.19632
1444.4186 1608.1218 652.10486
844.89465 1846.6681 625.16364
1101.4077 1288.1176 371.79199
895.38306 1453.8433 329.20081
458.35345 1896.032 65.25013
1251.0588 1333.7198 656.36603
770.75647 1976.1313 238.02811
947.01813 2246.2246 339.32462
818.95959 2375.0327 136.54828
1184.0555 2000.3989 501.42548
1506.6201 1643.7322 218.79979
973.75 1378.7468 53.184151
759.31226 2375.3066 236.99518
711.09845 2053.4941 415.92749
879.44128 1761.0048 309.30447
1552.8994 1634.7216 293.93085
913.33911 2212.8215 233.0468
1368.3805 1311.7675 213.7532
1073.1492 2034.8779 341.70764
1146.2631 1882.9558 239.64584
1043.3475 1432.3679 196.90948
1026.626 1335.8932 550.12195
970.2489 2032.0184 355.05951
1250.7638 1275.3708 654.5365
813.06891 2108.1138 174.27582
861.93475 1921.6304 138.36662
1154.4685 1297.9299 52.061016
911.55878 2150.1841 237.86537
922.44281 1702.4137 480.3877
1027.3746 1441.4038 358.14307
1022.1497 1348.7686 630.86719
1169.7328 1705.3892 238.86029
1474.8518 1678.8967 383.60574
1342.9766 1827.8762 634.54504
1054.3512 1378.4198 186.08365
1054.1799 1765.4208 140.51694
1382.9048 1768.8256 337.17914
1255.5093 1234.2173 544.20752
1091.228 1741.6635 140.89215
566.93988 1833.5048 254.92368
1100.3546 1979.189 285.14178
1356.821 1564.3934 266.2142
1194.1152 1993.6931 431.68521
1547.2883 1520.5742 284.36725
839.53003 1899.8823 176.94466
1057.3909 2129.7573 346.50818
1127.2657 1800.5952 319.25024
904.00659 1492.8088 645.38129
1095.6306 1337.1462 122.91203
1140.1794 1677.3336 141.5912
1366.9078 1808.51 590.8493
1073.8665 1847.3335 189.48956
761.13403 1985.8258 437.53152
805.73004 1772.0319 630.11932
978.17212 1395.4819 50.311981
603.31348 1776.1162 442.87061
1400.8202 1276.363 358.43576
1037.8824 2063.2661 239.18661
920.29205 1858.4973 266.83609
880.79993 1640.3981 450.63593
1156.3513 1519.9193 277.01468
1451.6825 1369.3375 190.95578
863.59521 2240.436 252.29974
1043.6492 1694.891 239.27838
1316.3669 1594.4132 190.29797
568.79279 1904.2498 229.50909
875.30975 1660.6134 452.37473
544.30127 2181.9709 217.45889
1047.7742 1430.8668 650.05505
821.57568 1989.1609 464.93137
573.30066 1850.8281 224.18121
1288.0233 1905.2408 192.89526
733.37244 1895.8198 403.04898
1459.4015 1657.5823 239.16611
486.26221 1975.9609 143.70024
1023.1209 2170.1289 273.53152
1348.9288 1732.458 357.50708
1174.7977 1749.0492 291.13373
891.95532 2144.1292 236.90048
1580.4744 1558.6848 379.1676
968.70435 1804.377 177.69318
731.08984 1937.0403 336.85406
381.66443 2015.8049 276.79153
879.70715 2043.5034 408.20465
716.42944 1989.7645 263.37787
897.37866 2062.8215 362.83038
745.09094 2156.0364 152.10689
1038.0691 2146.5798 497.66507
784.03528 2328.3354 60.400623
807.21283 2183.9355 164.20837
1297.316 1854.3131 317.24887
1220.4275 1761.8867 259.25522
1139.1384 1262.8409 186.05344
908.92334 2275.1538 407.93356
1171.6887 1280.6646 99.444702
800.18628 1958.0425 137.76086
698.75311 2327.4902 384.74069
804.26892 1544.7062 411.26285
764.93481 2231.4919 405.84222
940.10059 2121.8237 176.54034
591.28784 1879.8013 46.168545
734.53839 1896.2225 454.99161
1140.0026 1888.2883 589.09344
1210.6874 1489.5618 143.18501
802.25702 1818.5894 145.48338
1190.7245 1686.1553 656.77936
947.96704 1416.7716 591.03888
1411.3014 1258.9896 459.95865
423.57892 2054.3789 219.94504
989.92279 2149.2844 391.14301
1507.3174 1563.9835 209.60988
1100.2461 1325.0787 649.172
1036.6785 1574.7997 289.5062
1062.4741 1588.9177 656.01355
871.50818 1517.2922 380.85596
810.30682 1985.5537 238.22069
1395.9307 1679.3577 247.33029
728.50769 1635.5958 561.8595
777.64594 2293.1311 62.095818
563.89087 2202.2852 309.45096
1440.0747 1720.7786 168.34544
887.74554 2047.2432 391.68811
1122.0774 1831.9241 178.11237
1182.908 1431.5923 656.28278
1199.1826 1662.5669 238.59889
1347.8762 1807.4742 405.11673
1360.4529 1739.8679 270.08069
1149.4529 1797.9792 358.39447
575.46503 1797.1448 117.35283
994.20166 2100.7192 176.79089
810.6394 1730.2703 239.06403
703.7478 1854.7865 176.6427
1185.4729 1241.3823 171.11035
1125.0354 1303.6875 388.08948
1141.6437 1590.8113 142.13417
586.96118 1854.4053 418.40814
466.42877 2076.5986 392.41068
1350.212 1328.6167 446.55786
1484.0721 1462.3367 399.59491
1442.7849 1447.3523 659.53857
985.73071 1444.0913 421.91376
1038.7908 1916.4458 240.19572
949.19684 2158.5332 255.853
814.69086 2222.3726 106.98101
722.19421 1931.7344 183.59999
846.36322 1734.5591 177.51816
1093.0898 1297.2566 344.78162
867.86438 1550.2109 412.86084
980.45209 1373.0691 273.7244
548.80084 1878.5966 12.62746
797.20825 1668.2793 307.71616
522.17883 1826.7771 330.24469
1212.5027 1675.2454 179.25819
1470.3693 1449.2446 592.83606
1437.0231 1714.4656 289.28299
1519.6681 1616.645 486.13177
776.36224 2341.5159 91.538116
1177.8391 1910.519 646.62561
749.21338 1599.7588 392.41003
645.21484 2334.6074 283.13324
499.2381 1873.0076 414.51779
523.37561 1908.9045 155.3597
1042.2068 1393.6675 15.339028
1053.8025 1340.4585 285.18137
895.091 1798.7402 139.32956
931.26294 1721.897 239.80267
1078.4097 1700.4714 178.40482
465.17203 1883.7815 375.436
1507.0635 1680.5559 330.80347
796.17474 1552.7993 329.69019
893.26031 2176.2651 63.19215
772.97058 2336.696 173.68794
792.55164 1556.421 245.1489
832.65979 2261.1343 126.97202
840.8446 1508.1334 210.12982
1217.4215 1764.89 258.73062
1166.8167 1455.2596 143.12595
624.68402 1724.2814 203.71994
1439.5822 1534.9568 357.01736
584.90662 1740.5566 440.40228
985.93481 1769.9817 258.74722
1391.7811 1776.7178 228.6687
1024.2736 2157.9421 182.86938
1279.2147 1695.8933 238.42995
1325.8386 1660.3701 653.39612
608.80664 2176.1948 217.0228
779.43231 1796.7664 266.19678
830.54431 1673.9615 239.62445
1278.0775 1873.6746 341.62701
831.9621 2054.1138 305.08438
952.19727 2120.8906 426.99866
975.64111 1442.2256 647.09631
505.61804 1873.8107 134.87195
1140.7968 1230.7964 282.68179
1077.2085 2107.2515 499.98767
648.72803 1732.9731 144.18469
1334.3616 1303.5349 303.90472
698.72192 1651.6534 312.2793
832.78278 2241.0083 146.51984
788.26007 1802.7339 238.35486
1417.8157 1659.783 181.75343
774.00763 1947.3413 444.87
1481.7151 1452.855 245.36813
1316.8085 1456.3381 283.20245
1264.9058 1289.7982 283.2688
359.76685 2004.6727 333.33075
505.28864 2134.6531 362.31381
1403.9968 1551.5508 285.61215
743.5589 2211.229 407.02811
793.23376 1961.5743 425.6828
629.28107 2138.2979 159.04327
1506.1216 1459.1969 258.46255
1184.3961 1276.3191 210.31796
1388.2277 1730.4462 460.74185
720.2406 2255.356 238.16791
762.89496 2397.354 186.09335
399.75616 2030.5896 265.16946
1093.3673 1861.7526 403.79257
826.34729 1649.49 350.03207
1242.4005 1220.8097 451.33487
745.08942 2009.0156 251.61162
1193.5394 1246.5068 131.17522
707.99109 2371.8699 395.18274
947.61353 1916.7749 631.30029
1421.6667 1755.7952 571.91888
1200.7212 1933.9519 239.647
1251.739 1708.5918 653.58856
1153.8293 2033.6672 416.57831
664.37927 1720.5966 606.47266
1449.3457 1589.9219 221.53488
871.75256 1512.1611 462.42307
1156.5935 1743.6702 141.28314
1180.4978 1849.74 649.40533
766.60846 1923.2783 137.76817
1163.6649 1209.6838 638.96136
1057.3589 1321.6511 113.00687
960.48132 1574.4313 358.99847
1358.4935 1834.7747 361.03513
611.02234 1737.9407 375.23853
1040.0469 1848.5791 431.14673
818.80334 2259.1104 65.711456
694.33698 1659.9673 363.85422
964.97485 1688.5007 654.88318
1479.431 1713.8459 378.37363
1114.8618 1831.271 178.09052
1345.1284 1522.6382 143.81055
466.42453 2138.1772 378.71945
1173.2539 1644.9795 659.33533
659.50262 2224.1787 399.5968
1222.7231 1702.3511 654.89667
1499.1288 1477.8394 541.06274
810.01416 2106.8325 416.93225
998.51318 1426.1516 199.43994
787.28766 2331.1724 398.61124
693.74084 1795.4441 445.77411
538.9267 1935.0146 236.88765
944.07947 1614.2715 359.39185
1159.8333 1652.5981 238.70517
485.54681 2060.418 395.73633
1466.7837 1568.403 209.31094
1153.9889 1264.3435 163.26807
1440.6501 1627.9993 266.97015
931.52228 2140.5278 254.58771
1269.3597 1753.5332 244.70163
1468.8497 1696.2952 282.08908
510.9823 2149.2676 232.15155
519.82477 1833.7695 146.0217
859.00409 2311.397 407.16742
846.90924 1934.7788 238.7579
1009.9088 1806.9471 239.8495
683.21912 1677.1785 183.10793
1545.3367 1498.3053 225.00262
858.1366 1770.7826 238.63976
1452.1176 1360.1276 198.78529
1097.8037 2095.4482 395.74988
1172.3386 1978.2031 641.80304
876.02222 1769.4261 350.03821
1395.8372 1634.9326 360.24799
1276.7786 1643.5581 338.29712
1553.944 1565.0261 650.67517
1413.5164 1451.1257 215.97069
1243.3568 1346.0874 315.13538
697.53699 1802.6591 451.97983
915.84155 1766.9325 649.88055
482.47351 1929.0275 250.02313
617.72363 1837.8729 461.14954
1083.2422 2015.4595 177.37157
1211.4817 1330.178 654.43854
1184.9049 1600.5598 238.42625
994.65558 2100.8914 238.68683
1481.0984 1706.7339 435.19217
1248.7577 1602.5427 142.72275
1342.5068 1276.6536 368.07062
1149.676 1622.2673 661.23193
1297.9855 1401.5715 209.1057
815.05371 2180.3809 134.57132
1441.118 1388.9126 487.85657
812.22223 1653.0964 274.01202
1189.1329 1230.2754 195.59073
790.34131 1933.353 396.04962
1389.3276 1732.3604 472.30475
877.47192 2234.6169 173.30891
1286.2537 1264.559 416.5737
959.45862 1687.1575 140.41536
953.74554 1905.7515 139.03119
904.62012 2099.4834 494.62976
1138.4534 2048.7661 360.57993
886.77747 1812.9301 177.39174
1420.4343 1348.2745 394.91479
992.20361 1851.6227 240.09343
1334.9172 1226.698 480.35764
533.01764 1846.2474 416.57013
1401.9205 1267.5406 350.57736
1105.4449 1313.7202 281.59467
1385.2181 1530.1526 657.52783
1106.0377 1258.5288 570.72223
620.59961 1889.266 418.34094
1278.5156 1696.597 361.17688
943.87183 2026.6052 605.47925
1379.5352 1378.5067 663.65948
1384.4877 1801.0093 322.59985
1462.0449 1606.6318 85.706116
484.37448 1947.9009 117.47068
1143.234 1205.7632 385.79886
1223.0381 1699.8098 292.00439
703.62952 2114.2737 289.18298
755.64844 1991.8834 237.83774
1095.595 1373.4592 11.863569
1434.4885 1582.1711 361.32773
1416.8835 1357.1326 231.65578
820.96637 1988.5719 246.78499
978.02563 1597.761 239.16443
1299.3413 1425.8606 201.17056
917.5636 1692.1066 378.88748
976.85962 1668.4993 140.63786
726.67542 1892.3838 415.57983
1002.4484 1633.5896 178.37456
489.58521 2158.6853 151.35535
711.29614 2346.3879 234.58026
625.97827 1712.8668 150.912
920.38318 1693.8306 530.94452
531.34814 1902.2688 142.99539
1312.7915 1608.4181 244.53458
1067.0319 2080.7605 177.10001
1326.0616 1585.793 148.06558
862.66064 1801.6111 336.24243
1452.0007 1680.3303 284.67731
1156.562 1260.4957 110.80418
926.67963 1566.0023 178.34726
977.45496 2215.7888 278.8316
837.20758 1827.7981 343.68793
438.65784 2076.7412 227.45132
1220.6001 1863.7979 282.23566
1154.1501 2033.0596 358.79865
1317.3584 1726.3804 238.40225
737.65485 1770.1604 616.69421
855.82684 2010.6204 363.77011
782.43945 1843.5067 347.28784
1349.5443 1766.8251 449.14282
536.71899 2068.4302 238.21706
922.33569 1461.1302 470.56873
974.92883 1857.4231 297.39224
926.16492 2118.6299 447.44974
1311.318 1609.896 231.25298
1328.35 1641.0848 146.87627
843.37433 2354.6436 66.351456
981.81732 1998.6676 620.46796
1465.7124 1443.9999 405.9505
1026.6721 1331.0188 187.39386
1143.5599 2043.2944 287.16013
828.64429 2252.908 250.1937
1007.8074 1746.9111 140.345
1513.1528 1664.317 572.98926
832.88574 2193.5547 415.5249
1137.7831 2058.8367 400.7421
809.88062 1815.3279 353.73459
1277.4541 1632.3206 142.71608
818.45837 1797.4595 238.51233
746.15845 2220.9363 277.71606
1177.058 1174.0087 441.59705
989.16815 1398.6216 399.27884
1128.2645 1383.7332 115.84959
770.08838 2145.9097 183.11922
1034.2013 1438.9177 62.682114
536.0791 1896.1942 177.76057
1504.6327 1647.1942 356.13254
658.18195 2036.0715 136.40344
845.38074 1910.8562 138.33095
578.88416 1789.3429 393.3367
492.04596 1978.3569 87.869705
546.65668 1926.1248 50.418335
821.33954 1982.2203 238.31042
1331.4529 1406.2175 283.63812
851.31165 2017.3915 416.97809
970.15601 1896.4907 239.76578
1017.6135 1516.2625 178.81592
795.92493 2397.3071 268.4433
1260.9097 1776.8135 283.13623
1160.9713 1198.1665 519.117
379.8905 2026.1167 203.66135
861.62805 2004.0249 414.39767
1512.8569 1680.4131 274.23651
782.474 2286.4233 193.58153
625.13623 1740.9231 150.912
1307.4169 1230.8221 453.32013
1123.8364 1260.6506 456.20477
451.08191 2107.8 208.13176
1496.0811 1518.8362 654.59717
983.89038 1838.3702 177.63051
1326.3792 1684.2808 284.17798
1137.2261 2056.0276 229.47528
783.90668 2387.4805 195.47134
1328.6028 1864.6652 201.58775
864.68848 1555.3669 645.52283
990.72888 2027.37 616.11688
808.64514 2366.1033 178.49345
1176.9502 1810.0543 651.40472
1032.0828 1603.0146 141.38275
749.8241 2068.7056 136.76732
1345.0957 1800.7322 283.24136
725.39392 1817.062 443.98126
1086.6924 1834.5081 152.42099
720.72021 1924.6414 137.47658
1397.9399 1376.522 500.59967
836.60577 1978.2498 303.09567
1047.9159 1553.7131 178.79211
543.69507 1972.5254 409.36963
978.47211 1734.8275 140.23853
1008.2058 1365.4417 636.82709
850.91302 1992.6554 347.86469
1286.599 1804.321 356.33057
1189.085 1173.7462 375.7283
1470.3547 1591.8967 207.23811
845.70917 2030.4937 449.68283
896.91235 1533.1593 413.47626
715.16797 1722.6571 334.94742
1450.7988 1391.4285 476.62015
1462.1849 1497.1233 216.2487
403.79608 1946.5972 249.66536
921.68396 1911.9468 627.62866
1131.2891 1923.0546 332.65372
1266.2544 1921.4429 248.02179
1397.0198 1790.5979 297.31146
1451.8788 1429.8218 296.51483
677.04596 2183.0671 152.94785
533.2644 1874.9207 290.63095
638.51923 1715.1327 460.20111
479.98334 2041.7722 396.93533
839.82532 1719.9802 349.20462
1413.4526 1658.2786 238.50171
1103.8396 1494.9941 256.98792
1522.257 1488.4279 359.86676
853.65173 1992.1897 371.50003
1440.8298 1286.1666 511.97485
1038.1652 1399.5829 93.756363
1474.5178 1323.7363 498.22595
1472.3634 1682.2682 118.86726
1404.6595 1708.0447 414.25543
1292.5449 1886.8726 551.31696
1125.5032 1318.7479 153.72369
1053.8179 2132.6909 479.94144
733.92389 2258.7253 238.3175
646.59991 1837.2542 451.78882
1463.4414 1733.4066 230.24548
1297.4481 1890.0182 473.85974
1268.615 1921.2249 450.64206
1218.4432 1407.6306 657.16882
881.63733 1508.6898 340.49036
1090.373 1257.9323 109.96922
1413.2041 1276.5104 275.26907
895.78619 1762.9807 351.81693
1075.2893 1280.3318 484.28534
1501.9077 1635.2473 197.55637
1309.5331 1262.0881 485.86844
1296.4788 1602.9144 156.91475
1441.9587 1745.6573 305.16766
927.08496 2183.8137 204.65338
1148.2972 1771.2207 303.67075
882.2334 2052.0601 527.71094
1346.2913 1690.1093 284.20135
652.40717 2274.1909 394.0296
539.93134 2177.8008 186.02209
1072.6146 1391.9692 284.80588
782.78333 2183.7734 289.38574
700.70874 1873.9576 444.55804
1221.1825 1427.6221 282.4913
510.46136 1850.353 171.43173
1188.5504 2004.7 320.12479
721.00537 1727.3531 620.6441
736.03528 2185.293 239.67224
1123.0602 2063.593 246.56729
923.50922 1867.4242 637.19867
714.54272 1634.423 345.8233
506.41406 2161.0071 185.67105
1483.9905 1703.3925 182.2661
987.4386 1395.5365 238.06134
1240.1028 1953.1165 241.06992
882.5105 2195.4009 416.57809
1336.531 1587.1613 344.81946
872.96027 1664.342 420.21207
1106.5427 1881.1355 374.00287
710.95557 1943.3159 266.8013
1278.4539 1257.1243 533.03455
1076.105 2027.8904 309.62241
801.48975 1996.8097 238.09708
899.26233 1463.647 239.0927
583.80884 2068.7485 138.81108
970.15601 1618.1072 239.26648
822.07526 2301.218 270.23373
1386.5039 1364.9358 455.09241
1146.5022 1542.176 251.95949
1123.121 1870.8369 542.96643
746.06287 1624.2086 621.37244
1332.8793 1618.3268 280.87195
1142.2833 1331.0558 176.35924
1047.9254 1831.7356 492.44019
725.69006 1647.5398 139.65562
1135.5787 1878.5022 525.52228
907.63916 1960.5874 138.40828
1149.5798 1369.7334 360.93567
839.35876 1612.8463 239.72058
591.88586 1878.082 44.899979
1053.8302 1313.5229 596.9563
1161.0122 1794.934 360.54504
640.8631 1712.8435 243.20204
914.5965 1676.548 652.08514
640.96979 2256.4028 395.58286
1521.0127 1626.7428 144.85841
1491.4398 1667.6367 642.79382
783.55579 2395.1523 388.05286
1236.724 1941.325 563.80798
1358.0884 1813.4215 628.40564
980.12396 1867.7469 264.75348
1134.8872 1487.3613 316.10776
978.51404 1514.0955 246.54016
659.22296 1693.6509 452.96967
691.0744 1867.515 463.69873
1096.5963 1864.6517 405.35556
666.83624 2136.5242 135.8371
777.44037 1592.9092 622.49023
1078.5662 2108.9514 420.73352
982.61664 2103.5471 176.74287
1121.9884 1513.7078 256.36096
1359.6495 1811.3622 633.19818
893.25446 2093.9836 238.08942
1012.3395 1365.2557 152.82791
796.30096 1691.311 177.49557
1410.7937 1349.8546 190.92447
780.08093 2298.0588 213.53723
832.35449 1619.6273 484.42828
1165.0682 1246.5491 211.40414
1096.1948 1844.2374 569.97906
1106.0038 1312.7386 483.82715
976.5304 2198.7468 367.84494
639.79034 2115.689 275.78064
1485.6758 1677.1494 282.65048
1321.4094 1579.0275 175.16782
1598.4713 1590.333 278.12314
1185.0964 1435.8259 217.47208
855.06683 1996.125 380.12863
971.0014 2054.542 238.81725
1404.3752 1747.4386 353.66937
1320.2167 1313.8389 283.52896
1457.1229 1718.3386 591.63568
880.55859 1671.1006 424.61575
964.74677 1413.3285 186.26393
906.38037 1561.6459 178.29416
1448.1034 1733.2136 535.10626
751.89478 2140.4102 413.14075
850.14398 2005.0609 450.80634
1264.0953 1491.8705 143.50034
673.94629 2348.7539 388.10944
1390.8219 1541.9463 229.86748
908.96497 1481.418 351.71094
712.08618 1636.88 332.37946
1057.3668 2057.5957 621.33789
1522.4929 1500.5485 334.38562
1557.7301 1535.7894 473.65921
937.01709 1411.9666 205.64795
760.96973 2331.9465 113.38801
632.35034 2188.2407 237.86658
544.30762 2182.51 230.13156
898.10095 1737.9711 250.84389
965.51947 2232.0312 180.65942
1367.4364 1226.4473 302.95959
402.17648 1947.5177 168.95097
851.74695 1497.2273 381.20154
984.61462 1438.2537 183.06659
1302.2084 1566.4232 658.54529
1124.7524 1826.2053 652.46393
1102.3466 1864.791 432.198
1523.5001 1669.7798 341.43762
1032.4731 2140.3447 177.63092
680.02698 2298.0474 395.18082
1203.0911 1990.1591 280.24167
781.77509 2287.3928 62.732586
882.84375 2266.2424 289.75513
1131.8596 1338.8462 75.175133
698.3634 1656.0654 389.1647
875.83496 1858.0759 138.84459
725.07172 1956.6038 446.1507
1220.161 1198.6597 479.29474
1073.4907 2119.7563 402.95444
1403.3381 1635.2661 281.99493
814.12207 1853.9803 177.01292
749.13617 1920.3987 449.65433
991.61444 2179.9548 410.51965
1429.651 1357.491 427.89499
1310.183 1280.5961 468.23053
552.28644 1920.1587 238.23105
997.42542 1820.6719 139.82574
901.04626 1484.496 435.62756
1080.939 1541.2793 310.0163
1507.9807 1671.5034 553.52881
1147.8397 1329.5245 260.07278
869.59302 1958.2759 604.33557
441.30786 1904.2635 47.784409
980.32538 1372.8444 459.57202
1205.5453 1183.6945 369.43848
993.45801 1366.67 526.72662
623.46954 1865.7092 224.49942
1333.4604 1827.2732 482.01379
1099.3398 1333.4374 185.49663
997.35059 1691.4135 178.16492
1485.0579 1464.0054 616.8656
1456.5985 1669.2969 284.78964
1369.1002 1732.6597 648.72998
625.3158 1729.0216 370.85916
1448.2776 1707.1809 407.80408
1067.2144 2126.0325 391.69955
1533.95 1654.7524 465.02505
1213.915 1190.3052 363.8396
1437.5002 1708.4669 281.17587
749.37561 1719.4502 627.43616
1157.9655 1763.2395 191.45085
957.06732 2041.7405 238.80667
845.41473 2017.3566 137.67398
1149.1719 1929.1147 498.32144
362.15128 2018.5234 329.92416
574.66473 1799.1257 202.2688
622.24231 2260.8303 236.82224
1187.3872 1794.9629 266.30859
1142.9165 1856.2723 650.40875
1205.9602 1848.9493 282.30975
571.90796 1789.8817 204.62027
1351.5873 1198.4406 442.19171
1570.094 1605.2565 594.08264
1066.7609 1536.9985 178.91058
1556.0594 1534.8 622.75128
917.50256 1796.6255 177.5484
955.21252 2173.5061 194.53133
1318.8413 1618.5785 655.53302
1237.8718 1845.1797 282.46039
1073.3406 1855.9733 652.61792
1212.8961 1810.0771 260.54477
870.33667 2201.8325 63.875553
1330.6959 1254.418 304.80597
1192.2854 1912.4041 239.59236
1430.9813 1415.8698 221.45599
708.69342 1931.3622 178.27821
1285.2136 1755.6251 283.40921
866.93359 1698.1934 349.9603
618.20905 2002.6263 245.75465
1049.5507 1389.4919 11.964839
826.73291 1683.2229 240.03702
1134.3295 1377.0619 360.54614
1098.9313 1633.7932 141.60535
802.46924 2346.072 56.048889
1212.4415 1258.5284 105.23437
1379.571 1357.9536 438.5643
789.71606 1980.6194 176.50974
864.67181 2165.7749 287.48718
943.15479 1809.1481 244.271
1092.4208 1964.96 239.9751
613.52783 2007.3064 179.74867
1141.3452 1779.8586 151.82896
915.44733 1502.363 484.14374
870.12354 1709.6097 307.02087
1173.8984 1447.1437 257.42871
1306.1191 1276.9958 430.978
1417.1832 1280.0132 345.61865
513.99658 2212.4553 395.841
1220.9714 1199.7344 561.86633
662.55347 1875.1509 359.97974
1094.036 1257.168 207.75694
751.08746 1964.2599 270.62378
1277.5824 1240.8007 222.22681
1437.3193 1415.6001 405.33667
1323.396 1556.9524 658.25311
563.93689 1910.405 228.77916
945.52826 1403.4546 230.36845
1238.6593 1615.353 271.94232
1055.7847 2137.4617 390.48425
1052.998 1855.2155 427.58771
1285.8567 1894.7222 540.05139
898.12463 2292.6968 62.269135
1470.7244 1636.3331 649.99066
1299.6221 1882.9976 520.56873
1303.5254 1381.5021 211.77037
822.40417 1811.8344 239.34515
1313.7439 1612.6504 280.58957
1139.1558 1737.3406 656.16089
470.12363 2143.8135 285.8847
558.86511 1830.8354 37.697712
1222.1766 1182.3053 270.3465
1349.8069 1837.8032 338.46002
820.3374 2306.0994 258.87903
1120.0741 2066.5645 243.56699
1226.0409 1288.1357 283.09576
1077.4729 1366.4298 4.6980553
1230.3037 1642.16 142.36443
873.58789 2211.1414 76.052605
452.22031 2109.2424 222.96619
1461.301 1655.5696 453.02921
1212.4668 1980.7932 249.87859
889.13013 1775.6316 337.97537
1092.6705 1330.994 358.64981
675.5271 2113.811 288.60275
732.01013 2005.0654 137.05003
1021.0151 1408.8896 401.55017
1060.2753 1416.0669 208.37813
897.60376 2171.4626 151.97382
1176.0015 1743.4884 297.87421
1298.0847 1623.1293 172.40041
596.20862 1893.3041 416.92578
1069.6492 2106.678 578.30933
840.74756 2229.4294 22.549238
925.12677 1499.9059 362.82895
873.83777 1485.4026 516.71033
1125.4901 2067.7605 221.64281
573.74017 1938.9484 135.45319
1397.2402 1704.123 357.25024
602.61359 1825.4563 356.20807
955.4054 1540.8594 237.58322
1374.8213 1812.7908 342.31848
1126.3053 1259.1686 439.76373
1312.1831 1692.4865 284.05457
1288.5233 1256.3009 396.43167
1158.6664 1462.2028 148.89664
938.58691 1566.4418 649.37421
1366.9126 1816.1853 163.19244
1024.0739 1523.7052 360.11041
1057.1565 2183.9932 512.53033
805.57629 1588.1042 177.87051
1339.5087 1265.6036 296.79697
922.93719 1542.1791 178.41417
1132.4402 1332.2102 94.334106
748.40778 1665.6655 239.76054
1467.6063 1309.2513 472.39148
876.65912 1473.5471 350.37854
877.85919 1620.8363 530.24841
1467.113 1692.5826 468.73618
1006.1062 1362.2563 147.30107
719.80945 1959.8164 221.69772
630.04962 2312.0872 341.2995
1315.9902 1769.288 183.21835
1041.4341 2165.8433 151.451
1034.5361 1508.7454 178.89735
1059.8955 1411.7368 188.36993
960.17645 1672.283 178.10481
1342.9447 1302.2788 284.72229
777.60883 1883.0187 238.63316
1074.9918 1511.6699 201.49809
760.38702 1590.1969 297.07135
638.29559 1842.436 358.48636
562.16309 2058.6675 223.74498
863.5188 2074.4795 185.36766
959.50421 2233.7388 292.83612
1581.519 1559.3921 274.52402
1086.5133 1513.3572 358.14429
1042.5391 2113.9761 603.26648
818.32214 1565.7542 177.98743
1193.4907 1594.9689 245.49583
851.81329 1999.0155 176.65533
754.50476 1707.9829 177.30098
979.43005 1894.2435 239.8378
1457.3864 1499.6598 215.48552
1043.3732 1490.7928 651.71814
1312.3362 1291.4823 657.46667
873.61853 1554.7916 317.32062
800.07056 1555.2141 477.82864
1119.0319 1271.33 347.85077
