# .PCD v0.7 - Point Cloud Data file format
VERSION 0.7
FIELDS x y z
SIZE 4 4 4
TYPE F F F
COUNT 1 1 1
WIDTH 1560
HEIGHT 1
VIEWPOINT 0 0 0 1 0 0 0
POINTS 1560
DATA ascii
-303.6297 263.23154 64.630653
-162.42648 432.81595 38.198174
-154.909 412.14966 42.862103
-307.46286 201.62021 7.2545919
-193.72342 178.21423 70.129433
-146.3342 369.34363 31.870758
-165.80281 420.99475 11.100622
-223.20682 422.96503 90.516586
-292.94244 164.6459 39.217926
-146.31871 216.64548 57.171452
-190.26559 119.43325 51.555912
-257.57001 342.38821 102.14849
-223.35199 251.14594 84.847954
-222.46231 355.17014 101.60006
-292.33762 163.65634 36.850113
-199.1942 472.45374 79.424225
-264.55594 482.88422 62.79364
-207.8898 131.63098 61.444145
-272.76376 481.61298 64.269257
-277.7832 123.69927 49.89603
-307.50751 203.29401 51.694378
-164.48694 162.60304 25.965853
-265.53394 158.24541 67.652382
-266.08673 466.00354 16.441595
-184.88187 152.61011 66.443756
-294.67834 428.96237 31.588356
-249.52356 128.23343 15.246834
-290.94287 231.32115 70.474136
-289.61615 347.32233 77.349091
-149.96323 377.67377 73.109116
-193.59169 166.1669 68.946518
-169.30276 269.55804 85.397003
-293.07773 158.62114 29.707729
-283.28448 372.00909 83.513435
-305.58466 211.61006 31.923275
-188.62727 351.0957 101.12093
-239.92479 425.55402 89.770889
-171.38773 475.28949 74.978531
-193.54187 297.60632 100.37729
-145.8586 164.29163 56.073193
-277.37753 472.6311 63.420998
-167.39026 434.2796 78.403259
-209.26593 338.99298 102.08989
-179.72781 478.00574 26.157341
-149.14893 441.5495 22.159632
-150.06372 178.77216 24.036417
-153.0627 210.50833 29.988003
-147.42027 349.34619 55.203964
-248.47139 147.87245 66.117996
-171.63486 449.49594 14.389235
-302.44006 410.67697 30.522917
-235.70831 485.65387 70.207672
-306.05838 365.19107 63.284317
-200.924 485.52264 40.239296
-146.0567 293.71228 27.31612
-296.92923 458.74017 23.901482
-207.79486 476.19574 79.123703
-225.74176 460.08917 81.243393
-188.63264 156.37788 67.350929
-153.4196 382.9339 34.130241
-187.85431 226.03456 72.628456
-304.65799 405.46967 25.959541
-224.3515 241.79842 80.901474
-231.58928 304.6189 101.42582
-300.91351 153.1286 60.433708
-214.12885 326.5188 102.1823
-292.66754 297.2536 73.990524
-285.75757 390.0459 79.073128
-232.40349 477.71576 20.198549
-297.89517 239.16556 70.025581
-180.84851 362.98596 94.706802
-268.15915 121.1867 25.206142
-303.38904 370.95654 39.040073
-149.2666 267.23001 21.846478
-296.08209 218.76364 70.434158
-155.17157 176.10806 7.0468006
-286.84006 467.97034 73.661316
-169.84195 125.26027 53.112236
-202.93707 471.31754 17.642351
-305.43365 176.94403 55.701851
-211.26424 483.09116 76.521912
-295.83301 198.58148 40.456524
-146.65239 267.79639 28.168861
-144.75301 177.2874 5.8784361
-270.87274 479.92834 71.41478
-303.38623 368.93362 40.021652
-206.13484 482.96387 72.48056
-307.03882 411.98453 10.456396
-162.69852 307.43518 76.497986
-174.25688 477.33084 63.587605
-306.4715 207.2466 14.885056
-145.16202 379.28601 50.125031
-307.57593 208.07878 11.094769
-197.63394 115.81937 51.798027
-171.29977 189.32776 70.65773
-306.84229 219.49782 42.591293
-151.67709 208.45383 41.585999
-178.30568 324.54395 98.022629
-210.81267 346.14151 101.86429
-166.80995 177.34949 6.0962124
-159.06671 401.077 53.443794
-151.52823 209.21278 40.342503
-228.53268 113.10707 52.28022
-149.66359 348.94565 18.771486
-147.09009 387.34686 68.959152
-148.47191 274.45923 63.247383
-229.88457 146.14169 66.221252
-158.72226 310.8125 74.062897
-269.13297 487.07431 53.80827
-159.3338 401.56418 53.564442
-160.1268 378.14008 36.602264
-261.61951 276.67264 92.979126
-262.98129 249.60934 82.21492
-293.61423 309.25412 74.190315
-163.96567 460.55334 73.852753
-304.82495 169.39604 28.577665
-296.79199 417.09689 27.0459
-300.43103 348.00928 14.892216
-303.91754 210.08727 11.853508
-193.72241 131.27414 61.478569
-166.62637 473.11819 73.164513
-262.48581 297.47269 100.03075
-284.85831 430.13968 23.505829
-145.23276 181.94485 41.997551
-292.55011 133.00069 30.545624
-300.22495 461.86255 48.214149
-242.55455 205.9276 71.786606
-301.44543 260.46909 17.695133
-205.70267 444.88321 84.150032
-232.43925 130.9223 62.680462
-298.8653 447.69257 68.629814
-150.681 242.11655 51.136269
-184.82285 120.87573 51.492638
-260.90897 235.49963 76.653389
-155.86899 419.61502 25.263517
-188.43942 172.7608 69.639145
-290.26038 470.4726 27.9564
-224.13606 123.5956 60.647514
-300.17712 449.75595 65.533417
-235.2168 485.18414 67.804565
-240.02817 303.49994 101.42502
-285.63086 390.78461 53.279243
-156.5392 203.97583 5.8233237
-179.85132 360.24362 96.731918
-302.77386 221.16791 34.099091
-224.02814 433.51938 87.595245
-161.15849 280.45795 74.501297
-150.61911 453.98862 55.488956
-260.19586 453.5769 14.41534
-164.52933 166.87257 67.053261
-204.19397 484.29193 77.954033
-148.6246 245.7449 28.410034
-280.39716 246.81644 78.499741
-226.24797 242.47008 81.213577
-286.32547 459.63547 75.224709
-287.0502 159.94579 37.802326
-161.14897 473.48425 59.462811
-189.45595 395.78235 95.983833
-159.86972 184.40576 5.8268528
-306.74771 373.53842 33.587421
-301.1814 257.96655 17.404934
-158.77516 420.25827 41.323845
-297.45337 203.7037 20.990993
-306.76743 382.19031 63.149136
-307.38861 414.68063 62.18998
-157.8 366.19431 75.746765
-196.09909 481.85803 39.443764
-161.24832 178.284 68.574821
-149.58469 310.86548 67.576324
-302.04318 333.93646 34.950188
-202.87959 302.31339 101.35201
-149.90497 159.28348 23.0583
-147.34407 163.11298 44.370846
-216.18626 151.46297 67.112106
-281.13464 393.45096 82.794868
-162.28879 418.5423 77.654785
-246.94766 454.18359 81.976456
-198.58173 410.88321 93.372765
-258.41479 138.75809 63.602432
-145.14012 167.54539 27.424538
-203.47589 456.68988 81.624336
-241.70538 200.08452 71.30529
-207.55899 378.6387 99.514442
-196.44843 293.22208 99.643539
-214.6192 222.42836 72.245537
-233.01845 113.7581 18.442327
-269.7049 129.72594 30.06292
-278.24252 123.59138 32.571228
-170.84201 136.63383 47.613674
-144.09424 432.81393 25.804848
-160.42667 280.43353 73.313171
-166.97104 287.98492 83.055443
-304.15784 192.0961 25.086264
-153.03859 427.49356 17.568615
-253.04616 484.27136 77.771606
-192.39651 387.02191 97.869675
-307.28186 197.48763 61.971699
-153.15919 281.81265 70.282593
-302.30676 294.2005 50.781246
-146.45508 367.44305 31.060745
-306.19052 212.86847 16.353287
-168.3331 126.77971 38.934086
-226.82251 400.62964 95.835243
-279.03137 149.25883 63.423859
-150.7356 256.03302 34.102959
-272.13104 184.75777 70.53891
-287.7796 417.94666 54.885857
-156.46591 466.65915 50.425579
-179.04718 355.5592 96.56913
-162.45877 379.24368 39.815613
-292.06952 159.89223 65.146309
-261.90448 120.16875 23.024765
-178.63275 472.97797 68.136063
-215.11282 473.98639 24.061111
-198.43538 333.73026 102.45329
-233.13037 311.91611 101.81668
-194.3463 141.41217 64.278122
-144.45755 413.88037 51.088982
-288.39795 383.39496 78.03688
-226.23482 479.4472 21.887512
-293.56055 464.16083 24.14477
-239.02539 249.46182 83.803719
-182.03935 435.76855 84.564156
-148.25639 165.0625 25.555452
-149.01736 260.91833 20.98488
-307.47281 420.10507 21.582943
-306.6727 214.11588 55.552528
-277.66162 381.84412 88.500793
-148.28911 450.772 33.73069
-289.73441 210.26236 70.386124
-302.69016 243.4957 65.9077
-149.44522 251.1073 28.32482
-226.91656 476.45099 23.812752
-194.33626 476.33871 31.648403
-155.58656 215.70392 31.039623
-246.8306 383.10071 98.99028
-145.01337 208.03085 48.516235
-149.86282 281.46356 28.226435
-148.7164 279.76929 20.853495
-217.73877 398.42014 96.250778
-174.56046 131.72537 58.207603
-305.07239 256.13181 60.58849
-288.56494 326.13437 79.48909
-307.07343 365.69205 38.545578
-155.45731 342.26566 74.124969
-150.78122 344.47247 32.244541
-283.02667 163.15576 66.615036
-147.26047 390.69458 53.346672
-155.51193 157.64517 63.766422
-302.09882 275.72559 39.06469
-146.92567 236.62909 53.046936
-194.7245 483.50305 63.684933
-152.66516 462.01315 42.907669
-274.95218 353.22147 94.762924
-164.66888 436.67279 15.02767
-306.18262 385.582 15.010347
-233.91544 441.55661 13.775115
-280.11478 126.44408 24.589348
-306.32928 348.23834 58.686684
-306.91541 378.6189 51.179653
-291.41339 436.79419 15.432158
-298.25177 460.37738 41.320362
-155.869 400.95178 14.943899
-177.23305 249.07681 80.389206
-148.08357 338.1449 54.864922
-230.8253 220.65024 71.857986
-183.20259 246.87598 80.37439
-303.68524 317.25787 19.725796
-165.78198 294.8848 81.46093
-264.10071 125.637 41.491306
-215.25845 486.49738 74.230537
-279.31848 477.17038 34.672436
-304.15131 267.5943 52.292274
-246.72922 315.27655 102.15889
-149.37122 250.05515 20.767756
-307.52295 433.44299 49.077785
-280.31729 441.44305 14.302594
-272.20987 370.05005 96.033249
-189.68854 119.28685 25.451454
-301.43274 164.36926 24.837505
-160.10477 433.7045 75.73735
-184.92207 132.95808 60.88385
-203.60823 474.88617 79.21875
-276.66339 348.82971 93.245026
-305.80841 267.08929 52.432732
-148.12747 211.79408 29.929749
-158.50056 460.69275 70.023941
-153.17406 440.00717 69.979759
-153.56337 193.14268 6.5979681
-158.7466 272.98257 72.938217
-146.9986 211.78717 29.824743
-236.69443 275.88303 94.132904
-304.8165 244.42194 61.975655
-303.41446 369.05267 54.953762
-261.31039 119.41325 21.821829
-302.48868 323.32361 17.933275
-172.9971 468.60461 76.539932
-148.66367 252.93015 22.218117
-300.62634 399.75598 26.378395
-260.94531 349.59583 101.5825
-146.51483 385.78885 49.600239
-256.06418 312.68552 101.68731
-212.09047 348.22894 101.80016
-297.85001 205.58125 33.502529
-251.30443 367.73181 100.80797
-225.08331 109.21619 31.511143
-279.98444 480.94354 57.58979
-305.82349 364.96039 64.490532
-147.4509 275.88947 59.468758
-190.64604 117.1401 19.074734
-147.54713 283.89734 60.131161
-179.08063 347.83319 97.304268
-171.57449 391.93933 82.137009
-274.2128 176.84433 69.888245
-241.69052 130.63504 60.939949
-242.03336 441.86932 85.068359
-190.65045 350.78574 101.38161
-197.33978 303.35291 101.15254
-161.34912 161.25253 65.583778
-270.32788 124.89395 51.450676
-165.43118 322.46725 80.186478
-157.28644 423.05841 21.906408
-147.70996 402.74152 4.7345042
-283.55078 363.27866 84.128532
-150.49887 244.00076 29.339602
-247.05679 335.32285 102.64445
-188.78032 322.17953 101.35558
-219.1532 432.35352 87.914406
-144.33554 399.96588 1.5803642
-149.09938 429.54657 44.779484
-230.98199 461.72888 15.531746
-297.84998 419.42206 25.301851
-278.84921 477.97162 74.61808
-185.40903 223.11122 71.846008
-150.84332 164.6369 23.660521
-284.21082 205.44572 71.441742
-191.01099 380.62286 98.596779
-222.47966 331.85165 102.29642
-232.31206 154.77657 67.736679
-155.86902 399.25729 17.83321
-252.21579 113.35905 22.809528
-292.94894 313.02475 74.579834
-282.8689 264.41733 84.061447
-303.90997 163.49364 62.313286
-292.17261 185.07394 5.7828522
-170.11406 325.31628 86.494415
-146.53743 325.61499 57.110531
-300.36896 270.96405 15.860539
-271.9725 339.31464 97.01091
-307.07364 430.67673 55.635532
-303.14032 329.14291 68.925758
-264.34109 227.84506 73.249832
-282.10889 475.56674 74.6651
-270.12488 475.6485 36.683807
-206.89325 251.46689 84.265366
-271.38693 129.90302 48.186234
-305.20551 269.57181 59.858723
-301.99353 337.7594 32.947712
-150.87398 230.38765 46.740479
-144.20877 177.56908 32.237934
-305.98853 277.58258 54.509407
-214.53409 474.72699 79.389099
-155.869 200.56772 38.144398
-168.05467 458.9353 15.77675
-226.83429 259.2438 88.165146
-301.43686 268.66095 17.419918
-235.37961 115.50641 52.190685
-293.66522 342.72955 75.255081
-295.14032 470.66461 49.939766
-252.6772 176.17194 69.990356
-159.82678 461.85443 21.343687
-169.59787 459.30017 76.593742
-160.76234 466.83069 24.952587
-307.2507 377.39722 57.56728
-161.27348 205.05408 11.928426
-172.87241 247.05489 78.727661
-223.21576 469.1174 80.123978
-280.19849 448.84821 14.319696
-144.25325 413.21429 2.1817822
-303.30487 383.24744 11.356211
-302.68082 254.80322 51.802727
-168.09282 130.52042 15.278975
-299.94443 458.77686 30.470413
-302.8649 331.69513 28.668055
-242.25748 112.32927 52.10331
-163.61511 330.66165 77.420532
-204.57133 182.66728 70.46489
-305.47275 412.58737 24.518698
-154.44809 206.21136 42.776863
-193.86623 121.58925 19.31921
-292.2926 265.81909 73.529243
-307.25381 199.52658 3.6771977
-148.047 321.6904 54.291454
-285.37607 284.48923 84.435822
-154.9586 457.93713 38.971989
-209.98453 185.47385 70.5793
-210.51277 471.37756 24.272282
-175.70863 386.12054 87.571037
-144.75433 168.93477 20.706856
-206.1716 471.91974 17.799036
-188.06876 288.57397 97.068283
-159.69135 396.01581 2.1443629
-199.83328 386.88403 98.356071
-285.09644 214.38251 37.119881
-235.59761 117.5275 45.359653
-252.59247 111.35294 40.621906
-275.50403 403.24814 86.271515
-279.59155 312.74426 91.751083
-305.95212 277.00671 55.014534
-146.50523 340.57095 58.276165
-196.15862 485.22458 72.378372
-177.3869 442.67874 81.577286
-164.75247 162.97113 23.934841
-197.57179 314.38654 101.82547
-145.43335 384.46924 41.447456
-291.3736 463.8941 62.871536
-245.90224 424.04053 90.140594
-236.6194 215.49292 71.470917
-301.24567 399.68744 29.68425
-202.79771 488.29181 50.08176
-302.07361 270.6438 50.954399
-245.19106 314.25891 102.11137
-190.50336 353.61557 101.18938
-236.41238 483.04102 74.449585
-184.92781 478.81039 37.294914
-268.48114 440.14917 13.941782
-157.23633 330.40219 74.252747
-278.42575 330.73685 92.391365
-303.8645 353.49631 55.299622
-302.84134 309.39886 18.537582
-300.98938 434.44937 69.607903
-186.87917 484.37714 56.824844
-158.43521 176.65082 2.5109386
-218.62236 117.10022 47.26693
-302.68445 399.02112 20.857517
-145.32526 414.57632 61.877449
-180.92116 172.07565 69.48307
-279.17358 476.80377 34.671371
-213.32448 122.36973 59.934383
-145.23575 401.74292 62.267487
-302.60095 361.86978 40.278664
-284.56458 382.36548 41.26593
-152.71548 191.99576 6.3445492
-225.17009 176.28375 69.934692
-155.33328 408.80621 57.446789
-245.80283 291.83838 99.619041
-150.99319 318.1597 16.913607
-261.73651 459.39307 15.179215
-306.39511 371.0249 31.581278
-305.12558 251.52994 60.510414
-295.99423 137.91469 31.264814
-306.55634 182.40506 57.204247
-284.55606 379.58722 19.765989
-238.13217 125.12645 60.878746
-194.14079 194.96017 71.21273
-228.49094 179.73953 70.151497
-231.82567 470.44257 17.342361
-266.34827 465.26221 79.709656
-180.50813 122.35843 25.379795
-167.4606 196.5787 70.837013
-296.79199 415.72995 16.85833
-173.56644 220.29819 72.115631
-245.46681 316.39468 102.20671
-292.79333 473.20499 63.091877
-300.29111 182.72717 68.150131
-149.14508 348.74509 69.608589
-294.60617 399.08609 52.938637
-245.71463 252.38049 84.65004
-146.75403 220.45627 33.872452
-287.31308 379.69208 78.145134
-241.3743 470.1832 17.287479
-307.10577 431.0036 55.190063
-246.11966 320.55426 102.36884
-144.15488 161.64339 22.167431
-193.06339 330.57666 102.02644
-244.00218 174.10329 69.798798
-189.37289 186.08963 70.666077
-276.20844 286.20453 93.860138
-282.04401 350.36673 87.034058
-147.45171 256.6102 59.420158
-153.40921 400.89996 0.82777786
-176.57619 296.09921 95.745598
-186.38411 188.34079 70.796356
-301.13455 248.53798 17.592266
-299.04034 407.2728 53.716423
-184.4877 477.59338 21.792061
-301.67856 411.20047 28.143669
-306.28024 402.28824 67.856644
-302.97693 397.28323 32.338726
-302.1792 339.85889 42.752571
-303.97781 255.6156 21.501247
-298.9989 458.88022 53.450005
-183.72058 249.76256 81.600899
-184.95955 306.91666 100.029
-154.423 407.96323 25.889641
-150.13086 387.74005 45.982296
-288.66684 222.14992 71.586891
-225.71408 366.65256 100.73129
-144.74875 415.25974 19.20369
-155.62262 157.40622 63.710548
-185.7722 466.09155 79.520775
-160.50031 468.9455 69.735741
-188.96085 473.85712 78.666801
-158.39848 161.21649 40.905014
-284.65244 473.06689 25.312176
-265.51715 461.46906 15.560261
-161.15033 207.5155 40.971249
-145.22256 420.63705 58.910892
-238.66736 466.98712 80.351898
-247.35042 291.77829 99.563713
-200.35507 240.87514 79.517334
-297.2966 322.965 73.339096
-303.40146 340.56082 19.233711
-271.02411 443.43555 13.975782
-182.99089 143.68976 64.109283
-152.22346 285.25278 15.674811
-155.869 197.75008 26.020275
-292.34244 434.46381 75.77861
-280.47986 468.22128 27.727688
-301.26114 402.34482 35.931568
-217.26407 134.91629 63.627655
-296.19809 451.43951 18.683735
-148.06563 329.79889 54.578217
-302.16083 315.51407 35.472885
-293.08936 429.48148 44.885735
-278.22104 269.71353 87.668442
-303.9964 389.44934 13.562669
-229.07632 273.30472 93.391708
-148.51436 153.06667 22.038544
-207.85121 384.435 98.67408
-231.6333 448.29016 82.959061
-291.8371 220.98343 71.148209
-305.70166 158.89697 33.209183
-170.10712 133.35063 57.942345
-154.36398 158.78194 31.748802
-147.27112 312.00034 22.696072
-277.16537 302.58801 95.120255
-284.86169 225.91629 70.439919
-275.2149 128.90659 36.773788
-306.59778 310.67331 25.190607
-157.40802 265.19336 72.01976
-155.869 396.10663 38.440979
-287.35181 452.13205 15.159431
-164.15367 197.10385 2.2273667
-225.77794 426.89279 89.472809
-163.88216 393.46927 49.278549
-155.869 181.40393 38.283539
-271.16837 248.01437 80.623863
-153.94173 146.13106 58.60606
-303.53876 323.91583 19.477886
-176.54073 319.92981 94.605911
-187.98744 390.93921 96.643349
-170.01207 478.57965 35.16037
-304.18011 320.42908 22.7404
-144.81302 410.66556 57.088795
-291.02463 380.37384 77.281525
-146.84892 269.30066 54.41914
-245.77386 148.3873 66.303627
-180.91801 229.78622 73.213974
-256.84836 482.241 76.461578
-147.06137 244.55634 56.526188
-150.71498 346.35034 30.180153
-288.37662 381.08203 26.178772
-229.40556 449.70602 82.613632
-162.51653 476.15701 57.918648
-154.30283 206.72897 69.661896
-216.25861 293.73288 100.37335
-183.88693 147.94472 65.308868
-304.36389 212.59866 15.811732
-307.50067 210.8219 34.597645
-150.94495 250.96754 47.623383
-222.67804 205.48016 71.072266
-237.52887 484.5553 65.003151
-149.68652 318.9324 18.799629
-301.25922 401.97977 27.101303
-165.80638 209.96602 36.059044
-146.39615 433.0336 20.587801
-213.17932 174.40907 69.812454
-212.16782 368.11298 100.35334
-165.65475 365.44476 77.291695
-284.50897 427.01953 12.013308
-159.94214 409.90869 6.0214653
-306.01852 212.74217 16.048323
-301.97943 256.01208 51.17271
-247.98576 139.49608 64.29525
-220.47794 113.42453 44.830441
-258.84943 462.0531 15.635623
-306.60913 295.59195 25.282194
-305.57028 364.66507 23.067356
-196.62871 125.39843 15.355012
-270.28445 302.33914 99.185074
-187.1727 481.05576 34.029137
-280.35962 125.12392 18.788187
-254.92488 114.71382 41.299625
-307.03534 368.81445 57.116028
-245.28889 313.37292 102.07668
-150.54703 263.29889 29.925657
-147.58476 406.09399 39.373638
-307.4697 411.99191 6.1672678
-159.05499 188.49643 53.825684
-265.03522 482.21954 35.596329
-145.87431 421.36911 61.883251
-290.92657 132.13783 49.74036
-286.71567 363.53998 77.194801
-262.03177 170.55344 69.426216
-258.81183 122.9528 51.342228
-278.99313 398.06879 84.111153
-167.56155 481.70453 53.469173
-183.28979 472.02383 26.203991
-297.93857 400.50595 24.789017
-302.28687 348.1644 45.751705
-148.76987 350.29224 55.225769
-150.4408 229.76782 32.84103
-184.05905 125.63701 50.076675
-212.23502 130.53099 60.956779
-148.47913 391.36365 72.17054
-191.30969 472.28833 59.741104
-303.77606 405.22006 33.297573
-155.869 419.91354 23.120331
-304.3306 288.73163 63.530342
-303.72351 256.46332 64.381935
-242.67157 226.58313 73.976067
-161.22063 280.44986 74.594337
-285.78412 329.59543 83.31192
-278.79361 157.86938 66.444633
-192.41733 485.01288 76.920334
-297.46869 418.73828 29.314657
-150.43414 400.16431 25.380287
-150.39267 358.18155 72.254944
-296.78055 204.9369 11.92218
-306.06155 291.17697 23.960255
-307.8147 186.50471 14.619026
-306.83322 212.73819 54.701561
-282.38605 467.22672 17.762758
-306.06235 310.57291 57.027813
-261.29953 452.92059 14.355099
-245.7308 439.7677 13.801605
-249.8156 114.12216 44.719887
-150.52179 235.48795 30.940346
-156.04959 270.70441 71.597412
-228.52689 162.69307 68.785858
-235.25752 299.25342 101.0746
-298.0144 465.94174 61.687527
-156.21104 434.147 31.508312
-151.46835 143.7075 24.372145
-294.12784 346.8558 75.265076
-302.21863 263.94748 29.876335
-146.4785 322.70749 56.431477
-306.11688 218.84834 47.330566
-295.90329 405.79132 13.965575
-218.25264 439.41187 13.77561
-151.8754 372.77573 74.086929
-183.85635 238.81429 77.176544
-198.83281 483.14972 77.988228
-229.21306 475.44101 79.348289
-294.36243 241.14395 71.424538
-148.12892 400.0993 28.863941
-146.60007 176.7681 19.061234
-289.27646 177.97438 68.651085
-299.55557 216.03624 69.40419
-305.75452 397.3251 25.043833
-302.60468 165.43253 40.633041
-268.53406 212.98416 72.054398
-153.38 213.19592 40.947472
-305.34277 355.62579 55.348736
-293.05435 437.02673 75.216812
-178.10368 472.11615 35.317749
-149.79639 284.62372 28.229609
-170.69052 473.88443 74.921417
-269.87347 388.27716 94.872795
-246.19833 417.02722 92.019928
-170.59567 444.5899 78.775612
-150.09123 357.31256 18.127928
-155.14101 405.39673 25.260761
-195.18744 121.44181 19.093342
-149.31201 374.29926 45.984451
-173.37674 210.27942 71.8479
-236.25388 485.78229 56.950691
-146.51018 373.71512 64.227188
-228.16104 472.94287 79.657196
-295.72778 463.64734 40.90799
-307.3609 202.97052 52.286369
-150.63492 354.77786 33.794106
-186.06233 476.45856 29.583712
-273.1535 284.4444 94.135178
-305.57138 396.82806 28.906013
-146.8279 407.05548 68.209915
-224.86464 364.12427 100.95012
-306.0954 355.75845 30.60054
-305.52747 179.39113 1.5549175
-194.02634 143.19978 64.688507
-302.07098 401.86252 34.523006
-222.02652 211.20517 71.292862
-145.32858 435.32697 48.032204
-269.06042 199.98996 71.458458
-304.5672 249.95261 62.495567
-305.46368 223.38235 23.777973
-302.21893 235.28346 31.314499
-155.17865 463.76349 61.045723
-288.01874 424.16589 78.143982
-222.17889 207.25089 71.137215
-300.95172 165.79816 17.003864
-255.14738 118.26269 24.366377
-294.29727 412.28195 5.3279119
-147.08986 329.19067 23.862484
-273.91815 126.08581 36.596642
-289.68814 200.56924 49.983852
-301.9054 259.69101 43.672546
-302.28082 145.65875 52.665321
-294.48029 206.19257 70.282234
-202.7881 479.30054 78.623497
-306.0885 203.06029 12.407948
-307.01691 374.19684 43.222286
-160.52937 284.41495 73.449196
-234.41733 445.737 83.825691
-150.38696 303.60883 29.0895
-162.05621 468.82986 71.038902
-249.97574 170.60217 69.486946
-292.53384 422.73773 76.720901
-175.80316 220.246 72.04731
-250.56322 476.91348 19.892252
-172.28827 243.31013 77.157822
-150.28589 301.95062 52.749199
-286.46185 312.7323 82.79097
-285.60312 372.1333 80.634514
-148.92039 371.75333 71.540253
-284.06598 475.85321 33.319969
-210.81415 114.04823 52.106621
-180.85265 368.30286 93.94313
-205.52361 129.57964 61.734837
-227.84448 263.08044 89.632614
-145.61658 383.74792 36.28381
-191.63628 459.34085 15.170446
-302.94836 243.66028 20.238194
-300.36011 398.55719 75.041077
-195.92055 435.86133 13.838671
-293.20468 356.72055 75.839859
-150.56667 310.03903 33.913231
-241.52658 121.63628 59.545513
-239.37273 341.18008 102.08881
-248.71524 275.27515 93.393143
-171.02524 239.6727 75.450943
-201.56174 286.78912 97.554443
-303.45093 374.4823 45.825764
-217.99483 247.04681 82.979881
-150.65222 275.91034 38.505089
-146.74628 196.10388 50.027222
-151.66394 187.63969 52.429905
-167.69437 458.0116 15.661292
-299.39035 239.41129 15.317303
-284.45477 476.25446 33.257103
-223.17226 314.18774 101.90952
-148.32306 328.97455 23.300674
-150.09483 223.09062 38.023754
-304.06805 339.84436 54.918144
-306.47183 193.51091 9.858716
-159.18665 421.06274 76.484642
-155.22745 396.07678 36.789513
-244.68468 476.61768 30.534178
-305.32983 404.56201 39.742203
-295.66589 294.05731 72.883423
-305.82318 403.33807 68.917709
-223.54085 483.79257 60.793812
-287.89899 430.45294 30.335489
-149.12332 398.8064 72.869049
-164.29335 439.12039 76.852303
-234.87575 328.20084 102.23221
-154.36716 457.38251 41.481918
-302.11093 344.51605 39.836494
-193.96242 264.9227 88.728836
-304.24951 435.87723 62.208534
-189.57669 415.25085 91.237511
-213.72224 277.91959 94.788879
-172.38222 129.60016 56.966011
-229.32335 487.4729 42.869274
-192.03619 484.88696 72.269119
-152.83807 166.27348 39.422832
-164.95132 396.82919 52.299355
-273.32663 423.01624 85.502548
-148.87112 208.14114 37.852619
-149.43692 331.29654 68.754135
-205.67038 109.7502 39.922241
-293.20322 177.06729 50.289974
-305.77237 250.46036 54.575661
-240.80585 239.9334 79.721184
-202.47487 119.08675 18.726936
-283.04248 369.43805 84.091156
-219.32768 117.94293 58.511307
-150.65152 226.29489 50.231159
-305.9436 170.42683 20.579567
-278.05316 384.50809 87.64463
-304.47717 451.3642 35.836037
-255.85995 400.82095 95.675873
-205.54857 488.40451 50.186737
-156.87971 213.18448 17.116295
-224.09195 122.75894 16.32951
-158.57922 437.358 74.637375
-153.87955 418.71588 31.325367
-164.4455 473.3176 30.906134
-296.16785 137.02011 38.789036
-155.37192 206.03557 45.076519
-307.02069 428.33456 11.873674
-171.53891 130.00104 56.928738
-145.94183 189.37605 0.56980264
-146.91614 438.98773 26.311987
-149.81662 439.84338 63.630684
-307.35538 423.0372 45.001198
-181.50639 447.76068 82.042969
-306.06097 291.72406 55.548409
-293.80905 426.1366 43.046719
-253.71237 437.88983 86.018684
-162.14369 224.59386 70.106537
-153.59283 463.86575 45.494923
-234.42609 114.57596 44.866367
-192.25388 394.49643 96.618683
-193.62553 124.41061 15.414312
-213.74989 465.36853 16.201746
-227.32495 477.24255 79.13356
-301.03253 326.56946 15.830853
-205.9671 194.94939 71.214104
-289.32965 210.14508 38.470852
-272.54791 187.12039 70.690331
-294.53552 377.2843 26.058983
-220.63562 341.68842 102.18385
-225.91264 245.9071 82.665573
-242.19104 188.31761 70.736519
-252.08713 129.06885 61.282902
-157.43538 453.04932 18.61072
-252.38672 488.28616 51.909653
-154.909 201.12552 35.108185
-306.98709 212.98792 52.035042
-173.15121 320.00815 90.477356
-154.909 193.27469 14.370552
-192.1664 163.64444 68.594345
-172.75551 476.08197 26.920015
-230.85153 346.61246 102.02536
-150.44145 317.80936 69.501572
-230.48572 131.47577 15.627013
-264.47617 484.23218 57.107582
-146.76617 278.03726 54.517578
-257.53528 487.62189 47.504227
-215.63437 488.6004 49.067223
-148.34413 185.41702 22.896397
-151.67564 391.39288 74.679962
-162.11917 200.88878 49.789658
-156.41698 464.13513 49.820576
-265.84238 120.66168 51.515953
-296.79199 196.72691 32.059563
-246.47505 118.96671 45.271996
-263.5585 248.52426 81.717758
-271.82211 231.09027 73.710228
-286.02597 212.0072 30.220657
-216.73741 128.12981 61.82756
-145.31017 372.06119 40.123672
-291.51721 178.06651 7.5263691
-280.49249 365.44742 87.50412
-255.3407 444.20206 13.841736
-172.71408 463.50845 16.247128
-178.8788 221.02184 70.984406
-301.40414 317.68497 70.57856
-304.35675 191.92471 25.414246
-255.58839 120.34212 47.454468
-236.05789 113.42136 44.894539
-157.35909 464.72525 39.43552
-191.94104 428.83243 87.807373
-180.34183 335.45813 99.152557
-156.45967 466.09885 48.321465
-186.94498 210.27426 71.974968
-289.48132 231.99095 71.653862
-271.94153 167.61212 68.940918
-298.69424 142.27051 48.555611
-302.0943 323.78122 32.675655
-275.0174 124.51648 55.661594
-291.22104 438.10425 75.865585
-150.49875 234.87962 30.792801
-230.94772 364.06625 100.92989
-306.48395 344.4859 56.935642
-152.93875 245.92964 68.852005
-306.71872 205.54965 36.456024
-277.66617 283.21921 92.42746
-306.36484 218.69485 52.888767
-233.36267 472.83936 23.903156
-164.32863 207.4451 14.720419
-167.24307 227.40302 70.203445
-146.60745 363.49771 28.295012
-296.75085 182.25604 44.943005
-240.3293 222.66855 72.313667
-169.70456 131.72348 30.165026
-200.56801 428.51828 88.647614
-179.66595 151.62013 65.851921
-302.5329 223.13217 67.116821
-244.4866 263.80841 89.263412
-148.8456 170.02245 46.772915
-156.29419 429.10214 28.69545
-227.02551 466.617 80.437798
-195.30176 123.49794 58.876823
-214.47012 294.25812 100.51095
-254.21039 461.49658 15.524538
-179.19437 361.68127 94.627388
-295.93674 196.93904 39.091732
-161.71574 405.20993 57.653435
-307.47403 179.65012 52.434208
-175.2392 478.52045 59.184124
-178.46399 295.48608 96.895622
-296.79199 202.03183 27.195503
-268.90244 474.49637 30.127321
-202.98279 195.37476 71.251083
-283.55643 437.82812 14.573191
-150.17213 242.74405 66.041695
-239.32126 293.19272 100.209
-222.18417 462.77237 80.908478
-160.60367 323.77939 75.153419
-145.11565 170.85681 52.443138
-150.56139 253.48547 51.717777
-294.68109 434.31274 29.40468
-301.40375 240.88336 42.686039
-170.09555 185.34865 70.271713
-286.71588 427.09427 16.610746
-178.30632 316.4346 96.865639
-204.67886 404.70758 95.064316
-305.29532 372.61972 68.198853
-187.81738 484.50073 72.93689
-252.31987 247.18387 82.117836
-254.25819 446.78461 13.895654
-237.61691 235.21057 77.839951
-306.19702 170.89163 44.468803
-301.09854 192.601 26.927584
-150.68839 337.82779 29.589298
-229.61153 199.8011 71.145859
-146.00204 307.9715 26.864445
-169.48428 125.76579 19.054646
-150.05827 344.28268 70.796265
-149.46021 415.13229 24.757666
-301.69849 412.3725 21.267246
-303.49884 209.04294 40.535583
-299.37 380.29163 42.24754
-307.08707 372.31732 46.976055
-189.01689 477.70795 36.138557
-302.2738 333.87561 46.311184
-232.65121 447.24179 13.86909
-294.30676 394.39752 8.6200466
-300.17291 459.44846 58.745647
-150.71133 271.76318 67.389259
-297.81952 266.27167 70.848083
-162.48799 434.01044 33.260715
-178.04869 230.29666 73.051613
-181.80324 120.5733 33.610661
-146.34912 208.72777 18.197248
-148.36444 318.75348 64.907776
-186.02223 435.59134 13.920129
-223.34782 481.63013 78.589584
-296.70691 275.75034 71.780678
-152.44942 171.79312 46.572754
-188.63266 460.75165 15.42662
-275.99207 414.95309 85.220413
-300.40665 302.83548 70.632729
-248.42355 286.44257 97.540771
-251.45428 389.25803 98.047386
-146.6813 351.99908 55.265129
-306.39163 202.07129 33.599411
-170.26849 127.90338 55.525394
-144.48602 404.56201 38.222694
-146.04128 302.5795 25.746466
-299.22144 178.25507 67.853615
-147.84531 256.95895 61.216522
-277.84152 481.63477 37.347389
-302.08398 270.13281 36.721733
-269.2897 381.14987 96.421883
-173.31133 124.30779 54.231518
-191.46538 474.7417 31.258646
-152.25053 183.7608 0.6715765
-272.01172 154.7563 66.67131
-154.94844 175.81804 67.731079
-201.60083 213.73326 70.770691
-304.44061 269.96005 62.743443
-157.1212 462.47949 68.07135
-174.84761 444.39337 80.383141
-302.10242 230.96593 36.235909
-151.83769 184.16833 52.227982
-158.03677 164.86569 66.083534
-242.23914 352.58322 101.54857
-154.46921 168.50613 13.086816
-145.2529 374.30078 40.73365
-301.31851 163.18532 64.148315
-236.4537 110.40428 42.90414
-192.32388 483.42892 74.78318
-240.40443 180.36823 70.176849
-233.41161 454.12573 81.990623
-176.55392 475.90466 76.517197
-150.72235 271.19424 41.966667
-203.21675 444.52292 13.829662
-285.06281 169.30832 67.739319
-290.91602 140.29263 58.740875
-162.78262 200.82236 8.4352627
-149.77542 301.49982 53.546505
-153.04321 280.26019 14.67823
-225.08453 279.38931 95.547699
-287.93417 467.75403 21.48399
-150.66176 254.01367 31.298368
-172.07678 332.68274 88.679825
-233.27069 362.04468 101.06868
-291.18347 212.82178 70.896439
-149.54889 380.86752 14.90423
-210.16373 457.13474 81.591286
-215.52466 416.48541 92.117294
-289.27457 249.33405 75.755348
-296.88434 454.104 35.523235
-150.54726 271.01511 31.253649
-153.42065 308.97095 71.711243
-174.03146 227.24356 71.82399
-145.21211 435.92712 39.066986
-163.46753 129.85979 51.112785
-295.49365 425.64911 41.298321
-302.30972 241.1804 29.235868
-301.65668 450.66351 60.703934
-217.25858 112.73378 44.885368
-164.20398 434.27072 29.979486
-159.95479 406.51208 53.874317
-148.73454 410.32056 71.128365
-164.10559 383.86584 20.256075
-153.32628 417.04016 55.256916
-305.21439 273.68796 22.908278
-150.85457 401.75833 4.7818718
-173.77106 321.23169 91.196732
-278.51926 481.65573 37.938866
-252.52829 476.49805 78.907349
-185.23796 463.05191 15.852119
-297.03818 200.23734 21.858204
-197.81863 125.83574 41.569695
-180.23364 369.88205 95.821716
-149.93338 228.87726 20.064571
-250.89465 409.62433 93.832329
-207.00432 114.42598 17.522728
-150.77852 225.72481 47.45393
-304.30704 162.73427 31.058899
-305.49463 434.71509 59.124928
-268.52142 237.92146 76.85907
-255.06717 117.46596 24.579199
-162.41185 162.62024 32.173996
-276.40933 284.87061 93.353394
-150.34599 405.70151 31.410276
-147.68433 397.03723 56.336239
-300.6687 241.87292 33.426552
-295.05853 393.74133 76.760345
-151.55312 319.91437 16.109543
-144.11551 193.95898 3.2649298
-149.07077 181.38686 6.9242153
-302.52478 358.33777 48.990856
-206.77274 483.02728 78.231201
-160.70293 430.20145 33.003422
-149.39549 292.2843 19.514532
-155.37726 138.01834 53.720913
-307.61664 416.448 4.4955721
-230.17673 401.14484 95.707367
-298.76273 383.06702 34.633213
-151.04315 340.43121 16.756416
-154.909 390.44702 22.957748
-255.39093 470.85638 17.54512
-165.74461 152.36533 63.575951
-298.7951 189.71964 30.155773
-304.05762 187.614 35.034901
-155.11519 429.43274 35.893387
-152.81247 207.92116 15.791952
-287.56787 439.56873 14.923409
-295.10422 456.26727 31.318781
-288.7124 386.77448 45.11705
-146.75963 198.08499 16.359169
-214.02863 485.68896 70.759842
-253.26796 113.72444 23.327202
-263.36124 427.76849 87.766495
-293.78131 471.74066 43.449181
-305.52026 198.01999 8.9589996
-235.39868 386.37085 98.349617
-301.51251 195.85677 27.427158
-187.36884 379.11105 98.225235
-285.10132 269.52051 83.994797
-149.78558 317.53204 18.664089
-302.23694 297.84314 44.04937
-153.54881 236.24004 15.091734
-156.89922 164.13757 37.925529
-300.33066 360.49194 73.724663
-239.48933 132.50443 62.892956
-153.47659 435.49512 71.464417
-152.33714 461.41022 45.884853
-231.62392 436.19156 13.773195
-230.6403 282.02884 96.431229
-208.33553 362.55453 101.13475
-178.47232 404.25528 86.775696
-181.95589 483.18201 37.070946
-301.83881 253.87106 45.418617
-295.77084 400.72623 51.969696
-301.79083 179.36284 5.774931
-162.06485 131.77095 49.392342
-185.89246 119.1837 53.477783
-198.84546 425.72678 89.321815
-200.01884 290.28247 98.779938
-303.75247 237.68375 64.476059
-284.79031 481.21375 55.492989
-257.33136 430.91992 87.603745
-302.18314 340.11041 42.932564
-165.41261 383.48865 46.973183
-279.96967 469.1843 17.970814
-223.99278 273.53986 93.478958
-215.17006 185.74718 70.434448
-235.68677 213.75632 71.388588
-169.54013 475.75439 74.171356
-261.16101 303.88867 100.70863
-205.18936 111.35765 30.596153
-240.38208 160.3203 68.366196
-150.68916 383.44312 22.318001
-177.89267 121.09828 42.044342
-183.12869 279.37265 92.989197
-291.92932 177.77902 2.0436316
-302.61163 336.42465 70.365036
-265.53998 234.15698 75.652649
-305.78107 167.49605 61.619308
-147.40646 430.3302 62.072971
-280.15277 253.07254 80.956932
-147.00986 409.17929 23.254341
-223.21848 117.17414 58.275959
-153.2068 408.09064 53.659378
-148.12784 424.26385 13.053825
-255.44919 120.27093 46.860283
-207.66223 329.80252 102.55307
-240.32806 116.65857 51.649498
-290.74915 474.01526 69.491493
-225.23109 450.88275 14.092099
-268.66351 461.76611 80.050499
-243.7379 170.07394 69.411942
-301.32907 409.68277 22.614164
-244.76236 341.74387 102.48394
-196.82748 359.99561 101.29405
-146.02658 168.31796 16.159538
-298.5632 138.4091 26.172359
-157.50322 282.64841 72.661324
-215.42749 113.09614 44.916321
-302.45258 148.38049 21.89908
-169.23149 320.97977 85.465973
-306.02658 295.9061 56.15456
-214.28247 239.89987 79.814209
-262.15552 178.14047 70.109261
-154.80238 382.41095 30.670681
-307.46222 173.99936 60.092751
-304.11185 189.4633 53.595474
-216.26794 418.74484 91.564133
-180.2469 129.84694 47.286751
-263.49982 252.09062 83.167603
-150.49258 292.58969 49.900349
-283.06979 123.92293 18.618629
-175.75705 467.8707 17.177807
-230.19112 380.91785 99.155724
-149.59177 186.04829 0.49153984
-276.14853 447.82465 80.597359
-149.82153 446.80096 24.098537
-242.42566 131.82936 15.229641
-150.53288 356.92712 36.357956
-255.75322 197.08328 71.34417
-193.34877 162.50565 68.461998
-259.95435 478.21014 60.285072
-297.39435 138.19902 51.02552
-150.63374 211.19235 34.638439
-298.34222 399.5094 27.677444
-288.21155 343.90027 79.463867
-166.53784 206.56473 71.317146
-305.53348 346.77222 62.987411
-155.21846 417.74982 27.037495
-210.95355 305.09824 101.54108
-290.85349 451.9538 74.165611
-255.7413 223.46265 72.522995
-303.63397 267.69031 22.340052
-304.98953 394.97141 71.054344
-294.05823 383.36371 21.89986
-303.53394 244.53105 21.68269
-221.35985 476.19037 79.250877
-267.6839 253.20349 83.148285
-265.00034 135.32932 61.045013
-206.79205 484.90082 40.937656
-149.5815 252.28979 21.74268
-301.38712 143.58444 29.771595
-147.25671 248.13092 58.393192
-285.88965 271.77948 83.669922
-147.32303 244.13118 24.143312
-289.63797 277.46381 78.376434
-269.97351 125.76753 51.451099
-295.45291 359.02692 75.343285
-182.85855 473.76492 28.818796
-169.36227 408.07376 80.596176
-294.5564 455.73755 19.170622
-155.02008 191.04053 18.458197
-303.0932 367.10834 35.718948
-273.25095 291.862 96.608109
-301.27692 189.23846 68.424797
-233.40106 479.14313 78.881546
-149.34541 224.17293 50.422272
-155.73477 201.88374 9.2265167
-161.75589 381.06879 26.615414
-300.50845 221.89693 16.548431
-305.66058 228.79106 60.005989
-283.51907 433.50049 79.182587
-198.11038 478.56476 37.302868
-246.44925 484.34802 40.885391
-149.32086 264.87018 21.830118
-155.10242 414.87518 50.598289
-186.67957 447.32416 13.970058
-304.32312 225.30606 29.954281
-158.2814 264.06302 72.379417
-151.30731 195.92517 1.7676988
-306.19662 411.5672 41.202866
-246.87935 451.51224 82.358276
-163.95013 186.58832 52.723896
-298.08911 209.51932 22.221706
-303.12872 333.97116 54.723976
-152.8929 259.81558 69.17514
-298.31403 428.79718 20.535793
-288.24072 411.73248 6.3683496
-303.44537 203.24875 52.713589
-159.81206 473.63449 49.431946
-221.50458 117.03683 46.775784
-306.60281 443.68616 35.062344
-305.54385 357.80862 30.832067
-163.86128 478.44888 52.478668
-209.48178 157.84952 67.971306
-302.74496 430.11829 43.846668
-160.60562 167.10085 43.650898
-293.08795 296.03769 73.878632
-191.50719 463.35114 80.364662
-149.91931 177.08057 8.2140913
-255.4328 443.04071 84.567673
-229.32585 129.48288 15.783497
-149.82816 263.17172 19.709621
-297.15945 201.85594 47.308975
-293.31879 460.34692 20.62982
-299.66821 462.74417 52.295082
-302.81641 421.46527 12.771331
-249.95587 485.81549 73.376442
-179.84734 235.89426 75.489853
-155.57004 253.83397 70.756645
-290.92764 437.6373 15.359169
-304.97641 161.82855 15.816236
-204.10454 303.51126 101.47856
-273.92075 455.46088 80.210785
-147.20889 176.6907 6.9209194
-293.2547 348.68616 75.566086
-235.59982 165.89148 69.066246
-285.50525 285.21826 84.319077
-150.25359 340.26215 52.567348
-148.06451 332.98981 28.711288
-146.46616 290.68741 24.556734
-178.19104 122.09421 50.147106
-156.29155 189.64342 69.302361
-147.55652 209.65849 39.127335
-147.72336 414.21783 8.352747
-186.00781 456.33261 81.081841
-234.91238 127.02425 15.861147
-155.68462 196.01511 42.809868
-255.30873 484.06812 65.826088
-177.01634 285.91068 93.896294
-299.27551 428.93567 45.77626
-170.90219 161.84073 66.665863
-229.23448 143.67249 65.740211
-301.86743 253.0033 41.503296
-241.60617 484.30453 64.266418
-153.851 419.56332 33.242489
-234.54829 434.43997 87.30555
-229.14346 481.05093 78.661583
-159.44377 202.46283 9.6558905
-224.53525 476.15314 19.248306
-284.5675 161.19133 25.046251
-144.13593 384.8222 45.492832
-189.40402 160.60396 68.093147
-207.76685 286.74139 97.760757
-262.08939 440.21762 84.881485
-243.63858 114.55611 18.544865
-191.13065 476.79956 20.200918
-160.52483 236.29951 71.68203
-297.4021 165.28529 47.341583
-152.52501 162.78659 32.602367
-302.79553 346.22205 54.804043
-263.36456 206.51846 71.821793
-307.41821 411.59729 12.833181
-276.30051 409.40915 86.000938
-165.76253 386.58368 43.112251
-193.95093 397.86212 96.113197
-222.50354 142.13429 65.389565
-295.89725 134.87085 26.287813
-164.24057 206.13754 13.136115
-279.56842 124.66195 16.529947
-172.7662 431.9194 80.813156
-256.63559 330.65607 102.28259
-270.9874 436.79834 84.294609
-154.71674 165.1492 17.985142
-278.48499 237.40427 75.219986
-202.75763 447.41223 83.372765
-157.82573 432.05035 74.936569
-154.909 181.43045 15.523281
-205.4234 240.48543 79.648369
-144.21767 172.94766 5.2095399
-257.19479 440.36108 85.191681
-232.86362 432.36487 87.915604
-295.83301 403.26984 11.590435
-164.89101 361.83008 77.104065
-167.49548 472.36694 24.746716
-213.47566 466.32089 16.411486
-222.47003 310.9119 101.77361
-264.58441 269.32587 89.856964
-150.64127 274.09576 36.561035
-172.42273 410.95428 82.391228
-193.53784 120.18204 51.489746
-290.85297 180.24734 1.3493633
-264.55966 281.7547 94.560226
-178.15094 405.20316 88.113953
-201.89563 442.83536 84.747986
-163.78386 429.12939 26.6416
-259.38135 160.99368 68.228188
-304.35721 328.5018 23.153608
-276.13248 473.99261 26.665764
-162.87579 317.18845 74.900063
-297.38504 428.88794 31.668037
-267.28558 193.36038 71.098251
-236.5647 250.75128 84.453941
-238.05534 483.27106 76.691071
-165.6633 286.52451 81.256241
-297.46274 384.15988 17.107246
-274.96658 287.53873 94.665817
-269.88422 408.53293 90.653015
-186.27733 303.37329 99.999641
-295.56351 430.41281 29.535526
-179.32785 360.82184 95.001434
-304.35809 236.75177 51.044594
-261.82727 359.09473 100.8448
-306.12708 419.26245 21.488522
-173.75526 322.15244 91.137299
-150.49205 188.88696 68.074028
-162.9684 405.6749 5.5292258
-190.26718 161.4753 68.25309
-252.02472 463.56836 15.885409
-159.92673 441.25482 74.76152
-304.06027 326.90784 66.614403
-157.71069 134.22211 27.687538
-302.80438 200.3138 49.934509
-201.29213 112.88831 25.05788
-303.81586 191.47853 30.329508
-147.42128 196.01997 48.469826
-148.47679 300.82434 28.278627
-172.66583 418.00281 81.961235
-154.42493 214.84012 69.826202
-214.19986 252.89972 85.245201
-298.31821 188.36798 5.8600903
-198.68896 118.68362 27.567368
-157.64276 135.52438 32.1012
-202.74428 111.92284 32.005753
-176.61755 122.96216 25.02058
-306.06659 165.52501 36.889957
-291.84576 445.50464 15.648804
-306.62079 383.20731 34.747814
-150.47632 328.96399 46.630322
-277.33694 125.57028 24.886019
-302.17462 223.96724 43.041973
-254.95589 449.61438 14.055098
-156.58521 141.35867 57.566795
-218.29819 242.14175 80.918037
-166.07919 466.5123 68.742142
-244.62947 471.42654 24.404121
-260.32343 136.3777 62.869156
-267.57474 117.67954 41.550278
-146.61273 360.17245 28.209412
-146.31195 425.56061 61.293369
-283.75186 292.46487 86.795746
-304.39728 425.95496 28.432489
-253.65375 471.92664 25.031548
-284.64679 274.57657 85.374199
-266.18448 118.27878 32.752151
-175.08865 164.98453 68.246246
-297.79895 142.28726 57.045158
-146.48959 352.88443 58.232288
-243.39651 480.51166 78.60479
-173.90572 342.09811 90.347519
-274.15677 304.71051 97.738281
-275.67075 129.91512 57.898491
-296.68671 415.60181 25.833237
-172.14575 272.75928 87.88739
-305.68387 447.26794 43.199211
-155.14101 189.70953 24.781763
-152.15839 241.08368 47.615299
-254.20869 319.81216 102.11981
-291.12601 298.89114 76.364273
-176.99414 365.27811 91.874733
-306.70444 366.05746 35.311733
-174.49867 328.79144 91.745872
-301.9906 268.27747 47.843884
-297.12067 458.69116 67.446815
-226.11678 132.82077 63.257507
-201.24805 437.02197 86.34269
-307.07382 372.38052 50.445553
-296.33545 461.11172 45.719769
-168.83446 478.1705 71.512794
-294.11398 145.52658 14.281084
-170.49869 289.74237 87.546768
-146.22615 211.96751 59.741791
-185.52222 143.44321 64.289711
-165.21625 178.31372 50.989029
-284.51068 138.87233 59.550709
-289.2702 138.96449 58.576542
-248.67374 352.65417 102.12429
-220.45244 477.26755 79.116211
-303.82059 188.79704 6.7604828
-157.40224 176.72058 2.4820457
-286.54037 321.00632 82.45874
-266.08075 193.80167 71.126236
-226.0565 294.9043 100.56023
-290.47656 414.19669 1.7176527
-146.53662 390.99323 41.418617
-282.46027 316.00934 88.037651
-220.91724 432.27155 87.948578
-257.31305 378.27182 99.290268
-296.1586 165.17038 65.944221
-209.12662 124.25418 60.313168
-278.44186 480.6181 72.223648
-240.21988 449.29718 82.725388
-184.21967 481.50113 37.342857
-228.13736 381.78305 99.056915
-158.16823 382.42453 26.356682
-150.70235 260.55374 67.002174
-303.10992 454.00723 33.519917
-291.05206 311.51205 74.623589
-307.35236 388.28467 27.764008
-153.67651 456.05911 46.423252
-239.77122 418.51065 91.61293
-304.42535 426.74487 20.047573
-226.9135 397.27029 96.559341
-151.35278 190.162 4.6850362
-222.15724 319.09888 102.08477
-305.03818 352.93832 30.434776
-273.29453 242.79514 78.211113
-285.94757 174.3391 68.433968
-306.43961 332.50415 55.851219
-190.32028 438.76682 85.198494
-267.36597 475.23145 19.365131
-172.01111 296.35989 89.571198
-301.39282 142.84129 42.045284
-237.78636 448.58038 13.954401
-267.22287 483.25952 67.22995
-250.69037 130.22043 15.029787
-150.63092 273.03601 51.25721
-269.89325 151.22395 66.022827
-303.3949 375.4675 49.654495
-154.909 394.29169 21.253374
-189.75192 120.30868 19.485518
-283.08972 129.15041 30.119528
-305.47275 420.79425 28.875599
-306.94275 425.06122 12.924761
-278.28058 480.48169 68.355118
-300.03442 219.14349 15.561895
-307.37762 415.5347 6.6791711
-210.63385 405.81992 94.561333
-263.02795 207.75621 71.884407
-145.37917 404.72311 37.524609
-161.15746 296.62872 73.939384
-236.47404 487.11728 41.979553
-278.74054 129.35629 51.816849
-155.869 191.70688 13.737102
-295.83301 401.30872 40.680214
-232.73668 486.11514 77.676224
-150.25389 401.39304 0.73830014
-305.492 267.89337 58.272305
-150.93497 183.17662 4.8051825
-260.51407 278.96735 93.957352
-176.66367 448.91278 14.18039
-184.01845 483.60977 71.853729
-304.92072 308.242 62.405022
-283.33527 464.40161 75.805084
-262.83093 135.49847 62.435974
-212.26549 154.28488 67.503433
-297.94171 464.77838 40.475651
-304.56305 289.73941 22.500326
-299.2684 219.25156 14.575602
-259.43567 300.55029 100.62794
-212.00256 156.45345 67.833939
-147.93997 180.24567 7.7559524
-298.74503 457.35144 43.11755
-305.60413 390.81546 69.43895
-146.64041 433.35968 57.843842
-284.30414 133.73511 57.661835
-157.7785 397.79208 52.594177
-181.72418 218.57797 69.599876
-162.25597 211.19519 35.294048
-303.91763 249.25366 63.992592
-305.64496 268.81799 57.18647
-223.3255 129.01137 62.215019
-202.28558 406.888 94.512642
-158.57559 435.27863 74.908386
-299.64008 346.87317 13.770664
-295.20767 390.43454 76.649307
-189.74397 484.35016 70.438019
-212.63739 448.02347 83.101837
-150.73668 335.32669 33.99279
-292.11935 279.98163 74.927803
-207.23814 117.6396 52.059074
-293.03085 227.3526 71.225838
-219.15396 224.66617 73.314598
-270.40765 122.53152 16.073862
-196.93614 486.6676 42.892067
-157.0043 142.72894 40.218601
-290.91382 464.21906 65.020927
-307.49084 199.15424 52.489456
-302.17096 320.655 29.811531
-150.84683 397.49283 5.9063311
-274.33038 251.86456 81.703674
-208.04544 256.34308 86.298462
-297.74146 195.05469 5.7110739
-202.77075 162.88737 68.585693
-243.93106 332.10565 102.30144
-165.50372 432.66989 19.629871
-297.02164 290.79709 72.178467
-248.9895 323.27304 102.44772
-255.8909 322.32703 102.12669
-237.27831 181.45909 70.223892
-157.20174 135.99373 32.535431
-148.75502 168.04926 41.024902
-273.92831 463.46295 78.987961
-294.52545 446.64999 16.516317
-302.11581 279.87396 44.159885
-289.89423 455.34518 16.216755
-307.81277 181.86685 38.241428
-302.70337 365.1929 72.408829
-284.54736 210.6243 16.571278
-177.28082 479.62695 75.196045
-150.34599 407.54596 26.948595
-160.45078 247.31699 73.069084
-262.25375 426.68536 88.192978
-230.93643 169.06459 69.389938
-276.78937 334.13885 94.106987
-233.44136 117.25066 58.218811
-265.76776 199.44197 71.442703
-295.83301 391.58307 32.303387
-148.17685 447.52341 51.105991
-147.94873 166.05582 36.641678
-301.99008 368.9079 73.207603
-158.44574 409.59973 53.606491
-150.40497 302.38477 29.331757
-150.23398 195.76707 7.5501719
-181.60788 220.62834 71.088486
-146.23668 228.26816 30.22517
-214.8073 356.81494 101.35294
-246.22809 273.89081 92.991051
-280.06537 124.18472 24.60741
-172.14429 320.27945 89.219147
-166.34378 420.46442 78.899239
-261.17444 121.27867 16.045927
-157.97661 135.90694 48.075493
-160.56363 202.79872 9.9230385
-296.36841 407.97742 52.376255
-290.2825 432.69202 19.597309
-249.50909 113.79623 44.470348
-150.56531 290.84265 41.36615
-301.82126 237.47968 48.484428
-152.52962 187.80232 31.31801
-236.67056 464.30042 15.992659
-213.95657 427.92099 89.13047
-178.64313 486.367 52.959824
