# .PCD v0.7 - Point Cloud Data file format
VERSION 0.7
FIELDS x y z
SIZE 4 4 4
TYPE F F F
COUNT 1 1 1
WIDTH 1579
HEIGHT 1
VIEWPOINT 0 0 0 1 0 0 0
POINTS 1579
DATA ascii
3.5967667 6.4443817 1.0731443
5.7361217 6.7838182 1.0740846
11.37535 7.0511599 1.0794044
3.4626675 7.3154235 1.0752273
3.8045225 8.9062939 1.0705163
3.6052837 9.5583191 1.0730122
2.5033605 10.268021 1.0752271
-9.5182133 2.4917028 1.0854757
6.080544 3.4501076 1.0823752
6.0496197 3.5168142 1.0816309
2.8707714 4.6596141 1.0844239
3.0831976 4.9593077 1.0811254
-10.041326 5.3231187 1.0848117
-10.049198 5.99892 1.0869656
2.9936268 6.2073531 1.082513
3.0660625 6.3327208 1.0813875
3.1118288 6.6463585 1.0806741
2.7769678 7.0884681 1.0858805
6.2806816 7.5213532 1.0871915
2.6984465 8.6813297 1.087106
-9.4817791 9.3431931 1.0803345
1.9036763 1.5505807 1.0994579
2.4408324 1.8228424 1.0911099
2.2707303 2.4657919 1.0937537
2.1197553 2.8733728 1.0961003
5.6528296 3.1414769 1.0920298
2.21381 3.3137589 1.0946387
2.2165594 4.9772491 1.0945902
6.4841881 5.9033551 1.0920892
2.1837249 6.159451 1.095099
2.1379657 6.3998337 1.0958146
2.0925937 6.6805182 1.0965192
6.5325289 7.3659163 1.0932525
1.9039851 7.4360814 1.0994459
2.4466851 7.6938105 1.0910127
2.2139859 7.7652779 1.0946305
2.1945865 8.0772524 1.0949366
10.623468 9.2282648 1.0942954
2.0641429 9.3847923 1.0969639
1.8562527 2.0690327 1.1001952
1.3360573 2.9965959 1.1087595
-3.8817267 3.9599657 1.107655
-9.9435377 3.9607079 1.1067302
6.8275509 4.4210081 1.1003529
1.7183117 4.8709078 1.1023332
1.8392711 5.4408808 1.1004583
1.4094822 5.531744 1.1074915
7.0739889 5.9702854 1.106284
10.358423 6.2385035 1.1092478
-3.9055898 6.8372984 1.1073965
1.4840298 7.1847982 1.1061983
6.9333916 7.5642066 1.1028998
-3.9014733 9.0284643 1.1074413
-3.9632905 9.1692352 1.1067772
-3.6136158 1.9253592 1.1148481
0.94333142 2.774184 1.1155434
10.344673 4.2512484 1.1115642
0.87226099 4.3606853 1.1167713
-3.6723962 4.6900477 1.1132361
0.72076863 5.9612508 1.119388
1.1687772 5.9604335 1.1116493
7.5944166 6.1472883 1.1188102
7.3522749 6.7809353 1.112983
1.0015483 6.8270936 1.1145376
7.5429754 6.9193287 1.1175723
-3.655623 7.9943724 1.1136955
-3.7795656 8.6020966 1.1102957
0.93398249 8.9753551 1.1157053
7.791338 2.9804888 1.1235473
0.53631049 3.8097525 1.1225739
0.56474853 4.2550063 1.1220845
7.800777 4.4542899 1.123775
0.63553435 5.3101172 1.1208652
0.24427679 5.5264659 1.127619
8.0152664 5.7496147 1.1289359
0.58811641 6.1143885 1.1216793
0.35537016 6.1351652 1.1256998
7.7810836 6.3652873 1.1233032
-3.299696 6.5866566 1.1234558
0.64473993 6.7418184 1.1207008
0.50769484 6.9508567 1.1230681
0.27508956 7.5677099 1.1270869
0.32338327 7.6172009 1.1262527
7.9687953 8.0187922 1.1278179
0.63211143 8.0255795 1.1209197
0.43201023 8.2868013 1.1243762
-4.0564442 8.63274 1.1227627
-3.096662 8.6395292 1.129029
0.49698853 8.7480192 1.1232538
0.25744718 8.7719154 1.1273916
0.2614423 8.8778038 1.1273226
-3.2216616 9.1461058 1.1256003
-0.32246006 2.5028253 1.1374123
-0.11392049 2.8564031 1.1338098
-0.17834574 3.1405458 1.1349235
-2.9207351 3.3071201 1.1338556
-0.23378196 4.7489796 1.1358783
-10.15033 4.8076501 1.1386278
8.3656158 4.9713111 1.1373709
0.056682359 6.3604417 1.1308602
-2.8134975 6.5932798 1.1367946
8.1833344 6.5920453 1.1329839
8.1477442 6.909265 1.1321269
-0.33381394 6.9301739 1.1376112
-2.9523184 7.1391921 1.1329863
0.073206007 8.560914 1.1305746
-0.1022635 9.2806892 1.1336064
-8.4923048 10.02284 1.1379029
-2.5614643 1.6906486 1.1437111
9.5885935 1.8949003 1.1406493
9.6300087 2.0750487 1.1414753
-0.95041239 2.7095098 1.1467698
-0.96829474 3.0458646 1.1470106
-1.1801564 3.0615747 1.149869
-0.53036147 3.1193974 1.1410031
10.976905 3.8126049 1.1460999
-0.84351718 3.8228669 1.1453326
10.229816 3.9410558 1.1467936
8.5188665 4.134306 1.1410568
9.5975008 4.3009782 1.1408461
-2.6713645 4.6169972 1.140696
-0.7057488 5.1760073 1.1434686
-0.84133136 5.3552232 1.1452975
9.7947483 5.3647809 1.1447446
-1.0182641 5.4521184 1.1476855
9.9421692 5.9768205 1.1491642
-2.4584126 6.0488205 1.146524
-0.67866993 6.4196129 1.1431067
-10.109342 6.7483768 1.149604
-2.5322986 6.8930912 1.144511
-0.95388508 7.070384 1.1468185
9.6900778 7.1092749 1.1426083
-2.3594005 7.6171513 1.148577
8.6281185 7.9479651 1.1436857
-1.0022597 8.2900648 1.1474686
-2.3593466 8.4717302 1.1485783
-4.0558691 8.7441702 1.1478479
-0.78355968 9.1935024 1.1445189
-1.4758719 1.7060286 1.1538596
10.188798 1.9439101 1.1511149
8.9314871 3.5130982 1.1509867
-3.6424024 4.1040258 1.1591737
10.174212 4.4725547 1.1523526
-2.0283849 5.1042356 1.1554428
-2.0267467 5.119874 1.1554768
-1.6542959 5.5441394 1.1562687
10.191851 5.8387709 1.1508567
-1.7081826 6.3080873 1.1569933
-1.3020669 7.1713848 1.1515169
-1.6278162 7.8426981 1.15591
-2.1834872 7.9434023 1.1522248
-2.2627552 8.0624552 1.1505814
-1.3056307 8.3008518 1.1515623
-1.563756 8.4580278 1.1550456
4.4167194 10.308244 1.1520537
9.4100742 2.9288707 1.1625042
-3.8305726 3.7627318 1.167805
9.5176373 4.8507786 1.1650934
-9.9933739 7.1780796 1.1630784
-2.7218685 10.246439 1.1607828
-4.0796671 2.974453 1.1792331
-10.226258 4.5067225 1.1742435
-3.9457204 4.7485485 1.173089
-3.8826036 5.9065247 1.1701937
-4.0557899 6.8383312 1.1724095
-3.9869652 7.6457973 1.1749802
3.3569682 0.63897634 1.1872784
-4.3065624 2.9495919 1.1896387
-4.2983527 3.9023442 1.1892645
-10.231042 6.5650415 1.1802669
-4.1113172 7.4597497 1.180684
-9.9822187 7.9007568 1.186769
-10.373312 2.5423729 1.1943392
5.6468105 6.9125967 1.1913072
-10.146686 8.3011055 1.19225
-8.4744959 10.072811 1.194381
-4.5873904 7.4731293 1.2025204
-4.6013589 8.1195021 1.2031654
-4.7711043 5.5128679 1.2109535
-4.8525538 5.7260733 1.21469
-4.8267212 7.4712343 1.2135003
10.748729 7.6179605 1.2125274
-4.9566574 8.0527725 1.2194649
5.645133 8.7429037 1.2104875
-4.9172115 2.6132302 1.2204893
-5.0856962 4.6993771 1.2253816
-5.1737881 5.6725845 1.2294266
-5.1162224 7.6700649 1.2267818
-5.2794838 5.3618622 1.2342743
-5.349803 8.0841446 1.2375008
-5.4489145 2.9089797 1.2420471
-5.5689039 6.0881639 1.2475513
-9.8656988 1.720382 1.2587037
-5.6572814 3.5452468 1.2516046
-5.7858791 4.5231228 1.2575035
-5.7305107 4.5614166 1.2549636
-5.6570258 4.6871572 1.2515929
-5.6926522 6.3318901 1.2532275
11.2567 6.3837156 1.2587767
-5.8195629 6.5103579 1.2590489
-5.7873068 7.0594831 1.257567
-5.7217846 7.3694921 1.2545602
-5.6235895 8.1108685 1.2500597
-2.2633443 10.236677 1.2588918
-6.0061541 4.2063894 1.2676079
-10.40267 7.9525452 1.2634773
6.0676937 2.61323 1.2792076
-6.0931692 4.0736475 1.2715995
-6.2306643 4.2089353 1.277907
4.3144717 0.60971761 1.2813536
-6.3354201 3.6306851 1.2827119
-6.3569813 4.9012079 1.2837021
-6.324461 4.9560809 1.2822105
-4.0494018 7.2404232 1.2810091
-6.6368661 5.3976164 1.2965424
-6.6377387 5.6077437 1.2965832
-6.6610866 7.3650274 1.2976507
1.3599005 10.286505 1.2957612
-0.51585114 0.68257326 1.3060267
-6.7950263 6.4477892 1.3037982
-6.9036999 8.2613888 1.3087817
-10.213437 3.0881512 1.3165802
-6.9389477 3.5262308 1.3103988
-7.1424518 5.5766025 1.3197358
-7.0850115 6.6882954 1.3171005
10.828196 7.4560823 1.3139894
-7.2137399 5.0657568 1.3230048
-7.2545142 5.2609482 1.3248756
-7.2415123 5.7875681 1.3242798
-7.1969795 7.421092 1.3222349
10.531084 2.0222554 1.3356595
9.4363737 2.2001901 1.336146
-7.5227785 8.1086149 1.3371831
-4.0457397 2.7128396 1.3415642
-7.6531391 5.1841497 1.3431617
-7.7039189 7.2473769 1.3454911
9.4585667 0.59103382 1.3592529
-8.2454786 2.7491333 1.3505013
-7.9494553 4.1885695 1.3567542
-10.562684 6.0250845 1.3596836
-7.9346638 6.9144549 1.3560765
-8.0105333 7.9794607 1.3595598
-3.81815 2.61323 1.3637657
-8.2025185 4.9544344 1.3683655
-8.1611881 7.2439823 1.3664678
-10.287794 2.2853122 1.3718698
-8.375246 2.4906654 1.3710332
5.6304665 3.0193334 1.3781769
-8.200284 8.3236408 1.3749136
-9.971447 2.8994188 1.3854378
-8.426137 6.4760799 1.3827412
7.3211632 2.61323 1.3934804
1.2888442 5.5782499 1.3988004
8.8325739 8.3236399 1.3905908
-8.1716166 9.5157499 1.3991975
-9.5903349 9.4500446 1.4032488
9.724988 0.85360914 1.4163098
4.0930257 0.58910847 1.4214888
-4.0404291 2.9681904 1.429558
-8.6222734 3.4541593 1.4278628
-6.5151606 2.61323 1.4331828
-8.5102749 10.070175 1.440115
3.2232018 10.340402 1.4426725
5.0466352 10.359037 1.4475313
3.7221608 0.58759177 1.4534239
-6.8564296 2.6132298 1.45512
-8.7486067 3.2155511 1.4569221
-8.171999 7.2174401 1.459831
-9.7196732 1.5188899 1.4667356
-10.418354 3.1205826 1.4802375
5.5830412 8.3236399 1.4887991
5.6214561 8.4172087 1.4811887
-9.6977501 9.4346018 1.48288
-8.172225 5.7464137 1.4963232
5.6197639 2.0831039 1.5005447
-8.9613438 4.4542236 1.5058645
-8.872798 3.0110173 1.5159811
-8.9779367 3.6170459 1.511515
-9.9604197 8.4042358 1.5124352
-2.4123955 0.62392986 1.5389823
-4.0340729 4.8656549 1.534812
-8.1724682 8.533473 1.5351202
-8.6824121 2.3817282 1.5407541
-4.0070744 2.61323 1.5409777
9.4518566 7.5857716 1.5478709
5.6162987 8.9453259 1.5401611
-3.0477638 10.361282 1.5459489
-9.1909847 5.5207043 1.5586919
-1.8001994 10.293665 1.5505903
8.2209501 2.6132302 1.5631323
-9.2078762 5.51017 1.562578
-7.7678871 8.3236399 1.5646899
-9.3480186 9.5854931 1.5655028
9.8619499 9.7644176 1.5661218
9.4524307 1.9941509 1.5704286
10.971875 7.8081522 1.5762868
-9.3696222 4.9369359 1.5997899
3.1239767 10.365573 1.5953051
10.748422 7.7038708 1.6011925
9.4534321 7.9145899 1.6093564
2.8600264 9.8646154 1.600652
3.3051584 10.368814 1.6018395
5.6111107 3.0871229 1.6184149
-3.3022945 0.53764045 1.6274785
-8.1678305 10.421873 1.6387469
-6.2852845 2.61323 1.6413263
0.99902678 5.7321687 1.649362
-3.8019528 10.441659 1.6480688
-1.3296914 0.61219871 1.6578768
10.321013 1.4106197 1.6555916
-10.564237 2.9053421 1.6658596
11.360552 4.750926 1.6686425
-4.0259767 6.5341287 1.6688583
-10.113814 8.1488419 1.6696299
9.4551907 1.8083446 1.6782035
-10.092093 8.3553123 1.672097
-0.15424761 10.345549 1.6716771
-9.6293373 1.4296185 1.6869599
-9.7244606 2.0517778 1.6876059
-8.1903772 2.61323 1.6825689
-9.633934 4.3355794 1.682132
-10.43957 8.1508245 1.6829759
9.4553108 9.2553768 1.68283
-4.0257654 9.199007 1.6984602
9.4556532 9.5123711 1.6961653
2.0538673 10.387105 1.6982336
-10.245893 2.2604475 1.7079582
-10.667331 6.4968219 1.7069001
7.1319513 8.3236399 1.7032676
0.12329827 0.56675649 1.7166669
-9.3241119 1.3181442 1.7191887
5.6061344 2.7146666 1.7146815
-4.0261664 8.0809774 1.7198499
5.3587527 0.5088917 1.7278802
3.9996662 0.51985765 1.7230206
4.2657351 2.2454367 1.7281681
4.4112062 3.6723671 1.7233286
4.5016794 5.5173302 1.720319
-10.425455 7.3914762 1.7241232
4.4344301 8.7832413 1.7283065
-1.5578961 10.351819 1.7281066
-0.47595763 10.364326 1.7237236
-2.5935497 0.56012493 1.7332773
-10.260921 3.2412112 1.7397264
4.0243011 5.1091471 1.7362024
4.0946059 6.6499114 1.7338616
-8.9664364 9.7350626 1.7380742
4.4913726 4.4337254 1.7493231
3.7517662 6.7535458 1.7452669
4.4968438 7.02881 1.7413765
3.6692276 7.0473351 1.7480124
-8.5949621 1.0579941 1.750282
9.4523287 1.7392746 1.7535348
3.5557745 2.2908816 1.7517866
3.36731 6.007185 1.7580566
3.5408053 6.0095024 1.7522848
3.5180812 6.2212505 1.7530414
-10.023454 8.2925148 1.7525084
-6.8698406 2.61323 1.7689508
3.214972 2.9292381 1.763124
3.1853061 4.192112 1.7641141
3.0567188 7.4496632 1.7683897
3.2837996 7.9467888 1.7608349
-4.4174409 8.3236399 1.7603363
-0.84268099 10.378283 1.7642701
2.7088101 3.8372068 1.7799633
2.7511482 4.6447873 1.7785548
2.9872234 5.3823605 1.7707031
3.6573598 0.57166123 1.7873054
-4.0273376 5.317481 1.7815899
2.5392542 5.4802532 1.7856034
4.2528276 10.127291 1.7838054
2.310262 7.9103813 1.7932203
-1.9096134 0.55499041 1.8026761
3.3079121 0.56819153 1.8032377
3.0823159 0.62209094 1.8077801
3.5388315 0.90264541 1.807531
2.5276361 2.3565242 1.8077335
-4.0278549 3.0506296 1.8089942
2.0830665 3.5132589 1.800777
2.0461271 4.3715744 1.8020114
2.0673304 4.448688 1.8013049
1.9312044 5.2166724 1.8058313
1.925668 6.8256693 1.8060181
1.9082806 7.6775303 1.8065938
-0.54149503 10.401 1.8064461
9.4467812 2.5379548 1.8195946
1.7998515 2.6762905 1.8102019
2.7396605 10.10264 1.8176661
1.3735602 4.2158294 1.8243835
1.2714118 4.2303891 1.8277814
1.2701814 5.5917964 1.8278208
1.4620137 5.9825354 1.8214399
2.1551042 10.149807 1.8251647
1.9185174 0.92794436 1.8318453
5.6083751 1.0481642 1.8350701
10.649914 1.7011046 1.8375256
-6.9774714 2.61323 1.8317237
1.1510522 2.9273176 1.8317863
1.0320604 6.368587 1.835743
1.1236931 6.8914752 1.8326974
0.97398365 6.9867711 1.8376765
1.4294165 10.054918 1.8379552
1.3609116 10.346474 1.8323224
0.41991842 0.51714635 1.8442144
0.61993051 8.1707249 1.8494534
0.73758328 10.350513 1.8412266
0.4745383 2.5617721 1.8542906
11.197949 3.1648445 1.8586301
-10.367252 4.3246479 1.8526807
0.31346208 5.6596866 1.8596483
4.418983 5.739172 1.8544545
0.3657037 6.35923 1.8579125
0.36748767 9.989789 1.8548281
4.4113574 2.5043087 1.8655293
0.25416142 3.0288434 1.8616234
0.17643593 3.2341051 1.8642097
0.086324044 3.8480427 1.867206
0.24789676 5.1159587 1.8618294
-1.3765328 0.6040417 1.8718052
-1.458607 0.78647697 1.8771194
-0.065860868 3.7452967 1.8722693
10.716744 8.4902887 1.8702143
1.1707957 9.9190865 1.8789732
-8.4076071 0.7460196 1.8829386
-2.2570021 0.83060288 1.889605
-0.3609558 4.2059827 1.8820875
-0.5405606 4.587925 1.8880622
-9.828722 8.8965712 1.8831064
2.719877 9.9203796 1.8844553
-10.139765 1.7990216 1.8986803
-0.73628414 4.7729969 1.8945761
-10.551581 5.8884974 1.8966752
11.140678 6.8199987 1.8991443
-10.150365 6.9930906 1.8959419
-10.472455 7.409277 1.8954046
-0.87173826 7.5126143 1.8990822
-0.82262832 8.3207607 1.8974488
-3.1314108 10.267683 1.89399
-6.4194117 2.61323 1.907277
-1.0763797 5.3448448 1.9058914
5.6142445 6.3097801 1.9074819
-1.1262194 7.8887405 1.9075499
1.406929 2.4076247 1.9159263
-8.1655931 3.1654744 1.9122176
-8.0896368 2.6132302 1.9250535
-1.7660617 3.0723772 1.9288323
-1.6959568 3.2915688 1.9264997
-1.5851226 6.186944 1.9228098
9.4377947 6.5460091 1.926574
-1.6097497 6.958313 1.9236289
-1.686996 7.2510843 1.9262007
-1.9564523 6.403532 1.9351671
9.437355 6.7867584 1.9318019
-1.9635863 8.1841087 1.935405
-8.1639261 2.6197829 1.9484079
-8.1643066 3.1077595 1.9401529
-9.9770088 8.4067707 1.944577
3.6536002 6.1004281 1.9530669
-9.8318787 8.8817053 1.955861
3.4664271 9.9170952 1.9527117
10.320399 1.3882748 1.9659469
-8.8621712 1.157791 1.9721422
-8.162509 2.2458231 1.9791577
8.2194538 8.3236399 1.9757417
3.994411 1.002244 1.9826292
-0.756832 1.050106 1.9923761
-4.0371037 1.4254308 1.9976583
3.4034514 9.9202938 1.9954194
-0.70554411 2.5067778 2.0073428
-8.1612005 4.4327364 2.0075474
0.39652348 8.4840879 2.0003712
2.7871261 8.6134548 2.0039673
-4.0378919 9.2999249 2.0069504
-3.6512983 10.140449 2.0081639
-4.038898 5.7885461 2.018755
-8.1600685 1.5384197 2.0321364
-1.2721721 2.5326393 2.0450435
5.6257486 3.6592793 2.0494063
1.15152 4.8278756 2.0427873
9.4275484 5.8200922 2.0484729
5.6254821 7.680047 2.0461035
4.2837648 3.4596016 2.050833
-8.555398 9.909626 2.0567412
3.8752244 9.9426517 2.0580244
3.9353001 2.183321 2.0794246
1.6964558 2.3842824 2.0784106
5.6279163 3.9152467 2.0761466
11.568778 5.5798807 2.0721884
11.502981 5.808219 2.0776823
1.12853 7.8896203 2.0799522
11.009445 8.2500458 2.0793223
-8.2263432 10.442097 2.0717974
-9.4143028 1.3209363 2.0806355
-10.133729 1.7700186 2.0800343
-1.5580446 9.8498974 2.0983343
-9.6815176 1.4083357 2.1016934
5.6303868 5.577096 2.1066213
-0.26705256 8.4569244 2.1005616
3.4102833 9.9371395 2.1061592
-3.5710964 9.9856787 2.106838
10.757448 2.102766 2.1172523
-0.19027728 4.6613469 2.1182106
0.40274099 6.3129606 2.1193964
4.3014956 9.9620733 2.1129177
11.238761 4.3200402 2.1294343
0.87982935 6.1082797 2.1236637
1.7578095 8.5583048 2.12672
-9.5602541 9.5726051 2.1239805
9.5309219 0.53067803 2.1318479
-8.092824 10.457554 2.1387079
2.9812531 2.2828922 2.148452
-1.0477023 4.8207827 2.1405127
-0.91625679 4.8215399 2.1490612
-10.931059 5.8992801 2.1524868
10.088657 1.2461557 2.1647561
7.3488865 8.3236399 2.1683142
0.86734509 8.5165701 2.1663437
-3.7394552 0.69452173 2.1826453
-8.137332 3.9193106 2.1857638
0.35260105 1.0739615 2.1960864
11.525201 5.1150661 2.1944547
-4.0614138 9.1775017 2.1901901
11.612488 4.6329055 2.2018409
-7.384984 8.3236399 2.2034204
3.5156841 9.9553471 2.2088461
-0.17550445 8.3644371 2.2175651
-0.10918175 9.8516674 2.2115498
-2.8733659 1.1029503 2.2245283
5.1851621 10.007723 2.2243848
-8.1279955 5.4118652 2.2301688
4.1571875 7.8068871 2.2346623
-2.1540706 7.9681783 2.2385774
-1.1796459 1.1100721 2.2419524
5.6579156 2.0131006 2.2498405
4.1278296 9.9773216 2.2467287
1.4037347 2.3886962 2.2584198
-10.722233 3.5245097 2.253119
-1.1197419 3.8125048 2.2520118
4.3849134 0.94828331 2.2774062
10.831358 8.936738 2.2726038
4.1212635 3.8679171 2.2868295
1.2051089 3.9204237 2.2824996
-2.0236821 4.8661699 2.2890949
5.5121446 10.535668 2.287056
-0.53224242 4.7086072 2.2934718
-2.1322017 7.9127002 2.296422
0.67204893 8.327302 2.2910154
0.57961667 1.0513964 2.3009872
0.75505453 2.4183636 2.3004823
4.1090894 3.3784409 2.3045154
9.3782196 3.8966339 2.3111055
1.2297862 1.0259819 2.3379791
-7.9511247 2.61323 2.3372858
-8.8008671 1.1246783 2.3479962
1.228281 3.3145914 2.3437886
-3.7656856 0.71471685 2.3527455
10.921334 2.4181414 2.3532305
-4.0993376 6.1833382 2.3531618
-1.1689489 7.499011 2.3617599
-1.9293193 1.1238393 2.3774142
2.9470959 2.2710333 2.3701403
0.31153175 2.5779161 2.3809319
-0.96236771 4.0160599 2.3820634
0.38782424 8.3571663 2.387748
11.401279 3.5081396 2.3955421
4.0435362 7.7420087 2.3997185
-10.62439 7.8601894 2.3942575
-9.3405313 9.6525593 2.3972201
0.94480908 4.835381 2.4054763
-8.2915449 0.60728866 2.4155824
-9.0222759 1.1870211 2.4135957
9.3496847 6.2122965 2.4175217
4.0362763 8.0644903 2.4102626
-0.54383576 8.4609461 2.4178667
-8.0774832 9.2368736 2.4158146
-9.7357159 9.5204763 2.410594
-4.3994346 2.61323 2.4202123
9.3477621 8.461731 2.4246981
-3.8519812 10.41649 2.4201634
-1.6275995 4.8579302 2.4344392
-1.477258 4.855711 2.4336264
-1.0974182 6.0862494 2.436269
-6.6004295 8.3236399 2.4368761
-0.93260455 9.8546343 2.4382231
1.1903251 1.0115931 2.4478869
-8.068223 2.7651048 2.4479442
-0.48037466 4.8428769 2.445312
-7.6146131 8.3236399 2.4461887
9.3427353 9.2033892 2.4434485
-2.0622408 6.6904626 2.4543033
9.3408976 6.8302231 2.4503016
-0.55240989 7.6421542 2.452785
-0.47246227 3.4310992 2.4665768
-1.6721849 9.8316193 2.4606411
-2.2533331 2.4875073 2.4743631
3.990561 8.1715412 2.476655
-0.59815049 8.4288044 2.4722977
-7.384305 2.6132302 2.487067
-2.0618937 3.7199631 2.4823885
-4.280417 3.8706377 2.4899569
9.3312197 4.5176148 2.486412
-1.1861379 6.0793715 2.4871998
3.2247701 6.0971546 2.4844553
-2.0611317 7.573936 2.4844036
-10.625834 7.8759098 2.4976344
-10.309692 2.0781643 2.5093114
-1.6966076 4.8671198 2.508852
0.61262697 6.2562828 2.5036938
-4.2016449 6.6951451 2.5000479
-1.0122179 6.7940173 2.5095203
-1.0134828 7.1562767 2.5027864
1.840997 0.98203033 2.5185981
-8.0484667 1.923026 2.5164883
5.7312517 9.8752842 2.5140088
5.7303362 9.969635 2.5107098
1.2949975 3.2548723 2.5202503
-4.1384072 8.4298744 2.5210714
-1.0808175 1.074519 2.5373125
-2.139461 2.7494483 2.5303957
-3.8933101 3.7899659 2.5395467
-1.0024358 6.0770216 2.5320759
-4.1433158 0.85478437 2.542166
-2.3307042 2.4753358 2.5430722
9.3145161 5.2298713 2.5487113
2.5281799 0.95901167 2.553998
-9.3573942 1.2827927 2.5567036
-1.2572261 4.2823358 2.5586486
5.7420735 4.7715902 2.5529895
-0.55193782 6.4370518 2.5530105
-3.7383595 7.7004585 2.5593967
3.0695109 9.9915247 2.5574908
-10.603462 2.9662771 2.5694327
5.7464004 3.7783899 2.5660067
-0.39408001 4.8552322 2.5683517
-4.2098618 6.583468 2.5631564
-3.9559636 6.6030684 2.562892
-2.0300059 6.9830503 2.5667324
-3.6590147 7.2321982 2.5695615
-1.6864448 2.4628651 2.5756631
-10.6605 7.7630568 2.5720358
11.241457 7.9189024 2.5705831
-8.1200085 8.3236399 2.5715892
-2.9818602 9.8691893 2.5728106
-9.8001709 9.5022221 2.5827174
3.9075778 2.5508442 2.5971725
-3.4411666 3.7675555 2.5974684
-3.4801054 3.9702036 2.5924802
-8.0271215 6.6688919 2.5905428
3.9078987 8.587163 2.5967059
1.7780949 2.3511004 2.6015546
-3.3729553 4.3180714 2.6062064
-0.53145617 9.8917665 2.6002979
-10.588243 2.9016972 2.6191664
-4.1748443 7.8281827 2.6146307
-4.1795044 1.0642192 2.6245632
1.1928929 2.3785903 2.6264808
-8.0180464 2.9229064 2.6220317
0.45056504 2.9915829 2.6258078
0.42826697 3.6793518 2.6219616
3.8865128 4.1503592 2.6277628
0.3464615 4.8510342 2.6253743
-2.2568631 8.477314 2.6230493
-3.6735473 0.92360061 2.6328926
2.7821867 4.8419075 2.6332583
1.2137055 6.0950055 2.6364381
0.50016427 7.8776264 2.6343641
-2.000962 3.9544325 2.6435547
-10.956501 5.9134259 2.6415899
0.30591786 6.4972105 2.642441
1.3416275 6.5873108 2.643584
3.8610058 4.83496 2.6501288
2.9220424 9.9984579 2.6574554
5.5794983 0.38341776 2.6686103
-2.9426589 3.5994167 2.6613297
9.9241905 1.1217365 2.671365
-9.4804249 1.315259 2.6790032
-8.0020924 4.5366879 2.6773877
-8.3110142 0.67541462 2.6828928
1.0245714 2.3838549 2.6810675
0.78700411 3.2897377 2.683847
1.0103194 4.8481879 2.6848111
-7.9844084 8.3236399 2.6894886
-8.3220787 10.241976 2.6822152
7.1302719 2.61323 2.6916928
-1.9832938 3.2405725 2.6902874
-0.89605898 2.4311635 2.7087264
-1.323645 3.5582042 2.7067854
-3.7177241 4.5740695 2.7058833
0.59778875 4.8559971 2.7026136
-1.3208921 6.288599 2.7006454
-2.4051642 8.4912233 2.7046909
5.8240919 8.667038 2.7083178
-4.2206926 3.7416766 2.7124026
-2.5006199 6.7645183 2.7179568
3.8275404 7.1110125 2.7134092
-10.633009 7.8909507 2.7161374
-10.670753 3.1812913 2.7246284
1.0104948 3.366673 2.7224016
3.8191881 5.8982153 2.725539
1.0960883 6.6601582 2.7371669
5.8948874 8.3236399 2.7369282
5.5002041 10.273952 2.732564
-1.9616109 3.1373994 2.7476397
-0.7051723 4.8790855 2.7445555
0.94035077 8.5524063 2.7448454
-4.2428298 1.4410121 2.7596068
-7.9620485 7.1943979 2.7535617
-0.94545114 6.1761141 2.7639875
-2.1132503 6.9106741 2.7675805
-4.247395 9.9808865 2.7693439
-10.990841 5.3677926 2.7715333
-3.8257637 7.9769459 2.7762728
-1.9794294 3.9572282 2.7847238
-3.6636753 9.9819775 2.7821493
3.4313567 10.028036 2.7875798
2.8950672 5.1423464 2.7993195
-1.56964 9.8744001 2.7902758
4.4293466 10.054893 2.8027701
-1.3715463 3.5488997 2.8136218
4.9411659 0.8621136 2.8275542
-3.6894555 0.93057561 2.8225207
-7.863719 2.61323 2.8229308
-4.2726078 6.0705252 2.8231058
11.665535 6.1602287 2.8234098
-10.87608 6.7173114 2.8213303
-2.2351885 9.8519135 2.8228261
1.1718005 0.96666956 2.8315432
-10.971045 5.4478092 2.8452883
1.0791272 8.3859749 2.8462031
-8.2579374 10.309649 2.8401165
5.9066668 2.1423786 2.8595746
-7.9045372 2.3769808 2.8551311
3.689286 4.4462204 2.8565707
-10.647314 7.8651819 2.8551917
-7.9054995 8.3900175 2.8534267
-7.8996906 1.3241854 2.8636892
-1.1136438 7.8837399 2.8696804
-2.4882712 8.369401 2.8627691
5.9086256 8.494278 2.8631649
-3.9144778 0.7065376 2.8789945
-4.2961788 1.7568001 2.8733735
11.657276 5.3948774 2.8775115
-7.8905358 7.0706434 2.8798513
-1.3969138 8.178791 2.8702002
1.1635339 6.0019026 2.8844504
-7.8902035 6.0614014 2.8804436
5.1385708 10.087752 2.895093
9.508688 10.193342 2.8955359
0.11478257 6.014864 2.9041095
0.85486478 9.9669695 2.9007773
1.856359 9.9976654 2.9026511
-9.6530313 1.360288 2.9146583
-3.4208844 5.128768 2.9152896
-7.167098 8.3236399 2.9247513
2.3914843 10.014973 2.9264522
11.436896 4.1404738 2.9361076
9.0986748 4.1684275 2.9382915
-4.4886475 7.4556317 2.9393468
-0.51699603 4.4817896 2.9401526
3.0504203 5.1886549 2.9458416
-7.8554974 5.4049578 2.9417396
-10.667204 7.8400974 2.9482877
-4.3062096 8.3236399 2.9400494
-7.849966 1.5386436 2.9515059
-1.4342566 3.87254 2.9534874
1.2346914 8.5787754 2.9573903
0.022666246 9.9453478 2.9556212
-1.1349783 2.3840013 2.9658349
-10.739277 3.3595095 2.9683654
-4.2616358 7.921175 2.9619548
-5.9644284 8.3236399 2.9604714
0.95713305 0.95858133 2.976558
-10.043992 1.5738026 2.974544
10.779129 1.7917713 2.988004
-10.513489 2.5533807 2.9896312
-5.9820938 2.61323 2.9875576
3.4551101 3.2385876 2.9872117
9.0586653 4.8333669 2.9850321
11.19577 5.6640964 2.9845467
-0.63261354 9.9281015 2.985177
5.9961834 10.05769 2.9870701
-0.62732065 5.9422226 2.9981389
11.112234 2.9867415 3.0028081
-1.8167456 5.8480196 3.0029128
-1.1099055 9.910924 3.0054231
9.0751276 10.555786 3.0002656
11.241592 6.5896778 3.022157
-1.4657619 7.0849619 3.0237551
11.081722 7.2478929 3.0208256
5.0094657 10.092266 3.0237331
10.950567 5.4810839 3.0399053
3.3484421 5.0639448 3.0467191
-1.3300757 5.8796749 3.0455599
-0.90176177 9.9226112 3.0425751
1.571052 0.93160748 3.0520682
-9.6490402 1.3503573 3.0525427
-1.2146018 3.1122725 3.0575445
-1.4177217 8.3594637 3.0500064
-6.348413 2.6132298 3.0638394
8.9876566 9.4728298 3.0679865
-2.2207899 1.0639739 3.070277
-1.7868388 2.375107 3.074285
-7.7828207 2.4203429 3.070087
-6.2825198 2.61323 3.0712192
-3.9855509 4.7886109 3.0716248
10.819807 6.7413645 3.0777755
8.7236347 2.61323 3.0885055
10.798667 7.0598345 3.0846734
-7.7626934 1.8858047 3.0930829
10.797512 2.4750161 3.0950892
0.77390599 5.7986207 3.0955415
-4.5499096 7.0954561 3.0964615
3.2399051 4.621388 3.1072693
-0.59745222 8.5836639 3.1018279
7.706058 2.61323 3.1132622
-1.1580759 5.1898394 3.1139174
-1.3931983 6.2554035 3.1104422
-1.3501346 8.3837776 3.1192579
-4.4599319 0.95363092 3.1397855
-0.2242249 5.1690769 3.1328807
-0.20818707 5.1805925 3.1373191
-4.0492501 0.64751965 3.1436987
-8.0188389 8.3236399 3.1438005
-0.54472214 0.99245435 3.1594207
8.9058275 3.2849386 3.1635823
3.0586715 3.350841 3.1764727
-4.1629481 8.103817 3.1709502
8.8969841 9.1969881 3.173912
10.346499 2.3043246 3.1899574
-5.5761805 2.61323 3.1866312
-10.903619 6.8122845 3.1822641
-10.47778 2.3753114 3.1951199
9.002183 8.3236399 3.1953397
10.328087 8.7573118 3.1932232
10.868492 4.2514763 3.2029321
2.1663659 2.2877967 3.2186861
10.230267 2.3745332 3.2179775
10.380147 8.3696699 3.2126877
-4.3437204 0.28220344 3.2215166
8.8465824 1.4489337 3.2291188
-4.5998712 3.4396567 3.2245922
-4.5345197 5.7762971 3.2281108
-7.6425905 7.2064009 3.2298627
10.557243 7.5464182 3.2267544
-0.99323332 8.4724197 3.2249689
-6.371294 8.3236408 3.2316098
-3.0051997 8.4608297 3.2407565
3.2660513 10.058058 3.2446985
6.2440758 1.4860439 3.2594225
6.2409215 2.0873144 3.2571895
6.2344093 4.5895348 3.2525797
2.9090385 7.4133024 3.2507663
-0.58138317 2.3999331 3.2687848
-7.6079202 5.9103251 3.269352
0.12678155 9.9684944 3.2696507
-4.1179104 0.70251858 3.2754941
10.121825 1.991116 3.279686
1.7765012 2.2819242 3.2729564
-1.4207965 4.686183 3.2729259
-0.51594561 2.6950805 3.2813594
11.195 6.6832728 3.2874267
-6.6398396 8.3236399 3.2886279
5.8705921 10.456426 3.2851815
11.360458 4.4761033 3.2932448
8.7519846 8.807641 3.2964652
2.756449 0.88997495 3.3029621
-7.5773668 4.1326928 3.3041444
-4.5977917 9.974432 3.3030429
-4.6347909 3.5871537 3.3141489
1.4353595 7.6517286 3.319242
-2.8160796 9.8613071 3.3140154
10.183008 2.3691311 3.3281157
8.7065468 8.6043062 3.328805
6.3322749 10.081898 3.3218622
-4.1181421 2.7617481 3.3346748
10.863363 7.3011456 3.3330331
2.6922102 8.0177794 3.3324871
6.3453889 8.6724644 3.3311458
-7.8966804 0.47063041 3.340498
8.679822 2.7746496 3.3478279
-1.6081042 3.9511111 3.3412271
2.6939673 7.5891166 3.3446829
2.0962887 8.6419601 3.3489537
9.2789192 0.82538831 3.3526859
8.5193415 2.61323 3.351881
-3.9398153 5.1097202 3.3552082
11.443837 5.9273272 3.3551898
-3.4844036 9.9487514 3.3577933
3.365891 10.068401 3.3680553
-8.0326805 0.68019718 3.3774147
10.834593 3.3796163 3.3730662
8.6478195 7.7711802 3.3706059
-1.3292557 7.8131123 3.3738008
8.624136 1.7933965 3.3874679
10.443838 7.8238554 3.3867226
-2.0059321 9.8940363 3.3883493
6.429966 3.2792001 3.391017
11.265173 5.1612687 3.3977919
2.5487018 8.6813498 3.393168
3.9536843 10.086291 3.398726
6.4471989 1.5741553 3.4032185
11.231246 5.1261272 3.4052703
-4.6928306 5.3389482 3.408252
-7.4931912 8.0936146 3.4000106
-6.6294622 2.61323 3.4108877
11.16549 4.4672985 3.4112837
-9.990099 9.4325647 3.4194136
-10.825023 3.5577178 3.4249117
6.4756961 4.261673 3.4233925
-10.879043 4.5080256 3.4261136
-7.43964 1.8395743 3.4377742
-10.740785 3.1850123 3.4397035
11.548204 5.4197912 3.435761
6.4860711 6.6370487 3.4307387
-3.3089318 2.5162821 3.4426551
-10.876408 4.8067946 3.4466968
-5.230443 8.3236399 3.4426858
6.508532 8.3514395 3.4466391
-7.4330082 8.3666992 3.4424193
2.5786541 7.0784264 3.4575417
8.5244999 7.9720736 3.4583914
6.5240717 8.6078568 3.4576392
1.0308632 10.005583 3.4589562
-2.158076 1.0465697 3.4643974
8.5196304 4.3882484 3.4616296
8.5161667 5.3446317 3.4631574
6.5275173 6.4477673 3.4600785
-4.7866311 0.82462198 3.4749818
8.4807978 5.1462917 3.478756
6.5490379 5.982039 3.4753127
-3.500737 9.9389954 3.4714611
-7.3743758 1.54134 3.4834569
-10.206528 1.7295108 3.4895222
6.5664778 1.8014088 3.4833126
-7.372189 3.3849869 3.4849858
6.5659771 4.1881332 3.4831028
2.5533953 7.1491842 3.4812071
-9.311554 9.6954784 3.4882579
-8.7531891 1.0918636 3.4995313
-7.3524461 3.2062781 3.4988072
-7.353219 4.4750152 3.4982667
-10.880691 5.1550217 3.4984026
-4.8164902 9.0524731 3.4962239
3.1550338 0.86629546 3.506114
-0.57375181 4.6079483 3.5057168
1.5540907 6.7017674 3.5034449
-10.78533 7.5738511 3.5093644
-4.1063986 2.7127628 3.5142293
10.994369 6.0800204 3.5177672
8.397603 7.240695 3.515444
-10.704433 3.0512125 3.526022
8.3727379 5.7960896 3.5264099
-10.5905 8.2793055 3.5228748
6.1295075 10.428628 3.5295384
8.7824574 10.526053 3.5277419
8.7574682 10.570354 3.5271106
2.592736 5.0265713 3.5311582
-6.5354276 8.3236399 3.5383501
-4.8698759 9.2451401 3.5342031
6.6911707 9.315485 3.535521
2.5777764 5.0432143 3.5513453
-4.9002762 6.1131492 3.555831
-7.2776556 6.2784491 3.5511625
8.3030262 8.3139591 3.5571532
-1.882032 9.904356 3.5592499
-7.2509251 3.7623322 3.5698662
10.0775 8.5596418 3.5618916
8.2746868 8.8444777 3.5696511
5.1250701 0.84238315 3.5793657
1.6819379 6.585238 3.5845807
4.9359717 10.090136 3.5844088
-6.0845504 2.61323 3.5997648
-10.885517 5.3697863 3.5985088
8.2100887 9.6759129 3.5981383
-10.877895 6.1333861 3.6048241
-1.1659489 6.1555791 3.6071661
-4.9756579 8.7588339 3.6094618
3.7175519 0.87478608 3.6119518
-7.2772279 2.6132298 3.6246352
11.381689 5.1903372 3.6200879
11.24426 5.9624324 3.6240907
7.4071093 8.3236399 3.6231179
8.1313066 8.7241974 3.6295221
7.2183008 2.6132298 3.6306605
8.098402 7.9206133 3.636358
-7.3519301 8.3236399 3.6372883
-3.7495258 8.3858891 3.6325648
-7.5938215 0.42189926 3.6445763
6.9900074 2.2761948 3.6473775
-7.7972517 2.61323 3.6429584
8.074338 5.1617069 3.6413555
-0.81310111 8.2731743 3.6455607
-8.4137945 9.9193115 3.6484852
6.2218876 10.309121 3.6489687
-8.6834259 1.0845422 3.6574004
10.08917 1.3421123 3.6573684
11.58408 5.2393513 3.6562359
-5.0524068 9.4747324 3.659066
-2.1393731 9.8876553 3.6536608
-7.1253934 10.025119 3.655683
3.1454494 0.90080881 3.6628635
10.4967 3.4211111 3.6636517
7.0618486 3.9124544 3.6609967
7.9434099 8.5727901 3.6685572
5.9632249 0.85137773 3.6745729
9.0385113 1.0074297 3.6785316
-10.048072 1.5438508 3.6739438
-10.90454 5.0142694 3.6709528
9.6219759 9.7626009 3.6782475
-4.3817601 10.106624 3.6746221
8.5400829 0.41690403 3.6847448
6.3371596 0.55234456 3.689651
-1.3050884 1.0288126 3.6841559
-7.0439758 1.5540122 3.6890826
2.466289 3.5570419 3.6836236
7.2302709 0.81939876 3.6929224
4.0585833 0.88743085 3.6992204
8.9540892 2.61323 3.6915591
7.8273163 4.2299685 3.6926756
2.5104084 5.393805 3.6915677
-11.003261 5.5075455 3.692652
7.8061495 6.3042102 3.6970727
-10.410692 8.7702456 3.6964447
-5.1491733 3.5905101 3.7002828
7.7687645 6.5556383 3.7048392
11.041056 7.1849728 3.7015917
-5.1668692 7.4334822 3.7078273
7.3098555 7.5055275 3.7080088
7.2963538 8.6542645 3.7054496
0.7325207 9.9653282 3.7038791
-7.8658648 0.7680735 3.7180057
7.6689405 1.9217076 3.7103503
-6.9870248 2.5316818 3.7124434
7.493813 4.511817 3.7116859
-6.9751835 4.7115335 3.717299
7.3590593 5.2058697 3.7127209
7.4001799 5.6557178 3.7124076
1.8100849 6.7737899 3.7168958
-0.13754594 8.7721424 3.7162843
0.80025113 0.97391927 3.7200718
10.846519 3.1014819 3.7239895
-0.9521668 6.1524062 3.7270083
-6.9481049 6.5859923 3.7284098
-0.90512991 9.9121389 3.7224412
5.1557894 0.8793478 3.7364039
-5.2226429 1.0075184 3.7315788
-6.9285741 7.2029872 3.7364211
-1.4612479 7.3148403 3.7378826
-1.7845285 8.0782433 3.734714
8.5626659 0.61360455 3.7497838
-1.9437242 2.3100109 3.7410138
10.563184 2.3769567 3.7498808
-6.6699057 8.3236399 3.7452891
-5.2434964 9.3408785 3.7404609
9.3726292 9.809206 3.7455211
10.223146 2.3294389 3.7509398
11.573432 5.656662 3.7508793
-4.2692337 8.2083569 3.7501326
-7.5848927 8.3236399 3.7585273
-3.8104141 8.4097176 3.7563415
-9.4292717 9.6489954 3.7516472
-2.6645789 9.837677 3.7584476
-0.98562276 4.7094765 3.7629447
2.5146642 6.1946239 3.7624049
-5.047637 8.3236399 3.7684057
-7.560245 0.5558483 3.7768273
-6.8394504 5.9227176 3.772979
-1.8005478 6.8043194 3.7704422
10.287189 9.1283312 3.7724938
-9.406354 9.6544962 3.7766817
-10.623818 2.7986813 3.7885237
2.5033596 6.8579907 3.7844968
-1.4772677 6.9530554 3.7820711
10.637854 8.810154 3.7811639
4.5219393 10.038256 3.7845964
9.0700302 1.0754015 3.7954154
-1.0229994 4.6372514 3.7937005
-4.2320757 5.9668498 3.7951109
5.9326062 0.8871873 3.8067901
2.5943718 0.94621325 3.8035522
1.6294372 8.1824875 3.8021314
5.903779 10.049555 3.8058786
7.6907072 10.64726 3.8084898
1.2561688 0.9822666 3.8163621
-5.421288 9.38095 3.8161905
1.5794408 9.9635601 3.8198314
2.7303426 9.9908066 3.8190587
2.5408278 5.3671031 3.8288472
-5.5162277 1.6887391 3.8380027
-5.3188648 10.673042 3.8334692
6.6712189 0.56247145 3.8435261
-7.9236736 0.93840045 3.8453364
-10.871204 3.8181777 3.846843
-6.6088858 5.8144169 3.8417888
-1.5001671 6.9444256 3.8452358
9.740778 1.2778326 3.8556921
-0.69697827 2.2129383 3.8597116
-6.1917224 2.61323 3.8528247
-5.5805879 4.3130383 3.8501754
-6.5632887 7.2978506 3.8506098
-0.29509717 2.1671286 3.8652992
-6.5040627 8.1054649 3.862061
-10.505211 8.463048 3.8664832
1.9041462 8.9309998 3.8651586
-5.6483374 9.4848356 3.8629866
-5.7203836 0.82656896 3.8766129
8.9348383 1.0800538 3.8797443
-2.2729237 2.2990899 3.8796611
-6.4200082 7.1946759 3.8783209
-1.8855687 1.1058894 3.8800449
-5.7408376 1.3276858 3.8804822
-5.7551088 6.4681945 3.8831782
-6.4097948 6.553441 3.8802946
-1.5140008 6.724309 3.884505
-5.7822609 7.5543919 3.8883152
1.8126616 0.98548716 3.8921332
-0.27053788 2.15482 3.8925631
-6.3257542 6.2464352 3.8965497
-10.983972 6.2861853 3.8900347
-1.8575857 7.088706 3.8976564
1.9343101 7.2622156 3.8941488
-6.4636836 10.661065 3.8942645
-6.2985826 2.2790804 3.9014516
10.625305 2.3226712 3.9007063
-6.2903376 3.7618327 3.9015031
-6.1887827 4.3757114 3.902133
-5.8591146 4.3701258 3.9028492
-5.8957872 4.994009 3.9039545
10.950258 7.5591645 3.9065163
4.0652246 0.93545145 3.9140501
1.1827967 1.0091863 3.9188688
8.8215618 1.0569153 3.9102511
6.0807137 0.91411787 3.9251506
11.157761 4.4481716 3.9299319
0.7951535 9.9148626 3.9201703
-10.592783 2.8815427 3.9309549
-1.5280946 3.6455674 3.9302764
-4.591156 6.2551818 3.9393673
-0.51121616 9.8706884 3.9340024
10.423456 2.0195565 3.9496818
2.3371081 7.0777655 3.9478171
1.0590117 9.9165916 3.9485016
4.8581734 0.93365663 3.9517021
-1.8825562 4.3698249 3.9533491
11.025866 4.601006 3.9563732
-11.006289 5.5429349 3.9556017
-4.3708291 5.6377187 3.9595902
-4.7148972 6.3712101 3.9565382
-5.9848814 8.3236399 3.954664
2.1103699 8.9322252 3.9505167
-1.5333453 1.1154364 3.9688077
9.9613876 1.4267159 3.9674931
-8.0235214 9.9355898 3.9689035
2.0327129 9.9401007 3.9664078
7.3825903 0.52002114 3.9778681
5.1568747 0.94112235 3.9776154
-7.7531209 0.95542485 3.9746561
-0.62089527 2.1845646 3.9713576
4.3754573 0.94807202 3.9835229
2.4777849 2.4138794 3.9820731
-10.773455 3.7340837 3.9884524
2.105125 6.9224148 3.9890075
10.134017 1.5509504 3.9943104
-10.564177 2.9200387 3.9997864
-9.5392685 9.56392 3.9936049
-6.8045225 0.31701902 4.0001559
-7.2578621 0.67069769 4.0080791
3.6165967 0.96800846 4.0152559
-1.5767132 1.1294018 4.0138011
-10.942127 5.0246825 4.0151324
1.0560455 8.9026709 4.012866
8.0303555 0.86210603 4.0269508
8.1438293 0.94299811 4.0274696
8.4445248 1.0297428 4.0256596
10.808825 3.5938101 4.0228267
-1.9136796 7.7524629 4.0227652
-6.9253335 10.486317 4.0238786
-6.454957 10.656307 4.0227332
-9.082674 9.672657 4.0389414
7.0021348 10.146 4.0322785
-1.5626764 4.2120533 4.045166
7.535645 10.21367 4.0441637
-7.1585226 0.67686933 4.0530767
-0.74110508 2.1726453 4.0588703
-1.56362 4.256844 4.0583515
-4.8975682 4.4694228 4.0593648
2.6088791 7.6451092 4.0503378
7.8296056 10.130166 4.0550084
1.143519 1.0650905 4.0791178
10.594996 3.2192981 4.0768232
1.1114221 9.8747435 4.0700684
7.1370411 10.0409 4.0861306
-6.8287883 0.52506739 4.0974956
-10.180408 2.2073581 4.0980201
10.380152 2.6807246 4.0947237
-4.5083904 5.085042 4.090589
2.6673679 6.8899555 4.0945568
0.4177072 1.0968788 4.1005278
-3.645324 2.4215095 4.1002812
-1.3657404 9.778944 4.1075706
7.4797177 10.022384 4.1087546
5.2480283 9.9437265 4.1137271
-6.0791397 0.3605634 4.1272902
9.8277998 1.5689071 4.1215792
-1.9590164 3.4702563 4.1238818
10.80435 4.4910197 4.1250701
10.848811 4.7317638 4.1270337
-10.540129 7.4581232 4.1245012
6.0434933 0.9925912 4.134685
-1.5907524 3.0419736 4.140626
-10.570944 3.8661809 4.1440296
10.490089 7.6110482 4.1434417
9.876524 1.7845588 4.1508002
-1.2683973 9.7613354 4.1594725
6.6507435 9.9490519 4.1578908
-0.017287374 1.1368454 4.161068
9.7798157 1.6549898 4.1624756
-10.073194 8.9366894 4.1643181
6.4756761 9.9340696 4.1686563
7.5988684 9.9486418 4.1782627
-9.9003353 1.5798793 4.1854
10.316957 3.3335004 4.1878071
5.3793435 9.9194746 4.1817417
-9.8136301 2.3462305 4.1938882
4.2010574 1.0388316 4.2029777
-9.8833904 2.334024 4.205852
-4.9781632 3.8297226 4.2012501
9.647892 1.7353845 4.2195415
-9.8707247 2.2740474 4.2177811
-0.0075214095 9.7762175 4.2160192
-1.4698284 1.2095457 4.222261
-10.813379 4.5883956 4.221642
9.5939112 9.236846 4.2270079
-2.0951011 9.7033997 4.2238808
6.2939172 9.9119625 4.223824
-6.5712395 10.260756 4.2275085
-2.2266746 1.2419685 4.2318912
-2.6608906 1.25983 4.238378
-0.60220575 8.8096237 4.2329288
2.5450134 9.8414888 4.2383604
2.6076164 9.8435354 4.2380753
-6.597301 0.72150171 4.2445822
-8.0269461 2.61323 4.2417097
10.864358 5.7243533 4.2449217
9.5344381 9.2157001 4.2467718
9.5291309 9.2640724 4.2401695
-6.865602 10.078762 4.2540641
-5.9056549 10.30289 4.258996
7.7409954 1.0829191 4.2656598
9.8398008 8.1048527 4.2688036
-9.1982241 1.3742343 4.2712264
-10.345933 3.4137681 4.2736902
9.3973198 9.3141479 4.2700787
-9.8956413 8.9193439 4.2809091
-3.1330857 9.6485863 4.2811041
0.42458233 9.7604046 4.282692
7.4480314 9.8555603 4.2883973
9.9081564 7.3675823 4.2950706
-7.9009881 9.8331394 4.292922
3.8341098 9.8567219 4.2903562
-10.046423 8.9038677 4.3069677
9.6840448 7.7198272 4.3187037
-1.9246566 8.7769804 4.3155141
9.2880955 9.191864 4.3197145
-9.8824921 1.9985142 4.3241277
-9.9747562 2.7152746 4.3203707
0.46725941 9.7429705 4.3255558
-6.2804499 10.159925 4.3271255
-9.9708567 2.6654298 4.3356051
-1.6521653 3.606977 4.3332124
-1.5864859 8.4122572 4.3346729
-4.3272161 9.8504963 4.3306026
-5.1871305 9.9823227 4.3365984
-9.4211712 9.4659119 4.3494992
-8.0300665 9.7856531 4.3482308
-10.005884 1.9533631 4.3516822
8.2996502 9.715888 4.3509464
2.9035425 9.8049917 4.3511162
4.3130717 9.8320513 4.3592906
9.3060369 2.8210123 4.3654723
2.8370936 3.2455029 4.3681884
10.745422 6.5128455 4.3684678
5.7144241 9.8384695 4.3682103
2.6731653 7.6050892 4.3715367
2.6735752 7.6319628 4.3783894
-9.0016136 9.5647078 4.3760762
-2.8187165 9.6135902 4.3766284
3.8575914 9.8162241 4.3743424
-6.9060183 9.9555521 4.37675
-7.1411242 1.0285265 4.3819551
2.8107209 2.646193 4.3839459
9.1117821 2.7306728 4.390655
-9.8296957 8.9713631 4.4067717
-10.246462 2.4425328 4.4105687
8.8757954 9.0649271 4.4108505
-10.344335 2.6991491 4.4259086
6.6941748 1.1441764 4.4358501
-3.3635106 1.3073827 4.4322777
8.5717335 1.5523837 4.435698
-10.801837 6.3531828 4.4340429
-2.0963328 7.56566 4.4301443
8.3199596 9.6111908 4.4350119
0.75154769 9.6924963 4.4391804
3.6303415 9.7780056 4.4381456
-4.7197781 1.0755665 4.4434247
-5.6888676 0.97312838 4.4513063
0.71162409 2.0658634 4.4531732
8.435317 2.1016607 4.4585018
10.4907 4.2133989 4.4552374
-1.9022307 4.6444716 4.453393
10.592701 4.8845682 4.4561801
-10.849705 5.8374858 4.4531302
3.9808893 9.7770901 4.4502239
6.7546449 9.7763805 4.4596758
-6.2102327 9.9768648 4.4508514
-5.3911614 1.0116851 4.4698844
-1.9758117 6.315558 4.4600897
2.267067 8.8927069 4.4673052
7.8794413 9.6948843 4.4695277
-4.9000807 6.0515728 4.487916
-2.0395348 9.5796509 4.4845533
8.2910604 2.7155004 4.4967456
10.417267 6.3487415 4.4981351
-2.2402124 9.5648537 4.4999642
10.352134 4.3122039 4.5074229
-4.1094728 8.4584064 4.5079193
7.9762406 8.9674797 4.5052447
-6.3289456 9.9320974 4.5068669
-10.324049 8.3132114 4.5188255
7.8614221 1.4418331 4.520956
-0.55494928 2.0299337 4.5285516
-10.325167 3.2284625 4.5213122
8.8553867 3.8188775 4.5222106
-10.809524 6.274796 4.5216737
8.3017893 7.7966061 4.5289865
7.7811098 8.8574772 4.5268788
7.7475367 8.9187956 4.5277653
-8.2423687 9.6647177 4.5340257
-4.3870153 9.7704439 4.5379534
-4.9477072 5.292079 4.5470614
7.455893 9.5258284 4.5562258
-1.0745945 1.3701698 4.5673237
7.3174438 2.0373418 4.5675635
-4.9437203 8.2140093 4.5693426
-9.7600851 9.2607765 4.5667963
7.0191135 9.6883411 4.5638251
3.5354183 9.7082911 4.563868
-6.5597205 9.8690815 4.5647597
-2.1594298 6.8487124 4.5708723
8.2519455 7.3299899 4.5701866
7.5273709 8.189805 4.5780864
7.4014907 9.1770763 4.5702453
-9.8566284 9.2032137 4.5716257
-10.276477 7.3407736 4.5898981
1.4078443 9.6350775 4.5883336
-4.89781 9.8113251 4.5869503
2.6901937 8.2225513 4.5947943
7.2762675 9.270174 4.5954423
6.7312098 1.4041295 4.608613
7.1583977 1.5884135 4.60079
2.3578689 2.1577618 4.6018991
-9.8466978 8.320055 4.6065521
6.8230643 9.0876656 4.6018271
-2.1527653 9.5041561 4.6023788
0.53939146 2.0167956 4.6109276
-10.394695 2.7759528 4.6190748
-2.180594 4.1382136 4.6180754
-10.705826 6.9235272 4.6141224
0.13848424 8.9313021 4.6176271
5.524003 9.7080412 4.6152921
-7.2571211 9.7755051 4.6106806
6.5327034 1.4176788 4.6213765
6.3801026 1.9043291 4.6251831
1.912956 6.8233852 4.6221619
-2.099715 8.8568554 4.6273499
-3.5248241 1.3820517 4.6312008
6.4589758 1.486933 4.6341619
6.5485191 1.6741751 4.6327019
7.3331661 3.2233782 4.638783
7.3982139 3.2955883 4.6399965
9.9173565 6.372767 4.6360826
-4.5174441 9.733243 4.6390033
-5.8329329 9.8496408 4.6356883
-3.350507 1.4271659 4.6410542
-9.1702738 1.5296903 4.6458383
6.0506582 1.9296799 4.6447988
-10.162215 8.7663431 4.6429482
6.1259427 9.1712275 4.6420517
3.9139795 9.6507874 4.6499205
4.6491532 1.3033873 4.650979
2.652669 1.3210008 4.6508207
-1.2314605 1.9845579 4.6507783
1.6281992 2.0214622 4.657218
5.0623837 9.6062908 4.6528287
3.0463877 1.3494897 4.665041
4.4835377 1.368387 4.6687613
-10.414676 2.8853455 4.6678672
7.4224043 3.5721359 4.6617441
-5.0664406 5.4679117 4.6662588
1.8379425 6.7470608 4.6635208
-10.104927 8.8354712 4.6665845
-2.7855115 9.4469051 4.6687794
1.8885876 9.5563507 4.6639781
-0.99152797 9.0360718 4.6790333
4.9516072 9.5050964 4.6773138
3.2085872 9.5724821 4.6715569
1.2302127 1.4467726 4.6886683
5.4411025 1.5511767 4.6855335
-4.460422 2.5442879 4.6858044
6.2888694 2.9581206 4.68858
9.6390696 4.20719 4.6877813
7.0632958 7.4058495 4.6832604
5.8356791 8.4056768 4.6832457
5.4815831 8.754221 4.6863651
-2.3764789 8.9583731 4.6813092
-2.003253 9.4541092 4.6828899
-0.71881837 9.4790735 4.6823359
4.6661615 1.5858948 4.6985884
-2.3943694 1.9475498 4.6976118
4.4093056 2.0445704 4.6953325
6.1412106 2.926203 4.6959057
-1.7184368 9.4544315 4.6917062
-8.7207298 1.4583812 4.7099566
-10.111403 2.154279 4.7047787
8.4028292 3.9263284 4.7005124
9.6604099 4.7049432 4.7091618
7.4389558 7.1826582 4.706902
6.6242599 7.5299282 4.7028451
4.5766315 8.0899153 4.7028785
4.3664031 9.3971176 4.703836
0.98130858 9.4710617 4.7081175
-7.0816073 9.7373095 4.702147
5.1488428 2.496593 4.716629
-1.7693284 3.3697596 4.7137151
5.2321372 8.3816833 4.7148991
4.9081635 8.670229 4.7175956
5.015357 8.6873055 4.712616
1.9329351 9.0924931 4.7120628
-6.8546362 1.1967417 4.7296848
0.59379256 1.6980398 4.7282085
5.2526932 8.1947327 4.7279272
3.9137857 9.3580561 4.7203531
-1.045289 9.447463 4.727726
0.75198317 1.6619799 4.7396498
-6.4691067 9.7660141 4.7342491
6.4522772 3.5977044 4.744133
5.1299338 7.985487 4.7497969
5.0504208 8.0572844 4.7483568
2.8719525 8.7968597 4.7453842
-0.90504682 9.2123528 4.7479997
2.81517 9.3230495 4.7460732
1.7000725 1.4923234 4.758244
2.5630219 1.5609038 4.7583156
-10.842598 5.3755035 4.7582426
3.2710319 8.887043 4.7583475
-4.0068474 2.4057076 4.762291
4.7765183 3.8759007 4.7674036
9.3744564 4.7453542 4.7660131
4.7708678 7.7336221 4.7669239
2.9245315 8.651804 4.7672329
3.480967 8.9113579 4.7627692
-9.9185295 1.9275497 4.7785015
-10.365002 8.0925636 4.7748981
-4.0206671 9.5599699 4.7748027
-5.3119755 1.213797 4.789649
-0.29699934 1.5959413 4.7868433
-0.48065042 1.6062645 4.7862802
4.2353301 2.58253 4.7871895
3.6103203 8.3399677 4.7875929
2.7597795 2.9903026 4.799222
4.7910857 3.2951939 4.7925687
2.8750322 3.8297877 4.798583
4.7909546 4.4097204 4.7980032
4.9521952 5.6925025 4.7915907
5.8592434 7.3209119 4.7983131
3.988992 8.4019432 4.7956257
-2.0825262 9.2128849 4.7952027
-0.79141307 9.3731003 4.7978301
2.6505461 1.2577846 4.8000712
4.1554861 2.6509032 4.8042407
5.6463032 3.5956316 4.8043928
-5.2770791 6.3499017 4.8025999
2.1054769 9.3686342 4.8047857
-2.104718 9.383132 4.8030891
-4.8679771 1.2769614 4.8186841
-4.228724 1.4661164 4.8159227
3.4385247 1.7524263 4.8147264
-1.9278738 4.5036259 4.8180084
9.1739693 6.0072508 4.8112164
-3.8651292 9.3185892 4.8190651
-4.7772269 1.2929546 4.8271089
-3.7662935 2.2159491 4.8289347
-5.2157092 3.4303253 4.8229022
4.6438127 4.0915976 4.8228993
8.9720001 4.3830543 4.8267379
9.1398258 5.6740837 4.8294535
9.1661339 5.6760259 4.8243299
2.9168632 5.8922844 4.820066
8.9616184 6.7161741 4.8204784
4.7941871 6.9295845 4.8249192
-6.1276574 1.2268479 4.8440824
-4.3766265 1.403796 4.8449898
-2.5423188 1.6695874 4.843451
-9.5991869 1.758285 4.8402748
2.9448385 2.8760872 4.847496
8.8656321 4.3425665 4.844615
-10.801806 5.0502648 4.8444958
1.8669282 7.240756 4.8454223
3.278672 8.1499214 4.8436546
-3.7207613 2.1271882 4.8505707
2.8853459 4.5110769 4.8584442
4.8625646 5.0828066 4.8608551
4.1711249 7.4319 4.8632884
-4.2779255 9.2774401 4.861968
-4.4839969 9.4260006 4.8614917
2.2302859 1.0599806 4.8709297
-4.4089217 1.6578978 4.8790102
4.2833023 4.0107865 4.8737774
4.5563726 5.9181681 4.8707619
4.4307504 6.9585652 4.8789582
3.6723006 9.0092583 4.8774815
-8.9309301 1.6132026 4.895793
3.1230843 3.0465994 4.8964667
4.4712625 4.3536215 4.8980742
4.2622318 4.7329235 4.8920355
-7.4289346 1.3615987 4.9041643
1.0433856 1.6111561 4.9036746
3.7828445 8.7450733 4.9066792
-4.8169365 1.3786739 4.913208
3.9585042 4.2339315 4.9110012
-7.2783947 9.5822639 4.9198847
1.9790893 0.9004091 4.9207597
-10.194294 3.8472066 4.9251981
3.8547053 6.568851 4.9291949
4.6421247 3.8732657 4.9332542
3.7509713 6.8206396 4.9317346
-7.9954729 9.4786911 4.9364328
-10.439305 5.7839985 4.9430847
3.525321 7.2204084 4.9417949
3.3033481 7.5608664 4.9479971
-5.1127887 1.5561273 4.9543586
3.3392508 1.7062738 4.9526196
-10.823523 4.7155313 4.9550161
2.9749053 4.7568183 4.9549618
-10.353352 5.5659361 4.9587374
3.8404837 5.6364942 4.955245
1.7224085 0.73676622 4.9686055
-9.7419357 2.4505415 4.9682584
3.1035967 4.4286857 4.9631643
4.4135962 5.1695838 4.9658542
-10.0724 6.5748138 4.9605889
-2.1245949 7.7880187 4.9641228
-10.097981 8.6382408 4.9678035
-9.6834717 9.0287104 4.9629698
-6.3874402 9.6241074 4.967267
2.2200522 1.0137714 4.9765463
-7.1872902 9.5584288 4.976274
3.090486 5.3590426 4.982563
-9.8087158 6.5590296 4.9894915
-9.6086636 7.5872927 4.9832563
-5.4423919 1.5031765 4.9929061
-1.922101 1.7106005 4.9990911
8.1054544 5.2944093 4.9924741
-9.3903027 7.553328 4.9999752
-4.869226 8.3674507 4.9918561
1.5488815 10.267011 4.9922132
-9.2260523 1.8753712 5.0042372
-9.3306503 2.0302391 5.0037622
-9.2191963 2.8721404 5.0088277
4.6151881 4.650178 5.0064754
4.3519621 5.576313 5.0075045
4.3444629 5.6913519 5.0067635
7.885982 6.1042171 5.0083642
4.2867894 6.5770144 5.0020714
-9.4297409 7.0991068 5.009469
-1.8614024 7.2047391 5.0001764
-1.2251225 9.2458639 5.0038815
-2.383069 1.7304308 5.0112705
