# .PCD v0.7 - Point Cloud Data file format
VERSION 0.7
FIELDS x y z
SIZE 4 4 4
TYPE F F F
COUNT 1 1 1
WIDTH 1615
HEIGHT 1
VIEWPOINT 0 0 0 1 0 0 0
POINTS 1615
DATA ascii
21230.906 7878.3579 1777.9299
21025.008 8898.2588 6352.5366
1544.1201 3276.8691 2853.376
1584.4348 6044.4302 5391.3901
10681.323 8737.3389 2035.02
14014.35 4406.9097 1770.7003
1760.8359 10459.914 3362.0029
20295.285 4676.0381 1468.7726
16041.541 7104.1719 7796.5381
2133.5947 10263.961 2184.7422
7071.4136 1757.4987 6378.8149
19030.84 8944.5996 2371.7773
12373.165 10481.986 3906.0581
4020.73 6458.2686 3176.1946
1461.9734 3876.1511 5889.5322
-1283.4049 1316.78 3047.604
242.10715 5338.8442 3983.5503
5588.2949 4854.355 1306.2869
17050.316 3742.1147 7305.2939
3727.7988 6246.7305 1306.6392
12381.299 7731.9668 8232.9727
18205.371 1458.3413 4094.2546
9063.7324 6570.6816 4256.46
14369.125 5830.957 8211.9072
19393.658 9776.0215 3157.97
15831.58 5175.9521 1424.63
8500.7041 1110.5918 1380.5758
747.47906 4902.4443 1419.4993
2870.1042 6211.8066 4708.73
4118.2036 3329.4443 1291.8552
450.14392 6176.2144 4584.1899
11965.095 1491.1863 1770.7017
6694.6826 2224.7471 6099.0161
-2228.7224 5645.7617 4085.6458
1941.2351 5548.5137 1374.2937
12155.001 3346.6582 2035.02
-2580.2041 2917.9136 2710.4841
4043.9673 8944.5996 1810.228
13170.882 6005.124 2776.6101
12108.729 10372.746 5784.4707
2031.3774 4864.3608 4171.4644
1483.3879 3659.0828 5880.3809
12248.729 1058.5763 4931.4131
19347.479 10509.223 3303.0869
270.43866 3319.5811 3981.3159
15074.094 3159.0381 1915.2946
22000.023 7071.0327 6381.4253
1794.8959 8103.6489 4808.6436
20496.961 9882.8164 6132.3315
15130.595 8297.4141 5503.3433
9109.4609 3128.4307 7728.8369
19519.854 2319.8486 1662.0325
5605.9854 1076.3296 3460.061
-399.39853 4785.3252 1462.9298
11886.736 5937.0137 8334.9873
11019.751 3507.6013 8196.2598
18243.09 6055.2598 1769.8242
3533.8457 9742.4141 1497.834
5424.1353 6800.7402 1303.4667
8132.7734 10488.888 3569.2676
1368.108 10414.738 1918.2
17225.486 2957.6785 7156.3818
10930.778 10024.707 2336.9321
19591.016 1089.0934 1639.4713
6147.7876 10475.121 3216.4299
12921.825 7548.3721 1432.2667
19481.338 9047.0615 2660.6331
-646.81372 7538.4014 2822.7048
-1468.7677 2059.5134 1464.27
8475.3057 8963.126 5958.1318
584.61945 10165.072 1085.7067
7931.3442 9665.1182 6048.9434
15054.889 10857.469 3336.6499
12669.18 2282.9353 1429.9824
-1186.4381 9836.1953 4392.4189
-2735.3911 8496.4082 3439.8599
1045.6492 11197.816 2578.9692
-2254.7339 5694.4858 4521.2002
14042.71 9369.9248 1455.7767
4492.314 3759.4937 2225.449
4625.189 880.14502 2353.0601
987.17249 1990.7598 4103.2061
3018.8369 2619.1699 3127.6821
13978.552 9907.2168 1460.6616
17995.176 2619.1699 3529.8276
15803.269 6572.126 7931.8315
10711.721 7573.4277 8204.0234
1466.7209 6365.5083 5961.5557
-1398.54 4463.7109 2884.7676
3552.8442 2058.3933 4137.3237
-733.41583 8794.9746 5238.5854
18673.742 10728.182 4667.4917
20115.402 10553.197 4708.1738
16392.674 8168.4585 6319.2993
13325.509 1611.1941 1449.4949
8925.0801 5589.7305 4256.46
3946.9897 8013.5908 1678.6509
9607.7188 8924.6309 7935.5518
-2175.249 6010.5186 3943.6797
12675.695 5012.5098 2086.5791
-2079.7217 5180.8101 5258.0195
6324.0674 9565.1807 2160.4028
6261.5176 3046.5608 4181.1104
15188.282 2272.8328 3366.1255
22239.623 2663.147 1944.1877
-444.53915 10389.644 4234.4951
5985.3433 9716.5332 2617.3098
11653.421 1043.426 5096.6035
9190.791 1094.859 1408.7512
10718.021 8628.8682 2228.6223
17095.773 2096.7651 6928.9395
2302.8892 1448.5627 2226.3306
10050.572 9306.7412 2035.02
17811.824 6907.7363 1349.6414
14834.619 3644.9031 3922.0278
15786.44 7985.1152 1915.24
5735.687 2438.3181 6027.0835
2040.6096 10527.172 840.47534
23317.43 7295.9863 2771.6421
19144.467 1744.8489 6041.0044
10016.517 2497.6516 2035.02
-2210.4536 3717.9634 3986.8
14515.068 6880.5146 1459.6365
8369.5859 2136.8535 6307.1162
16073.764 2619.1699 2487.8706
12731.64 1072.3328 4715.4209
16148.162 1478.3 2280.5867
22430.307 2511.4788 4727.9307
1994.9202 2354.426 845.99622
9467.2812 10527.162 1725.6354
16020.513 6960.7856 7728.0703
-38.217117 5290.1851 4708.73
-350.32742 7098.5957 2571.4817
-1551.13 5710.3867 2099.1165
9531.4941 3344.301 7972.022
3231.7668 6707.5767 4294.2739
21847.924 1785.0353 1807.4833
14887.665 2618.1777 4086.4338
-2115.6426 4395.6772 1464.27
9830.7979 2258.4573 7783.6553
-2338.0259 7409.5142 2403.3518
-1107.4332 1784.7002 3761.8003
18119.115 9925.79 2186.3186
14790.923 9311.25 5375.1572
15924.146 1267.9296 4285.876
2613.3726 9695.7715 3150.2983
4958.3379 6032.9331 2955.5474
431.25339 2162.7876 4041.5693
12135.802 2946.0215 1418.7639
15325.875 7738.3833 1915.24
12764.53 1525.5076 2146.6614
10148.478 10533.614 4908.7236
9688.0771 6224.7534 3852.1169
0.44042927 1843.7987 2048.4243
9359.8604 6655.3501 3297.9285
21179.027 5131.2588 1868.23
14309.884 804.31384 3671.1746
949.93152 6329.751 5893.998
7130.4204 6884.4707 1332.7783
21979.719 4943.3262 6385.3354
847.20038 8081.1074 4110.6523
14415.365 1451.2704 3759.9805
12644.822 9689.5029 7000.8438
20444.258 2186.2969 1507.3413
9783.8428 5012.5098 3134.7903
2398.8413 10178.87 828.62238
13032.823 5534.6108 1911.4448
7810.7451 683.4953 6119.6685
16904.076 6444.7578 7405.7119
11681.318 1044.7734 1471.0288
6281.0571 2296.0684 4206.5117
4464.1592 2562.916 1287.2507
16498.08 1311.2677 889.08179
-602.67657 3696.9495 2609.9993
18153.043 1858.2311 4229.2451
21356.562 4678.353 1777.9299
1553.9536 10579.373 3189.873
17030.297 5223.0645 7365.9106
-154.81693 1761.863 2978.1392
5708.9497 6229.9414 1308.3596
4420.5039 1021.2332 4612.1714
6664.3618 2743.9128 4302.8276
16667.258 5143.5156 6327.3071
8494.0352 7433.6816 1356.2034
13616.037 1075.6013 4615.377
12482.159 5322.7461 1424.7139
2140.7808 9548.0342 5638.251
955.70471 3645.5381 2603.9749
8551.1885 7602.832 7366.3428
17233.062 6638.6523 6345.4102
4242.2544 10190.803 5651.4478
19332.754 2097.0833 3349.3591
507.75717 8944.5996 2053.9165
6456.582 8754.0342 6036.3916
1748.5139 8944.5996 3836.1763
11934.458 7444.0757 1415.3051
3256.4192 8153.4023 1969.2839
526.45044 1639.0312 2369.7427
3667.0278 1546.9495 4018.9194
13739.805 8307.6191 1446.3184
2720.3696 6200.0591 1567.27
-2337.3037 3317.8594 3704.8281
9369.1836 10251.807 1382.1166
22510.352 8249.2637 5446.3662
8344.2812 1612.1053 6360.0454
20666.102 6030.7749 6497.6841
17268.863 6448.5771 6348.0137
9114.501 8493.2998 7704.8965
3097.1558 9796.3945 4064.7231
15756.685 851.95203 3772.0493
18820.449 10071.307 4087.5352
2357.8052 9866.1982 1952.9128
4879.4038 830.04504 3019.8535
8559.6738 4409.0269 7385.0332
15152.633 9259.8633 6457.9116
17473.074 9411.2236 739.94006
3984.301 2045.0974 3591.5439
16345.645 9710.3867 6600.7715
15218.782 2444.5579 1915.2954
23275.016 7450.791 4164.8335
9943.4121 3084.3293 5340.2222
4046.7444 10507.976 5261.4678
7581.1416 812.16504 2550.6392
9653.6445 2299.5442 2035.02
12688.101 5079.957 8304.6982
10693.673 4608.3633 2602.1384
17119.51 1299.0422 5898.79
16442.242 5278.356 6320.1079
11115.356 10609.818 2058.4424
1855.6003 10825.533 4360.2607
18615.014 8067.6846 1319.2258
18222.16 2619.1699 3873.2925
5393.1226 3757.2625 5966.4707
16499.59 4042.3135 7510.7227
-253.41798 6156.9058 4584.1899
-1368.16 4338.5215 3586.7754
17828.986 8944.5996 1402.075
11372.852 10524.564 5113.6929
6550.3818 9465.0537 1325.3594
11232.65 3741.4126 2035.02
12832.294 10303.943 5938.2212
15414.26 8944.5996 1760.8912
11772.094 5662.2432 8336.9531
4873.5425 1606.6708 5774.4043
10412.224 2732.1184 8026.7642
9447.0332 8920.9736 1372.5745
-1277.87 9481.373 1941.416
14893.175 5273.3809 8137.415
9053.5312 4057.6426 4964.6768
15506.824 4069.8013 7947.9111
23374.121 5972.4072 2719.8232
-198.30988 9512.2236 2785.7571
17809.037 7886.7642 1349.7468
15418.16 2883.8708 7859.001
1121.1021 3978.5015 5112.502
16195.456 10574.611 2381.4329
16003.26 9918.5713 978.54614
15856.9 7999.915 3676.0051
-2485.1763 6613.1113 1869.1072
6524.3906 10534.76 4187.29
14335.959 2317.4788 5190.1182
5938.2129 8540.1191 3197.4971
12976.639 9656.2568 7067.521
10671.846 9077.3857 8004.1973
3565.7388 8512.833 2508.3433
22795.297 6931.1152 2452.4299
15946.805 10580.172 1101.0198
17030.557 6567.1318 7360.6064
-509.02036 10687.563 2322.1777
-310.51013 2619.1699 1466.0931
12137.765 9204.2959 7967.3965
-420.31189 9406.3799 1545.1653
-385.97717 10180.757 4938.3975
14379.973 3019.6917 5353.4775
1689.5718 838.2771 5021.0391
1449.2771 3882.0442 5129.8501
21748.961 5795.2227 1777.9299
4257.9072 8385.3555 1994.0707
15607.33 5697.8066 8015.3252
12055.762 7249.2061 2085.8201
12550.76 8220.79 2481.0547
2247.8516 3344.8557 2129.9111
22010.342 9399.9004 6231.6084
1259.9974 2308.0212 794.18872
3024.0339 9161.1572 4213.6694
6017.5767 10837.232 2877.7566
3852.6196 7830.4214 1726.5403
5356.0718 10111.239 5752.0977
9938.8506 5977.5415 1381.0232
-2260.9529 7906.9121 4607.1001
8535.5635 7306.0024 5931.5195
6136.3506 998.69214 5121.7451
7146.1572 8025.0972 1333.0486
1273.9788 8307.3965 2840.8574
15450.725 2619.1699 1632.7567
10781.867 8842.458 1395.5051
4272.6919 9003.7969 5986.4141
17536.914 4509.6309 1360.0516
-2470.6172 5163.1353 3738.3892
4655.208 9457.125 1292.7642
8391.3672 2792.5081 7172.4609
11153.74 4384.9297 2085.8201
22059.613 2003.2595 6055.1753
8903.1074 9698.7461 5639.1562
9556.0127 3256.1055 7972.2705
2896.4797 4625.7466 6051.4536
1136.2646 11149.713 2100.0486
-2215.3887 4573.8491 1464.27
13863.979 4601.8345 8196.5342
9049.833 813.76495 2613.2388
20771.549 7617.3452 6488.0825
18357.693 10194.544 5846.8687
14804.543 9288.5547 3953.7942
12219.651 10516.473 5370.6328
12485.823 9249.377 7937.0908
17015.67 10023.6 1485.6592
10671.466 3748.3135 2035.02
14021.931 1649.6324 6673.7861
4520.9863 7979.207 1999.0526
-2072.6416 4807.0029 5223.5703
-1130.1328 5627.1968 4950.6631
8376.2246 6427.8076 7306.8662
219.0882 4496.0444 2050.0642
1016.1557 8147.7749 2176.8555
3173.6265 2881.9927 2841.1777
14346.701 3620.7886 2725.6587
8995.8486 4462.209 4892.7397
19747.473 3638.5596 1343.0854
15257.256 5758.3828 2211.1372
9115.3311 6783.9541 1366.8763
17482.238 8944.5996 3682.9971
21883.93 4020.0149 6391.0996
5128.3828 4043.9292 1298.3861
13042.992 874.06287 2348.801
1538.6941 4507.8491 4441.0498
3431.2314 8251.3105 2315.876
15069.713 8892.3369 7906.9932
19553.814 721.54773 3242.8977
14863.503 9613.8174 1904.0052
10274.801 4137.0493 2035.02
19526.688 9215.9521 1484.7504
22110.199 8172.4888 2231.375
21951.324 9177.2793 6308.4277
22577.311 2826.5488 2452.4299
14427.488 7017.9717 1888.7422
7444.8555 10150.755 1345.8481
-2172.8594 3974.4282 3743.8186
18998.125 2153.4446 1920.9565
1559.3174 1491.5974 2800.2683
1664.3301 8470.9199 2248.1731
6035.9136 3026.959 6106.77
17293.705 9588.9922 727.45837
4692.2603 1014.0095 4672.2295
-248.12524 8011.5649 3599.4436
12689.15 6550.0029 2429.061
12076.918 1776.9659 6796.8926
-502.83987 6606.8945 4159.229
414.99103 8477.8174 5680.5342
2121.7271 8212.7129 1949.4634
7766.043 4225.0835 6939.48
14337.113 9014.6553 1770.7
8626.8135 1026.1399 4679.1436
9405.4121 9037.9043 7896.9038
10079.998 9380.6172 7776.5483
5121.5713 1533.4813 1303.5789
23486.109 4488.0059 3950.6042
9430.0918 9070.7598 2035.02
17634.068 3109.7859 7043.1133
3794.6172 3983.4927 2143.7173
10637.889 10515.471 4685.4658
15856.9 5292.1436 5085.748
8292.0078 9632.5371 1770.7172
14427.464 7877.6807 1865.7566
19044.816 2233.5713 1689.1086
16550.941 10117.061 865.39636
-1996.601 2379.3613 1861.2198
9351.9473 3299.2432 1370.941
132.39235 817.93518 4177.8188
14441.24 4384.8862 1915.29
14741.085 7605.2295 4327.8174
11505.225 10482.209 3909.8135
11748.29 9311.25 2355.1807
4169.3999 4787.4155 2826.2014
19965.654 8684.4521 6416.0312
2239.7913 8577.7129 5948.0146
3251.4231 759.81659 1171.3405
78.093811 3329.2363 5647.9492
9303.1924 6139.2607 5438.6812
537.39624 6267.4839 1427.455
10465.658 3215.1411 1390.0731
5993.0474 9862.4404 3753.6418
16824.91 5761.9824 1387.0142
19404.668 7201.4785 6603.1606
19404.389 10385.824 3124.251
18347.92 6530.9136 6383.5835
2226.5938 6762.3706 4114.7056
7721.1787 7044.4253 6921.5068
12839.508 8689.6846 2035.02
8412.8994 2795.7776 7185.5278
8890.9854 7669.1387 1363.0225
14123.667 738.15179 2964.9207
-2149.4824 5930.2104 1464.27
1355.9354 10256.473 3743.7339
13375.726 6620.6421 1440.064
26.589966 3862.4875 3090.0952
10168.01 9974.9648 1909.1814
15258.689 9310.6992 2836.1909
21174.309 6302.3599 1836.9988
2864.3857 1192.2583 4407.6904
-1095.811 6283.8882 5547.3975
9531.6162 10312.033 5765.626
7812.1533 991.90051 5070.0889
18349.457 10665.098 4943.0547
17569.361 8944.5996 3350.738
19233.172 1908.2083 2065.0181
19011.955 741.60425 3888.9463
11851.226 6035.5186 8329.5312
-1368.16 6955.7686 2903.4277
11651.202 10505.049 4761.4336
4912.7207 1777.4958 1298.7976
16072.6 8211.7129 1415.5031
14829.849 741.30127 2801.2014
11597.335 1762.0375 1416.9021
6154.5601 3589.9087 2351.7185
14167.116 9633.8389 4523.4829
-557.27533 4274.8638 4743.4736
13062.64 9360.083 7837.7642
15856.9 7253.9097 4936.6235
-2118.7878 3117.9441 3735.1086
12472.849 8014.2749 2486.7
16244.969 2315.7239 4159.2886
13193.027 9491.0889 2603.4734
18364.26 10602.428 3914.437
13875.121 7436.9365 8169.1807
15856.9 4004.7427 1934.9147
-9.5023193 7548.2378 2838.8525
19960.311 1003.0072 1994.3652
9701.7021 6382.7324 1884.7998
12461.951 7308.6611 1424.3667
11999.984 3753.9321 8225.0566
10488.07 1027.5555 5061.1318
13767.588 6611.2734 2026.7017
19041.916 2619.1699 1805.3037
13409.923 2088.6653 7418.0557
4043.96 5264.1514 1785.5636
3007.0437 1074.5322 882.90283
3998.0107 693.64246 3687.1365
53.657379 5583.6514 4584.1899
13658.467 5796.4409 2725.3091
21463.145 10379.511 5654.3589
14130.555 8268.124 1453.031
2598.2046 3725.7358 1349.4152
-1062.3878 7639.8198 4451.7368
21039.916 2244.5073 1628.916
6453.5742 8187.4766 6133.4932
14921.513 8812.0566 4195.0742
-30.954641 10420.263 4708.2949
5973.084 3802.5872 2636.5505
12636.463 1255.542 1441.168
4607.7969 8297.4541 6096.7817
14845.549 4147.769 4144.5815
8779.5947 5012.5098 2541.1909
11840.387 10374.957 5766.4824
13921.705 4847.1079 8204.7188
8191.542 5656.7114 2460.6699
2275.9089 10133.34 2370.9688
-633.63861 6741.5239 4101.8862
16493.646 1478.3 3592.7642
4091.5625 6014.3848 3869.647
2885.3115 9430.8789 1011.6318
8782.9375 2297.1646 7541.354
883.41339 5816.7051 5920.3867
6634.5806 5767.5181 2696.6074
14899.827 1994.7812 7252.8525
14307.09 4048.4299 4447.8843
22612.371 3820.9053 5499.2529
7332.4038 1062.7133 3848.6394
18591.232 4699.2183 6385.3032
18421.398 909.64661 2226.4536
4954.3789 6434.5664 1295.397
8469.5205 873.86487 2358.5464
1665.1492 3528.8965 2408.3069
14218.974 1821.5571 7023.8818
6713.3555 10553.996 5200.855
2168.4727 859.46899 4111.4658
21405.072 5056.5435 1777.9299
18078.188 10434.994 2238.2178
7012.8623 10560.134 3151.8218
20913.938 2968.1782 6359.0239
17298.889 851.95203 649.37335
10820.572 1075.6035 5502.0254
12457.074 6120.8789 1424.283
1679.3993 2619.1699 3223.8257
3933.5437 3109.498 6071.7256
23075.979 8553.5869 2713.0093
2734.5566 8117.1118 4082.8237
18133.455 2619.1699 1998.4861
6055.9502 5012.5098 3000.8994
22906.111 1811.4111 3379.4058
6478.7261 2088.7998 5997.8501
9218.9141 3060.4424 1368.6558
20952.475 9078.4072 6368.377
18154.742 8965.2939 4538.7026
-572.31433 1593.2944 5034.248
3077.2505 2613.6951 5896.7612
12425.526 3704.8362 1423.7411
14569.933 2086.3384 7460.5254
4181.0962 8121.8916 1820.4087
544.75671 8944.5996 2570.6472
-1543.0371 4814.5234 3495.8667
4431.6099 4746.9868 2059.4673
22955.465 5929.6201 4924.3936
14762.727 7605.2295 4483.8159
12660.76 8379.7236 1770.728
2581.4746 1280.963 4341.7183
15803.644 1631.0204 6297.0049
17395.213 1061.6749 4059.1902
19225.727 5189.2593 1296.099
930.52319 6734.813 4708.7305
19315.488 9872.9043 6011.9507
-1923.9983 2949.9258 4905.8135
7475.6299 4421.1519 6781.6255
8738.2266 6805.1191 5795.8208
23180.457 5031.2349 2452.4299
12225.307 985.59802 1768.5802
16810.551 9453.165 7006.6641
15627.359 1118.1415 5648.8232
21970.129 2624.1169 2452.4302
20404.584 7201.1265 1487.3408
722.17139 5739.2158 5391.3901
22565.578 3969.3835 5895.6855
-2420.7917 8916.4512 2477.6257
-1986.7286 6251.3677 3888.4233
17563.758 4901.3154 7191.0264
-1215.4829 7517.7749 1464.27
6753.6621 5011.7061 6387.4277
5747.6675 2219.186 1310.9807
-1732.556 9709.959 1464.27
19156.268 1057.7307 1885.6576
257.65869 7616.0811 1438.0481
19359.842 8944.5996 2622.4827
1345.0792 2619.1699 3763.1934
8888.1191 2531.2935 1363.4028
13916.682 8826.8779 1770.7006
2860.019 4811.2139 4708.73
12193.875 7789.3882 2035.02
17290.641 10144.096 6063.127
6486.8057 4657.5903 6045.0923
11719.723 2045.0488 1770.6952
22783.389 7082.8594 4836.7383
11390.018 8526.499 1405.9524
19767.352 830.46149 3975.5735
8178.375 4068.6333 4430.1328
1971.7483 1591.8605 3435.6724
2601.5452 765.05762 4242.4707
4434.9512 10262.064 5634.8394
3040.2256 9550.1533 4500.3452
3999.0232 1212.7615 3566.853
17542.105 1062.5411 5430.1309
-3107.1348 5012.2231 3354.2932
19652.568 4874.2935 6669.5762
5411.7461 1886.624 5878.3828
-1325.6431 9136.5635 4499.1807
2415.0852 4655.5938 4708.73
22472.598 9161.2988 1644.1921
10086.714 5180.5864 1383.5634
7137.2275 4679.5454 6596.7969
-2274.582 3318.3313 4601.3867
9116.5156 2670.1306 5047.3721
19315.293 1752.22 6043.6377
8927.4316 8334.5391 5603.1162
8969.1387 6655.3501 3926.1472
2978.363 5249.4434 1567.27
13831.404 9098.0234 4054.9185
17173.977 8091.9976 7226.999
12302.866 3803.3462 8230.0801
8236.1836 4985.6689 6021.6782
20668.803 6056.1367 1527.554
13478.746 2884.1406 2974.1741
14518.795 1437.8571 3434.6462
-2236.28 6505.376 4172.314
18801.02 5442.5005 1312.182
20065.047 1024.7922 4776.1094
21862.336 10364.673 4852.0854
18970.727 5372.7319 6699.2598
11853.783 1756.5303 2085.8201
11920.136 10486.987 4322.293
793.42157 6297.0522 4708.73
709.08441 7550.4023 2842.4053
8455.5625 2610.748 5648.21
17925.176 6088.7124 7106.6245
16552.846 901.17554 1022.6266
8128.8193 2196.533 1351.9966
12533.43 7355.2734 1425.5946
3252.0833 8045.8228 3655.6802
7433.1523 6151.2373 6237.6924
16752.709 2161.5986 7046.2456
14400.024 3947.5996 2850.5117
18283.309 9925.79 2988.856
-191.47464 7516.9141 5715.1729
1256.6259 3618.5669 1400.2188
6074.7021 9715.4199 2477.0591
17542.895 10181.6 3064.8689
13069.045 3429.9529 1434.7958
1701.0608 6264.4141 5993.2065
-2049.4785 8381.1387 3973.6733
-2615.0029 2808.6152 3492.7085
21852.258 5213.458 6400.0527
9409.3369 2126.0476 1374.3386
2559.8535 1230.7898 3114.8506
9524.0723 4146.6953 2035.02
18089.891 8944.5996 3966.6699
17624.248 8743.7441 1356.7445
7979.7563 11280.911 6496.3433
20605.863 6832.3159 1518.4778
4718.2954 7842.0688 6146.0698
16547.432 10660.252 5060.6602
-67.86792 6489.1396 4447.2905
15856.9 2120.313 2311.0542
19392.111 10610.493 4637.5996
8392.1406 8286.1973 1354.453
4196.6831 2619.1699 2372.5117
10000.064 9974.9639 1897.1172
7261.0225 3437.2063 4353.9209
7023.4883 10841.104 2938.1934
19087.777 902.82593 2954.2373
13361.314 9381.1055 1770.7209
4851.4351 3971.0686 6177.6147
4095.7043 6325.6636 1728.9941
9782.5723 10505.327 4245.7363
10956.039 5370.9146 3510.7346
3360.1509 7403.0527 5180.021
17568.189 10552.516 4432.8203
3002.0068 3785.0679 2279.197
17390.684 1277.0647 3766.8315
18423.561 4619.4551 6875.0654
4977.4775 9528.915 5870.4888
15072.133 8914.2715 1453.3892
2734.9026 9960.0967 5629.1758
-1291.86 5571.998 4397.9268
1018.9196 1377.8569 4165.4175
9372.6172 3474.7859 6532.8184
11632.283 10520.217 5066.7559
3658.9736 4220.3589 4876.0962
1079.439 9377.5049 4516.5044
3885.0823 5339.9146 1567.27
9161.7822 5788.6206 7964.1797
1150.786 10669.214 4296.2905
3076.0488 9221.0508 983.71741
15079.199 1751.9185 4310.103
22982.135 2613.1934 2642.3657
19778.004 1584.9695 6023.5762
1207.2964 2619.1699 2775.1729
22197.9 4744.5884 1995.0658
7767.9619 1016.2225 6092.1987
13639.234 7605.23 2881.0774
7215.3345 6719.2695 1770.6711
18439.504 10517.817 5176.3398
22604.281 3967.6277 5749.5864
5504.7729 2667.3191 1304.8519
3961.9604 5367.9849 1567.27
8628.5576 9174.2461 1770.7317
15633.606 10128.069 6048.2944
18491.879 922.44818 2210.5547
1258.4597 3476.7097 3723.3774
18479.766 3048.3052 6651.5518
-2919.9805 7204.8882 3559.9951
3739.3237 9406.4863 2256.8623
3454.7036 6171.9238 5399.8037
15305.154 3903.2681 1915.2961
7959.3057 1563.9913 6047.7954
13769.711 9418.9414 7521.166
-2195.9846 3377.7666 4714.8911
9057.6104 3318.3149 1978.2823
9864.207 4866.0767 8118.8228
13431.938 4331.3374 2530.0781
9590.1211 10688.673 2408.1165
-343.59552 10182.91 4957.3716
13969.598 3119.491 4324.5312
14509.544 9387.5137 1464.321
8814.9062 1488.41 5618.5303
8606.6123 4851.3428 7424.6963
-1219.49 5726.2217 4707.3936
15799.686 8978.2783 1915.24
7561.2139 1043.5017 6483.2969
4117.8809 4277.4995 2574.8335
15371.58 1062.222 5561.7646
9931.4912 6360.2202 1580.9609
6144.3184 759.02814 2965.8643
13422.385 1676.0311 1770.7114
13168.545 9129.0547 2035.02
-1818.6428 2045.7679 1464.27
4284.3315 2189.6023 2074.3181
6455.7783 2149.7866 2081.7222
270.10516 4520.6519 2009.6699
-926.88794 6251.9834 4462.3516
15856.9 3339.6628 3547.1936
6407.0122 9645.4863 2110.8564
-1916.0466 6113.5093 1464.27
17481.258 10126.568 6088.7725
2558.8433 5078.0586 1580.0875
10605.659 10501.444 4398.333
8151.4507 3868.8396 6268.0688
4280.5615 1651.1107 2172.0303
7783.7549 863.65485 2363.8696
-2217.1936 4234.6548 4072.6997
16255.652 4413.2949 7595.8286
13788.387 7015.7402 3561.2109
5564.1274 988.92096 4875.2251
18283.625 10258.125 1034.8091
3547.9014 10454.707 4142.4492
17391.734 1035.0424 4002.5566
15957.994 10306.389 5827.416
627.21057 4901.1465 4708.73
21781.494 10456.35 3895.6626
15016.214 717.55042 2905.3962
22008.109 9621.7695 1984.2003
13867.822 1999.238 7285.2314
8633.5117 3187.9417 4608.125
2498.7002 9344.0146 862.7323
21116.154 4843.0483 1600.1368
18110.023 10452.316 1461.2167
17784.199 1085.1178 631.34692
15919.39 1054.1919 2066.9507
15494.576 5116.1494 2108.772
7838.0698 8218.1699 4397.9541
12502.315 5012.5098 2272.6211
19881.705 10572.844 2022.3074
8378.7207 4106.1777 5648.2095
17795.334 1528.1815 4285.2861
17285.283 4746.541 6344.4199
14413.131 6717.9209 3181.4839
2089.8816 4468.5703 2095.1655
2540.9067 1345.5623 2689.6201
10425.936 2594.1318 8015.1138
6837.1777 3755.2244 1327.7408
1533.7439 4630.2334 4847.6875
10349.03 8919.2822 8011.5483
5615.5332 6285.0181 1776.1445
10289 5861.9971 3602.5913
22318.57 1205.5417 3378.9233
18021.959 5960.3867 1556.1033
-1145.0209 3299.207 5335.627
9347.5342 3031.427 6470.9907
8773.1953 4053.9495 4696.8179
11143.883 3469.04 2035.02
-1368.1599 6788.332 2282.6265
1044.6086 8944.5996 3076.1509
14863.461 9080.2266 1903.7755
103.80067 690.35291 3749.2551
15030.477 4345.2617 4645.0527
9161.834 6369.54 4256.46
8431.6738 3892.5391 4511.5693
16242.652 2133.4985 837.75159
15293.552 3926.0144 1445.0044
15230.202 10513.708 3454.7783
22606.754 7951.1729 5195.541
17131.609 1388.9886 6008.1108
11907.729 4048.4302 2384.6943
16604.311 1382.02 2725.991
21678.73 8896.5781 2452.4299
19359.354 6534.9302 6616.7046
15160.301 8204.7666 5350.3613
12462.532 924.60205 2105.4924
19696.906 8550.1963 1329.1606
8051.5176 1393.9827 5952.9517
2423.3308 740.82526 3961.6509
8919.9775 10496.679 3833.6445
9660.1572 1810.0576 6840.084
-428.8519 815.44202 2568.4419
7131.2031 5337.4927 2501.0044
5911.4141 8355.1631 2733.3428
8220.6846 4634.8711 7204.9668
12684.289 3359.5361 1770.6934
-1421.5117 2538.6323 1464.27
2670.3689 6523.9883 6057.999
-3093.7573 5892.2153 2744.5969
8314.1582 1574.1704 1770.6702
7138.3369 7379.3413 6590.3604
-2302.5908 8697.4844 2007.0145
8296.2432 3762.7769 1352.8055
20918.078 7559.2988 1574.5764
-365.22134 809.34851 3504.3643
-1.2082214 4927.7446 1447.8511
17126.9 5455.4092 7337.436
16313.438 10426.494 3803.521
22386.799 1280.3263 2518.2014
13108.275 6444.8506 1435.4697
17689.477 2619.1699 1635.8535
95.028168 5337.4141 5898.5396
6128 10492.853 3494.2104
-1419.6716 9493.9492 4737.7339
22499.199 6468.2598 6294.2852
9481.9229 7299.7822 1373.1738
1962.4696 1489.3014 1839.4075
16845.662 2619.1699 3010.7053
-226.14883 894.63232 2630.1875
-225.21237 5141.8755 1456.3337
11826.21 5029.4453 2902.0254
991.15936 5376.2412 1410.2716
9057.6104 3711.1411 2033.3898
21901.852 8040.2402 1788.9569
20891.211 3149.5293 6388.0688
17453.648 968.73859 4006.2888
189.14195 5282.6855 4708.73
-1012.3749 5492.9663 4873.4927
14002.979 4048.4302 3365.196
-27.67572 8354.0342 4633.3018
9012.5547 2831.6917 4910.8501
19470.104 9653.3994 6198.4531
-58.550827 5894.8301 4813.6499
-3098.8616 5854.5786 2680.9609
10032.589 9157.4502 7884.624
104.85181 7768.5664 5709.7119
8079.394 941.68909 2083.9285
15021.467 9725.9873 4991.8574
17613.062 1915.9755 6504.6016
638.46429 10798.482 4243.1885
2156.0955 9373.6953 586.44897
16481.98 9875.0723 3051.8455
20603.969 2667.5774 1534.5424
14638.703 6062.1333 2211.1284
17065.738 3152.9067 1377.8944
13195.124 758.53503 3107.2866
14572.188 8144.793 1915.24
14642.631 3241.8091 5680.1904
15856.9 2331.1267 5021.5864
9768.9346 1271.9447 5805.3447
-792.56818 3377.1787 5465.8892
6095.9106 7454.1577 1315.0068
23337.379 7051.6421 4158.4648
10646.431 3947.6548 8193.9619
15856.9 5196.2539 5991.2964
4747.2119 6463.2383 2773.0081
6639.1982 4495.0444 4300.6724
22137.102 2039.0967 5190.2798
15856.9 3726.2188 2325.2107
1489.6407 6058.7271 1391.3948
2220.397 767.81244 3519.5144
19713.838 837.98828 4035.6238
8526.0596 9598.002 1359.949
11112.691 2206.1785 7623.4941
2613.7329 5826.7549 4136.0801
10304.896 10487.821 1415.9996
2115.4409 7298.8169 2173.7451
21601.207 1082.026 3925.7761
7014.5303 9809.1338 6341.2456
21350.559 4752.9673 1777.9302
14909.914 2567.1099 5927.498
14878.134 8864.9678 1460.7356
1860.8345 3200.1655 2397.2737
-1990.7566 7615.9248 3900.8906
15068.207 9379.1357 2988.8037
16192.223 1308.6597 1172.7081
2098.7644 753.09302 4505.4722
1803.1169 4059.5134 5940.46
6541.0801 9115.4893 6032.145
1670.1176 10838.789 4062.8701
6350.9326 2796.8621 2144.3521
17176.227 8944.5996 4225.0547
-1438.7914 3499.582 1464.27
22927.422 2216.9673 2880.03
12392.147 5363.5088 2835.4419
14144.074 5771.2715 8235.0996
12222.108 9135.957 2486.7
-1364.3413 6459.6729 1749.0985
9071.0703 1017.2786 4908.2437
2414.5437 10053.755 2496.5168
14104.899 6353.0933 2211.1204
15198.695 1702.8467 3398.8438
8745.3174 8672.7441 1770.7367
8773.3906 4344.5728 4696.9443
-310.17294 3916.9302 5607.4834
38.678009 7282.3442 1446.3406
14968.21 2455.9736 2489.0352
1768.98 704.28717 4825.7324
-320.08139 9669.6289 2105.2734
15594.076 978.14453 1474.0515
16067.547 8682.877 1415.6943
17551.125 5544.0693 1359.5137
19729.246 2589.3887 1338.0662
12184.57 6136.8613 2943.4897
1601.8384 1304.8544 2686.5415
17603.984 4527.4468 7176.4268
16045.033 3537.8066 1416.547
14062.071 10355.797 1467.191
3273.1223 1122.9136 4349.7715
4189.1362 7550.4697 1925.5503
6467.3164 6446.5015 1821.0869
-2605.4592 5081.1851 2676.0601
-281.44638 5820.9707 4853.0049
4382.3701 1161.0807 1393.626
-1164.8386 1612.252 4852.3726
4663.8447 9874.502 1294.9536
16905.285 10525.211 5326.9238
9459.1904 7090.8169 1372.7833
1174.0974 2619.1699 2830.7173
15377.677 9664.2988 1787.9446
11996.542 6227.457 3035.729
2105.9141 6203.002 5391.3901
2412.4551 1466.7178 3592.334
19334.512 4616.8364 1291.9795
-2590.416 5541.8838 1850.2732
-334.8139 7248.7319 2472.0806
3067.3684 1117.7446 2605.3074
11258.833 6655.3496 2826.8862
18158.848 8944.5996 3288.8633
21450.012 1454.8198 1737.7611
23192.914 3577.5911 2671.6475
18495.785 3268.6809 6389.8032
20892.402 5892.2358 6482.4849
12146.547 10508.375 5440.5244
13680.305 8303.6553 3694.8972
2003.2633 9908.4395 4368.5645
-1765.8362 4927.7935 5336.6816
19483.453 2380.9841 2605.9529
21039.238 1020.8502 4387.4673
17434.041 9975.9658 6276.854
-65.412262 3573.5198 5631.9395
22084.521 9222.5938 6244.5107
13936.408 2381.9849 1451.7639
2871.0833 1551.8159 910.62067
2015.3138 2619.1699 4575.0938
-956.41296 9626.8672 5002.5723
14337.418 8462.3789 2706.4939
19071.088 9327.9131 6284.939
8108.0283 5815.98 1349.5723
11691.148 1718.3477 2035.0199
-1383.35 6524.5923 2292.2693
8563.2168 2434.9607 6219.5498
13594.91 1899.3181 2415.9436
7694.7197 9199.5684 6051.2832
5953.2114 4786.3486 3349.6184
21148.9 5406.2188 1636.8131
5249.6528 2422.019 1301.4335
1930.8951 2619.1699 2668.3496
23427.34 6965.1807 3353.8567
15182.023 8661.8281 6264.6426
1214.2571 1269.3895 3235.8364
3290.9297 349.75806 1989.2678
13236.882 5012.5098 1914.3225
23270.666 4398.5137 2516.2239
7479.8223 10520.535 4175.5776
9391.4902 1077.0344 3767.7126
18038.453 10023.6 2722.5229
18930.172 1681.8514 3187.7729
2787.4312 5817.1899 5405.3823
8220.8721 598.70502 6736.2559
2351.8232 8944.5996 4458.5752
17093.496 10145.643 3226.7471
-877.81702 9730.9746 1465.3838
23152.842 7759.9985 2484.9907
8236.6172 9013.5645 1770.7148
2779.2896 8313.6191 5999.3867
18957.965 1169.7808 5738.2275
5695.5635 3154.0786 6033.2861
11458.415 10547.671 1660.3993
2386.7 10308.252 4454.6987
13739.329 2086.8496 7420.4531
19872.07 3103.8242 1377.397
5789.5312 8520.4844 1309.7437
9353.5156 1525.9249 6165.9658
11659.181 2198.1753 1412.6351
16897.381 4090.4385 6330.5508
909.93359 11084.312 1549.6694
11950.146 1044.1755 5326.7251
87.142944 6254.083 1567.27
9063.9238 746.26331 2868.4482
15811.023 5353.9849 1425.4086
21190.191 10424.624 5287.3633
10494.403 7075.3076 2035.02
7769.438 1940.7731 6054.9199
19073.24 8944.5996 3009.6321
3548.9192 5616.9326 1313.4131
10813.273 3948.6809 2035.02
22335.066 9057.9824 2452.4299
4278.8574 2295.6099 2216.2014
23005.553 2315.0952 3333.0024
22873.822 1703.9493 3408.542
-1285.6359 4460.9297 2220.7383
-1504.6902 9969.7256 2051.6948
18597.809 10476.076 5507.0513
14612.108 9588.9766 7268.8257
12068.987 2570.9102 1417.8521
-630.01288 7303.207 4642.3735
18492.215 8200.9863 6720.7061
-1867.1921 6590.3906 5307.7959
-2698.9707 6951.395 1471.4846
3153.5703 9540.9912 4427.0654
12605.753 1073.1058 4647.481
1415.0588 8682.8496 2367.0542
17987.086 8011.6338 1343.0044
10694.499 6144.6177 1394.0043
17971.695 1478.3 1712.0546
19376.527 4083.342 6591.9863
5754.9014 5672.1904 2829.9114
7991.2974 1981.9668 6066.4399
6651.8408 3746.2427 6302.9165
-549.44696 7445.4497 2670.1165
6854.6899 9956.9004 1853.3113
-1081.7174 8088.3164 4790.6016
15142.192 5582.5459 8114.2915
298.55719 1999.2336 2982.5073
5842.8091 10238.214 1317.6233
808.22803 2287.4094 1336.4968
15180.155 4002.2222 1449.2986
2528.4641 1244.3759 2099.5876
21687.715 1083.2998 3711.7407
9067.1426 4155.3867 1366.0486
2945.1814 4419.2764 2176.085
3150.8135 8141.9839 4063.5994
12268.894 7356.6445 2544.2761
-1898.3149 2044.9369 2563.4426
18974.371 10526.02 1556.0771
16043.782 8863.9307 1416.5944
10615.548 8154.1162 1392.6479
10150.688 1633.65 6457.1416
2374.2551 7777.3037 3214.884
4287.0273 10414.786 2004.4517
1424.5494 10842.154 1383.4333
941.03058 7338.7012 1412.1699
18767.713 2619.1699 3831.4973
17230.965 10161.236 4367.9644
926.10559 4641.9561 1830.3118
4029.7893 8944.5996 1606.4298
4399.2583 7067.2812 1285.8608
20287.863 5642.335 6523.4531
12886.742 10478.133 3588.2065
2296.4326 8502.2949 4315.7188
4047.082 7759.4561 6100.0049
23426.334 7059.502 3439.1074
3118.196 7939.7246 2326.3228
12255.464 10487.794 4396.5908
19326.92 1521.7993 3367.6885
17925.008 8443.5908 6913.1924
-2023.4768 7747.9644 3986.8
10280.883 2087.0732 1389.5012
18465.377 10471.211 2048.8423
1334.4646 9601.1426 4556.5332
16340.292 7697.7603 6314.8765
22825.707 6812.4399 4759.7783
-123.54025 7785.6689 2001.9116
1414.1539 1349.7175 2587.7791
14277.359 8155.0781 1770.7
17362.664 9784.7461 4634.5767
8610.248 3790.1255 1770.67
5545.0747 10484.465 3414.0234
5775.7305 5683.6191 1309.5066
396.33838 2595.4231 1785.8688
3150.8577 8300.4971 2155.4436
6010.645 2390.4543 1314.6606
10999.281 10482.496 3925.4502
-2069.8406 5585.0869 1464.27
-2138.7427 8162.4399 4917.021
11633.25 7335.1045 2620.644
6918.1938 8807.7715 1329.1326
8342.6904 3374.8892 5841.252
-586.08911 10368.956 3987.6733
2058.4009 1128.5791 2462.0459
5919.2607 6692.2329 3005.2747
6421.3794 7144.481 6194.29
17992.562 2619.1699 3755.9299
3273.0845 9312.3203 1484.1613
11356.123 5012.5098 2854.5999
12991.83 9974.9746 1708.604
-2646.6965 4283.7495 3685.0815
22814.191 7922.1113 4386.8325
4964.4272 1242.3289 5643.854
7715.1274 10549.23 5239.3062
8960.5527 8177.8447 4860.3267
7150.0205 10815.249 2802.6914
2003.8268 4466.6475 5977.0098
11938.813 9780.8945 1770.762
6674.8652 8266.9473 4303.7295
15856.9 3885.5933 5178.3145
8637.1201 6655.3506 4470.9556
5072.1709 10507.431 3983.5042
13618.297 7026.1675 1770.6998
14185.594 9311.25 3474.8877
19877.625 5182.2832 1378.9266
7245.1841 3079.0493 4352.5615
14918.895 10446.102 2213.4949
2996.9995 7229.3911 6046.5352
2936.7822 10232.28 875.23688
21148.9 2065.1616 1910.8743
10931.93 7838.939 2591.6128
2020.094 10310.289 3586.3242
23151.062 5136.1968 2452.4299
7960.626 2515.1069 1770.67
2083.1292 1208.076 2417.6641
15096.613 5870.9678 2211.1338
22750.033 5729.793 5386.1499
10153.893 10479.766 3679.0713
9377.8164 6010.9893 5243.6499
4677.4883 5005.7314 1876.5435
14528.998 7605.23 5525.8281
1304.1624 5074.6401 4408.335
12252.021 4167.9067 8254.1787
22197.9 6877.2285 2340.1978
14852.154 5397.3936 8148.1235
17655.984 9263.0752 862.26294
6664.2031 3897.7629 1324.7693
1355.9263 8944.5996 4341.3047
11811.438 8090.1895 8196.5586
16988.318 7253.6807 7347.2334
-2931.8711 3956.4268 2976.7793
-1628.3567 1559.027 2453.2219
9078.5879 1260.0167 1377.5038
16857.793 10501.666 5430.853
15603.284 10649.9 3522.2849
845.23688 7471.0054 2633.8032
18489.182 968.68756 1701.8936
-2745.1143 3313.0461 2848.8638
12411.015 937.97455 2031.5848
1274.6077 10070.879 972.00781
17025.824 4594.6074 7345.2988
3445.0142 1156.0934 4238.6387
594.20221 3301.0205 5734.7471
10894.526 3536.1353 8185.3057
1664.2769 7197.2725 2262.7109
7925.0781 10358.401 1357.4716
-1754.8259 8828.332 4568.6411
11477.311 4303.3369 8261.6797
12705.473 8866.9805 2478.259
12805.641 1612.1116 6461.3936
8145.2222 10811.257 6631.9072
7532.4956 1039.7095 4240.0063
15316.47 4714.3975 1444.1364
20469.145 2632.0486 1508.3535
-1196.5868 5615.0542 4811.1006
9518.9756 8394.2979 1373.8103
11891.529 7807.8604 1414.5676
16434.908 978.10144 2404.6387
17502.363 4488.5186 6348.6387
3778.4749 9398.8516 1597.3097
-345.9762 10508.84 4048.2095
15320.291 1881.6891 1915.2964
7701.2847 8039.9341 1770.6919
-2293.5847 7367.2729 4838.2173
6182.106 3192.7822 2308.4817
-554.49182 5429.6689 1567.27
-2465.3691 7556.478 1569.0344
18388.191 2183.5491 4417.3696
-470.45425 7618.4385 1464.27
-2674.8845 6617.9131 1516.1041
-383.38284 3912.8896 2048.0586
4020.73 4872.7451 1748.7336
15033.734 3436.4973 4589.5811
14959.613 7954.6021 1457.65
6112.7964 7059.8428 6100.522
8114.0806 3143.0024 6249.1602
14692.16 9245.1289 5677.1465
21054.123 9041.291 1621.9803
15307.683 2512.7209 1915.2961
198.09921 9762.5381 3769.252
14856.807 7671.7373 4068.9268
20097.26 10046.3 1432.5186
10670.779 5873.5151 8293.3594
21148.902 4869.811 1622.4888
9468.2559 10525.703 4562.126
18633.906 6562.0015 6814.96
-1335.4329 4270.1094 1464.27
11242.824 4048.4302 2233.4888
22133.9 8087.4854 2452.4299
13701.675 1488.42 1680.6995
18394.988 8110.3813 6779.3174
8590.1602 6655.3481 2027.5151
-1384.3689 9542.3555 4401.6455
22556.855 6755.2412 6120.5503
13337.898 6327.6113 2729.8701
16462.547 10516.106 4280.0195
9238.8955 5730.667 1368.999
4236.749 8138.373 2079.252
13866.57 7605.2305 2955.9536
7885.7764 10300.156 5712.9756
3684.2729 9282.623 2337.8057
4259.0439 7858.1553 2325.5542
18029.883 8517.3711 6855.0161
871.92401 8944.5996 1858.1902
12834.684 7217.8296 1770.7109
11015.85 2339.2971 7951.251
-2767.2434 8240.3975 2905.0876
352.28949 7173.4307 2313.853
13607.392 7455.46 3566.2876
-1434.145 7219.771 5378.7061
8291.8438 9815.042 6856.4087
18190.893 8665.0879 1335.2866
8780.2002 5974.5776 2371.4663
8329.0771 9974.96 4569.1675
9176.3389 7893.1406 7878.7988
-1926.275 2936.4719 4740.1255
14055.73 10205.543 3235.1619
2465.9375 9361.9707 4240.2256
22927.268 8296.4453 4252.8096
2408.637 3656.303 5986.606
20661.699 9244.4307 6394.2158
18599.576 6611.2461 6390.9146
9350.9033 5588.8423 4676.5996
-2466.5684 4600.416 2676.0601
23114.723 2835.6033 3344.6475
6952.6475 6863.1719 4327.5083
11503.153 9974.9688 1700.0872
13858.3 8408.501 2234.5459
21488.035 8735.3896 2231.5979
1366.1194 8944.5996 3696.2202
21155.832 8689.0498 1777.9301
1683.623 8276.2363 1384.049
9217.4375 5882.4141 5596.5322
13144.564 4048.4302 2366.614
18987.596 2346.8098 1892.4546
16113.46 9154.4502 4049.9199
9161.9092 2813.1626 5145.5732
-1195.9751 10184.246 3701.0713
5964.3013 1758.7673 3462.0857
19201.402 2321.4478 3595.7666
15279.834 8998.9893 1915.24
9592.3564 3403.4785 5964.6362
-157.52101 7532.7046 2206.5461
2476.5195 726.01196 1154.0044
724.2514 3486.8708 1934.8623
555.7771 6823.4805 4033.5881
17513.812 1439.4293 3308.6965
1225.0424 5355.625 3983.55
-1418.9189 9873.833 2071.3823
9773.9473 5999.1787 3660.156
-2902.8623 6159.8955 2676.0601
13688.389 4048.4299 2733.2778
-977.30005 4627.6611 1848.1682
1958.4337 8321.1426 2660.7344
18673.121 5938.7441 1317.0253
34.588692 7438.9946 5684.7871
2490.958 2619.1699 3852.6533
-2311.8481 5843.4033 1464.27
17243.686 9925.79 2371.8672
11261.698 6354.9668 8311.8359
8116.0098 8556.8926 4414.5669
11029.07 918.48523 2275.3555
2003.4889 6873.9736 5368.3794
23054.965 8827.5898 3026.678
3025.05 5461.2227 4584.1899
15151.612 7904.0293 6040.1621
1946.9009 1769.9346 821.51062
10231.71 10670.16 2369.3228
15666.406 1837.6637 1805.4045
639.29126 10647.857 1272.5803
14450.877 4214.8979 1915.2903
13423.486 8906.2383 8052.2402
6909.46 8461.5566 4323.8208
3529.5271 8944.5996 1725.9829
14542.49 7284.4795 3237.4041
8920.8076 6655.3501 3335.4136
-1169.4835 3275.4807 4038.8447
3568.0369 1139.6976 4121.5698
2265.8157 10562.248 4566.4692
12550.121 10016.517 6327.8428
8105.2676 1056.2583 5389.7715
5630.0664 8381.7188 6025.5439
8663.6201 2838.6611 1359.1165
3314.4041 8352.8496 1625.5762
2205.6973 7407.0859 1364.2789
3251.7888 3370.6201 6034.4102
1767.0493 8944.5996 4518.5371
5528.998 1968.4038 1308.4508
8.037384 1475.7046 5153.8877
460.79636 7118.8955 1430.3557
1656.7603 4661.9902 4708.73
15696.987 10482.026 5604.627
10610.55 1078.0062 4088.7173
3353.4229 1365.8416 5587.7339
3265.4302 1725.7609 4354.7441
12149.781 6113.3447 8325.2197
15856.9 1817.3783 3026.1306
2452.0698 998.76123 4687.7397
7383.4863 3151.6191 6044.7324
22419.668 9874.4668 2272.8564
2559.0471 6898.2891 5052.7061
16572.096 4183.1348 7488.7544
2986.0164 9664.291 993.41193
18856.469 1031.6434 2832.3835
3196.4214 5849.6997 4708.73
7926.791 7830.6582 6049.1133
14471.223 5008.5303 8162.2334
20052.23 5190.0498 1427.0098
8396.9961 2963.1323 6219.5498
1020.4505 8944.5996 1974.021
134.12512 1635.1287 2606.0872
9409.9766 2373.1323 1373.1414
7679.6245 5012.5098 3422.0393
5864.7095 2333.2188 1312.4337
14976.035 8400.2285 6965.2974
14427.5 4895.875 1877.2461
7901.6113 2896.0046 4397.9419
8676.5713 5012.5098 2638.2009
14857.525 4441.4663 1915.293
14075.495 7605.23 3187.197
-2137.0854 2348.583 2474.8083
4097.3911 2619.1699 2041.6052
17582.752 1178.1079 847.69751
15702.378 8944.5996 1782.2898
10785.928 9776.7393 6805.793
4838.478 1358.3673 5681.8188
3023.146 1069.3369 2649.8286
-2254.374 7750.877 4716.854
2591.0549 1647.1747 612.91101
13333.204 1960.3411 1445.7126
9720.8447 10524.291 4604.5688
3458.9604 5474.1689 1316.8197
16650.672 9310.1719 4513.7954
7435.6035 3955.0901 6750.6265
14553.736 2818.9502 3182.2751
1162.4996 10724.281 1122.2963
10809.5 7235.2031 8234.2871
10721.476 10507.364 4548.0317
4128.2563 1482.8479 3301.7803
12941.414 9281.5547 7907.252
22983.016 2958.8936 2494.5498
2252.9856 5095.6826 4568.3701
15160.301 8296.2227 5189.0767
12671.433 4960.4121 1770.6777
-1423.6005 9599.3779 3738.5259
21835.301 6481.9395 6401.4961
6942.2842 5654.7651 1329.5464
18933.355 10559.357 3179.146
3299.665 8944.5996 3953.5977
15856.9 4251.8657 5270.019
8519.0654 3041.187 1770.6702
11748.811 7296.123 2085.8201
14120.27 10582.362 1616.0757
-899.20966 3947.9299 2253.8208
-259.67883 6182.6924 4143.5293
8177.6709 8346.2266 7095.0596
3395.4397 8156.9561 6045.0225
7831.3164 6402.6055 1344.8187
15959.438 1870.481 6614.3369
8706.3691 7155.9238 1359.8511
12256.952 8237.7275 8181.3823
20519.281 1077.8732 4867.7588
8291.8564 2292.0969 4458.4595
1148.1078 2445.5073 893.18524
2855.5886 6437.3237 4137.2085
7265.188 1981.9961 1770.67
19174.871 707.36359 3895.9976
20360.752 10641.638 2587.7632
18087.789 5942.1514 1339.191
1515.6279 1682.6694 1781.6459
1534.9978 7739.3721 2068.2285
-595.77917 4494.7764 4598.8506
7375.2207 10802.415 2967.6133
18462.326 4079.446 1325.0078
11322.943 10622.03 2110.9614
12327.156 8629.3633 2035.02
11934.955 6276.2168 1415.3137
11655.537 3417.177 1410.5135
6165.4971 6655.3506 4041.9766
23386.922 7097.7295 3150.4285
7400.3755 2162.9177 1339.6472
19097.195 1139.6445 1711.8511
4837.7256 1502.6921 5738.7114
15856.9 9430.5303 2944.1729
7178.1221 3002.5146 6490.3887
16596.428 3922.0576 1395.6665
4191.9609 8153.2734 2024.5088
16285.076 2184.2612 4185.8022
18639.734 5693.4341 6401.5732
14312.915 1218.2729 1471.5609
1786.0293 5881.0889 5391.3896
17034.984 6722.4995 7352.6499
17572.195 4531 6350.6445
2757.3723 8255.2207 1969.2671
6563.1738 4588.2417 1323.0339
11712.699 3486.1018 1819.7601
10650.771 4073.1387 1393.2531
985.62402 8944.5996 3987.304
18330.068 4328.4888 1330.0162
8374.0684 820.62659 2554.6738
6395.5415 3904.7527 4279.8066
65.003548 5784.9922 5802.3989
10674.789 5568.3301 1393.6658
16430.355 2619.1699 2560.707
17930.945 2146.05 6504.2969
2101.2878 3828.6128 2038.4821
20705.717 3543.844 1545.458
5987.5605 3592.2664 3697.9922
22288.73 1209.5637 3069.4541
22191.43 8040.2402 1856.2804
10887.969 6885.7617 2035.02
657.39539 2903.0293 1422.9106
648.60205 8944.5996 3029.1045
12311.209 3449.6013 2035.02
1542.9609 10036.359 4678.3545
5364.2715 10505.6 1741.1403
15214.828 10050.779 2518.1562
9311.0508 10478.09 3522.3655
9318.6914 7300.1899 1370.3699
6744.3096 6130.1475 6388.3267
6423.8867 9419.3672 5999.5728
535.43207 10846.488 2301.7146
15556.307 10004.126 1459.4857
8814.5791 6287.7168 4676.6006
1208.6194 9804.002 662.08466
1882.8668 9954.6963 5524.4438
4065.6316 7817.8794 1720.4443
3720.8228 3407.7112 6066.5938
15856.9 5245.3115 2469.918
8032.2236 1168.9888 1359.817
20158.709 10511.581 4835.9434
18340.613 4319.1367 1329.6169
8447.0254 3053.2776 4517.8472
18077.49 1404.3175 719.44299
21666.621 7345.0898 1844.5399
12174.393 6195.2842 1419.4269
13807.187 8142.4844 8118.5635
14966.4 10525.699 4747.3374
5369.6279 2734.9478 1302.5304
9043.3916 5263.792 3903.1499
7967.9048 9332.7949 4397.9648
21843.564 8946.6299 6290.2817
5462.46 10484.784 1657.4218
2947.6606 10226.009 4267.7681
1360.5549 7374.7578 4656.6113
2249.0378 9305.4795 796.51208
4305.1045 1976.6682 1535.9403
11712.7 8866.7686 1779.3953
12657.062 3363.2661 1770.6929
3990.239 7034.7612 1995.9344
2678.8506 3854.3892 1346.3613
19737.545 759.81348 3397.3093
3541.7446 438.26282 2655.2483
11490.807 10515.068 5370.875
7834.3242 2495.9146 1770.67
-2747.4736 8436.2646 3454.3928
15856.9 7333.6729 4072.541
15796.169 8866.5645 1425.9711
1386.8911 9565.1738 857.40997
555.84729 3918.6165 2997.9558
2648.9109 8488.5439 2882.2783
5856.749 8985.9326 1311.1006
14095.228 9612.4736 7318.9487
17198.875 9558.9521 728.36438
6375.8604 4849.7915 1319.816
-1449.1108 2530.4556 4481.2754
12813.665 6224.3389 1430.4087
9614.4521 2593.2021 1375.5776
19554.662 6793.043 1289.9897
2257.2942 10541.328 4710.1943
8564.4668 5560.4458 6178.3193
2573.2148 6263.9287 4708.73
18194.379 10232.723 4524.4858
871.14655 6473.7314 4708.73
19659.975 5024.0884 6673.2783
3874.2773 10753.997 3776.0583
7228.1113 1488.41 4423.3882
21266.824 7172.8262 6455.4771
5173.4131 6096.9229 1792.8191
4774.5112 2649.8501 6040.1826
10376.996 6403.7002 3658.5522
14808.068 9048.5098 1594.28
-1385.662 9111.8232 4988.2617
-94.552856 7485.2256 5059.5581
6770.3105 8104.3271 6063.1367
19844.783 2009.5127 6311.2412
-1794.0515 9725.123 3304.2781
23254.066 6094.4131 4302.7041
6806.9839 1732.1553 1331.5603
22543.873 5057.1406 6156.6855
-2437.1118 2593.6187 3612.3323
-2259.0859 5657.4922 4367.7573
11268.967 1080.8951 3961.7061
12632.266 2342.4099 2439.0054
13749.315 8139.8823 1446.4818
11081.275 7068.7959 2035.0201
16719.047 7910.4404 1391.0232
20896.375 10405.947 1623.4198
6915.334 8777.5264 4324.3242
22513.219 10271.094 3053.5811
3588.0532 8249.3223 1976.2273
931.39795 11238.271 2885.3665
14214.995 9254.5645 7766.1504
17862.52 9694.4336 639.14771
843.172 5368.8174 4709.8701
22197.9 3875.8179 2223.731
2957.3455 566.52844 2345.3687
9132.9043 9593.7402 5068.9395
15616.055 1300.9617 3478.5212
17003.738 8944.5996 2193.7917
349.53061 2035.35 3104.8606
1695.6644 4233.9404 1383.5931
5327.6699 1041.0646 4174.2036
3355.0945 8215.2412 1320.7529
9760.1699 10648.229 2263.7988
8113.9395 11291.123 6357.9385
-207.96411 4450.355 2125.0671
14863.222 1991.7439 7269.7261
17479.643 10004.783 4353.7837
17435.922 9154.4502 646.74341
13344.683 9876.9131 1448.988
423.59344 10340.67 1814.6382
1502.2314 5937.1069 4136.0801
1921.595 8944.5996 1867.4443
17377.41 2619.1699 3318.7749
-315.13763 10603.17 3818.7021
15391.603 10263.746 1757.7581
7352.6484 9974.96 4663.0181
9948.5186 3992.3547 1381.1895
23094.25 6389.7368 2452.4299
18834.916 8944.5996 2828.2634
10883.237 1728.3009 2690.8574
15186.074 3061.082 6545.6367
-856.25183 3453.7588 3761.0532
1324.9473 3620.4575 5855.9453
-152.46143 8007.7021 4167.3901
2768.3257 9293.374 1098.5391
3604.8713 900.45831 2949.9944
15607.936 4200.1528 1433.0991
-922.71118 2268.052 5098.9092
21188.219 6228.2471 1777.9301
-2561.8994 7696.7715 3690.1855
17749.684 5635.8633 1927.8757
7737.915 5372.5098 6951.481
18987.002 3908.9409 6627.8213
7558.1841 8947.9932 1340.1433
2859.8308 8944.5996 1896.7369
14756.965 2130.0413 3820.4658
16735.363 1060.3043 1222.84
6100.8237 3325.26 3972.2068
14552.303 3460.4187 3178.9319
2517.4658 1355.7069 1726.6412
17175.508 3280.1187 6345.2412
23183.672 3025.8032 3577.155
5419.5083 762.11987 2756.1343
9371.3271 6655.3501 3308.3101
8625.2334 3156.5837 6319.6802
12301.928 7975.543 1421.6177
20759.717 10477.137 1924.2021
7160.1514 4829.6177 1777.9342
4255.2563 2243.3706 2827.8823
191.11415 10435.137 3757.5376
18655.809 9401.8066 4069.2129
-2356.9202 7030.4028 2243.8606
4318.103 3412.2969 6106.3584
12120.241 2514.553 1419.0082
10994.964 4124.7886 8244.8652
4226.8101 4222.3486 1287.7424
18892.143 1977.8396 3491.9233
16271.344 2619.1699 3422.4531
23467.354 7253.4316 3971.4727
17754.465 2619.1699 2964.0342
16967.75 1350.0233 4617.0469
1005.7532 2439.3931 5537.1777
4063.3481 9918.7871 3458.9775
4296.1602 9610.7969 1767.7507
22896.855 2807.2122 4182.7832
16340.02 2619.1699 1826.8615
15005.676 10025.311 6179.02
15641.305 9746.8086 3325.6389
13749.244 5410.4092 8252.0605
11159.547 1087.3367 3411.9468
-13.338366 8166.8726 4707.7388
9633.0635 3405.3945 5504.7056
9016.25 4006.0254 1365.1743
17773.449 6892.1309 7140.9551
12181.756 6655.3501 2319.4451
16626.146 1740.9825 837.64935
7872.124 10465.466 1483.3827
8.643261 3844.3301 2583.189
14913.099 2683.3386 5819.396
-2198.9214 2635.1533 1920.4948
2363.686 9987.3291 3190.8875
8604.7461 9245.0391 7379.144
-1031.8689 7294.7593 1464.27
-1199.7756 9740.6406 4896.2573
-699.16046 10246.816 4217.8672
11598.942 4322.6514 8262.75
12454.668 7374.9531 8255.3369
14642.82 722.49854 3346.1924
14514.34 9642.5117 1915.24
15017.076 9094.9795 1915.2401
7321.6084 5012.5098 2646.9785
4295.7534 10038.491 1778.2915
16282.225 2339.2483 1001.3042
14823.284 7491.501 4074.9736
15076.424 10266.625 3014.627
13638.912 1504.7561 2889.7017
4279.6279 924.00842 3926.5601
8362.498 6615.9434 6078.3574
4169.3999 4945.2266 2534.8555
16756.715 5521.9492 1389.5967
6314.6665 9537.5078 4250.2046
508.65594 4432.3672 4563.3828
8630.6602 5811.876 4323.2998
16982.488 4989.1938 1381.0469
18243.58 10142.169 5876.7852
16091.061 6789.5132 7652.3721
8934.0479 7465.2256 7581.2627
4160.0508 3940.9307 1869.0264
-2672.9998 8660.9258 3290.1672
15712.808 9722.8018 1252.4117
14198.638 3562.396 8096.1191
15856.899 3944.7456 4396.9941
8110.7832 1044.1066 3182.5898
6078.6294 4337.4585 1314.7101
4150.126 5475.209 1726.6
20639.781 10478.854 4874.8491
19822.52 8395.3096 6463.4199
-1463.83 6823.5259 3366.1504
2387.623 9986.9277 4618
9599.7227 6869.8984 2035.02
1678.5134 10698.058 1207.0511
16216.267 856.66449 4890.6367
11135.623 10086.792 2444.561
3892.0664 1165.809 3357.8101
10852.904 6162.9849 1396.7255
1177.4729 8944.5996 1503.5038
12753.03 1031.8275 3261.0364
15856.9 2910.8301 2585.8931
