# .PCD v0.7 - Point Cloud Data file format
VERSION 0.7
FIELDS x y z
SIZE 4 4 4
TYPE F F F
COUNT 1 1 1
WIDTH 1482
HEIGHT 1
VIEWPOINT 0 0 0 1 0 0 0
POINTS 1482
DATA ascii
0.90314376 -1.7417698 0.2559095
0.66549945 -1.6690836 0.25572804
1.0441474 -1.6645497 0.25567418
0.50903696 -1.6566752 0.2559759
1.1768049 -1.6564585 0.25588059
0.87724507 -1.6112469 0.25502342
0.94911849 -1.5657475 0.25812128
1.8605543 -1.526345 0.25458437
0.38411278 -1.5009296 0.25283623
0.49853516 -1.5096589 0.25608277
0.81169546 -1.4376659 0.2513279
0.89422649 -1.3860565 0.25038442
0.69860595 -1.2464911 0.25162736
1.7334728 -0.093521059 0.25919265
1.7307773 0.042700499 0.25643492
-0.028755501 0.51719332 0.25933212
0.61794227 1.5454792 0.25578904
-0.02244322 1.6651297 0.25593224
0.6844492 1.7762301 0.25083148
1.0194722 1.7977188 0.25267464
0.92662579 1.8313634 0.25913975
0.63307142 1.8652774 0.25719878
0.51670349 1.8719528 0.25360733
1.760761 -1.462119 0.26194906
1.3299799 -1.3845245 0.26352555
0.58912367 -1.3126731 0.26131949
1.1089389 -1.3187113 0.26135653
1.7311299 -1.2627721 0.26627827
0.3847836 -1.2143135 0.26694319
-0.036072232 -0.0715307 0.26442435
0.28581601 1.4392891 0.26096034
0.19238222 1.4745696 0.26750171
0.84911555 1.8286767 0.26163048
0.91203016 1.8435419 0.26079246
0.76790559 1.8910344 0.26445365
1.2805314 1.9824142 0.26029456
0.63701487 1.9918548 0.2690331
0.48222566 2.0094931 0.26506498
-0.063156679 2.0434117 0.26341426
0.61916578 -1.6445045 0.27757201
0.62888563 -1.5212356 0.27757201
0.36805463 -1.3933997 0.27757198
1.2616615 -1.312575 0.27020699
1.1524639 -1.2897267 0.27757201
1.3343477 -1.2861931 0.27757201
1.1596072 -1.1966221 0.27757201
0.38046888 -1.1474475 0.27757201
1.0258832 -1.1297574 0.27757201
1.2320973 -1.1030946 0.27757201
1.2884314 -1.0816045 0.27757201
0.42856306 -1.0514374 0.27757201
0.39407212 -0.99234205 0.27757201
0.87453198 -0.9713496 0.27757198
1.7345736 0.64874983 0.27368036
1.6854038 1.7713885 0.27400097
1.0309708 2.0199242 0.27278364
1.5859354 2.0160689 0.27719286
0.53340226 2.1004674 0.27531874
1.4925621 2.1551795 0.27674022
1.3158141 2.2813849 0.27746108
0.73041821 -2.1349821 0.28362721
0.084722951 -1.372669 0.28306031
-0.019530546 -1.2323694 0.28034076
1.3738024 -1.2009019 0.28395104
0.011477064 -1.0993991 0.28070909
0.082193837 -0.98072171 0.28337967
1.6313962 -0.89104551 0.288845
0.012149087 -0.88647819 0.28472108
0.13861625 -0.86159521 0.28200778
-0.036467254 1.1864189 0.28597692
1.5993904 1.4090697 0.28317562
1.7500211 1.5845957 0.28223318
0.049867898 1.8940482 0.28864861
0.29829532 1.9878557 0.28868639
0.49221674 2.1758876 0.28166878
0.16147107 2.1855059 0.28174043
0.46599281 2.1853213 0.28634986
0.22077827 2.1995764 0.28879559
1.1229815 2.1904106 0.28841904
0.86557937 -2.1501076 0.29529858
0.26893219 -1.8935663 0.29985699
1.8635211 -1.5362368 0.29231387
1.5412085 -1.0243636 0.29242924
1.7444911 0.20988181 0.29806373
1.7390068 1.092671 0.29002112
0.29779243 1.6967008 0.29128689
-0.06490019 2.0568333 0.2914061
0.30996549 2.2328887 0.29687357
0.41165406 2.4002714 0.29921043
0.7896477 -2.1406066 0.30544084
1.6728263 -1.7133412 0.30084261
1.4070659 -1.5129912 0.30390131
0.063644253 -1.3155134 0.30154359
0.32832587 -1.2883871 0.30747226
1.1419601 -0.94666702 0.30661058
-0.044535518 0.6363371 0.30721393
-0.018284455 1.3474437 0.30967033
0.049867898 1.7867633 0.30649778
-0.029824886 1.8682493 0.30264324
1.73843 1.9368982 0.30419239
0.28581601 2.0525863 0.30830479
1.5049894 2.1523075 0.30582809
0.50509727 2.2960105 0.30777302
0.90426528 2.3159714 0.30949992
0.95994669 -2.1466854 0.31935877
1.1406031 -2.0306165 0.31215701
0.5115 -1.996156 0.31703442
1.3554934 -1.9582099 0.3128047
0.21692383 -1.4724712 0.31525007
0.0468795 -1.2529658 0.31361586
-0.062758394 -1.1304393 0.31732196
1.3195456 -0.94666708 0.31456006
-0.048112549 -0.20624289 0.31802189
1.7458589 0.614429 0.31723964
1.7435479 1.1429108 0.3130511
0.28581601 1.4181302 0.31667715
1.7384753 1.5213225 0.31211984
0.049867898 1.8557308 0.31402385
1.64815 1.9482913 0.31399465
0.64926523 2.3347495 0.31221408
0.93714714 2.3757932 0.31667781
1.2327679 -2.1006398 0.32298011
1.35805 -1.6414855 0.32211187
1.8348297 -1.4878467 0.32896429
0.083314002 -1.3889009 0.32185805
1.7365707 -1.2730078 0.32112026
0.85850149 0.8529442 0.32958287
0.95093554 1.0222194 0.32924882
0.92011082 1.0639141 0.32771555
1.7447177 1.1775438 0.32732338
1.7407328 1.1823105 0.32591981
1.6720378 1.3502386 0.32981861
1.6214912 1.5058333 0.32770017
1.3645515 2.2067592 0.32605219
1.0744377 2.4379492 0.32364517
0.1223287 2.4998367 0.32699832
0.15432596 2.5383036 0.32959583
0.38522595 2.6777472 0.32689682
0.1965858 -1.5917883 0.33905852
0.28260547 -1.5778947 0.33855379
0.057526954 -1.2926898 0.33716542
1.6500767 -1.2155041 0.33238739
0.025539154 -1.1733475 0.33614963
0.0069760662 -1.1040907 0.33438432
1.7392936 -0.8557353 0.33495006
-0.024712296 -0.54358977 0.33406848
-0.029296611 -0.35352215 0.33005941
-0.034046989 -0.1509926 0.33813715
0.79167753 0.0032442138 0.33847857
1.7288246 0.058343738 0.33344781
0.71453786 0.16853933 0.33894306
0.81894934 0.26202762 0.33709615
0.66429114 0.28013355 0.33991498
1.0278542 0.30895302 0.33969027
-0.026364764 0.53838032 0.33974114
0.72991002 0.55271447 0.33748838
1.7474047 0.56395674 0.33034873
1.0127599 0.60068172 0.33791593
0.79342163 0.66084003 0.33410385
0.87720382 0.67943567 0.33299693
0.93811202 0.69629741 0.33436346
1.1775746 0.78324842 0.33938992
1.1052289 0.79061472 0.33730769
1.0126356 0.8768996 0.33335471
1.150391 0.94011724 0.33602509
1.3357077 1.0209407 0.33968824
0.43455213 1.0671597 0.33701134
0.52620703 1.1927031 0.33421722
0.73594105 1.1922832 0.33053133
0.4359034 1.298687 0.33862463
-0.060688641 1.4060504 0.33807981
0.1977628 1.4436908 0.33872765
0.087131992 2.1267028 0.33865321
0.3380259 2.4302416 0.33765364
0.42469496 2.440135 0.3327803
1.1130234 2.5090973 0.33151913
1.1713004 2.5063779 0.33110631
0.42510736 -2.003871 0.34710562
0.36596894 -1.67028 0.34985751
0.15791398 -1.4939404 0.3473686
0.072986618 -1.3503692 0.34580362
0.034025501 -1.1835262 0.34811372
0.341952 -1.1059201 0.34116006
1.6927887 -1.0215619 0.34775406
0.80992138 -0.73618716 0.34157294
1.3419199 -0.72179449 0.34681424
0.30115169 -0.68011367 0.34741205
0.27977782 -0.67930341 0.34765983
0.63998866 -0.63286102 0.34339058
1.5232809 -0.59933984 0.34873503
0.49847683 -0.56605375 0.3449344
0.34257993 -0.52821392 0.34669125
0.30332351 -0.45143622 0.34702817
0.90322441 -0.45949221 0.34054312
0.26397377 -0.42539826 0.34744573
0.58049339 -0.32420501 0.34336731
1.3268161 -0.32840282 0.34602135
0.30179214 -0.31125009 0.34682617
1.5043113 -0.11649121 0.34775686
1.3814695 -0.098039381 0.34629679
1.044161 -0.064428307 0.3409602
0.32206231 -0.052953996 0.34618494
1.0352576 0.039268702 0.34033725
1.5187726 0.036280558 0.34768572
0.17130612 0.13412072 0.34937102
1.2742758 0.24558833 0.34378058
0.26770675 0.2546185 0.34632951
0.40479368 0.25725263 0.34415281
1.4381132 0.2525982 0.3464157
1.2458152 0.30966261 0.34353876
0.24853963 0.3561205 0.34697077
0.32274732 0.40352792 0.3459112
-0.020003771 0.42622954 0.34669486
1.3869059 0.43955371 0.34599152
0.61386853 0.44947308 0.34038568
1.3637097 0.51820278 0.34506005
1.170928 0.56225848 0.34114522
0.41993722 0.57967484 0.34303924
0.44325539 0.61973763 0.34230158
0.37539852 0.62706429 0.34350589
0.25541204 0.71017605 0.34510186
1.3390679 0.7526207 0.34281969
0.18633766 0.82473063 0.34554732
0.29353854 1.0160048 0.34168658
1.4412583 1.0235713 0.34250197
0.28027534 1.0531627 0.34142303
0.27317041 1.1284394 0.3411006
1.3996656 1.149761 0.34027547
0.56870252 1.3015468 0.34251788
0.96896219 1.3045402 0.34579593
0.14807811 1.3548286 0.34703767
1.7316796 1.4028537 0.3433274
0.192808 1.455682 0.34618282
1.6764567 1.5039883 0.34369937
1.7194041 1.8490405 0.34321105
-0.019525539 1.9267508 0.34915748
0.97309089 2.6242728 0.34429052
0.49324775 2.6432447 0.34617013
1.1971049 2.6628654 0.34836286
0.23857114 -2.0091362 0.35450426
1.35805 -1.5366927 0.35780394
0.038500682 -1.2217062 0.35502595
0.341952 -1.0079104 0.35543251
-0.13473913 -0.92023021 0.3536776
1.7128497 -0.65932822 0.35561177
0.74222499 -0.47834423 0.3581858
0.74222499 -0.091930352 0.35699165
-0.04894495 0.54011369 0.35260889
1.7325345 1.2079391 0.35733664
1.7427182 1.2204096 0.35736614
0.20199354 1.249979 0.35198286
0.91592562 1.3097415 0.35895512
0.28581601 1.6151245 0.35589498
0.049867898 1.8943117 0.35022014
1.7374616 1.9478459 0.35544628
1.5447836 2.1349437 0.35538018
0.34950215 2.284436 0.3537274
1.2893075 2.3258979 0.35712698
1.316241 -1.9354091 0.36206967
1.8190098 -1.4442558 0.36182529
0.6026777 -0.94666702 0.36385608
0.957775 -0.29592323 0.36042768
1.7078469 -0.16500558 0.36820135
-0.043142825 0.29950541 0.36781055
0.25872707 1.3050553 0.36345041
-0.017306868 1.7796018 0.36580339
1.7208725 1.789983 0.36421126
0.049867898 1.8805044 0.36712545
1.64815 1.9556767 0.36149472
0.17539513 2.0341482 0.36910245
0.41762233 2.612251 0.36914349
0.31284207 2.6798019 0.36751339
0.63462132 -2.1700916 0.37295085
0.24078828 -1.9846061 0.37832832
0.16667809 -1.9182231 0.37706667
1.5314984 -1.8315653 0.37812126
0.17061003 -1.6019027 0.37428969
0.80243099 -0.94666702 0.37038499
1.6859455 -0.45180708 0.37969562
1.5475454 -0.2315059 0.37946829
1.0308782 0.28243831 0.37767246
1.6952981 1.0193878 0.37779516
1.506442 1.1701055 0.37514558
0.20422362 1.275992 0.3700265
0.31690305 1.3080155 0.37694117
1.595014 1.3550544 0.3750394
-0.022537975 1.3887403 0.37362203
0.11788456 1.4906645 0.37183481
1.6537099 1.8119607 0.37753344
0.0068045938 1.8582599 0.37365711
1.4141901 2.0207462 0.37249151
1.3014376 2.4855664 0.37861228
1.3616059 2.5381789 0.37383944
0.21711715 2.6627207 0.37628847
1.2893355 -1.9988647 0.38826951
1.5761349 -1.8552947 0.38858601
1.4200549 -1.5966277 0.38542795
0.037657831 -1.3165119 0.38577199
0.88042909 -0.80405962 0.38044012
1.733791 -0.66690367 0.38553721
1.5600251 -0.61952686 0.38844708
1.6851623 -0.17189661 0.38246799
0.60214823 0.20911196 0.38577098
0.24301706 0.21667188 0.38493595
1.3352368 0.25792909 0.38037914
1.3715925 0.25269803 0.38095677
0.74222499 1.3048688 0.38404649
0.42586809 2.4385574 0.38184515
0.820283 -2.188962 0.39534116
1.1430587 -1.9880583 0.39290905
1.5142272 -1.8617656 0.39304012
1.3580501 -1.6398492 0.3959569
1.8116955 -1.4855201 0.39490822
1.6879809 -1.3569267 0.39731276
1.7035319 -1.2980611 0.39195514
0.8943069 -0.94666708 0.3927142
0.092643231 -0.87344682 0.39601982
0.020651598 -0.85930151 0.39801219
-0.030032717 -0.27432823 0.39670449
0.026089966 -0.093750663 0.39558738
0.3884477 0.15917253 0.39128634
1.6823804 0.40939456 0.39758152
0.018184606 0.50534594 0.39227855
-0.027315617 1.020537 0.39259973
1.1354914 1.1895794 0.39064425
0.30522963 1.1924267 0.39072677
0.12231167 1.3571066 0.39045742
0.25254786 1.3598845 0.39140838
1.7332413 1.3532681 0.39499718
0.049867898 1.7668921 0.39573464
1.7127208 2.0107427 0.39290583
1.2883363 2.6160364 0.39445421
0.80314112 2.7845039 0.39398366
0.56483042 -2.0047908 0.40925711
1.4986506 -1.9728937 0.40492779
1.5850891 -1.8675082 0.40736979
0.17517516 -1.7987423 0.40893337
1.3328831 -1.67028 0.4018476
1.8360311 -1.4886081 0.40539184
0.019339148 -1.3719682 0.40987274
0.10264912 -0.93905127 0.40339869
0.74222499 -0.70204353 0.40637273
1.5634562 -0.57479954 0.40226206
0.034128033 -0.53855991 0.40239942
0.037230436 -0.41833839 0.40683025
0.74222493 -0.28078687 0.40132239
1.1263926 0.0064257793 0.40815663
0.957775 0.24560481 0.40002406
0.026106689 0.70716476 0.40238079
1.6686778 0.74692714 0.40830037
0.3354584 1.0225666 0.40948662
0.98750639 1.0606769 0.40527734
0.7103585 1.0979006 0.40116632
0.25155786 1.1035328 0.4005444
0.053703628 1.3872192 0.40367696
1.4141901 1.6388607 0.40844595
0.0554296 1.8839736 0.40800613
0.3797242 2.5922174 0.40475079
0.41936159 2.6837571 0.40771544
0.61634076 -1.9895072 0.41523185
0.18258351 -1.8605051 0.41329563
1.6233206 -1.6309208 0.41307431
1.35805 -1.5022275 0.41858581
1.6708416 -1.2929753 0.41746533
1.6173092 -1.0717518 0.41641009
1.258109 -0.037394933 0.41299644
1.2752783 -0.011824382 0.41017237
1.4471794 1.3220016 0.41360784
0.0098279295 1.3882886 0.41606009
0.15587677 2.0217149 0.41345865
1.4896598 2.5195186 0.41146192
0.63720757 -1.9870999 0.42500752
0.072984904 -1.350363 0.42676657
1.710767 -1.1423118 0.42130089
0.28192797 -0.93483067 0.42800784
-0.05781607 -0.8958447 0.42113042
0.74222505 -0.55185711 0.42613077
1.7348098 -0.44375855 0.42045063
1.6434031 -0.33544102 0.42490911
1.6500411 -0.25620359 0.42202339
1.410444 -0.16024297 0.42656454
1.1027297 -0.15630056 0.4261291
1.4872888 -0.15925995 0.42645586
0.4095678 -0.13120928 0.42335808
0.41981375 -0.10887416 0.42089123
1.2274857 0.35033584 0.42667571
1.6888033 0.38397074 0.42004693
1.0505202 0.88000262 0.42523235
1.2547442 0.90863943 0.42206952
0.30388021 0.91500211 0.42136675
1.5259572 0.95926237 0.42685103
0.74222499 1.0936329 0.42636406
0.90085393 1.3164537 0.42685956
0.22721092 1.3251961 0.42581871
0.35495508 1.3266529 0.42431867
-0.058801651 1.4650594 0.42736545
0.16125606 1.494837 0.42672586
0.0554296 1.7955742 0.42975199
1.1575388 2.7062259 0.4239127
0.94792968 -2.1945138 0.43043786
0.74332106 -2.0022528 0.43804586
1.0170923 -2.0090361 0.43145975
0.64592719 -1.67028 0.43437278
0.30222362 -1.432718 0.43210572
1.3580499 -1.1337172 0.43808162
0.29309294 -1.012687 0.43493488
1.2528424 -0.94666708 0.43470868
-0.029476356 -0.88979053 0.43837312
0.1631363 -0.86814773 0.43674046
0.79858238 -0.80705452 0.43404484
0.74222493 -0.46615839 0.43149292
1.6150568 -0.44113591 0.43875951
-0.038572218 -0.33662057 0.4352065
0.56920117 -0.27806747 0.43957818
0.55216599 -0.25198421 0.4366973
0.67162514 -0.22935382 0.43419752
0.4072271 -0.19677401 0.43059936
0.99207628 0.036794771 0.43930715
1.7352179 0.14339721 0.43409324
0.74222493 0.27469087 0.43990061
0.081218436 0.59213734 0.43932885
1.6388675 0.62480909 0.43358091
0.057442669 0.68218863 0.43275785
1.1352954 0.76976669 0.43740782
0.089872628 0.79716837 0.43959939
1.2530895 0.80348635 0.4336831
0.24082163 0.83461314 0.43024543
0.087241724 0.84640849 0.43900746
0.957775 1.1024941 0.43802309
0.74677956 1.3062682 0.43825436
1.5064125 1.4325674 0.43047768
1.65371 1.6485181 0.43232551
1.64815 1.6908149 0.43258417
1.7192414 1.7017106 0.43775794
1.6819618 1.8421837 0.43542784
0.03808463 2.1248507 0.43761134
1.4589266 -2.0202038 0.44904107
0.004759022 -1.6533732 0.44316727
1.4279666 -1.6417069 0.44890946
0.019581009 -1.1511189 0.44096139
-0.12982494 -1.0045505 0.44369137
-0.05191597 -0.86250544 0.44298697
1.7429372 -0.55926234 0.44975621
1.612808 -0.50000179 0.44075319
0.12778266 -0.31062508 0.44161958
1.5948575 -0.24432459 0.44668904
0.03540663 0.23054785 0.44494259
1.5952972 0.56094998 0.44979936
1.0650346 0.76469934 0.44361678
1.4796444 1.3210192 0.44353646
1.64815 1.6022029 0.44135711
1.64815 1.7635483 0.44098091
1.3230959 2.6817644 0.44922477
0.90182698 -2.1899943 0.45602143
0.45395231 -2.1395776 0.45198655
1.1145042 -2.0109301 0.45434123
1.3322557 -1.9745419 0.45174369
1.5066757 -1.8322355 0.45232567
0.093799837 -1.4280224 0.45137647
1.3882457 -1.2305247 0.4579097
0.29699177 -1.0479577 0.45077437
0.46137035 -0.94666702 0.4574295
0.10873628 -0.92672116 0.45877737
0.10668948 -0.40713656 0.45919445
1.5670891 0.23524722 0.45589605
0.08467406 0.44430614 0.4517526
1.3121108 0.78680778 0.45850697
1.5275395 1.0043919 0.45432562
1.574707 1.0821615 0.4512198
0.095620476 1.3667192 0.45867801
1.4141901 1.4301693 0.45586053
-0.014638877 1.6762476 0.45136625
1.7429233 1.9473834 0.45682105
1.6852913 2.2239311 0.45754662
1.0269372 2.7539597 0.45721328
0.81109774 -2.0102706 0.46998847
1.177312 -2.0106165 0.46978894
0.022168159 -1.160772 0.46608812
1.35805 -1.1108521 0.46029621
1.7152352 -1.109266 0.46113086
0.050963357 -0.98748577 0.46657759
-0.048130125 -0.78864187 0.46132049
0.95893312 -0.78445977 0.46013406
1.332732 -0.2829836 0.46790606
1.087939 -0.23964494 0.46034488
0.12566966 0.14227289 0.46200833
0.7056911 0.16887659 0.46030799
0.95777506 0.51073843 0.46078059
0.82561558 0.80597854 0.46900168
0.68646997 0.8429414 0.46443015
-0.041189134 1.009207 0.46578181
-0.038248308 1.1638378 0.46004421
1.6949619 1.5376298 0.4635011
1.64815 1.7270668 0.46556252
1.4141901 1.8163795 0.46317065
0.015682748 2.0048821 0.46249196
0.12286415 2.0087986 0.4696511
1.7471268 2.0186994 0.46496838
1.5215478 2.1194069 0.46094808
1.6409295 2.1329961 0.46571183
1.5663497 2.3974032 0.46974432
0.26297849 2.6610215 0.46017113
1.4634236 2.7062111 0.46205938
1.4235356 2.7293563 0.46077394
1.0521826 2.7604115 0.4684276
0.48860782 -2.0078254 0.47769284
1.0143015 -1.84022 0.47287929
0.81937605 -1.67028 0.47657257
1.1061648 -1.67028 0.47316051
0.341952 -1.495109 0.47022161
0.96275234 -1.4088801 0.47039425
0.93434316 -1.2547526 0.47409058
1.6266929 -1.1282558 0.47887605
-0.10137948 -1.0699511 0.47219533
0.91522402 -0.94666696 0.47330132
0.27905113 -0.92684221 0.47347289
1.5511146 -0.87212694 0.47093308
1.3032389 -0.24395876 0.47112483
1.4514279 -0.21181798 0.47479856
1.4777761 1.3261869 0.47769275
1.64815 1.771016 0.47525412
1.65371 1.8849893 0.47839284
1.2667141 -1.9918654 0.48328006
0.6689623 -1.80281 0.48121876
0.66570318 -1.4856082 0.48108086
0.29500881 -1.4645195 0.48120046
0.86676455 -1.4582469 0.4828833
0.82181269 -1.4081938 0.48200691
0.30382448 -1.3723981 0.48510969
0.057201307 -0.99331707 0.48379308
0.13993156 -0.77477807 0.4869341
1.5274601 1.0025238 0.48146135
-0.040621214 1.613161 0.48037699
1.65371 1.6449534 0.48286179
0.19515193 2.049654 0.48352501
-0.039100476 2.1073637 0.48653126
0.012980906 2.2240407 0.48464406
0.25936624 2.6487253 0.4801122
1.142554 2.7277172 0.48904249
0.78723997 2.7489285 0.48551437
0.76100731 -2.1938 0.49277344
1.0529975 -2.1938 0.49059415
0.43011039 -2.1284451 0.49340284
1.2110626 -2.0018301 0.49614191
1.6388628 -1.859509 0.49703813
0.64742506 -1.7909305 0.49176893
1.6858901 -1.7826794 0.4964284
1.0388281 -1.76818 0.49748147
1.4114765 -1.5106244 0.4934625
0.0302503 -1.1909269 0.49264687
1.4383564 0.30362481 0.49384707
1.4116719 0.33082265 0.49084347
1.75027 0.95723104 0.49774334
0.73829627 1.0455565 0.4973819
0.13805605 1.1746894 0.49765491
1.3036731 1.307142 0.49559999
1.3871422 1.3686841 0.49777886
1.560745 1.3782004 0.49338767
0.049867898 1.6000161 0.49367088
0.1127604 1.9990871 0.49090135
1.6804276 2.2688882 0.49702609
0.6947211 -2.1938 0.50734651
1.328753 -2.0243089 0.5038898
1.0758688 -2.0062304 0.50836247
0.35578173 -1.9939665 0.50581408
1.0708115 -1.622925 0.50385398
0.46403998 -1.4693618 0.50385398
1.2665815 -1.4526523 0.50385398
0.88781637 -1.4284291 0.50385398
0.44040579 -1.3705463 0.50385398
0.70865369 -1.3791604 0.50385398
0.98704875 -1.3340377 0.50385398
0.57610703 -1.2441044 0.50385398
0.65340424 -1.244581 0.50385392
1.2332656 -1.2309391 0.50385398
0.41729787 -1.183164 0.50385398
1.6451488 -1.175621 0.50583053
0.64109927 -1.1666921 0.50385398
1.6480967 -1.0330034 0.50077593
0.35442418 -1.0164112 0.50385398
1.0640895 -1.0071936 0.50385398
1.5032053 -0.93542057 0.50832742
0.28178445 -0.80393648 0.50638288
0.61096281 -0.24932504 0.50455439
0.48414496 0.16547425 0.50910509
0.63358867 0.19100174 0.50628549
1.5803063 0.40155327 0.50131357
0.11008585 0.44831526 0.50364584
0.74222499 0.49216166 0.5025149
1.7518173 0.7627117 0.50967908
0.13233545 0.84965026 0.50832331
0.60237676 1.2020217 0.50818139
1.343325 1.2167575 0.50587082
0.98906302 1.2329013 0.50379366
1.3774391 1.3723638 0.50718814
0.22775438 1.3837709 0.50655949
1.7244467 1.4224439 0.50768995
1.7249693 1.6664515 0.50680548
0.021701846 2.2916412 0.50528347
0.3021614 2.6729293 0.50153869
1.1577802 -2.0072572 0.51826984
1.1029176 -1.9871 0.5173232
0.87470436 -1.867 0.51087481
0.79647851 -1.80281 0.51627481
0.63029987 -1.6201768 0.51591927
1.7799647 -1.5801898 0.51662052
0.069170371 -1.3146431 0.51757699
0.89675224 -1.25046 0.51426363
-0.074474819 -1.1051598 0.51767647
0.66718417 -0.8101961 0.51306725
1.685353 -0.63689315 0.51683807
0.74222499 -0.33451289 0.51764935
0.45451015 -0.25280958 0.51436847
1.586589 -0.15529883 0.51903725
0.97307909 -0.14356297 0.51279807
0.957775 -0.13307989 0.51675379
1.508862 -0.033952236 0.51960677
0.1206611 0.047813527 0.51123822
0.69523275 0.069148846 0.51974362
0.957775 0.093120329 0.51071262
1.1872572 0.11348169 0.51484752
1.446748 0.11738066 0.51441693
1.026793 0.13701671 0.51224828
0.33171219 0.14366244 0.51151395
1.0545431 0.15507255 0.51025397
0.33579388 0.34816989 0.51724517
0.8328104 1.1047478 0.51010442
0.51957625 1.1453308 0.51399112
-0.051272862 1.1887349 0.51103848
1.6453373 1.2267575 0.51512039
0.21785781 1.3016359 0.51299191
0.2024008 1.3172956 0.51988417
0.4920699 1.3746998 0.51316118
1.4141901 1.6442738 0.51520318
1.7356479 1.6683087 0.51346761
0.011161353 2.2503269 0.51916385
-0.017388007 -1.6862781 0.52040148
1.0859842 -1.6788962 0.52674431
0.019650567 -0.62845361 0.52509451
1.5890567 -0.22512242 0.52101892
0.963938 -0.11144447 0.52667147
0.98470879 -0.11380203 0.5297159
0.17585418 -0.09780588 0.52961147
0.24800223 -0.015172901 0.52905673
1.7525978 0.014649093 0.52291185
1.499591 0.036949616 0.52329987
-0.053633247 0.67203736 0.52747309
0.69345057 0.84331965 0.52733415
0.734164 0.97585058 0.52487767
0.97050798 1.0053786 0.52957463
1.2789114 1.0199535 0.52828991
1.2987423 1.0860188 0.52099335
0.28581601 2.0714242 0.52721798
1.660189 2.4216084 0.5253855
1.5050673 2.5592635 0.52066851
0.18287447 2.6834798 0.52951956
0.49857223 2.7355282 0.52376461
0.62430328 -2.1120999 0.53550458
1.1075962 -2.0109301 0.53049481
0.52764708 -1.9933686 0.53116131
0.97459465 -1.9961901 0.53411585
1.596746 -1.8463883 0.53652829
1.8041022 -1.5655148 0.53090179
1.7200336 -1.4625328 0.5348286
1.6738422 -0.6173951 0.53473163
0.957775 -0.57070005 0.53254992
1.4750049 -0.19366321 0.53332037
0.69063246 -0.092068791 0.53754985
1.3807697 -0.073513582 0.53550029
1.3856668 0.068614371 0.53288662
0.59481293 0.075524122 0.53333646
1.1595653 0.12388679 0.53141993
0.25204283 0.78411424 0.5365448
1.2416822 0.91656703 0.53970879
1.4554901 0.93886673 0.53724593
0.42159906 0.97723442 0.5330081
0.61433965 1.0006082 0.5304265
1.2163377 1.096661 0.53540081
1.1278205 1.2093823 0.5327937
0.32757545 1.2285764 0.53325379
1.4917128 1.2609767 0.53800398
0.011973165 1.4193118 0.53232217
1.5138814 2.0879474 0.53397906
0.15734664 2.1042516 0.53628039
0.22910346 2.6326082 0.53054976
0.24415413 2.7047443 0.53604889
0.84721804 2.7774401 0.53027081
0.70259291 2.8330054 0.53957975
0.61924332 -2.18609 0.54362977
0.71832651 -2.18609 0.54686385
1.1226499 -2.1784992 0.54153967
0.42430308 -2.029171 0.54621136
0.37881485 -2.0066149 0.54967779
0.96472687 -2.0042884 0.54020679
1.0882113 -1.76818 0.54247075
0.84802258 -1.687151 0.54042727
1.4034916 -1.1221964 0.54216087
1.0366794 -0.81189841 0.54185402
1.6437792 -0.56894028 0.54187608
0.7135601 -0.13136247 0.54188961
0.957775 -0.1239944 0.54820859
0.74222499 -0.083441034 0.54621464
-0.053851336 -0.0075155944 0.54891527
1.3303291 0.040605836 0.54124606
-0.033859748 0.3160595 0.54309809
1.4076339 0.35973552 0.54501349
1.4262294 0.77076584 0.54360968
0.70693398 0.8726666 0.54859805
1.2011759 1.0790433 0.54057044
1.5680059 1.2070609 0.54776347
1.0266593 1.2278503 0.54114789
1.5005956 1.2286745 0.54069561
1.3752911 1.2659335 0.54163176
1.5817215 1.4358059 0.54454255
1.0825378 2.1214311 0.54802924
0.62750399 2.134753 0.54808658
0.84438318 2.1344879 0.54808456
1.1439753 2.1464171 0.54813921
0.55843043 2.1573944 0.5481869
0.6717695 2.1635468 0.54821038
0.81684089 2.1748359 0.54825777
0.40023077 2.2022614 0.54838908
1.1799531 2.2403278 0.54854947
0.38134393 2.2509153 0.5486033
0.28280199 2.2610562 0.54865479
1.3578358 2.3004982 0.54882175
0.73843837 2.4048591 0.5492478
0.55719459 2.4526672 0.54946864
0.8041991 2.455677 0.54946315
1.0823724 2.4607086 0.54949772
1.2912047 2.5044053 0.5497185
0.53110093 2.5679069 0.54997754
1.4121647 2.7229085 0.54808617
0.78379321 -2.1914163 0.55434531
0.66020608 -2.18609 0.55353427
1.0791123 -2.18609 0.55883324
0.9292655 -1.76818 0.5549829
1.1306726 -1.6895885 0.55006588
1.3148805 -1.4158945 0.55620569
0.029192427 -1.1869794 0.55184841
1.7522857 -0.32322145 0.55684274
1.2201248 -0.26125094 0.55561137
1.4065528 -0.24278472 0.55419576
0.957775 -0.13809787 0.5522117
1.0389088 0.12489265 0.55280328
0.2144227 0.26599786 0.55004567
0.13330057 0.36289334 0.55259496
0.5741213 1.0243639 0.55660897
1.3846686 1.0281793 0.55396903
0.48231128 1.0351336 0.55344999
1.4897318 1.4081018 0.55744809
-0.042568449 2.1029813 0.55736959
1.4274712 2.4052553 0.55294883
0.34603322 2.6532934 0.55045855
0.62078071 2.6910932 0.55049479
0.62148976 2.8311787 0.55080092
1.006351 -2.1938 0.56415659
1.1000266 -1.9961898 0.56551647
0.84736311 -1.5442841 0.56679857
1.7367905 -1.4310095 0.56625152
0.073820084 -1.3319898 0.56155443
0.52713776 -1.3314128 0.56975543
1.6782328 -1.320523 0.56955928
0.097598374 -1.0345087 0.56177521
0.54603165 -0.034095332 0.56182748
1.0944549 0.36691535 0.56225193
1.5770793 0.7044819 0.56392562
0.96583599 0.8892799 0.56379038
1.1062436 1.008418 0.56128615
1.5601653 1.0086089 0.56996536
1.0091746 1.0891211 0.5634743
0.83938599 1.2246264 0.56755048
1.6539556 1.2517419 0.56431353
0.58460742 1.3953623 0.56782126
1.7304919 1.7407358 0.56281215
1.6537099 1.8594716 0.56571078
0.088207267 1.9460757 0.5678798
0.28581601 2.0253124 0.56605637
0.18971418 -1.9202664 0.57384753
1.119036 -1.76818 0.57506025
0.84733093 -1.7082 0.57871509
-0.0025350973 -1.5246971 0.57581067
1.2896814 -1.2793157 0.57169312
1.6674126 -1.2586799 0.57494199
1.5723176 -1.0934837 0.57818604
1.4752945 -1.0787251 0.57692629
-0.052942939 -0.90322113 0.57193911
0.49626824 -0.81106412 0.57427686
-0.057356685 -0.7734282 0.57614487
0.74222499 -0.33555982 0.57167536
0.26538992 0.785945 0.57556951
0.734164 0.87126589 0.57785612
1.2237077 0.9592948 0.57569492
0.33925372 1.2660375 0.57584798
0.4563593 1.2663803 0.57943648
0.43444663 1.3967919 0.57160807
1.5533667 1.5867853 0.57498533
-0.034006946 1.784142 0.57939315
0.0554296 1.7809783 0.57704103
0.16679987 2.0700643 0.57194149
0.20710808 2.7154717 0.57674724
1.0805395 -2.1938 0.58265638
1.5367951 -1.5987523 0.58727169
1.7477107 -1.3598189 0.58953702
0.91997856 -1.2425532 0.58865237
0.95880115 -0.60789979 0.58686185
0.21628202 0.039051563 0.58799171
0.13942425 1.0069389 0.58438975
0.23792782 1.0090663 0.58162743
0.79054821 1.049801 0.58339536
-0.05872133 1.2189441 0.58424115
0.67751932 1.2280098 0.58140635
1.0616268 1.2971382 0.58896947
0.010695495 1.4483232 0.58558351
0.19321696 1.5326493 0.58572024
1.4141901 2.0370281 0.5870893
0.042868897 2.4678836 0.58370769
1.4694066 2.7008066 0.58817601
1.1446874 2.8267272 0.58533293
0.67500442 -2.0018313 0.59225565
0.33481628 -1.7423977 0.59804553
0.4850904 -1.7488533 0.59169877
1.2278644 -1.7450691 0.59925449
0.47867528 -1.6155587 0.59504646
0.19770581 -1.5184231 0.59993112
-0.076992564 -1.1773546 0.59757084
0.73980898 -0.73117566 0.59961754
0.10384608 -0.54917365 0.59922034
1.2563535 -0.18551278 0.59723938
0.57424271 -0.17412384 0.59544545
1.38914 -0.16898537 0.59463418
0.72614181 0.043182284 0.59509987
1.6518993 0.39613637 0.59626317
0.80440277 0.88396633 0.59957993
0.81133735 0.96903121 0.59204566
-0.0046202326 1.4557946 0.59385514
0.19921595 2.0150554 0.59426147
0.18896955 2.6064224 0.59832138
0.55641019 2.7378397 0.59463507
0.34157673 2.7771711 0.59237504
0.48845506 2.8134305 0.59043187
0.7684046 -2.0108044 0.60823035
1.0795193 -1.9891658 0.60051644
0.83841401 -1.8188716 0.60801768
0.6959936 -1.80281 0.60552281
0.1163125 -1.5377364 0.60428953
0.12142815 -1.3709477 0.60991812
0.29350674 -1.3028991 0.60110688
0.027265966 -1.1128187 0.60940319
1.5656446 -0.97671497 0.60912341
0.35593945 -0.20962429 0.6010372
0.65993941 -0.18250136 0.6018846
0.037289798 0.39203614 0.60465026
0.41876948 0.79133648 0.60532516
0.31201345 0.80181712 0.60366845
1.766824 0.87564898 0.6043489
0.052320164 1.4632604 0.60719335
1.7007515 2.065186 0.60723484
1.4432743 2.3104188 0.60350728
1.6486536 2.5056264 0.60487324
0.97089702 2.7500763 0.60383511
0.73137832 -2.0044992 0.61649406
0.74001694 -1.867 0.61113739
1.0676551 -1.8670001 0.61524916
1.8257376 -1.5035489 0.61361057
1.2878366 -1.2579589 0.61926866
-0.029610131 -1.197805 0.61307883
0.06612628 -1.1179157 0.61733216
0.020496489 -0.63390619 0.61691606
0.957775 0.13887408 0.61632234
0.12227225 0.20258172 0.61811733
1.5923761 0.4775022 0.61448509
0.20080513 1.2571832 0.61134756
0.18260264 1.4822862 0.61437488
-0.058215518 1.9381797 0.61299849
1.4914153 2.051753 0.61889511
0.54901963 2.0820055 0.61825746
0.88426703 2.0820951 0.61857057
0.81591338 -2.1893258 0.6201098
0.83662641 -2.189642 0.62003636
0.55841941 -1.9871001 0.62756896
0.27605182 -1.9501829 0.62456143
0.78643018 -1.8218713 0.62921214
1.6140237 -1.5482738 0.62432879
0.011224046 -1.3035752 0.62039369
0.8020764 -1.2610869 0.62746513
0.24485981 -0.94931912 0.62836897
1.4595686 -0.80897474 0.62480068
1.7522494 -0.74858624 0.62161386
0.95967114 -0.60038757 0.62992346
1.4988174 0.21412408 0.62810576
1.0808403 0.23195647 0.62490886
0.88140535 1.2301965 0.62545997
1.0012109 1.2991581 0.62731022
0.0096231345 1.8056927 0.62365443
1.4817631 2.6724372 0.62536573
0.76097465 2.8086858 0.62568998
0.055480354 -1.7814295 0.63797134
0.79146659 -1.5078746 0.63314378
1.8358302 -1.4304934 0.63726735
1.5993226 -1.3590804 0.63360357
1.7501374 -1.2684143 0.63746417
0.83481616 -0.099213257 0.63195479
1.5801697 0.15085851 0.63508689
1.0646858 0.21704963 0.6350981
1.248183 0.39706492 0.63463938
1.6217513 0.41637895 0.63080186
1.7723877 0.93178749 0.63457257
0.025387071 1.2954665 0.6348514
1.5123672 1.3139217 0.63291633
0.015324453 1.6847675 0.63024235
-0.041935466 1.7087641 0.63936162
1.4141901 1.8755378 0.63082874
0.22615957 2.1175671 0.6384353
1.0315713 2.758615 0.63219547
1.1803995 -1.8670001 0.64242929
0.32726669 -1.6295412 0.64508164
0.27323923 -1.5416646 0.64580548
0.2741465 -1.5330575 0.64498234
1.8275199 -1.3948975 0.64980012
-0.059845176 -1.2361031 0.64849132
1.6173987 -1.2224798 0.64446765
0.023364156 -0.98924452 0.64820027
0.68888199 0.28500521 0.6414296
0.76781493 0.31340596 0.64140403
0.022013567 0.39069295 0.64695805
0.44881853 1.3222027 0.64672077
1.5099427 1.3264003 0.64600468
0.16157533 1.5070518 0.64913929
0.039043315 1.7109722 0.64404708
0.26608944 2.4104452 0.64195186
0.048458967 2.4892366 0.64139318
1.0376832 2.7624972 0.64363956
0.6679408 -2.0106688 0.65368873
0.15400338 -1.9941025 0.65388387
0.53647661 -1.80281 0.65243113
0.9631927 -1.6658101 0.65926713
0.67820632 -1.25046 0.65627986
0.87675446 -1.2284449 0.6528492
0.009071473 -0.6514793 0.65473139
1.7578468 -0.21315166 0.65416908
0.76421779 -0.19804873 0.65874892
1.7594492 -0.095740281 0.6503787
0.92463315 0.09267544 0.65825009
0.098391175 0.21563698 0.65588641
1.6963884 0.28211689 0.65016019
1.7354015 0.31857473 0.65556419
0.64525837 1.253668 0.65497452
1.579195 1.2533826 0.65177786
0.64917803 1.4037507 0.65546024
-0.053455248 1.7777884 0.65344024
1.6759447 2.0264742 0.6522119
0.26837361 2.0790222 0.65642923
1.4226952 2.4900324 0.65947831
0.8101393 -2.1623862 0.66799235
1.2435176 -2.1111584 0.66162717
0.61240631 -2.0057616 0.66269767
0.72597992 -1.7195671 0.66219211
0.97123945 -1.5598897 0.66362405
1.7954834 -1.4549606 0.66997522
0.3328892 -1.3746682 0.66058308
0.22144088 -1.3374439 0.66581464
0.73081279 -1.3089077 0.66560495
0.28666982 -1.2840817 0.66047233
-0.050853387 -0.9715451 0.66645944
1.7514802 -0.65269357 0.66754925
0.81160384 -0.23540613 0.66887647
1.7574693 -0.16057903 0.66781801
0.75615901 0.16677287 0.66489869
1.6129681 0.20983174 0.66954178
1.6046031 0.27718541 0.66857898
0.11867484 1.1150161 0.6697787
-0.014629485 1.5211447 0.6655578
1.4550608 2.3194251 0.6618098
0.39958543 2.7352338 0.66321951
1.3777276 -2.0330176 0.67736053
1.6322025 -1.8082931 0.67231429
-0.046627689 -1.3244526 0.67414677
0.98698097 -1.3182831 0.67751455
0.74222499 -0.33745405 0.67565954
0.80075991 -0.24804845 0.67703879
0.94384098 0.037196573 0.67407161
1.5827327 0.05298993 0.67640865
0.19748347 0.2064307 0.67864841
0.29345173 0.41250157 0.67405039
0.52461457 0.41338843 0.67383134
0.10308196 1.0608081 0.67333633
-0.058832139 1.2387071 0.67877537
1.4745736 1.3587754 0.67874533
1.1623864 1.4158018 0.67078733
0.14857766 1.511054 0.67966139
1.2161124 2.7547665 0.67611945
0.60293496 2.7682405 0.67636371
1.3123158 -2.0501513 0.68058228
0.66166544 -1.9909866 0.68413669
0.80665684 -1.99619 0.68859982
1.0333852 -1.9924575 0.68423069
0.3336643 -1.9051076 0.68464386
1.467966 -1.9059738 0.68219918
-0.023541812 -1.8551271 0.68475449
1.5175486 -1.7658242 0.68439025
1.6214398 -1.4771118 0.68717647
0.21284881 -1.4230158 0.6810748
0.21904922 -1.4128358 0.68571907
1.0383159 -0.60359669 0.68234277
1.0813699 -0.59941965 0.68507403
1.5932986 -0.29586148 0.68029505
1.361948 0.41731334 0.68325484
0.27796426 1.3436956 0.68892086
0.37142825 1.3410203 0.68874383
1.7366147 1.3736968 0.6836251
1.5599283 1.5171425 0.68392402
0.17498572 1.5580878 0.68768001
1.5048442 1.9052975 0.68718362
0.14701106 1.9596188 0.68962169
0.70633066 2.8326478 0.68893182
0.15642455 -1.9959977 0.69942904
0.150875 -1.8161979 0.69065678
0.66747522 -1.6453061 0.69411075
1.5708514 -1.4424179 0.69863701
0.69162279 -1.2185559 0.69571042
1.2365065 -1.2185254 0.69264543
0.04897406 -1.0487003 0.69912845
1.4251435 -1.044219 0.69050217
0.053896744 -1.0344765 0.69028771
0.0072227307 -0.6621083 0.6902355
0.025211994 -0.64179301 0.6912443
0.048391197 -0.61604297 0.69193709
0.74170518 -0.42955858 0.69134611
0.90415275 -0.31336421 0.69506621
0.125848 -0.055341519 0.69836354
0.7088455 0.21724467 0.69720852
-0.058131225 0.90501231 0.69031471
1.4568262 1.254681 0.6985153
0.20139027 1.276475 0.69607186
1.165185 1.2879366 0.69085109
0.5362007 1.4417099 0.69059289
1.5244178 1.585027 0.69560468
-0.016028779 1.9469557 0.69863158
1.5633101 1.9660871 0.6936748
0.038193643 2.4181478 0.69334096
0.92120707 -2.1315963 0.70132005
1.2776105 -2.0302651 0.70504236
0.93583 -2.0056052 0.70264697
1.0229241 -1.99619 0.7044481
0.019956565 -1.7526119 0.70244581
0.33491507 -1.7461121 0.70493299
0.66523749 -1.5486465 0.70516348
1.4332308 -1.4885228 0.70687234
-0.018902441 -1.4201634 0.70583689
1.4237703 0.24238642 0.70456678
-0.036600329 0.32622436 0.70112693
1.6149797 0.81018567 0.70790958
1.5549561 1.0558493 0.70336533
1.7557313 1.1202035 0.70543003
0.4300344 1.346494 0.70236456
0.72906518 1.3471903 0.70392478
1.4253595 1.4312072 0.70351768
0.16260506 1.9253502 0.7079435
0.10134368 1.9426937 0.70476151
1.4705191 2.2517338 0.70608139
0.34817517 2.7475214 0.70580268
1.0829927 2.8031087 0.70262307
0.89264888 -2.1235826 0.71197432
0.71794462 -2.0800517 0.71721053
0.90561247 -2.0018301 0.71254563
0.56486326 -1.9953525 0.71731687
0.80294007 -1.82267 0.71774739
0.47470653 -1.5927503 0.71474028
1.3814676 -1.4306803 0.71478873
1.802533 -1.3575423 0.7127713
-0.046718877 -0.73878473 0.71067512
1.6362278 -0.029397409 0.71644235
1.0238675 0.20319217 0.71735281
0.94384098 0.31256109 0.71453893
1.1500584 1.2959094 0.71136087
1.5121191 1.343823 0.71023083
0.28581601 1.8422816 0.71275914
1.6624942 1.9255395 0.71800029
1.1612296 2.0752347 0.71491176
1.3122725 2.0747714 0.71961159
1.6729916 2.3425932 0.71189308
0.96096039 -2.1215389 0.72785848
1.4784672 -1.9436826 0.72322756
0.61261535 -1.4430188 0.72404081
1.212713 -1.3682762 0.72472543
0.14488366 -1.1112497 0.72663087
1.6385858 -0.53714228 0.72574514
0.95844114 -0.43862176 0.72869241
0.64215559 0.24408153 0.72958362
1.3063476 0.27514392 0.72015357
0.14397316 1.1988662 0.72850811
1.7356308 1.636609 0.7249521
1.7126448 1.9186659 0.72806841
-0.013253961 1.9318187 0.72138458
0.47046787 -2.2418184 0.7388345
1.33986 -2.1107135 0.73598468
1.5521215 -1.8022944 0.73107004
0.65097433 -1.4887034 0.73056424
0.70940179 -1.2101849 0.73368406
1.7690507 -1.2146784 0.73676956
0.061727934 -0.16024899 0.73097873
1.1997384 0.28329623 0.73853648
0.22522095 0.33486184 0.73926997
1.0507103 0.41240299 0.73621869
0.74228716 1.3623276 0.7386266
1.1404595 1.4569077 0.73085105
1.0191162 2.0741696 0.73105162
1.0318687 -2.0109301 0.74548727
0.50222409 -1.764174 0.74624145
0.036084775 -1.430656 0.7475487
0.39511284 -1.4009364 0.74932539
0.093204021 -1.1791908 0.74984932
0.085394047 -0.31773114 0.74528915
1.7483613 -0.30442852 0.74904305
1.6000295 -0.20932625 0.7419942
0.065883435 0.037078917 0.74770355
1.5793793 0.050420992 0.74575603
0.094935179 0.21500912 0.74296963
0.0078821555 0.29441255 0.74713719
0.6730355 0.37334877 0.74420744
1.5623357 0.72622091 0.7474916
0.14092159 0.88635027 0.74497455
1.5717002 0.90052277 0.74913222
0.40176213 1.3636827 0.74173862
-0.020379107 1.3952733 0.74075311
1.4936806 1.4142666 0.74486172
1.7041767 1.8266685 0.74864501
1.7144548 1.8829325 0.74629045
0.71296668 2.0733981 0.74227494
0.58916658 -1.82267 0.75538266
1.5564835 -1.7989938 0.7505464
0.49914032 -1.7602241 0.75090921
1.2033926 -1.4884369 0.7509737
1.3906491 -1.4204562 0.75865859
0.58148253 -1.3165404 0.7547558
0.039051723 -1.3015008 0.75055206
0.41276306 -1.2509882 0.7562682
1.6593714 -1.2203352 0.75185812
1.2731733 -0.50116432 0.75181872
1.6358632 -0.25860688 0.75409055
1.7489958 -0.17741966 0.75857264
1.617541 0.33908635 0.75650012
1.5941563 0.55580902 0.75600594
0.082573548 1.1086662 0.75186533
1.4305656 1.3373095 0.75606632
0.63135886 1.3713909 0.75939566
1.3558912 1.4440198 0.75134069
0.14452752 1.6556749 0.75016123
0.01273226 1.6809543 0.75684166
0.30895966 -1.8984473 0.76359487
1.5935814 -1.8255115 0.76165688
1.0799555 -1.7058983 0.76884419
0.29851612 -1.4915106 0.76720834
1.3058804 0.29563677 0.76636362
0.070987292 0.43473077 0.76813102
1.595156 0.49020523 0.76281834
1.0724521 1.3719506 0.76050693
1.4171234 1.7488194 0.76027697
0.26499596 2.5460646 0.76697731
0.59521806 -2.0868912 0.77797484
0.49598855 -2.0727358 0.77130181
0.68815351 -2.0052998 0.77001452
0.32252312 -1.6979563 0.77989709
0.84528667 -1.5398543 0.77843046
-0.05660294 -1.4590316 0.77105939
0.036343515 -1.4364241 0.77931535
0.71048605 -1.4361349 0.77915168
0.38497812 -1.416105 0.77531528
0.039417747 -1.363049 0.7722066
0.098023742 -1.3232516 0.77824748
-0.06877248 -1.0973678 0.77200603
0.073012635 0.29255795 0.77401996
1.7415403 1.4366438 0.77692425
0.98282647 -2.0839167 0.78419304
0.69283694 -1.86673 0.78388095
0.54310536 -1.8028098 0.78419054
0.61712199 -1.7838262 0.78739607
0.98195654 -1.5313359 0.78738022
-0.048709922 -1.4445624 0.78544277
0.017982423 -1.4385157 0.78050017
0.6484288 -1.4387293 0.78062111
0.98602533 -1.4376752 0.78002405
0.26097983 -1.2811418 0.78134656
-0.029539382 -1.2425716 0.78704518
1.3067756 -0.47466743 0.78840756
1.1475792 -0.23015797 0.7866503
1.748595 0.026620135 0.78543711
1.0919611 1.3223069 0.78014934
-0.040852398 1.3962874 0.78370285
1.2296278 1.4755098 0.78012657
0.28560141 2.0697794 0.7893613
0.98276293 2.7577581 0.78299689
1.4035492 -2.1605656 0.79735267
1.2637609 -2.0313499 0.79687327
1.3341979 -1.9140081 0.79106462
0.57877386 -1.8262124 0.79835546
0.39453113 -1.4862211 0.79185927
-0.0085906219 -0.69009644 0.7901693
1.633215 0.11568114 0.79470122
0.013125237 0.39642543 0.79230678
1.3613868 0.4645794 0.79673803
-0.049955584 0.49875945 0.79374361
1.7427008 1.1002648 0.79171079
1.7615964 1.8370177 0.79370224
0.052559018 2.4655352 0.79052299
0.80845672 -1.9823101 0.80278015
0.77288646 -1.86673 0.80492437
0.22713776 -1.8564563 0.80414271
0.27892387 -1.8411586 0.80182844
0.90382451 -1.77641 0.80498141
0.87666309 -1.7627199 0.80165195
0.89135945 -1.5755001 0.80505908
0.72126895 -1.5314536 0.80523676
0.93153238 -1.3288269 0.80501711
0.41485548 -1.2267634 0.80758715
1.1319364 0.31184918 0.80292165
1.0111133 1.392266 0.80712402
0.65024638 1.4581124 0.80871117
0.55070871 1.4830929 0.80021381
1.0018767 2.7455859 0.80334318
0.49332964 -2.0547268 0.81840944
0.35268441 -1.9307725 0.81031078
1.3253866 -1.8937069 0.8176831
1.1632812 -1.6605666 0.81005388
1.161819 -1.648522 0.81991518
0.56373781 -1.482403 0.81909752
0.99187028 -1.3481425 0.81216085
0.82286489 -1.1915653 0.81909126
-0.033746332 -0.87230557 0.81609809
1.7445935 0.0089463145 0.81500411
-0.039110709 1.1263465 0.81171942
0.47523546 1.3950565 0.81360626
1.1418447 1.4722614 0.81839669
0.93113506 -2.0896301 0.82430816
0.91407466 -1.9389378 0.82029736
0.65057522 -1.9115918 0.82394147
1.0206897 -1.9133638 0.82438064
0.30110866 -1.6074831 0.82149994
0.9726935 -1.6000006 0.82309175
1.7233987 -0.73550063 0.82478678
1.7475891 0.33821055 0.82966852
1.6101847 0.35143825 0.82349688
1.6125786 0.9920364 0.82677191
1.1979002 1.3407964 0.8296327
1.7325323 1.5386152 0.82364821
1.7123677 1.9789872 0.82069564
0.65239775 2.7419879 0.82003355
0.8854214 -2.0850639 0.8336463
0.71711928 -2.0731511 0.83856094
1.0153298 -1.8982103 0.83102453
0.36013049 -1.76183 0.83152902
0.75974715 -1.76272 0.83515036
0.11476561 -1.6895994 0.83658266
0.93589234 -1.53839 0.83348596
1.6989948 -1.434638 0.83340108
1.0731316 -1.1879289 0.83293879
1.0335428 -1.1781017 0.83823776
-0.028821409 -0.58977187 0.83880788
1.6294022 0.29779863 0.83949995
1.1925198 0.32508397 0.83276534
0.089734107 0.35165128 0.83546871
-0.045759808 0.4389993 0.83629918
-0.035185046 1.1447309 0.8342554
0.11228044 1.3299489 0.83275592
0.93446892 1.4051704 0.83675647
0.66533804 -1.9079633 0.84135807
0.68041486 -1.7673439 0.84635037
0.90658671 -1.7529881 0.84375399
1.0013224 -1.6541135 0.84569323
1.4003174 -1.4908407 0.84524143
0.36996493 -1.4836715 0.84002674
0.40323126 -1.3836504 0.84852642
0.40163669 -1.3798045 0.84085041
1.0669833 -1.2499352 0.84275591
0.71382451 -1.1854497 0.84524286
1.1730206 -0.45096707 0.84550327
0.68056226 0.32580262 0.84850109
0.66997838 0.3912819 0.84662485
0.091059253 1.0892606 0.84866107
-0.0051177228 1.4507914 0.84760797
0.70798337 2.7443607 0.84657878
0.41085359 -2.1951547 0.85293972
1.0307691 -2.0397301 0.85671318
-0.0086881649 -1.8667538 0.8581183
1.4299059 -1.8301535 0.85208625
1.6192467 -1.6434364 0.85194266
1.5884274 -1.6285197 0.85803127
1.7423576 0.23440132 0.85390425
1.0325298 0.40830827 0.85463703
1.7361746 0.92425609 0.85335445
-0.03460367 0.98630345 0.85842878
0.61768842 -1.9972124 0.86838698
0.79846412 -1.8109833 0.86310744
0.3223758 -1.585026 0.86136198
0.33059371 -1.5271983 0.86136198
0.27737823 -1.486876 0.86471456
1.404283 -1.4774659 0.8653779
0.29281181 -1.2698042 0.86236972
0.44180638 -1.1887617 0.86090922
1.6268876 0.12053858 0.86960936
1.0856882 0.33491153 0.868864
-0.039908208 0.43099821 0.86870402
1.611758 0.83049762 0.86327225
1.5683659 1.3110749 0.86780357
0.23090328 1.3360727 0.86524391
0.88839316 2.0650635 0.86150622
0.90365309 2.064827 0.8648476
1.6805952 2.1467547 0.86354578
0.6365127 2.7330558 0.86280912
0.54135513 -1.9690692 0.871719
1.592989 -1.560364 0.87733829
0.32641476 -1.4192722 0.87982947
0.67027557 -1.3054743 0.87079793
0.86795723 -1.1798398 0.87360513
0.078091733 -0.4600749 0.87474173
1.4890891 1.3375775 0.87776959
0.99881625 1.362592 0.87747288
0.2997798 2.7142057 0.8772701
0.30446959 2.7165954 0.874699
1.5553662 -1.4319739 0.88666868
0.42859116 -1.1952085 0.88953221
0.44554102 -1.1794215 0.88583666
0.042152215 -0.57310897 0.88861066
1.1119138 0.35283834 0.88676137
1.6039146 1.247551 0.88021606
1.4126073 1.3585249 0.88874686
0.37256187 -2.1651816 0.89896816
0.64025044 -1.3041229 0.8912667
0.50355214 -1.283227 0.89690328
0.40161276 -1.2706273 0.89799589
0.8590095 -1.181812 0.89576113
1.0246806 -1.18292 0.89639097
1.7049191 -0.87292176 0.89831352
1.6220981 0.13769141 0.89082497
0.52492446 0.35277635 0.89404374
1.109607 0.50294566 0.8901208
1.7217617 1.289248 0.89303732
0.36489457 1.5170181 0.89007938
1.4557151 -2.2013981 0.90992224
0.56454051 -1.8663188 0.90358663
1.2137485 -0.47264117 0.90779543
0.52898455 -0.46480608 0.90584052
0.78821003 -0.46260285 0.90270233
0.098790772 -0.21442643 0.9009887
0.096418001 0.085775934 0.90994442
-0.00273547 1.2966093 0.90559459
0.76339287 1.3514588 0.90254587
1.3955843 1.4078172 0.90720654
1.6531196 2.2433808 0.90795201
1.2027307 -1.7822056 0.9168123
0.22717038 -1.5355749 0.91411042
0.59555292 -1.2525401 0.91105437
1.2790754 -1.21121 0.91584921
1.3591199 -1.1740944 0.91847312
1.602596 -0.29837605 0.9107675
0.008749852 0.33666545 0.91396427
1.5844147 1.051717 0.91081071
-0.016888041 1.1672421 0.91452867
1.3004673 1.3753679 0.91532707
0.0015936713 1.4730531 0.9138639
0.46288258 1.5071127 0.91314888
1.0552648 1.5008973 0.91601479
0.6691485 1.5108986 0.91600221
1.2801629 1.5240763 0.91362858
1.1289093 -1.9455942 0.92616361
0.023488063 -1.8919401 0.92036313
0.31102732 -1.5535177 0.9242692
1.22417 -1.1546838 0.92275792
1.2131239 -1.0728769 0.92586577
1.5931115 -1.0719649 0.92258084
0.0036737896 -0.61342978 0.92745233
-0.0066731982 -0.50876123 0.9204275
1.726433 0.26074862 0.92451048
1.2612069 1.4422965 0.92170197
0.66753531 1.4742248 0.92939389
1.2072984 1.5280031 0.92841554
1.4710389 2.2325227 0.92718863
0.50004184 -1.6866143 0.93354046
0.43216187 -1.6059237 0.93946266
0.2959033 -1.4730558 0.93442196
1.2897854 -0.49476549 0.93485594
0.67561257 -0.48091072 0.93879551
1.2608324 -0.35832098 0.93368989
0.098805368 -0.20895793 0.93572271
0.0021422207 0.3986873 0.93730569
0.65138042 1.3737502 0.93599403
0.40744197 1.5164676 0.93960881
1.6777539 1.940199 0.93922949
0.082075596 2.4197462 0.93853414
0.30347162 -2.1111002 0.94702619
1.1579788 -1.9683478 0.94579238
0.89231074 -1.700146 0.94327831
0.33553892 -1.4456092 0.94802451
0.13879836 -1.1666068 0.94818795
0.35317105 -0.46731094 0.94673854
0.0053507341 -0.33624947 0.94363987
1.1480068 -0.32714176 0.94634169
1.3048229 -0.29836291 0.94642818
0.0023754062 -0.19080773 0.94846356
0.63254607 0.36101437 0.94125938
1.7110015 0.91933692 0.94668889
-0.0079678483 1.069255 0.94929212
1.5763247 1.346572 0.94300193
1.6995178 1.596066 0.94179821
0.23423345 2.4451151 0.94908303
1.1432834 -1.528906 0.95988524
1.3896084 -1.3782829 0.95199162
1.5730374 -1.0587044 0.95930433
0.51674902 -0.99219424 0.95062888
1.6507946 -0.67972004 0.95298547
0.097430602 -0.42311946 0.95749199
1.5881433 0.96984935 0.95804071
0.90082026 -1.5281349 0.96709925
1.1649133 -1.5173163 0.96037269
1.2294226 -1.4427445 0.96688312
0.3452563 -1.3656906 0.96450901
1.4709413 -1.2083331 0.96378636
0.099700019 -0.94837219 0.96034968
0.71079272 -0.49462473 0.9678086
1.2622788 -0.492681 0.967556
1.55937 -0.46625775 0.96090233
0.098822758 -0.41359907 0.96002454
0.0062674112 0.069332927 0.96543181
0.10892084 0.65858966 0.96464199
1.496096 1.4095502 0.96918547
0.071487941 2.2701726 0.96745121
0.90352166 2.7711704 0.9683584
1.5399954 -0.85412061 0.97497475
0.19154078 -0.8139466 0.97722322
0.12713671 -0.79270411 0.97510731
1.2638903 -0.49434277 0.97262228
1.6085144 -0.45968792 0.97320944
1.6524782 -0.4233056 0.97885126
1.1761301 -0.34865662 0.97453976
0.71052879 1.5330948 0.9734751
1.4696708 2.2879739 0.97047532
0.96809006 -1.3741622 0.98381823
1.1278365 -0.8724395 0.98886108
1.1440068 -0.8578921 0.98955691
1.1607683 -0.85228616 0.9898169
1.6413951 -0.55958778 0.98031634
0.09033154 -0.46913067 0.98425061
1.6439868 -0.45577431 0.98598015
0.39332682 0.38251376 0.98232436
1.4573727 1.5303824 0.98343337
1.6878272 1.5806699 0.98709869
0.071677268 2.2418497 0.98084021
0.086326443 2.3097382 0.98762572
1.5658416 2.5398831 0.98624438
0.77611744 -1.2305155 0.99964857
0.98025519 -1.2238972 0.99979186
0.36560744 -1.1485924 0.99478728
0.8749097 -0.9384979 0.99534613
0.36951691 -0.9022103 0.99048203
0.60867405 -0.83483267 0.99255311
1.2857038 -0.81755751 0.99024475
0.06214596 -0.65463853 0.99268913
1.6017337 -0.60612333 0.99387765
0.45312291 -0.49545395 0.99573511
0.12955803 -0.44828928 0.99315047
0.071504563 -0.36754021 0.99237061
1.0354759 -0.31474757 0.99546063
1.6013687 0.033394501 0.99380881
1.434119 1.5255997 0.99585378
0.22466227 2.0600052 0.9922322
0.068771735 2.1853747 0.99311453
0.096684679 2.3210406 0.99324584
0.23258327 2.3790343 0.99754322
1.5883522 2.3994517 0.99250609
0.73180187 -0.94920814 1.0013905
1.1468945 -0.89726192 1.0003906
1.6225843 -0.68897367 1.004897
0.090214185 -0.63410294 1.0052944
1.6553782 -0.58171445 1.0035704
1.0613363 -0.33727276 1.0022399
1.2343621 -0.33320415 1.0004271
1.6633823 0.42926213 1.0067172
0.11790086 0.44956282 1.0013194
1.5967052 2.2987785 1.0010397
0.76412696 -1.0903366 1.0135359
0.84459192 -1.0706334 1.0161668
