# .PCD v0.7 - Point Cloud Data file format
VERSION 0.7
FIELDS x y z
SIZE 4 4 4
TYPE F F F
COUNT 1 1 1
WIDTH 1426
HEIGHT 1
VIEWPOINT 0 0 0 1 0 0 0
POINTS 1426
DATA ascii
0.61367702 -1.5980865 0.15079692
0.089516103 -1.5860138 0.15109292
0.23928712 -1.585781 0.15145119
-0.059785843 -1.574876 0.15073875
-0.2205839 -1.5521662 0.15025622
-0.066494435 -1.5558199 0.15072775
0.06615378 -1.5445987 0.15104797
0.65038246 -1.5406492 0.15072431
0.75525445 -1.5481093 0.15047151
0.54291618 -1.5359271 0.15098259
-0.082922429 -1.5106039 0.15070041
-0.21546386 -1.4789071 0.15009934
-0.052567527 -1.4627287 0.15078567
0.058767378 -1.4629847 0.15105189
0.28950065 -1.4685795 0.15160228
0.71434695 -1.4651796 0.15059127
-0.10211448 -1.4417924 0.1506727
-0.10601752 -1.4128901 0.15064727
0.34277481 -1.4023323 0.15149662
0.7725966 -1.3921795 0.15002921
0.74542964 -1.3694065 0.1501486
0.077329822 -1.3031604 0.15113856
-0.1409758 -1.2853297 0.15008563
0.58832014 -1.2741562 0.15093392
0.7005167 -1.2722694 0.15019128
0.72196287 -1.2779227 0.15006496
0.045862034 -1.2531595 0.15107651
0.13540277 -1.2520103 0.15129098
0.25581026 -1.2540104 0.15157846
0.40837571 -1.2480829 0.15138051
0.13473853 -1.2060018 0.15130156
-0.032230183 -1.1915804 0.15055685
-0.098968796 -1.1830778 0.15009588
-0.080962561 -1.1804137 0.15020734
0.38697022 -1.1493092 0.15145783
-0.030400973 -1.1282367 0.1504041
0.11389964 -1.1256725 0.15127297
0.043879867 -1.1121628 0.15085073
0.16950047 -1.103482 0.15141182
0.45547283 -1.0887667 0.15131
0.24607527 -1.0576758 0.1516071
-0.038508885 -1.0281258 0.1500904
0.045796119 -1.0267317 0.15064111
0.23043397 -1.0218327 0.15157914
0.51236868 -1.0256476 0.15078697
0.5466947 -1.0271611 0.15056518
0.068433598 -1.0027423 0.15072756
0.21841055 -1.00238 0.15155554
0.065218098 -0.94029438 0.15054399
0.19842914 -0.94644558 0.15143591
0.32991084 -0.83288687 0.15150203
0.38105255 -0.8329612 0.15116881
0.09519694 -0.82442164 0.15049981
0.34918332 -0.82107407 0.15148054
0.06589058 -0.81776965 0.15030813
0.51812452 -0.81784439 0.15025905
0.48416829 -0.79663885 0.15045726
0.53687936 -0.76993507 0.15011188
0.49924904 -0.72848302 0.15173784
0.61533284 -0.72065639 0.15026921
0.32121944 -0.68461949 0.15627578
-0.06347242 -0.66106087 0.15152535
-0.17042232 -0.65157044 0.15031776
0.40589967 -0.65466654 0.15560354
0.83148652 -0.59737372 0.1507346
-0.060559895 -0.58488822 0.15346989
-0.0037972853 -0.57144785 0.15483257
0.70653176 -0.57217634 0.15283597
0.19577476 -0.56234396 0.15899423
0.69586325 -0.54205489 0.15377711
0.46907395 -0.53651035 0.15820049
-0.045719907 -0.49364072 0.15653645
0.034903601 -0.44190273 0.15977192
-0.17057835 -0.41092163 0.15818982
-0.33526927 -0.32130834 0.15287702
-0.37363204 -0.29500541 0.15041177
0.98178035 -2.9251235 0.16055936
0.0023393929 -2.85729 0.1699304
-0.10268693 -2.8176541 0.16047949
0.03595902 -2.7909527 0.16563807
0.42809832 -2.7583179 0.16855395
-0.41437992 -2.7447851 0.16745695
0.22336027 -2.7148361 0.16890442
0.11164435 -2.7006712 0.16144386
-0.18993309 -2.5592937 0.16730325
-0.38626021 -0.88401026 0.16799527
-0.23099893 -0.71296984 0.16555297
-0.31678277 -0.6959281 0.1609439
-0.40974081 -0.6057713 0.16735253
0.89585233 -0.60750848 0.1632496
0.30692521 -0.57265633 0.16017361
0.75949115 -0.49407959 0.16743229
0.29107577 -0.44063452 0.16475025
0.31949911 -0.42309466 0.1647667
0.2518146 -0.40375254 0.16520889
0.28507447 -0.39090908 0.16626875
0.47144198 -0.38146499 0.1631687
-0.14480734 -0.37418807 0.16036645
0.36049438 -0.35665977 0.1661208
0.38193193 -0.3168143 0.16699396
0.43708718 -0.29621542 0.16659135
0.48133022 -0.29470524 0.16578284
-0.26326898 -0.28876573 0.16729799
0.63185257 -0.28021812 0.1659265
-0.15391164 -0.26954401 0.16659087
-0.048961837 -0.26985651 0.16654196
0.53229934 -0.25577548 0.16735104
-0.15411988 -0.2329458 0.16876693
-0.13368092 -3.146771 0.1774554
0.98813713 -3.0183702 0.17563669
-0.26027405 -2.9632223 0.17364839
0.13926306 -2.841017 0.17595984
0.16453005 -2.8184214 0.17525823
0.25598013 -2.7853272 0.17722718
-0.38537824 -1.0997721 0.17987998
-0.38607499 -0.94820136 0.17162891
0.88110352 -0.70157278 0.17406119
0.90717101 -0.70127124 0.17318332
0.98845065 -0.37594223 0.17773166
0.7703613 -0.22424513 0.17748602
0.95397717 -0.21225515 0.17764394
0.4366557 -0.1943661 0.17097461
0.14182536 -0.1529474 0.17343789
0.5436402 -0.13603655 0.17447358
0.58026379 -0.13211855 0.17471713
-0.074269414 -0.12131111 0.17582731
0.63740647 -0.11923577 0.17601958
0.28705004 -0.10630888 0.17707546
0.011620441 -0.091794208 0.17868823
0.71770304 -0.09096951 0.17886823
0.97013754 -2.9746256 0.1800314
-0.40294594 -2.9260805 0.18172473
0.7457276 -2.9187448 0.18393894
-0.14868629 -2.8936522 0.18526059
0.25936303 -2.8506691 0.18346398
0.2338116 -2.8423095 0.18128355
1.0011295 -2.8250508 0.18599327
0.96537101 -2.1606951 0.18979803
-0.32013854 -0.74871916 0.18636957
-0.2533392 -0.70569903 0.18666835
-0.33178729 -0.073219612 0.18064901
-0.27336401 -0.077320494 0.18039054
0.48663127 -0.077343546 0.18005782
0.82759321 -0.05317653 0.1826776
-0.089959852 -0.043286748 0.18357593
0.50799149 -0.04199132 0.18357959
-0.29438496 -0.011400547 0.18678525
0.6047399 -0.011089238 0.1867179
0.39406916 -0.004009895 0.18718605
0.31382948 0.0038721263 0.18817465
0.76819754 0.0053599812 0.18874955
0.57164311 -3.0040092 0.19492258
0.065339163 -2.990927 0.19062218
0.15038982 -2.9979343 0.19110262
0.86669236 -2.9562132 0.19233268
-0.1810281 -2.8959618 0.1995692
0.99328148 -2.8693056 0.19141878
0.85951936 -2.4705648 0.19595198
-0.26055187 -2.4231205 0.19942869
0.96508324 -1.9633836 0.19003767
-0.38767889 -1.0285221 0.19716349
-0.38724381 -0.99000347 0.19088465
0.96084023 -0.77483177 0.19516835
0.83209836 -0.29286984 0.19691576
-0.35398713 -0.11256455 0.19685207
0.83451831 0.015658673 0.19046152
0.28474623 0.04033643 0.19206101
0.54578114 0.045400407 0.192274
0.80736703 0.042242084 0.1930128
0.36440536 0.065225281 0.19401197
-0.022879766 0.0842112 0.19616668
-0.027528422 0.090850301 0.19682854
0.44388741 0.10090876 0.19745684
0.60237682 0.10020159 0.19775124
0.41568941 -3.0860238 0.20849869
0.34091836 -3.0755661 0.20471685
0.19717491 -3.0584373 0.20160219
-0.00058091432 -3.0434127 0.20280592
0.45908901 -3.0419524 0.20032805
-0.32821777 -2.962827 0.20748654
-0.22770369 -2.4719174 0.20381823
-0.38286561 -1.6195242 0.20229056
0.96332711 -1.6126736 0.20949559
0.97270381 -0.86672765 0.20699576
0.78258175 -0.70471364 0.20033354
-0.19129917 -0.69904232 0.20195127
-0.41866428 -0.53920448 0.20978117
-0.15603249 -0.21637511 0.20898971
0.72851604 -0.13935961 0.20878093
0.3610422 -3.1046834 0.21241231
0.57026517 -3.0911493 0.21290717
0.7250545 -3.0637648 0.21097155
-0.27434558 -3.0470634 0.21861359
-0.10306188 -3.0432351 0.21898574
-0.082207114 -2.9750624 0.21290788
-0.31115448 -2.9654427 0.21429925
0.91804105 -2.5314488 0.21404888
0.96320224 -1.5661612 0.21508132
-0.38262546 -1.5213497 0.21356994
0.96754557 -1.2995298 0.21796255
-0.18549784 -0.67143488 0.21220098
-0.40119004 -0.64845252 0.21523562
-0.28791559 -0.63607144 0.21936938
-0.31565329 -0.28717014 0.21119094
0.95469147 -0.26315209 0.21332341
0.16183281 -3.1453106 0.22965512
0.81418848 -3.1115835 0.22788723
0.94077986 -3.1027021 0.2276141
-0.10561448 -2.9385157 0.22791524
-0.081194863 -2.9083593 0.22018917
0.76763272 -0.69603366 0.22691447
-0.40044829 -0.20713189 0.2248555
-0.19563621 -0.1371713 0.22327372
-0.025589138 0.19339137 0.22815901
0.21572901 0.22061746 0.22516792
0.11786385 -3.2655478 0.23959771
-0.24989763 -3.2101223 0.23299916
0.34633902 -3.164387 0.23773998
0.7055952 -3.1588559 0.23711549
-0.28748158 -3.142628 0.23318435
-0.24525265 -3.1488128 0.23775393
-0.1713149 -3.1444261 0.23579174
0.71274447 -3.1442111 0.2310096
-0.13538232 -3.1032636 0.23918429
-0.29182756 -3.0492346 0.23856768
-0.37475258 -2.9943473 0.23980175
-0.11266668 -2.9206965 0.23595625
0.71231574 -2.7527976 0.23789658
-0.28184944 -2.4743881 0.23467366
0.98469973 -2.4781199 0.23496753
-0.38263786 -1.6950747 0.23176959
0.97079492 -1.1484828 0.23436403
-0.40633273 -0.46691054 0.23490804
-0.16316953 0.14932151 0.23031136
0.089341924 0.20994174 0.23763603
0.071603552 -3.2630434 0.24275175
0.18753482 -3.1855423 0.24684063
0.22541279 -3.1828501 0.24561758
0.82119632 -3.1663241 0.24119172
-0.29682639 -3.1452794 0.24025699
-0.1365799 -2.8599951 0.24848422
0.66887903 -2.8554478 0.24664383
0.7316485 -2.833744 0.24888098
0.98488128 -2.8177185 0.24310222
-0.40189901 -2.7788806 0.24574107
0.76238602 -2.7248094 0.24317053
0.97534287 -0.66458744 0.24764316
-0.26314208 -0.39605576 0.24129756
-0.29687303 -0.32152581 0.24575481
-0.20609999 -0.19576344 0.24907061
0.94065714 -0.081703573 0.24096009
0.42905679 0.21939948 0.24770629
0.28448969 -3.2842402 0.25825295
0.65377414 -3.2551835 0.25569624
-0.12700625 -3.24793 0.2559557
0.65343255 -3.2100766 0.25901192
0.37761778 -3.2056949 0.25759357
0.65535969 -3.192338 0.25793999
0.88601559 -3.1962488 0.25307366
0.71856886 -2.8312905 0.25479507
-0.11478527 -2.8274724 0.250377
0.73552662 -2.8052855 0.25505996
1.00266 -2.8009949 0.25631019
-0.38093996 -2.792798 0.25792712
-0.181612 -2.7985406 0.25799388
0.96547294 -2.6413679 0.25812685
-0.38329521 -2.6363478 0.25759083
0.87881839 -2.5259867 0.25590789
0.90208334 -2.4784665 0.25877661
-0.38808879 -1.5303371 0.25091147
-0.38919443 -1.4516455 0.25029612
-0.39573622 -1.041599 0.25391969
-0.40097806 -0.57501471 0.25631204
-0.36341912 -0.25484961 0.25676256
-0.29319733 -0.25471416 0.25934628
0.13671094 -3.2833745 0.26948079
0.16240287 -3.280622 0.26106721
0.75795686 -3.2454641 0.26350462
0.25894994 -3.224849 0.26354542
0.7387619 -3.2111273 0.26348144
-0.22067165 -3.1867936 0.26255494
0.89534986 -3.0523648 0.26847547
-0.41012973 -3.0107112 0.26684117
-0.4253968 -2.7825277 0.26845902
0.76238602 -2.6702647 0.262954
-0.181612 -2.612891 0.26540199
0.89177871 -2.4806464 0.2682822
0.96536821 -1.93638 0.26516825
-0.3857531 -1.8428854 0.26591361
0.97238779 -1.2568767 0.26700547
-0.39429033 -1.2386203 0.26702899
-0.39848638 -0.86700058 0.26551184
-0.33008689 -0.72123671 0.26734164
0.92564082 -0.64408612 0.26836148
0.96418267 -0.61317277 0.26370752
0.76263034 -0.56673503 0.26217908
0.96063501 -0.46250525 0.26586756
-0.39621153 -0.45170224 0.26233065
0.96063495 -0.45886415 0.26945406
1.0037822 -0.45619756 0.26412028
-0.24698702 -0.27494809 0.26341814
-0.25938785 -0.26229069 0.26961991
-0.31360275 -0.25447443 0.26391947
0.75607812 -0.14465955 0.26667026
0.86547267 0.082835831 0.26202011
0.366081 0.17309394 0.26881242
0.60491979 0.19311695 0.26318273
0.38067695 -3.2895253 0.2754145
0.60119271 -3.2691061 0.27050269
-0.23052821 -3.1916149 0.2705248
0.90366405 -3.1779032 0.2726351
-0.38061568 -3.0527825 0.27281669
-0.19502653 -2.8688297 0.27201062
-0.42382991 -2.7626922 0.27769968
0.76238602 -2.7354257 0.27488223
-0.18161198 -2.6173902 0.27235481
-0.27571514 -2.5850601 0.2755852
-0.17793293 -2.5485983 0.27852434
-0.39172477 -2.2536633 0.27248698
-0.39647293 -1.1354336 0.27263382
0.91277844 -0.64431542 0.27273729
-0.41741106 -0.60193127 0.27341396
-0.42427042 -0.43802866 0.27440503
-0.41250807 -0.3982932 0.27568823
-0.41192698 -0.21377774 0.2781094
0.36254549 0.18628184 0.27739081
0.12363188 0.21132007 0.27411374
0.68824607 -3.2648325 0.28153926
0.70628577 -3.2648528 0.28602219
0.76238608 -2.9630764 0.2830646
0.76238596 -2.9458067 0.28395826
0.76238602 -2.9171333 0.28400305
-0.23305641 -2.7588139 0.28297478
0.97480649 -2.5917449 0.28748083
0.85214436 -2.5853281 0.28070194
-0.41515177 -2.4899759 0.28576565
0.9676491 -1.7606736 0.28050733
-0.39452264 -1.3715196 0.28643772
0.97715425 -1.0827408 0.28594041
-0.39976779 -1.0162275 0.2858755
0.96095514 -0.75666666 0.28303021
-0.3495315 -0.72076803 0.28495002
0.78572261 -0.7205596 0.28778291
-0.29401889 -0.71916044 0.28418922
0.86000383 -0.71736753 0.28681594
-0.38093999 -0.42210436 0.28890496
0.99150282 -0.400686 0.28032616
-0.17083113 -0.3325668 0.28904775
0.92271876 -0.27667242 0.28530756
-0.41035992 -0.26160902 0.28743702
-0.15397331 -0.17497312 0.28239635
0.94382215 -0.066221148 0.28825283
-0.30090725 0.049752608 0.28385943
0.33816412 0.18776155 0.28011334
0.80772763 -3.0510564 0.29241627
-0.38785082 -2.9902544 0.29559496
-0.40276751 -2.9888327 0.29485944
0.90061873 -2.973984 0.29512155
0.76238602 -2.8482225 0.29409152
0.76238602 -2.6836698 0.29981849
-0.38413933 -2.6082013 0.29364744
-0.37991729 -2.4392457 0.29545596
-0.39889044 -1.1447935 0.2950092
-0.39951688 -1.0725628 0.29104608
0.88833845 -0.72697341 0.29174772
-0.29409027 -0.71643448 0.2959618
0.84953701 -0.71938324 0.2985968
0.98966593 -0.66481555 0.29827231
0.76552105 -0.63953316 0.29277089
0.76106572 -0.52702963 0.2961086
-0.17733908 -0.48402709 0.29135066
0.82935715 -0.38227928 0.29540399
-0.33751696 -0.3057217 0.2997427
0.93052745 -0.25510874 0.29533234
0.92027915 0.023454932 0.29381686
0.81328982 0.063009992 0.29467538
0.11845115 0.18281387 0.29983163
0.12562931 0.21956967 0.2988835
0.44455278 0.21354675 0.29922473
-0.1363108 -3.2682655 0.30208486
0.63828039 -3.20314 0.30783844
-0.28163782 -3.1855409 0.30798662
0.94708461 -3.1647589 0.30142203
-0.32886073 -3.1371055 0.30956465
0.90549141 -3.0492306 0.30922887
-0.25903487 -2.9864192 0.30356556
0.82913297 -2.8474567 0.30976468
0.83038568 -2.8407011 0.30018333
0.98086441 -2.8004756 0.30288103
0.96063501 -2.7830677 0.30052829
-0.25177726 -2.7717836 0.30458722
0.89223903 -2.5880527 0.30761406
-0.39263535 -1.9309127 0.30288061
0.97303307 -1.6119628 0.30443263
-0.39530829 -1.4745457 0.30087012
-0.40075848 -1.1261914 0.3089205
0.98222339 -0.89555562 0.30581743
0.83748186 -0.65373838 0.30625135
0.8833124 -0.36112612 0.30470863
-0.16324478 -0.26170897 0.30210501
-0.12194354 0.13752648 0.30722141
0.53757858 0.19657847 0.30240762
-0.39446115 -3.0439088 0.31606203
0.92242253 -2.993119 0.31529704
0.76238602 -2.9654145 0.31789115
0.97745311 -2.8038955 0.3128292
0.83178556 -2.7754447 0.31598687
0.99336004 -2.7424541 0.31774411
-0.40130135 -2.6449766 0.31428552
0.8555252 -2.4432487 0.31929529
-0.40030122 -2.3682394 0.31975102
-0.39872727 -2.2908306 0.31573042
-0.39447632 -1.705979 0.31116992
0.98213249 -0.96270788 0.31380215
0.89704967 -0.71780825 0.31329852
0.90435612 -0.71755916 0.31562537
0.99229562 -0.70072228 0.31545067
0.84933853 -0.66108215 0.31968012
0.86839414 -0.66267228 0.31180328
-0.17776978 -0.53972352 0.31283236
-0.39247853 -0.45620796 0.31540662
0.72997296 -0.17048749 0.31051853
-0.30727082 -0.14580849 0.3127225
0.93714845 -0.024440739 0.31848085
0.59669471 0.2088692 0.31743267
0.22839688 -3.3053842 0.32556355
0.81735241 -3.0477538 0.32377312
0.83778024 -2.9821906 0.32026175
-0.27748439 -2.760488 0.32012725
-0.18161198 -2.7291751 0.32940978
0.88617045 -2.6159248 0.32993153
-0.181612 -2.5819902 0.3298873
-0.32853666 -2.5293653 0.32436174
0.83823419 -2.444634 0.32754511
0.97875381 -2.2598567 0.32654288
-0.40139353 -1.3136936 0.32839757
0.98404604 -0.93082404 0.32637557
0.76490486 -0.62083662 0.32634318
0.83037829 0.097909778 0.32394832
0.90979928 -3.2320187 0.33399835
0.92243969 -3.2244434 0.33439317
-0.29321286 -3.0969281 0.33438915
0.80687362 -3.0960007 0.33608323
0.9391911 -3.0969024 0.33430868
-0.24546443 -3.0446057 0.33695313
-0.40803623 -3.0324156 0.33001137
-0.39658439 -2.9446974 0.33083668
0.77786469 -2.7997086 0.33168113
0.97917295 -2.7891426 0.33364701
0.85521626 -2.6182752 0.33621565
-0.29261354 -2.5955524 0.33868849
-0.181612 -2.5736237 0.33833233
-0.24565411 -2.5333114 0.33944768
-0.18749741 -2.4971344 0.3378177
-0.39509511 -2.4460878 0.33534077
-0.40130115 -2.2564628 0.33459327
-0.40043271 -1.5496941 0.33819228
-0.4011384 -1.3615518 0.3300041
0.98138422 -1.3510568 0.33951426
0.98398787 -0.99184155 0.33179367
-0.18618667 -0.65177232 0.33068085
0.97613811 -0.64315236 0.33343801
-0.37711331 -0.63409233 0.33373904
-0.34627947 -0.28650716 0.33421668
0.9381144 -0.28505024 0.33039927
0.72363192 -0.27897024 0.33952025
0.7797426 -0.20207064 0.33295149
0.72977084 -0.18541053 0.33474156
-0.24984261 -0.15183605 0.33218756
-0.1924881 -0.15412194 0.33655632
0.91576713 0.050731942 0.33346859
-0.20382062 0.086672232 0.33626431
-0.08527486 0.14106518 0.33445448
0.052583005 0.18641257 0.33029562
0.5930776 0.18720549 0.33021981
0.051505305 0.22577389 0.33728111
0.27654389 -3.2311573 0.34512749
-0.16347578 -3.1917357 0.34177971
-0.37539527 -3.1528516 0.34954208
0.84787333 -3.0916793 0.34574616
0.83089209 -2.966733 0.34572506
-0.42356527 -2.8574543 0.34924433
-0.42247486 -2.7314811 0.34663206
-0.32289755 -2.5356777 0.34688598
0.98030347 -2.1233606 0.34566623
0.97802901 -1.7199527 0.34315103
0.989447 -0.83681244 0.34726202
0.85292894 -0.70969385 0.34894815
0.84155083 -0.6946764 0.34517106
-0.39050084 -0.6523509 0.34777781
-0.403923 -0.64520299 0.3452673
-0.18299538 -0.6189611 0.34535936
0.76257294 -0.5627957 0.34124768
-0.17697942 -0.54230088 0.34019974
0.79124928 -0.20561303 0.34954911
0.92853218 -0.15316062 0.34582686
-0.3573685 -0.014153571 0.34777257
0.71334445 0.14442448 0.34952328
0.33655611 0.21921931 0.34056705
0.21166387 0.23641017 0.34137517
0.23060443 0.23470391 0.34090501
0.34803206 0.23334815 0.34085196
0.48614556 -3.3041215 0.3567633
0.76617265 -3.2755501 0.35405064
-0.23146209 -3.0390482 0.35408551
-0.181612 -2.9897442 0.35904065
0.91451728 -2.9797571 0.35714695
0.82999086 -2.9604692 0.35731164
0.81747174 -2.820766 0.35578236
-0.181612 -2.7903633 0.35902435
-0.2851122 -2.6266646 0.35569993
-0.21158078 -2.5392406 0.35763085
0.97968674 -2.0114398 0.35182735
0.98216504 -1.4213735 0.35087016
0.93137538 -0.72350454 0.35545528
0.92772871 -0.70684063 0.35758519
-0.40635484 -0.69515687 0.35290241
0.84668297 -0.65071088 0.35049683
-0.24973156 -0.39784896 0.35361198
0.97583532 -0.31396899 0.35647187
0.9259541 -0.27290124 0.35973209
0.86743891 -0.26962602 0.35191211
-0.34592128 -0.15470321 0.35189772
-0.28820854 -0.15860581 0.3578617
0.78199339 -0.15836564 0.35250816
-0.2753973 0.064110726 0.35236239
-0.25380644 0.074122973 0.35506281
-0.1927896 0.11756448 0.35281587
-0.18244953 0.12260209 0.35150796
0.73371816 0.16353926 0.35388488
0.41388121 0.24323493 0.35763249
0.10001749 -3.2079935 0.36441976
0.71970963 -3.1934371 0.36007124
-0.34193379 -3.1155276 0.36175138
0.94808906 -3.0339413 0.36955518
-0.39307365 -2.9031587 0.36976302
-0.29254025 -2.8731492 0.36887258
0.84878701 -2.8472359 0.36385012
0.81957114 -2.8225086 0.36934772
-0.26183999 -2.8021452 0.36005574
-0.19423001 -2.776516 0.36282623
-0.21275657 -2.7415183 0.36395428
-0.40950945 -2.6252604 0.36768797
-0.40196908 -1.8159281 0.36999017
0.98114944 -1.6757481 0.36569512
0.98993611 -0.64307117 0.36840105
1.0019394 -0.49961662 0.3625713
0.87217116 -0.31830269 0.36171761
0.83524495 -0.2984145 0.36110041
0.98978722 -0.28438243 0.36054063
-0.40987813 -0.25960451 0.36184049
0.94920939 -0.058093328 0.36525932
0.07599321 0.22581065 0.36441448
0.38383007 -3.3143806 0.37702572
0.018023346 -3.3007741 0.37545446
0.10217791 -3.3086371 0.37545383
0.55280584 -3.3018327 0.37916797
0.71410632 -3.1938052 0.37286621
0.92012227 -2.6143613 0.37951738
0.98286104 -2.2065654 0.37578398
-0.40250945 -1.8940966 0.37956059
0.97729552 -0.69427818 0.37461632
0.83696431 -0.67618513 0.37444738
-0.31808782 -0.28074443 0.37512556
0.7812885 -0.21402855 0.37341279
0.96535593 -0.13252743 0.37904161
-0.16362019 0.1606155 0.37515533
0.65999418 0.19045959 0.37283707
0.00064467546 0.21772149 0.37618753
0.12680086 -3.2074573 0.38100162
-0.37639207 -3.1763895 0.3815375
0.77850133 -3.022115 0.38759968
0.76238602 -2.9800687 0.38913813
-0.3011308 -2.9343419 0.38903058
-0.181612 -2.9327035 0.3888514
0.76139104 -2.585552 0.38282472
0.90037733 -2.5091476 0.3841452
0.9958868 -2.478652 0.38113064
-0.40637144 -2.3462534 0.38046512
0.98105872 -1.9413441 0.38262281
-0.40308583 -1.8862634 0.38431445
-0.40469846 -1.677644 0.3831647
0.98513722 -1.4360828 0.38088515
0.99062395 -0.98355401 0.38991314
0.99585134 -0.78446251 0.38284534
-0.35989267 -0.71066821 0.38260123
0.76547408 -0.63311625 0.38187078
-0.1776123 -0.41715956 0.38918954
-0.28154254 -0.38382894 0.38193095
0.9140051 -0.31052008 0.38072047
-0.36252028 -0.21805948 0.3852427
-0.3703962 -0.064553306 0.38073665
0.70396233 0.17450663 0.38454515
0.53163326 -3.3043571 0.39902717
0.70052671 -3.2931342 0.3921873
-0.34598249 -3.2509732 0.39390382
0.7601161 -3.1916909 0.39662531
0.96380544 -3.0229852 0.39375171
-0.40589076 -2.950501 0.39730355
0.90027201 -2.9262795 0.39856836
-0.181612 -2.8864675 0.39638615
0.8231293 -2.7878475 0.39319012
-0.31655073 -2.6237681 0.39399913
-0.26398432 -2.6275163 0.39316279
-0.18829517 -2.4677954 0.39044851
0.93706661 -2.4677138 0.39026639
0.98182273 -1.9981256 0.39150515
-0.40387937 -1.9087008 0.39213592
-0.27721363 -0.59994221 0.39322788
-0.17586331 -0.51801336 0.39614823
-0.17810681 -0.47793579 0.39691395
0.99526668 -0.41778654 0.39616811
-0.31655705 -0.33536342 0.39741945
0.73568654 -0.32798597 0.39703315
-0.38853741 -0.29580975 0.3979325
-0.29431885 -0.29169834 0.39235169
-0.39904726 -0.23249745 0.3943724
0.86211646 -0.22122446 0.39062309
0.80328912 -0.18664379 0.39907795
0.83896184 -0.18069157 0.39150685
0.92840159 0.027978921 0.3905471
0.099047862 0.23144951 0.39155644
0.041956399 -3.3038793 0.40659222
-0.18245597 -3.2902989 0.40672755
-0.20439801 -3.2860224 0.40109232
0.15324745 -3.2081084 0.40059501
-0.35052866 -2.9181044 0.40674353
-0.24552478 -2.9179974 0.40711516
-0.25900319 -2.8698611 0.40209806
-0.31825903 -2.663856 0.40628392
-0.26160425 -2.5624533 0.40826741
0.98749143 -1.5127897 0.40901935
0.94837451 -0.044052985 0.40957627
0.8516314 -3.2776189 0.41448081
-0.032982204 -3.1988146 0.41166097
0.9714359 -3.1158538 0.41201827
-0.34233975 -2.9026744 0.41993767
-0.25582579 -2.9028521 0.41979417
-0.22456983 -2.8804464 0.41659012
-0.23523851 -2.8697133 0.41984001
-0.2225994 -2.843205 0.41954184
0.80372214 -2.8275654 0.41600838
0.9905175 -2.6042371 0.4101187
-0.41212195 -1.3013082 0.41897821
-0.41356605 -1.1237789 0.41576612
0.9921838 -1.0573871 0.41205686
0.99249166 -1.0395654 0.41329521
0.77447104 -0.67258453 0.41205263
0.98517847 -0.4820407 0.41254133
-0.19046357 -0.40242648 0.4110882
0.83170813 -0.19564965 0.41461432
-0.32035226 0.06496571 0.41543472
0.76281935 0.14521767 0.41438776
-0.15324678 0.16668667 0.41376439
0.59555066 0.20676275 0.41620871
0.28135398 -3.3203976 0.42685837
0.17461681 -3.2094064 0.42951015
0.56006998 -3.0829263 0.42706066
-0.12369539 -3.0771017 0.42685658
0.43616122 -3.0786424 0.42721096
0.67313731 -3.0791044 0.42690057
0.089970455 -3.0627599 0.42709336
-0.046164282 -3.0585027 0.42690262
0.16344725 -3.0514274 0.42715576
0.042310849 -3.0322475 0.4269402
0.50227463 -3.0226068 0.42695719
0.58497173 -3.0271864 0.426862
0.099633932 -3.0004377 0.4269205
0.39337718 -3.0070765 0.42705429
0.47740293 -3.002147 0.426929
0.65692103 -2.9803309 0.42664719
0.27399868 -2.9779458 0.42708164
0.12020102 -2.9678183 0.42685032
-0.18161198 -2.9429083 0.42692655
0.51088619 -2.9481049 0.42672414
-0.31904218 -2.901216 0.42111877
0.49151966 -2.9017031 0.42661148
0.29586765 -2.8954248 0.42685023
0.32164273 -2.8780038 0.42676449
0.083592251 -2.8359621 0.42640996
0.55569446 -2.8348274 0.42639896
-0.26109865 -2.8257594 0.42108768
0.65554309 -2.8186545 0.42638421
0.5583719 -2.8023796 0.42634654
0.24762189 -2.7752087 0.4264437
0.43046263 -2.7700567 0.42629999
0.71942514 -2.7460251 0.42755157
0.23082867 -2.7238803 0.42626894
-0.10847639 -2.7104897 0.42621192
-0.31644398 -2.6916561 0.42819154
-0.29166666 -2.6927049 0.42887309
0.39828265 -2.6906123 0.42614639
0.49483287 -2.6945169 0.42616385
0.48604 -2.6566517 0.4261013
-0.39949754 -2.5327549 0.42689925
0.76238602 -2.5329776 0.42663571
-0.19639993 -2.4823759 0.42297626
0.98557425 -2.2318013 0.42364329
-0.41351065 -1.207233 0.42330417
0.9941358 -1.0455408 0.42968875
0.87965977 -0.60394663 0.42117941
-0.41053277 -0.4125382 0.42877087
0.81973237 -0.38534367 0.42896467
-0.19933519 -0.37987989 0.42920941
-0.31912842 -0.31548566 0.42022166
-0.16665193 -0.22601882 0.42997608
-0.17796879 -0.20249316 0.42180252
-0.31482261 -0.19920708 0.42329577
0.93067455 0.028329493 0.42521739
0.86835045 0.11001642 0.42551166
0.69345522 0.18668509 0.421859
0.57119954 0.21183115 0.42801213
0.38677698 0.2398542 0.42809287
0.89528871 -3.2712412 0.43285391
-0.32858407 -3.0014434 0.43050545
-0.40756661 -2.9824605 0.43154973
-0.29215771 -2.6957273 0.4308365
0.84647352 -2.6584942 0.43023437
-0.41257015 -2.4956145 0.43924993
0.96052074 -2.4862714 0.43166664
-0.40915263 -1.8032807 0.43237767
0.99772382 -0.84003258 0.43186763
-0.30672136 -0.65629411 0.43314001
0.87352562 -0.5857687 0.43699443
-0.30882215 -0.54967481 0.43437642
0.75597233 -0.42554569 0.43179873
0.80873907 -0.36733687 0.43103522
0.76338381 -0.21380679 0.43525469
-0.3310577 -0.20775685 0.43749169
-0.30364925 0.093514144 0.43440747
-0.24107711 0.13334581 0.43028387
0.51544213 -3.3069026 0.44242966
0.23909669 -3.1030309 0.44163755
0.068906583 -3.097712 0.44235823
-0.26065522 -3.0257032 0.44856879
0.73127228 -2.9312887 0.44790262
0.91311008 -2.9039643 0.4460094
-0.34927875 -2.5866587 0.44291025
0.87851381 -2.5854828 0.44157445
-0.18161198 -2.5719352 0.44406313
0.98860019 -1.8501987 0.44526064
-0.41551149 -1.2611058 0.44571477
-0.41647628 -1.201013 0.44948706
1.0001669 -0.78880578 0.44253445
-0.3285509 -0.65790564 0.44442713
0.99127603 -0.6255762 0.44005543
-0.36944985 -0.34498477 0.44442281
-0.17281337 -0.30805379 0.44704646
0.93786305 -0.0012321672 0.44466111
0.61242414 0.20849821 0.44175881
0.56361389 0.21745417 0.4458493
0.025392281 -3.3256865 0.45849872
0.97147298 -3.1741278 0.45660532
-0.11750918 -3.1022387 0.45283395
0.73802584 -3.0338798 0.45253
0.93794817 -3.0239992 0.45146164
-0.3271319 -3.0165055 0.45803365
-0.29714724 -2.8945537 0.45211875
-0.25217897 -2.8407674 0.45067236
-0.14653131 -2.8364015 0.45775884
0.95227253 -2.8361909 0.45189852
0.84516931 -2.8183968 0.45526057
0.97071052 -2.7438505 0.4543348
-0.28716487 -2.7396133 0.45012864
-0.18459596 -2.6174459 0.45358029
-0.1961993 -2.6057014 0.4569636
0.86336565 -2.5611737 0.45805633
0.99295747 -1.5013041 0.45634419
0.99756914 -0.99245673 0.45687541
-0.27169806 -0.62735766 0.45292771
-0.17899922 -0.60630769 0.45960155
0.76241207 -0.54664838 0.454355
0.83332694 -0.50735247 0.45132062
0.86708462 -0.47337154 0.45702869
0.7571398 -0.4310225 0.45006433
0.78366911 -0.43625516 0.45792961
-0.29669631 -0.35542554 0.45120323
0.84055102 -0.27046564 0.45925409
-0.31748128 -0.26337355 0.45143673
-0.28894711 -0.23539686 0.4599013
0.63564271 0.19869222 0.45314261
0.5278064 0.21501283 0.45207658
0.97075188 -3.1811717 0.46755093
-0.078747451 -3.1126432 0.46810237
0.41971904 -3.1078384 0.4632346
0.42504159 -3.106863 0.46134892
-0.1628857 -3.081768 0.4618651
-0.36567575 -3.0086544 0.46586671
-0.23261039 -2.9713385 0.46400392
-0.18145345 -2.9253681 0.46111956
-0.40764418 -2.8474269 0.46912724
-0.40034392 -2.7636435 0.46781841
-0.4003129 -2.721267 0.46743274
-0.40317759 -2.6272924 0.46876317
-0.41160679 -2.4292023 0.46617621
1.0067762 -2.1104527 0.46659279
1.0019531 -1.4965476 0.46547598
-0.41617641 -1.3973917 0.46233317
0.99531269 -1.3641107 0.46629781
-0.41726822 -1.3243788 0.46620721
0.9995203 -1.1257368 0.46547598
0.99962187 -0.88699651 0.46666393
0.99686134 -0.81626236 0.467453
0.96961242 -0.66924959 0.46134245
-0.35414669 -0.65219873 0.46490422
0.87688172 -0.6312992 0.46330315
0.88155174 -0.63448614 0.46193972
-0.17695792 -0.37856472 0.46258974
0.74458706 -0.35170376 0.46658921
-0.1696859 -0.25844604 0.46416867
0.8293258 -0.2455764 0.46598572
0.90481931 -0.24209233 0.4676744
0.65623152 0.19344555 0.46767154
0.024425931 0.21496023 0.46435255
0.65087861 -3.3151789 0.47672695
-0.1405597 -3.3077083 0.47352767
0.7568661 -3.3039994 0.47337493
0.31046635 -3.2142353 0.47686592
0.9386068 -3.1667309 0.47873947
-0.28715244 -2.9992104 0.47359878
0.85367393 -2.9903798 0.47504905
0.76238596 -2.8807101 0.47749695
-0.21431865 -2.838846 0.47648296
0.92346942 -2.8311088 0.47586906
0.90231746 -2.8025937 0.47930932
-0.33015704 -2.7990813 0.47949338
0.98293012 -2.7351727 0.47187704
-0.36603972 -2.6149781 0.47298205
0.83724999 -2.6194682 0.47619784
0.81570339 -2.5797629 0.47541806
-0.31310564 -2.5118697 0.47823316
0.79362464 -2.510349 0.47634304
-0.42411888 -2.1971662 0.470806
-0.41396809 -1.8890704 0.4798618
1.0060341 -1.1591971 0.47781664
0.99782193 -1.1322269 0.47217098
-0.42507458 -0.95997798 0.47080499
0.99935746 -0.82784504 0.47672918
0.91068649 -0.45205215 0.47948015
-0.29304338 -0.4472135 0.47922653
0.98337668 -0.43962878 0.47882894
0.95495951 -0.41969618 0.4717584
0.7947371 -0.38570815 0.47090635
0.45742679 -3.334743 0.48561844
0.45210946 -3.2087269 0.48795462
0.13824755 -3.1165118 0.48827881
-0.23839518 -2.9728456 0.48486504
0.73014927 -2.8935442 0.48149741
-0.26224342 -2.8467405 0.48763394
-0.23205337 -2.8445518 0.48764494
-0.4098497 -2.8357558 0.48677674
0.72544193 -2.7066107 0.48391634
-0.41219971 -2.6626606 0.48531452
0.85419101 -2.5894148 0.48484412
0.99078912 -2.3694379 0.48441148
0.99139422 -2.3250706 0.48968136
-0.42806605 -2.2444725 0.48553488
-0.42808375 -2.1971631 0.48526633
1.0005527 -1.8683153 0.48303816
-0.41768411 -1.3719528 0.48896325
0.99736643 -1.1030455 0.48106402
0.99758267 -1.0682145 0.48112655
-0.42314368 -0.89986253 0.48035014
-0.42319494 -0.86014479 0.48150003
-0.4129824 -0.78578562 0.48558086
-0.42197561 -0.7358278 0.48578542
-0.40974188 -0.41225213 0.48495376
0.98994488 -0.32335126 0.48258871
0.7358135 -0.31181568 0.48550877
0.95277917 -0.062481027 0.48008868
0.82674491 0.11677955 0.4831824
0.43495369 -3.3365769 0.49250251
0.3988288 -3.1204002 0.49314386
0.99981558 -3.036449 0.49230069
0.78135145 -2.8608284 0.49684328
0.81778938 -2.8389285 0.49833786
-0.39622885 -2.649791 0.49088496
-0.20231375 -2.6010809 0.49547186
0.92089444 -2.5948288 0.49054384
-0.41174188 -2.5195959 0.49411583
-0.41535178 -1.8284948 0.49796069
-0.41836441 -0.83581972 0.49204683
-0.40664726 -0.63677514 0.49199226
0.86050099 -0.57997155 0.49991792
-0.18834895 -0.33814362 0.49550384
-0.17276825 -0.29305241 0.4935289
0.74587846 -0.29133442 0.49933675
0.68061537 0.16432005 0.49024546
0.74318671 -3.3055532 0.50276875
0.41133165 -3.2122788 0.50700355
0.11451182 -3.1214623 0.50383693
-0.1622747 -3.0469291 0.50636953
-0.38550064 -3.0387115 0.50997424
-0.39777178 -2.9654427 0.5088805
0.76696885 -2.874176 0.50953531
-0.18470508 -2.8608246 0.50988519
0.99116188 -2.8199201 0.50796425
-0.35873541 -2.6597071 0.5045107
0.94141716 -2.6529331 0.50055784
1.0015794 -2.3698268 0.50057399
-0.41713107 -1.4709113 0.50738943
0.99607563 -1.2199914 0.50514138
-0.41492265 -0.9503879 0.50590301
-0.41954893 -0.89580601 0.5073455
-0.40704879 -0.85198396 0.50590301
0.83663952 -0.57425189 0.50988501
0.85752827 -0.3335928 0.50666356
0.92059654 -0.32198519 0.50058675
-0.17451629 -0.31511173 0.50230259
-0.17223257 0.1308443 0.50384986
0.73549807 0.14363228 0.50869948
0.28495783 0.22135164 0.50949967
-0.31241545 -3.276937 0.51366818
-0.053890482 -3.201551 0.51804811
-0.16367942 -2.994828 0.51849371
-0.16152897 -2.9536409 0.51430392
0.87684226 -2.935024 0.51238537
0.91616416 -2.9250932 0.51999134
-0.36212111 -2.9020457 0.51128322
0.77412331 -2.8446972 0.51252663
-0.41222546 -2.7385476 0.51324397
0.79314566 -2.693083 0.51932967
-0.23124844 -2.6791158 0.51311725
0.99103004 -2.624449 0.5194205
0.99873048 -1.2525442 0.51549602
0.99844551 -1.1203854 0.51589036
-0.42117614 -1.0240546 0.51581556
-0.2727038 -0.54384798 0.51148707
0.94332504 -0.090409338 0.51170272
-0.31825134 -0.0042090286 0.51275522
0.7557162 0.098193184 0.51582968
0.19046694 0.14787783 0.51474684
-0.00098190107 0.1892302 0.51601225
0.24706559 0.20446785 0.51295161
0.4941453 -3.3301883 0.52777749
0.0062079406 -3.2034576 0.52257574
0.095713571 -3.2080216 0.52483243
0.51524854 -3.2066393 0.52819633
0.61934686 -3.2027411 0.52351117
0.97827268 -3.1690924 0.52145404
0.96801633 -2.9224236 0.52268517
-0.36044937 -2.8681307 0.52590328
0.87725711 -2.8500245 0.52976018
0.9708612 -2.840754 0.52919722
-0.21446444 -2.8049884 0.52339333
-0.19478196 -2.6684854 0.52772838
0.88284099 -2.6587701 0.5298388
-0.25617227 -2.6455908 0.52531749
-0.22677776 -2.6486406 0.52488571
0.83689642 -2.5481958 0.52338481
-0.41648221 -1.8979752 0.52210611
-0.41882628 -1.8483819 0.52313858
-0.4211112 -1.4884925 0.52244514
0.99801183 -1.3721609 0.52247965
0.85898811 -0.52312189 0.52398688
-0.19800821 -0.50709498 0.5277015
0.80916607 -0.50162059 0.52933204
-0.23954134 -0.39942539 0.52948761
0.80609232 -0.37908736 0.52615172
0.91140455 -0.3639228 0.52018225
0.82490623 -0.32158491 0.52845216
0.87604976 -0.31297353 0.5248698
-0.33343205 -0.029786814 0.52944744
0.92564666 -0.027582228 0.52447343
0.90388978 0.039388832 0.52007842
0.55401599 0.17828022 0.5279606
0.17208409 0.20092022 0.52876002
0.3469303 0.21240874 0.52113497
0.10520677 -3.3282785 0.53558004
0.457968 -3.3253655 0.53941286
0.84127319 -3.2908852 0.53034854
0.050586246 -3.2058918 0.53000754
0.51620579 -3.1356988 0.53982627
-0.39123732 -2.8936946 0.53811049
-0.38974357 -2.8877778 0.53988051
0.80137348 -2.8648813 0.53012443
0.84093893 -2.8301716 0.53080076
0.802984 -2.8047533 0.53904039
-0.34590283 -2.7641888 0.53695798
0.86340654 -2.7469018 0.53398496
-0.27510691 -2.7024672 0.53784746
-0.25134474 -2.705195 0.53748554
-0.24478018 -2.7094226 0.53810096
0.92959309 -2.6715443 0.53423667
-0.33497083 -2.6682346 0.53308529
0.89437163 -2.6663845 0.53191376
-0.42009109 -2.0016096 0.53878105
-0.42085126 -1.8351127 0.53330851
-0.36114323 -0.5160228 0.53038967
-0.25478339 -0.5077222 0.53216815
0.92125803 -0.46978584 0.53695798
-0.34570161 -0.45061129 0.53695798
-0.34756368 -0.44290143 0.53695798
-0.24593505 -0.43508548 0.53121799
-0.1986967 -0.41571259 0.53008473
0.82791036 -0.4107067 0.53287578
0.83996356 -0.4132733 0.53342295
0.88701689 -0.41061053 0.5328632
0.97816992 -0.27245104 0.53322726
0.76115322 0.12637186 0.53384441
0.25529271 0.13205108 0.53579921
0.35375559 0.17856397 0.53814906
0.46492898 0.1861327 0.53027129
0.2561667 0.21123126 0.533373
0.24663042 -3.3242729 0.54787731
0.49663848 -3.3068843 0.54840702
-0.31850559 -2.8787141 0.5414921
0.95120794 -2.8734467 0.54375923
0.91628391 -2.8648534 0.54485899
0.79703408 -2.7406859 0.54342973
0.89193547 -2.7321756 0.54536593
0.9098469 -2.7160845 0.54274881
-0.38373291 -2.6926963 0.5400576
-0.43917027 -2.650645 0.54058266
-0.43168178 -2.6334786 0.54839742
0.99415004 -2.5525298 0.54285818
-0.41675714 -2.3249278 0.54709637
0.99659514 -2.1541739 0.54427022
0.99514091 -0.94802517 0.54037422
1.0040364 -0.55373275 0.54560137
-0.25643903 -0.48436457 0.54362535
0.79840279 -0.42764127 0.54713237
0.77145046 -0.39398205 0.54097801
-0.22497752 -0.37938058 0.54974258
-0.28560859 -0.35166496 0.541641
0.96443248 -0.24889134 0.54360151
0.88631475 -0.012899929 0.54255962
0.87516224 -0.0048127091 0.54538846
0.34895688 -3.2790713 0.5521329
-0.3272239 -3.2584243 0.55009848
0.94720507 -3.2337565 0.55020386
0.081104025 -3.208236 0.55060774
0.78249204 -3.1988444 0.55842584
-0.18018363 -3.0841641 0.55818617
0.75450867 -3.0558639 0.55529213
-0.41596889 -2.958019 0.55621576
-0.17079902 -2.9016633 0.55963707
0.80760819 -2.8406267 0.55025661
-0.16881493 -2.8310018 0.55965197
-0.18481275 -2.8000245 0.55101085
-0.2986539 -2.7774773 0.55348814
0.99039519 -2.775965 0.55445248
0.99590212 -2.5695996 0.55496466
-0.41987285 -1.9231927 0.55412996
0.99320573 -0.92979312 0.55233216
-0.41268396 -0.81457347 0.55298781
-0.37493846 -0.5002386 0.55169499
-0.3489688 -0.47429174 0.55724365
-0.22561496 -0.46119681 0.55102026
-0.32167548 -0.43067303 0.55950248
0.85063481 -0.42238793 0.55069351
-0.24893379 -0.41121191 0.55329531
0.91619158 -0.041583385 0.55161297
0.71226734 0.073990233 0.55382973
-0.069797508 0.14456037 0.55200076
0.32989421 0.19296035 0.55430126
0.49615097 -3.202894 0.56315565
-0.17757984 -3.1964169 0.56100649
0.18796237 -3.1668661 0.56076562
-0.43688112 -2.8136165 0.56538743
-0.16651177 -2.6852672 0.56723928
0.99626952 -2.5379231 0.56303185
0.99396038 -1.4516574 0.56332886
-0.4058702 -0.66151237 0.56994438
0.76442897 -0.42968005 0.56640112
0.9674027 -0.29839635 0.56864941
-0.34682709 -0.057070777 0.56250691
0.79450709 0.10072036 0.56219089
0.51513958 0.1602803 0.56111825
0.45224351 0.17039517 0.5612129
-0.078745037 -3.2478271 0.5733999
-0.26086068 -2.8294909 0.57178038
0.7464177 -2.7210219 0.57106978
-0.3156195 -2.6108451 0.57472587
0.99292022 -1.4308894 0.57412243
0.9947443 -0.58567774 0.57092798
-0.2112214 -0.45113355 0.57909465
0.78784364 -0.42469242 0.57125705
-0.31882995 0.024580726 0.57488656
0.84202206 0.044418633 0.57236487
0.63135576 0.13598605 0.57772797
0.79683894 -3.2301118 0.58186251
0.76527238 -3.054008 0.58315998
0.76270568 -3.0038648 0.58825076
-0.21524207 -2.8264835 0.58465898
-0.43238527 -2.7933292 0.58283639
-0.30310285 -2.6372483 0.5860188
0.99040157 -1.2011424 0.58757406
-0.40658051 -0.60862821 0.58090132
0.79684579 -0.45131496 0.5810256
-0.10523029 -3.24507 0.59888124
0.68277246 -3.2390249 0.59949768
0.73798615 -3.2131956 0.59974682
0.80431587 -3.2199233 0.59459782
-0.17856917 -2.8858018 0.59434325
0.75241679 -2.748395 0.59321404
-0.41881964 -2.5028739 0.59774148
0.99123341 -1.3604052 0.59150863
-0.40407363 -0.49323744 0.59964347
0.82443559 -0.3959007 0.59445494
0.95418608 -0.29814553 0.59846115
-0.37133211 -0.27745581 0.59519666
0.71407235 0.10574819 0.59882009
-0.052745335 -3.2447042 0.60734236
0.80437994 -3.2187467 0.6032747
0.76619726 -2.9589186 0.60757852
-0.41702342 -2.026041 0.60288984
-0.41309905 -1.5794054 0.60087508
0.98104924 -0.63812822 0.60714823
0.89782894 -0.013277106 0.60627306
0.68170434 0.11071959 0.6013822
0.025448954 -3.2626324 0.61956197
0.93053424 -3.2054579 0.61770809
0.97741473 -3.0605388 0.61084735
0.95515281 -2.7003381 0.61300284
0.87861902 -2.6993241 0.61256927
-0.41892603 -2.5671582 0.61904073
-0.41708377 -2.2391293 0.61980766
0.99352652 -2.0108225 0.61879814
0.98825693 -1.6428894 0.61658722
-0.40655646 -0.8928439 0.61484998
-0.37169939 -0.29674706 0.61297047
0.83782995 0.045117449 0.61397094
0.84336174 0.040031854 0.61368459
0.8074919 0.05662138 0.61904526
-0.2181918 0.06087146 0.61861682
0.4747304 0.12359805 0.61988515
0.082337514 -3.2629883 0.62047404
0.15867829 -3.2692528 0.62639743
0.79593718 -3.2301936 0.62322283
-0.397286 -3.0571647 0.62957931
-0.1954565 -2.9638238 0.62487066
0.76726258 -2.9086566 0.62195504
0.78379893 -2.7260168 0.62849557
-0.41920519 -2.643533 0.62331831
-0.41828793 -2.4493601 0.62949961
-0.41793644 -2.3904028 0.62924981
-0.41004261 -1.7004586 0.62392229
0.62684625 0.065128177 0.62659061
-0.0023446549 0.090213157 0.62474096
0.24660325 0.12758213 0.62447423
0.49687165 -3.2660031 0.6325568
0.14989261 -3.2441261 0.63075578
0.24440889 -3.2485332 0.63646841
0.7922467 -3.1361673 0.63285774
0.79888237 -2.7263846 0.63994718
0.76154673 -2.7106905 0.63640994
0.9832896 -1.1638852 0.63961303
-0.39831239 -0.77525771 0.63891947
-0.34416538 -0.17379215 0.63847744
0.7686047 0.05322472 0.63189858
0.089499697 0.086869135 0.63381881
0.30781057 0.095038176 0.63939685
0.46691376 0.10151614 0.6300481
0.60878623 -3.2310677 0.64225066
-0.2215642 -3.2033305 0.64116323
0.98783827 -2.8719585 0.64561009
-0.18522185 -2.7365301 0.64018089
-0.33153421 -2.7266262 0.64745504
0.99598265 -2.4458938 0.64517826
-0.41337019 -1.7655873 0.64797825
-0.39744782 -0.79103595 0.64522231
0.96132773 -0.44987637 0.64865094
0.92078483 -0.18153647 0.64687228
-0.39611977 -3.0610697 0.65911174
0.99596536 -2.6349094 0.6524567
0.99594533 -2.6277325 0.65327257
-0.41792485 -2.5666738 0.65617591
0.99321121 -2.2369347 0.65285516
-0.40630445 -1.3657668 0.65291566
0.97718984 -0.83789819 0.65517622
0.83913481 -0.020445356 0.65324146
-0.10229841 0.0057932301 0.65191203
0.63489044 -3.2275701 0.66485363
-0.21860369 -3.2176275 0.66366971
0.82500529 -3.2121344 0.6649493
-0.40065908 -2.974997 0.66306639
0.83483732 -2.7271414 0.66349238
0.766819 -2.646601 0.66641706
0.99310911 -2.332793 0.66805172
-0.4124704 -2.0639632 0.66073811
-0.4158012 -1.6449413 0.66786522
0.9847607 -1.6248786 0.66122866
-0.40314174 -1.2486159 0.66563809
-0.36435211 -0.42411005 0.66925567
-0.26864481 -0.071396805 0.66451228
-0.22302428 -0.049685203 0.66642708
0.20582411 0.037020534 0.66135931
0.15242989 -3.2449982 0.67004353
-0.23692244 -3.2276244 0.67488003
0.99077737 -2.1937537 0.67092276
-0.40684617 -1.6043673 0.67224193
0.98296571 -1.5284275 0.6708706
0.97584689 -1.1556494 0.67684388
0.97313964 -0.82796401 0.67357212
-0.38137287 -0.61727405 0.67678934
0.95679748 -0.54523075 0.67474413
-0.27057129 -0.13092625 0.67664844
0.79978913 -0.086619563 0.67478937
0.087587558 -0.0018288351 0.67129225
0.38616341 0.01156962 0.67166156
-0.35876024 -2.7277792 0.68334287
-0.33178833 -2.7279325 0.68810904
-0.4028675 -1.540705 0.68488258
-0.2582587 -0.15928379 0.68626523
0.78592491 -0.11984824 0.68277711
0.48555559 -0.067462079 0.68900937
0.22796243 -0.050321221 0.68927097
0.44752359 -0.052887581 0.68704206
0.49211025 -0.05627365 0.68591779
0.70222026 -3.2433233 0.69241899
0.67597139 -3.2221127 0.6999653
0.97579676 -3.0091393 0.69882387
-0.39589518 -2.9923563 0.69660509
0.96018481 -2.7282932 0.69934505
0.99364978 -2.6389713 0.69451988
-0.40225273 -1.674927 0.69940364
0.9738608 -1.5528723 0.69829136
0.96950078 -1.3087766 0.69617021
-0.37687221 -0.73315495 0.69734818
-0.36086702 -0.54592144 0.69958901
0.75608754 -0.18820025 0.69926775
-0.0037025921 -0.11599551 0.69578165
-0.0029290877 -0.096499093 0.69090718
0.33561039 -0.078939684 0.69704449
0.34887582 -3.2739363 0.70483142
0.96660304 -3.1251218 0.7019428
-0.40447959 -2.5496311 0.7066493
0.99229038 -2.5227842 0.70985079
-0.39826494 -1.8220339 0.70220798
-0.40161499 -1.7098718 0.70072818
0.95608485 -0.96892095 0.7085557
-0.097450621 -0.17770539 0.70082372
0.065637827 -0.15718922 0.70943433
-0.068250403 -3.2504973 0.71073109
-0.13383546 -3.241627 0.71822023
0.20724922 -3.2477899 0.71270615
0.81225556 -3.005645 0.71414304
0.98149526 -2.8332701 0.71419472
0.80299628 -2.7286606 0.71077287
1.0022992 -2.5930271 0.71724069
-0.40049928 -2.014446 0.71385676
0.96726894 -1.6576868 0.71588552
-0.38701224 -1.4369125 0.71504867
-0.38533375 -1.3226373 0.71329546
-0.38428614 -1.2677107 0.71288335
-0.11703447 -0.24025235 0.71366119
0.22583288 -3.2730629 0.72493964
0.064339027 -3.2659111 0.72030908
0.06600108 -3.2410314 0.72414869
0.77922559 -3.2267995 0.72301352
-0.2376979 -3.0062127 0.72883564
0.78936535 -2.6626132 0.72167367
0.98406303 -2.4189768 0.72426766
0.98178071 -2.2980478 0.72109711
-0.4022972 -2.1800644 0.72164255
-0.39561307 -1.9658798 0.72287971
-0.3838726 -1.6111709 0.72822595
0.94457626 -0.92783588 0.72948456
0.94765449 -0.9036696 0.72289926
-0.35998735 -0.75172299 0.72848642
-0.33086377 -0.50417262 0.72075772
-0.15574504 -0.31537244 0.7272073
0.69972193 -0.27524921 0.72086239
0.49544674 -0.24331604 0.72957158
0.081275076 -0.23454297 0.72767055
0.12249281 -0.23855668 0.72979528
0.57927155 -0.21318588 0.72050893
0.13879323 -0.19722745 0.72203535
0.35142666 -0.17270052 0.72000843
0.31879443 -3.2664766 0.73437417
0.68775153 -3.2424266 0.73380941
-0.34307215 -3.2068629 0.73354435
-0.23805532 -2.9958093 0.73620927
-0.39548671 -2.8822303 0.73010498
0.97566199 -2.8897378 0.73146921
0.98712248 -2.6122668 0.73468351
-0.38536876 -1.6863348 0.73027956
0.94803715 -1.3133948 0.73650753
-0.37326765 -1.1571795 0.73024118
0.94283819 -1.0358498 0.73598599
0.79569155 -0.35809743 0.73022163
-0.17454295 -0.3420234 0.73131537
-0.1556935 -0.3451162 0.73337972
0.16025761 -0.28428972 0.73954606
0.16495377 -0.2452127 0.73181105
0.60952795 -3.2529733 0.74572122
-0.26085702 -3.2032092 0.74926955
0.98630953 -2.5476773 0.74415338
-0.37287012 -1.4323356 0.74067116
0.91414249 -0.63537735 0.74375534
-0.25549111 -0.48595622 0.74775153
-0.2368162 -0.47824138 0.74814701
-0.16567455 -0.43621907 0.7477842
0.52809238 -0.3322804 0.74616498
0.61473429 -0.32072598 0.74070054
0.32452792 -0.31479129 0.74719226
0.091333248 -0.30954382 0.74302804
0.27570355 -3.264457 0.75453079
0.83646041 -3.1677048 0.75569385
-0.23565626 -2.879945 0.75332475
0.96076155 -2.1164253 0.75727427
0.95758098 -2.0645041 0.75971311
0.94910103 -1.8376188 0.75938094
-0.34152782 -0.72912848 0.7506479
0.88573289 -0.59021974 0.75278085
0.80861688 -0.52398288 0.75670916
-0.2382807 -0.51260024 0.75385356
-0.11108156 -0.44386923 0.75363183
0.10363235 -0.36839807 0.75528866
0.71375996 -3.2352333 0.76121616
0.8507145 -3.2114003 0.76171023
0.8767488 -3.2086797 0.76294434
-0.24734575 -2.9985402 0.76867223
0.96583951 -2.9701805 0.76141351
0.9704687 -2.7244456 0.76631719
-0.39761987 -2.591857 0.76849163
0.96692926 -2.4535501 0.76794547
-0.37873876 -2.0881653 0.76797128
0.95246577 -2.0057979 0.7645002
-0.36441293 -1.6254512 0.76328635
0.85756105 -0.60420191 0.76554585
0.8394106 -0.59667403 0.76596582
0.73819959 -0.54098213 0.76656723
0.05061432 -0.44044971 0.76729947
0.50026309 -0.42174098 0.76516557
0.14051954 -0.40915757 0.76428503
0.29014176 -3.2718067 0.7737838
0.23964849 -3.2695048 0.77402264
0.59165645 -3.2267814 0.77776396
-0.19267346 -3.2171946 0.77593714
0.93655705 -3.1967974 0.77588898
-0.38444391 -2.3098903 0.77217805
0.95559067 -2.2609184 0.77489835
0.80962867 -0.60728741 0.77155244
-0.050107397 -0.52334577 0.77857018
0.52902913 -0.49124897 0.77727175
0.59362561 -0.49906379 0.77555287
0.1219161 -0.47470474 0.77723026
0.32639122 -3.2690654 0.78601956
0.057615858 -3.2585535 0.78510648
-0.36635405 -3.1290278 0.78498054
0.95973426 -2.9838362 0.78218812
-0.25742117 -2.863641 0.78110033
0.83745623 -2.7509084 0.78346527
-0.34915364 -1.5624943 0.78568935
0.40188509 -0.659253 0.78901249
-0.16773659 -0.63245243 0.78542578
-0.032144621 -0.5609411 0.78710973
0.078936383 -3.233252 0.79792571
0.84527558 -3.0996413 0.79603517
0.94970167 -3.0770769 0.79165292
0.84312588 -2.9911361 0.79152584
-0.37316561 -2.9862609 0.79776442
0.84420347 -2.9613869 0.79280329
0.82730544 -2.7403789 0.79896986
-0.37284139 -2.4681799 0.79869902
-0.33653072 -1.3383485 0.79819173
0.91298217 -1.1815747 0.79097122
-0.19621858 -0.69138741 0.79779255
0.77536249 -0.69105095 0.79797983
-0.11069663 -3.2098932 0.80024135
0.81993008 -3.2091382 0.80382228
-0.25219467 -3.1014447 0.80166548
0.94338548 -3.0996227 0.80609936
-0.23465151 -2.9227419 0.8060025
-0.23232834 -2.8702326 0.80655837
-0.3729803 -2.8659987 0.80519927
0.81124663 -2.8502579 0.80661511
-0.3748661 -2.7751346 0.8013041
0.9476015 -2.7123466 0.80913723
0.93269849 -2.4174738 0.80865109
-0.33862746 -1.6532619 0.80344236
-0.33586732 -1.5020211 0.80880415
-0.3296293 -1.1192935 0.80877542
0.75438452 -0.69606048 0.80257297
-0.030269906 -0.65286547 0.80525637
0.49089551 -0.61082923 0.80249637
0.25772128 -3.2642634 0.81140113
-0.2097155 -3.1890204 0.81312978
-0.20971525 -2.9066634 0.81643462
-0.21724588 -2.8920119 0.8131355
0.80000442 -2.829216 0.81153405
0.94327962 -2.7211266 0.81423497
-0.35469982 -2.3644848 0.81176364
-0.1841246 -0.78609788 0.81953144
0.81381834 -0.76384151 0.81456488
0.32644886 -0.71031296 0.81963611
-0.015157375 -0.68490076 0.81305969
0.20944308 -0.68583977 0.81900734
0.80068219 -3.2002685 0.82186335
-0.20097406 -3.1647267 0.82137984
-0.36017764 -2.6890867 0.82348764
-0.36108097 -2.6551471 0.82080907
0.91800845 -2.4538662 0.82843053
0.90754473 -1.6599711 0.82763743
0.90762466 -1.4715704 0.82181919
-0.4590039 -1.0567863 0.82493752
0.033584807 -0.74464184 0.82411766
0.16068086 -0.73286563 0.82918924
0.21579665 -0.72326535 0.82583815
0.51489532 -0.72480714 0.82721579
0.30989346 -0.67814869 0.8203615
0.37491372 -3.2494354 0.83471471
0.18560842 -3.2209225 0.83819807
0.0022370527 -3.2106113 0.83041155
-0.24382746 -3.199296 0.83950108
-0.34286124 -2.748086 0.83433902
0.90220928 -1.4224739 0.83305359
0.94979632 -1.0275369 0.83761871
-0.10360155 -0.7903685 0.83216262
0.21950307 -3.2408695 0.84551191
0.23512453 -3.2171025 0.84543824
0.83787334 -3.1869986 0.84270996
-0.34010702 -2.716815 0.84494364
0.86591154 -0.90565509 0.84958488
0.73483527 -0.77189904 0.84089535
0.401573 -0.75772548 0.84550822
0.61070979 -0.73661089 0.84968805
0.23049206 -0.72378302 0.84292185
0.91133481 -2.5089164 0.85464245
0.89319283 -1.361275 0.85428685
0.63621593 -0.74561405 0.85982096
-0.051864278 -3.202347 0.86523831
-0.085132077 -3.172488 0.86750937
-0.27511114 -3.1440096 0.86668885
