# .PCD v0.7 - Point Cloud Data file format
VERSION 0.7
FIELDS x y z
SIZE 4 4 4
TYPE F F F
COUNT 1 1 1
WIDTH 1528
HEIGHT 1
VIEWPOINT 0 0 0 1 0 0 0
POINTS 1528
DATA ascii
5.0240555 1.8465875 0.22199541
1.5300605 1.8961625 0.22085059
1.0749434 0.19519821 0.23718533
3.7778804 0.25274751 0.23363551
4.036098 0.26859879 0.23122321
3.6662252 0.27274185 0.2346783
3.7422161 0.33117884 0.23396844
3.8763244 0.37139815 0.23271582
3.634598 0.40968409 0.2349734
3.3619795 0.43050244 0.23751956
3.1738048 0.49757773 0.23927693
4.8197412 0.511778 0.23238233
4.117063 0.52001274 0.23089902
3.2780828 0.54434478 0.23830295
4.00846 0.57882035 0.23148139
3.7146494 0.58987516 0.23422553
4.4449115 0.58085728 0.23089206
4.1156287 0.59567159 0.23089905
3.1532693 0.61737198 0.23946869
3.6871581 0.61453474 0.23448229
4.2996068 0.61698508 0.23089513
3.3294468 0.62332988 0.23782325
3.8846273 0.62755406 0.23263799
4.865416 0.62686431 0.23011149
3.5238869 0.63634002 0.23600721
3.8063281 0.63175732 0.23336928
4.5559278 0.64350903 0.23088971
3.6180775 0.67075545 0.23512748
4.9307365 0.67938393 0.23088175
4.157526 0.69791585 0.23089817
4.4315796 0.69581509 0.23089235
4.4444089 0.69256192 0.23089208
4.6101804 0.69301325 0.23088856
4.7104535 0.69141668 0.23088641
4.7983494 0.71853966 0.23088457
3.9675622 0.72013414 0.23186338
5.0921202 0.7248553 0.23086551
3.2543285 0.76442754 0.23852482
4.108788 0.82579654 0.23089918
3.727674 0.85295224 0.23410389
5.044487 0.85549116 0.23073521
4.0754166 0.88008541 0.2308999
4.903852 0.88312739 0.2307386
4.5381532 0.89306182 0.23080426
4.088726 0.9286598 0.23089609
3.6723299 0.93992364 0.23462078
3.8433323 0.93087327 0.23302366
3.900326 0.94061512 0.23249134
3.1290302 0.95902109 0.23969507
3.6509283 0.95166975 0.23482066
3.2649262 0.981897 0.23842585
4.3937507 0.98333764 0.23082951
4.6039543 1.0570761 0.23081271
4.9982862 1.0730236 0.23076695
3.7770393 1.0875735 0.23364286
3.1461902 1.1084437 0.23953493
3.8950129 1.1026071 0.23254099
4.9122534 1.114315 0.23076624
3.5822353 1.146825 0.23546231
3.8082767 1.184891 0.23335113
4.4720736 1.1846303 0.23081243
3.5672412 1.1977227 0.23560235
4.4833331 1.206648 0.23080996
3.1877403 1.2485139 0.23914674
4.5197144 1.2722809 0.23080924
5.1383696 1.2775127 0.23068748
3.4381411 1.2988384 0.23680806
4.1342669 1.3103025 0.23089866
4.380724 1.3163378 0.23088269
3.6063299 1.3272693 0.23523718
3.6295898 1.3212373 0.23501998
4.5709648 1.3219802 0.23084591
5.0548086 1.3248086 0.23074806
4.4463482 1.3420825 0.23089203
4.2666726 1.3642522 0.23089585
4.9183841 1.3695205 0.23082277
3.8534958 1.3702799 0.23292874
4.7032223 1.4062345 0.23088658
3.176127 1.4132595 0.2392552
4.2234135 1.4104162 0.23089677
4.8249741 1.4143245 0.230884
3.8077705 1.4567332 0.23335581
4.1881762 1.4511081 0.23089753
3.195497 1.4657395 0.23907429
3.8419342 1.46754 0.23303673
4.7526174 1.4729736 0.23088555
3.1868382 1.4831977 0.23915517
4.8167334 1.4915361 0.23088419
4.3964667 1.5069399 0.23089308
3.5671403 1.5164617 0.23560321
3.1455114 1.5424484 0.23954114
3.1876791 1.5433371 0.23914732
4.5447788 1.5450089 0.23088995
4.3711224 1.5541246 0.23089364
4.671382 1.5609114 0.23055525
3.9200311 1.5995888 0.23230731
4.3092656 1.5921847 0.23089495
3.6992481 1.6163453 0.23436938
4.020226 1.6908624 0.2313716
3.968842 1.7236598 0.23185158
3.3131814 1.7595913 0.23797536
3.5230098 1.7970947 0.23601569
4.3279395 1.851571 0.23164132
4.5755806 2.0020294 0.23605099
1.0659257 0.22254094 0.24906318
1.650635 0.24553564 0.24207383
2.2489724 0.26122093 0.24791491
2.9486783 0.2690703 0.24137998
4.7570629 0.32065111 0.24241543
2.9066072 0.36149076 0.24177277
2.6166568 0.41612476 0.24448073
2.5740523 0.42494988 0.24487862
2.5413783 0.45382512 0.24518374
2.0703442 0.46585897 0.24958305
2.3531921 0.48394328 0.24694128
2.3937473 0.52828187 0.24656245
2.9766259 0.54273075 0.24111851
2.2641881 0.58264679 0.2477725
2.521704 0.58920664 0.24536736
2.4489872 0.602009 0.24604653
2.848881 0.67030656 0.2423116
2.4630661 0.72545028 0.24591503
2.7584503 0.72890323 0.24315621
2.3302109 0.75072199 0.24715587
2.5172045 0.768372 0.2454094
2.4336367 0.78256381 0.24618989
2.8543644 0.78063929 0.2422604
2.9987049 0.78128004 0.24091229
2.0794983 0.79993278 0.24949747
2.6127784 0.79059517 0.24451676
2.6736524 0.79743338 0.24394819
2.8183248 0.79888785 0.242597
2.8105154 0.81919855 0.24266994
2.8042336 0.83066261 0.24272859
2.6617622 0.89865965 0.24405926
2.8918986 0.95059907 0.24190983
2.2181823 0.998133 0.24820217
2.9609132 0.99421084 0.24126525
2.3708427 1.0002024 0.24677637
2.8220882 1.0179329 0.24256185
3.0296631 1.0689542 0.24062334
2.5352941 1.0796524 0.24524064
2.8072782 1.2091897 0.24270017
2.2609303 1.2158477 0.24780294
2.2819476 1.2390922 0.24760664
2.0496113 1.2478211 0.2497766
2.8831682 1.3113191 0.24199137
2.5170386 1.390214 0.24541095
2.7934232 1.4033253 0.24282958
2.353482 1.4303012 0.24693851
2.9494727 1.4739914 0.24137211
2.6395249 1.5548391 0.24426694
2.1259177 1.5667232 0.24906392
2.508652 1.5788028 0.24548927
2.0324829 1.5821079 0.24993657
2.9420505 1.6050427 0.24144143
2.6261511 1.6285532 0.24439186
2.9664795 1.6295962 0.24121326
4.8343754 1.6522599 0.24779651
2.9964473 1.6688045 0.2409334
2.1487458 1.6738865 0.24885076
2.233799 1.7189298 0.24805646
2.0379157 1.7220218 0.24988596
2.0554328 1.7269502 0.24972239
2.1049626 1.7367204 0.2492598
2.5519378 1.7332861 0.24508515
2.060286 1.7449706 0.24967706
2.2281814 1.743022 0.24810898
2.6549792 1.7523016 0.2441228
2.4687433 1.7812226 0.24586226
2.6976891 1.794983 0.24372399
2.4498241 1.8092766 0.246039
2.1352353 1.8516454 0.24897715
2.1540322 1.8650445 0.24880159
2.7063339 1.8799788 0.24364339
2.0534682 1.8893825 0.24974081
2.6513898 1.8977897 0.24555309
1.1825794 1.95916 0.24624777
2.267983 0.26020366 0.25079876
4.9055753 0.31874019 0.25127319
1.8674099 0.32642141 0.25147846
1.7606683 0.34071934 0.25247535
1.9077702 0.43649128 0.25110146
1.8380854 0.44521701 0.25175229
1.759252 0.48496881 0.25248849
1.898223 0.53964132 0.25119054
1.4611193 0.54781437 0.25527325
1.5610929 0.55135596 0.25433943
1.0078042 0.58899939 0.25950754
1.0797768 0.63872582 0.25883526
1.0695806 0.64373374 0.2589305
1.3058515 0.64326763 0.25672355
1.4641109 0.64590061 0.2552453
1.1044807 0.67342401 0.2586045
1.748543 0.72742379 0.25258851
1.857631 0.72878706 0.25156966
1.0278792 0.76415604 0.25931993
1.695568 0.79204559 0.25308332
1.778131 0.83075112 0.25231218
1.599166 0.84173912 0.2539838
0.96100378 0.91596782 0.25994444
1.0453141 0.91726136 0.25915697
1.0923718 0.94984758 0.25871742
1.2276713 0.94444716 0.25745368
2.0237575 0.94439715 0.25001809
1.4981804 0.95946586 0.25492704
1.5372063 1.0063384 0.25456253
2.0236733 1.0021102 0.25001886
1.891395 1.0174552 0.25125429
1.2125841 1.0233631 0.25759456
1.7086029 1.0284208 0.25296158
1.5250753 1.0667275 0.25467575
1.7764133 1.0781282 0.25232822
1.4752377 1.0839764 0.25514126
1.4575658 1.0924102 0.2553063
1.1442988 1.1509672 0.25823236
1.6140106 1.1835717 0.25384513
1.1643965 1.2021798 0.25804466
1.6564635 1.2261363 0.25344858
1.906763 1.2446198 0.25111079
1.6686356 1.2675889 0.25333488
1.8329933 1.2641962 0.25179976
1.7368333 1.3061876 0.25269786
1.2898681 1.3135748 0.2568728
1.6629684 1.418031 0.25338784
1.0256919 1.4220746 0.25934035
1.9066398 1.4363233 0.25111192
1.6380969 1.4855536 0.25362015
1.7991645 1.530552 0.25211573
1.8650645 1.5431167 0.25150022
1.200416 1.5885437 0.2577084
1.9882675 1.6227119 0.25034955
1.1085919 1.638948 0.25856611
2.0091994 1.644595 0.25015405
4.377284 1.6522601 0.25933507
1.824946 1.7054319 0.25187498
1.9249603 1.7076695 0.25094092
1.7497103 1.761695 0.25257766
1.8308246 1.7796438 0.25182012
1.9964621 1.7719523 0.25027317
1.873042 1.8678758 0.25142589
1.0135114 0.18216801 0.26195875
4.9066305 0.30468866 0.26016644
1.1332082 0.31321791 0.2611202
4.8300753 0.44054604 0.26564285
0.85524327 0.51311934 0.26289749
0.85863787 0.56262702 0.26234937
0.82809144 0.59445953 0.26598522
0.85163653 1.2013502 0.26218194
0.80322468 1.2479552 0.26819155
0.90894669 1.5542688 0.2604309
4.4473372 1.6522599 0.26130185
4.3025546 1.7040166 0.26343226
4.7912588 1.874106 0.2663503
3.691499 1.9171146 0.26665697
2.755749 0.25811577 0.27309102
0.7462002 0.32797283 0.27754107
0.79268014 0.44794255 0.27100518
4.8196468 0.46896854 0.27979451
0.78154522 0.91561627 0.27083075
0.72505909 1.0566217 0.27734071
0.75291586 1.1036663 0.27394271
0.78078955 1.1934975 0.27078274
4.9087658 1.7182436 0.27895254
5.1569095 1.7217487 0.27800459
4.2790022 1.7476256 0.27481577
0.94330281 1.7887598 0.27462327
0.74675167 0.25424334 0.28370073
0.79892838 0.25054836 0.28953469
1.4518285 0.51336199 0.28494093
4.6804991 0.511778 0.28551656
0.6336022 0.58051687 0.28965583
0.66111493 0.74785721 0.28591239
0.66136599 0.80474317 0.28573689
0.70257539 1.2590789 0.28046709
1.6923687 1.6506701 0.28814363
0.71563464 1.8012499 0.28102472
1.6495303 1.9193218 0.28406677
4.7591162 1.9397656 0.28962404
4.8279457 2.0114629 0.28733343
0.95750093 0.21436203 0.29228956
0.59651715 0.28413418 0.29895598
1.6687665 0.29212767 0.29548493
0.59144723 1.1122427 0.29360172
0.56071717 1.2341969 0.2976653
0.58795005 1.3391002 0.29461884
0.57956338 1.5520853 0.29615805
1.289229 1.6506701 0.29867452
1.4305625 1.6506701 0.29800737
0.62332308 1.7050393 0.2916097
3.2019897 1.9178815 0.29575104
3.9750361 0.22806488 0.30554599
1.6731355 0.36179066 0.30835471
4.7476063 0.41056648 0.30269364
0.95683146 0.42231858 0.30250317
3.7511973 0.47617453 0.30842051
0.50038803 0.50182611 0.30631703
3.8153315 0.5279783 0.30768424
0.49836305 0.53677565 0.30631405
3.6690006 0.59255445 0.30999315
3.8148222 0.64358276 0.3076807
0.50735134 0.65674639 0.30484229
0.48177981 0.83809274 0.30750433
3.7922363 0.83798009 0.30763534
0.48922414 0.85437524 0.306557
0.51913786 0.96826279 0.30262685
3.7112887 1.3459483 0.30918407
3.7609603 1.3746128 0.30823374
3.7591414 1.4612033 0.30826855
3.8526742 1.5477743 0.30794507
0.53695202 1.5502298 0.30132431
3.7357926 1.5781829 0.30871528
4.063611 1.803008 0.30261418
3.5717344 1.922181 0.30926633
4.3644447 1.9405675 0.30557862
3.2494848 0.28776613 0.31801963
3.297956 0.30124965 0.31709224
3.5759134 0.31264529 0.31177416
3.3176031 0.32839173 0.31671637
3.6001735 0.32157877 0.31130999
3.2457347 0.33440834 0.31809136
3.1717691 0.35838982 0.31950653
3.2597508 0.37033802 0.3178232
3.161732 0.39605823 0.31969857
0.48016667 0.40831947 0.31049263
1.6753067 0.40452269 0.31662992
3.3579304 0.4394497 0.31594476
3.3077376 0.45949018 0.31690511
0.86995822 0.49829686 0.31593198
3.6622272 0.49429068 0.31012276
3.5779457 0.51861858 0.3117353
0.44323668 0.52606094 0.3131234
0.43578306 0.71232069 0.31342179
3.6204858 0.72096932 0.3109214
3.6634128 0.74747014 0.31010008
3.2494199 0.82016486 0.31802091
3.4137025 0.83905286 0.31487775
3.4749637 0.84594041 0.31370565
0.41954681 0.92273855 0.3148613
0.38398597 1.2083468 0.31909966
0.37815005 1.2381778 0.31989059
3.6600871 1.4596035 0.31016371
3.4643621 1.4857115 0.31390852
3.5727963 1.5122933 0.31183386
3.8906057 1.5476718 0.31854671
0.43116042 1.5733538 0.31419781
3.1537497 1.5901282 0.31985134
3.1681743 1.6146891 0.31957534
1.6940768 1.6506701 0.31604418
3.1902118 1.6576029 0.31915373
3.2284389 1.6544276 0.31842232
4.2612834 1.6522598 0.31043378
4.6077294 1.6522599 0.3195439
4.7028422 1.6522599 0.31385326
0.44992465 1.6689726 0.31252861
3.4172535 1.6977644 0.3148098
3.502497 1.7028898 0.31317884
3.357686 1.8299532 0.31594947
4.9136739 1.8724316 0.3199296
0.4779366 1.8856083 0.31725559
3.3742759 1.8838586 0.31563205
3.6566474 1.9205194 0.31218532
3.7810917 1.9204433 0.3102783
4.7667437 1.9296398 0.31667992
1.2932143 1.962358 0.31527916
4.262166 0.18396668 0.32452333
1.4540919 0.20130834 0.32720834
0.64120895 0.24960245 0.32402715
2.7530799 0.24463895 0.32841235
3.0421674 0.278 0.32198617
2.7789011 0.30683279 0.32702315
2.7789612 0.40233353 0.32702202
2.9921126 0.43654677 0.32294387
2.9048667 0.44766223 0.32461309
0.34344363 0.46906799 0.32826233
2.7881339 0.47663793 0.32684651
2.6783831 0.48855343 0.32894644
2.7888682 0.54651618 0.32683256
3.1244299 0.56230986 0.32041228
3.1320362 0.56985474 0.32026675
2.7965078 0.57914221 0.32668644
2.8786685 0.62416434 0.32511443
3.0949445 0.64455128 0.32097644
0.34514251 0.66018027 0.32451487
2.6596739 0.70711905 0.32935244
3.0448923 0.7217173 0.32193407
2.9306047 0.76259267 0.32412094
0.34637278 0.87378395 0.32389
3.3454227 0.87910098 0.32755202
2.9788508 0.88883865 0.32557583
0.36259481 1.1775894 0.32161441
2.8594444 1.3149084 0.32985437
0.34578052 1.3405553 0.32409024
2.875993 1.3783619 0.32996988
2.7975121 1.4433229 0.32666749
2.9951677 1.4765363 0.32288545
2.7620339 1.5048286 0.32734621
2.8318009 1.5110172 0.32601127
2.7483702 1.5344716 0.32907888
2.9028769 1.5776427 0.32465118
2.8537383 1.5851331 0.32559139
2.8911722 1.5904555 0.32487518
1.0953822 1.6506701 0.32772362
2.7241831 1.6838787 0.32890993
2.8392756 1.6952702 0.32586804
4.061883 1.6910746 0.32011804
2.8115463 1.8185868 0.32639858
2.8249416 1.888752 0.32614225
2.8328381 1.8840284 0.32599118
1.5067604 1.8965018 0.32879582
0.57344037 1.9049773 0.32456499
2.3641679 1.9240611 0.32774296
1.3585492 0.20195 0.33581042
3.6533866 0.26917183 0.3335439
1.6739357 0.27607152 0.33754838
4.8116021 0.32406569 0.33714437
0.32628423 0.39339665 0.33501786
1.7359512 0.40902352 0.33178979
3.1866519 0.43897301 0.33213827
0.20040339 0.44242328 0.33855146
3.0983174 0.49937543 0.33152184
2.936342 0.5038262 0.33039135
2.6100974 0.51486164 0.33156013
0.30191052 0.53856134 0.33113596
5.1656919 0.5487864 0.33414266
0.2028385 0.56184638 0.33607221
2.8821507 0.63325191 0.33001289
2.9712377 0.73608929 0.33063465
3.8860955 0.83471555 0.33912563
0.28982934 0.89237678 0.33072296
2.6130717 0.93746495 0.3362565
0.22549751 1.0103998 0.33821833
0.27651554 1.2141345 0.33218455
2.5521407 1.2267716 0.33748809
3.2616129 1.2445016 0.33266187
2.9432511 1.2823482 0.33043951
2.4906321 1.3046181 0.33688009
3.1314321 1.3631276 0.33175299
2.899086 1.4014463 0.33013114
2.4935865 1.5020174 0.33674854
3.0092897 1.5536448 0.33090007
3.1588411 1.6379752 0.33194423
4.4241138 1.6522601 0.33404177
2.9632635 1.7243181 0.33057907
2.5316505 1.7550176 0.33505356
1.0656947 1.7626624 0.33017352
2.6289299 1.8718299 0.3307215
2.5241106 1.9168003 0.33700675
1.6590251 1.9309168 0.33069116
3.800756 0.25125116 0.34039617
0.3726241 0.28701365 0.34218529
2.6350682 0.28647465 0.34382236
0.9542982 0.35152608 0.34115154
0.95711315 0.433559 0.34485498
2.3504939 0.44816819 0.34312075
0.26753828 0.48304763 0.34018606
2.2530253 0.48260856 0.34746113
0.14630163 0.76821965 0.34845352
3.8930607 0.7658636 0.34071234
0.18689987 0.87743562 0.34328568
3.7522993 0.87910098 0.34632516
2.9475589 0.89027715 0.34589484
0.18482159 0.90309787 0.34346637
2.5212276 0.93858516 0.34870777
2.3147318 1.2724572 0.34471315
2.9302826 1.2729577 0.34047669
5.2265544 1.2821665 0.34241742
2.3263383 1.390043 0.34419629
2.3492868 1.5965648 0.34317446
0.2407677 1.6441922 0.34242991
2.3096247 1.6856551 0.34494069
5.1350803 1.7133381 0.34106016
0.28088087 1.7530384 0.34487081
0.27899626 1.7702779 0.34183025
0.30129391 1.8234154 0.34060574
2.3101883 1.8207512 0.3449156
0.25810608 1.8413777 0.34870884
3.2461681 1.8915807 0.34272012
2.2452881 1.900768 0.34780568
4.9587851 1.9227465 0.34447646
1.5467334 0.22328161 0.35881668
2.2467513 0.23251297 0.35413802
0.39711404 0.27439272 0.35752672
4.0580058 0.27439368 0.35925019
0.95308673 0.30365661 0.35963503
1.010504 0.44214398 0.35559824
4.1271787 0.511778 0.3516413
4.9089289 0.511778 0.35580784
5.2022295 0.70193142 0.3501758
2.7178202 0.819341 0.35334945
0.1057934 0.87999278 0.35314131
3.7965732 0.87910098 0.35053906
2.3702085 0.93807417 0.35161906
3.1281934 0.94269502 0.35913882
0.10462537 1.287019 0.35329172
1.0292456 1.80215 0.35211825
2.1269345 1.9281822 0.35307652
3.080987 1.9250188 0.35568306
4.8505354 0.34114137 0.36654168
0.86768258 0.35859877 0.36258417
3.1486847 0.41796881 0.36985826
2.8678725 0.4276287 0.36566037
1.5091 0.51336199 0.36710912
1.5398358 0.51336199 0.36472946
4.4097238 0.511778 0.36904025
5.2329879 0.88275307 0.36898819
2.5272744 0.94132721 0.36890543
2.7230341 1.2133193 0.36921424
5.1747808 1.5963283 0.36080623
5.1434646 1.6997015 0.36377919
2.2588649 1.7310243 0.36363369
2.8248758 1.8725057 0.36729956
2.0656655 1.918072 0.3605608
4.8045745 2.0759969 0.3602463
1.0413091 0.21974948 0.37073946
2.0618606 0.27351901 0.37706447
2.2138529 0.28836069 0.37115139
3.4753809 0.29162952 0.37898198
4.7259345 0.47070941 0.37213832
1.1575781 0.51336199 0.37859243
0.075850658 1.0179121 0.37756479
2.9177444 1.2273753 0.37758192
3.1567223 1.2200577 0.37201759
2.7043791 1.2501266 0.3746742
5.2159967 1.4088602 0.37890646
5.1750879 1.5903827 0.37210631
0.18376963 1.6993029 0.37915117
0.2480935 1.8648387 0.37754393
2.4589744 1.8699713 0.37705958
3.8101039 1.9236718 0.37830731
1.2658752 1.9583268 0.37103897
1.8612645 0.21804941 0.38033772
4.1901908 0.32422775 0.38655657
4.8185949 0.48789585 0.38209212
3.8983173 0.5657289 0.38817558
3.8983195 0.66420794 0.38819575
2.2581785 1.2214743 0.38804424
3.2722766 1.2487977 0.3832444
2.8376725 1.2655188 0.38136122
3.1623898 1.2836963 0.38532659
1.4201641 1.6506701 0.3855733
2.7441964 1.7566159 0.38120642
3.6196432 1.8715012 0.38091403
3.8082311 1.9324306 0.38863468
1.7593398 1.9524294 0.38233796
2.671859 0.29316899 0.39952233
4.2280364 0.32387286 0.39227605
2.2586524 0.33824164 0.39401594
4.9092984 0.40742579 0.39666301
3.0997944 0.41986799 0.39139086
4.7482643 0.42413563 0.39571708
1.6871129 0.51336199 0.3953912
4.8999705 0.511778 0.39244664
2.7555404 0.95600796 0.39361608
5.2481766 0.97034705 0.39970517
3.1134443 1.2218511 0.39741045
3.898927 1.35698 0.39368245
0.28966835 1.6548384 0.39855435
0.93525869 1.7548356 0.39735052
4.2012305 1.8797814 0.39878726
0.34919652 1.8930755 0.39996833
2.1309137 1.89052 0.39931953
2.1741064 1.8905201 0.39537829
2.0287261 0.27351904 0.40149003
2.7225237 0.29309151 0.40661645
0.87029314 0.33771947 0.40556175
0.11227755 0.42598885 0.40778509
3.304986 1.2958152 0.40514261
1.5825155 1.6506701 0.40841421
0.9939121 1.72217 0.40280166
1.8448229 1.8888566 0.40365592
1.8588309 1.89052 0.40203139
0.97383219 1.9805737 0.40751582
4.7316723 2.0148051 0.40744653
4.0690098 0.27344671 0.41448054
4.2215319 0.28755519 0.41525084
4.6159658 0.28490645 0.4179022
4.070137 0.50967467 0.41982284
1.5926181 0.51336199 0.41183293
4.4491491 0.511778 0.41142684
2.7007096 1.2479929 0.41373533
0.054790016 1.3312435 0.4174203
1.5634059 1.7638929 0.41350415
2.7131453 1.8442076 0.41907614
0.93673164 1.8658133 0.41748306
2.5061114 1.8694532 0.41266447
3.7670562 1.8706826 0.41656607
1.1055231 0.35669929 0.42614895
1.5781643 0.36047485 0.42255232
4.7480979 0.40211987 0.4260903
5.1363735 0.40458736 0.42811275
4.7241459 0.45490986 0.42759338
0.065853931 0.67447662 0.42794716
3.9019542 0.8065542 0.4210161
5.2628293 1.3238559 0.42931122
5.2607737 1.3381438 0.42892465
3.3201828 1.4141297 0.42686141
1.2739514 1.6506701 0.42747742
1.3374007 1.6506701 0.4266144
1.5438267 1.6506701 0.42868125
1.696838 1.6506701 0.42919761
1.7301444 1.8461487 0.4212383
3.2159123 1.9296771 0.42281508
0.87385225 1.9525199 0.42260677
1.7278953 0.20043121 0.43472016
4.9018369 0.2475272 0.43584782
5.1326704 0.37357017 0.4318797
4.7120004 0.47914582 0.4313789
4.7550983 0.511778 0.43855211
3.6366296 0.86356699 0.43916667
2.366715 1.1011927 0.43726504
2.3950524 1.1482495 0.43635559
2.2847259 1.1864311 0.43989632
2.4851618 1.1997356 0.43346369
3.0614343 1.2440975 0.43216664
2.6058264 1.8698226 0.43098226
2.2228582 1.89052 0.43624318
2.2045865 1.9318864 0.4366653
1.0068905 1.9821399 0.43969929
0.99163401 0.18632324 0.44269747
4.9156342 0.21562275 0.44393599
3.2054174 0.2340223 0.44918826
4.2370682 0.26438466 0.44118986
2.6987653 0.32039505 0.44069445
5.2015619 0.48536012 0.44425175
4.1764603 0.511778 0.44018036
4.6551094 0.511778 0.44388983
3.9047141 1.5706429 0.44593617
5.1854544 1.7252057 0.44464079
5.1792593 1.7419204 0.44359866
1.9890946 1.8670201 0.44037384
1.104528 1.9274858 0.44905418
4.718039 2.0160782 0.44264621
1.6663215 0.22892217 0.45370051
3.7730937 0.23157412 0.451666
4.6297293 0.25799084 0.45403278
1.867323 0.27351904 0.45129055
2.2508094 0.30177563 0.45436066
4.8980598 0.40956157 0.45576075
1.7217735 0.41859889 0.45718759
1.4765036 0.51336199 0.4589687
5.2580175 0.72183698 0.45149183
3.7611785 0.86509734 0.4514702
0.031677336 1.1122956 0.45972559
3.4472642 1.3043053 0.4575347
3.9061882 1.4060433 0.45924705
1.423991 1.6506701 0.4547379
1.4326322 1.6506701 0.456141
4.8001223 1.6522598 0.45249262
2.2312012 1.89052 0.45998818
1.9860818 0.27351901 0.46893552
0.88551247 0.40084887 0.46581554
1.7207364 0.43625849 0.46164122
4.8171844 0.44949946 0.46570843
2.8184609 1.2597607 0.46882641
2.942203 1.2735491 0.46571741
1.1562054 1.6506701 0.46637601
0.093793824 1.6948977 0.46240848
5.1351357 1.8378942 0.46123201
0.15239064 1.8454368 0.46173912
0.33874458 1.9023532 0.46848124
3.2096677 1.9308014 0.4694494
3.8263831 1.9328761 0.4662903
1.3209693 1.9541192 0.4696123
0.60692149 0.21972799 0.47053456
2.7473323 0.23277836 0.47447029
1.9076276 0.27351901 0.47928166
0.97117877 0.37258455 0.47372204
3.1099629 0.41949219 0.47018686
3.068449 0.42071772 0.47355503
2.8381124 1.2173272 0.4757866
0.048091963 1.4664162 0.47571421
4.3466868 1.7443373 0.47476652
3.8276286 1.8261063 0.47824216
2.6403275 1.8690016 0.47389442
2.0731506 1.9369373 0.47075826
2.4858418 1.9335735 0.47786346
2.8437467 1.9310148 0.47607154
2.1229923 0.22572151 0.48727185
3.4073112 0.23169982 0.48842734
3.3379321 0.29498422 0.48557568
4.0835724 0.46215171 0.48392969
3.7707272 0.85980409 0.4893117
0.43335855 0.94497859 0.48894948
2.8658838 0.97378361 0.48055708
0.54700345 0.99987346 0.4897429
3.2313793 1.0542122 0.48869434
0.50166249 1.3714489 0.48942637
3.314888 1.6280793 0.48906913
1.538239 1.7928741 0.48222205
3.1703572 1.8685756 0.48417747
1.9153728 1.8794558 0.48540741
2.8334103 1.9316485 0.48178279
1.7118183 0.22242101 0.49993667
4.554266 0.25089145 0.49910593
1.7663398 0.27351901 0.49008694
1.8608859 0.28233212 0.49668565
2.6926062 0.41259384 0.49480373
2.2578046 0.55528212 0.49469557
0.70069325 0.76418716 0.49081585
0.59069651 0.79455113 0.49237031
0.71404648 0.79744649 0.49393255
0.8314454 0.7982595 0.49172872
0.87876117 0.79681027 0.49205288
0.61201346 0.80221355 0.49321342
0.79324043 0.80062795 0.49363947
0.63918155 0.81323481 0.49410322
0.48248076 0.82376546 0.49045414
0.80886012 0.82437021 0.49157101
0.70313179 0.88592643 0.4908329
0.9581576 0.89094973 0.49335489
0.86056715 0.94684464 0.49995822
2.9592261 0.9401862 0.49742904
3.5614147 0.95278704 0.49817476
3.096549 0.96136689 0.49302179
0.68803835 0.98643476 0.49072754
0.66250139 1.0513849 0.49054921
2.25899 1.1264323 0.49944472
0.85512507 1.1623261 0.49189407
0.81757408 1.1833633 0.49163187
1.0008204 1.1875713 0.4941383
2.2575278 1.1992092 0.49425036
3.0503325 1.2515415 0.49333233
0.90418768 1.2763765 0.49223655
0.47050172 1.2872039 0.49274319
0.96761692 1.282197 0.49333751
1.0415814 1.3166729 0.49319574
0.93228483 1.3331718 0.4928987
0.83003396 1.3553948 0.4944486
0.91448957 1.365905 0.49230847
0.60985529 1.3939764 0.49018168
0.88852346 1.4227271 0.49212721
4.6742249 1.6522601 0.49283993
1.4731406 1.7942328 0.49581569
0.13455833 1.831476 0.49561596
1.9450053 1.879387 0.49526086
0.2818774 1.8837738 0.49164134
2.5382099 1.934736 0.49375242
1.1313014 0.22458035 0.50838017
3.7082648 0.22972363 0.50766176
1.9950176 0.28505573 0.50783157
4.6554871 0.29794002 0.50814724
4.882092 0.32697809 0.50215852
4.6304932 0.511778 0.500148
3.7916842 0.85787737 0.5093956
3.6649528 1.3117818 0.50020528
0.3613866 1.4516199 0.50926745
5.241559 1.5196779 0.5041517
2.4042158 1.9376287 0.50993228
2.6603553 1.932018 0.50345147
3.0649228 0.23010084 0.51349056
3.439775 0.23049048 0.51682204
1.4689078 0.24240868 0.51620609
2.6602948 0.25880691 0.51214498
2.1908593 0.27351901 0.51623958
0.20425877 0.29512691 0.51566255
2.6883779 0.29581997 0.51089835
1.706234 0.33447513 0.51425248
4.2107158 0.33737013 0.51688796
1.0934314 0.3771705 0.51994371
5.1601543 0.3784757 0.51215339
4.1004443 0.47547257 0.51724392
0.95155352 0.51336199 0.5186308
2.2589016 0.90897691 0.51197487
0.35763943 1.45162 0.51749837
4.7917275 1.6522598 0.51683837
5.2049751 1.6575174 0.51185155
2.0769753 1.8905199 0.51360047
0.98801875 0.2718029 0.52332944
1.8296812 0.27974281 0.52906156
1.8799419 0.27351901 0.52810651
2.1007075 0.28683475 0.52170134
3.7341566 1.0046269 0.52034843
2.6596658 1.0244255 0.5211395
2.7423184 1.1151986 0.52171636
3.6444857 1.110292 0.52538991
3.6551511 1.1461134 0.52479017
3.6370373 1.1618521 0.52580857
3.6592507 1.2162952 0.52455974
0.52827787 1.2637317 0.5283255
0.94653678 1.6506701 0.52396804
3.3431842 1.8684887 0.52039731
0.41594976 1.9131768 0.52102393
1.0981705 1.95662 0.52070457
4.3924975 0.1758198 0.53568161
4.8650856 0.22042857 0.53379279
2.2256322 0.28934291 0.53247726
1.1903155 0.29444006 0.53666735
4.820775 0.38491377 0.53310633
0.45406017 1.1424999 0.53064853
3.8336897 1.3089151 0.5394274
1.0579336 1.4307847 0.53581965
0.52300715 1.45162 0.53033912
1.2882531 1.6506701 0.53072202
4.1098547 1.6669991 0.53399563
3.8897653 1.9391968 0.53474599
1.5314205 1.9742055 0.53011554
1.6921313 1.972322 0.53860569
4.6849704 1.9700787 0.53348577
1.0387137 0.18620563 0.54978693
3.7442164 0.2962743 0.54330826
4.402576 0.29572326 0.54029024
4.2819676 0.30958536 0.54348147
0.044810794 0.59795958 0.54055679
2.8585742 0.94222796 0.54900926
2.9833381 1.3521436 0.54923236
0.60496002 1.4516201 0.54932529
0.9468416 1.45162 0.54601806
2.8734913 1.6887207 0.54209542
4.7212229 1.8690166 0.54237592
1.4432789 1.9112053 0.5456714
4.6716552 1.9805365 0.54253572
4.8533745 0.26231602 0.55558556
1.8196228 0.27351901 0.55712032
0.23043251 0.28465539 0.55208874
0.92338592 0.44259357 0.55730879
2.2544146 0.50556356 0.55621362
1.430061 0.51336199 0.5564388
0.64180434 0.71241796 0.5539903
2.9435401 0.8610065 0.55067855
2.6757398 0.95130652 0.55078483
3.326906 1.3885688 0.55992222
2.8337805 1.5750328 0.55293554
4.1932344 1.6522599 0.55672204
2.1417716 1.8765137 0.55291718
4.4189582 1.878495 0.55602527
2.6600258 1.885097 0.55057967
4.5490074 1.9369464 0.55767298
4.8036046 1.9477925 0.55745667
4.2698984 0.092698462 0.56438947
4.8477969 0.29897052 0.56596601
4.815176 0.33107007 0.56112212
1.3993201 0.36804602 0.56389046
2.2654495 0.39978507 0.5653469
2.9038186 0.46553496 0.56176627
1.0982661 0.51336199 0.56485105
4.2315269 0.511778 0.56007946
3.6994562 0.89263737 0.56117392
3.6645179 0.90219837 0.56313819
3.6706178 0.91602075 0.56279528
2.7896147 0.98827499 0.56017518
3.6315532 1.0743159 0.56499147
3.6334953 1.1928618 0.56488234
0.98574173 1.45162 0.56076837
3.3292582 1.4734826 0.56841421
1.056392 1.72217 0.56170774
1.116086 1.7672771 0.56328273
2.0806911 1.8740841 0.56937414
2.3439257 1.8728268 0.56115061
2.3242364 1.9447315 0.5607242
1.6979601 0.27874979 0.57995862
2.474088 0.29604384 0.57961392
4.1314597 0.35598022 0.5724625
4.3068247 0.36790228 0.57608068
4.6341648 0.43533561 0.57477438
2.6413195 0.44986141 0.57246149
1.0160034 0.51336199 0.5739609
1.3037486 0.51336199 0.57774103
2.2177668 0.55549753 0.57526422
3.3197532 0.82745051 0.57948506
2.1310046 0.96387494 0.57822847
2.151305 1.0760226 0.57753491
2.852762 1.17478 0.5756768
0.33148712 1.1827435 0.57644206
2.23245 1.2745156 0.57189661
0.48500237 1.3913579 0.57883286
2.2128918 1.4828353 0.57543075
1.7181141 1.5701324 0.57519257
1.0270667 1.97282 0.57349497
1.4614239 0.22424644 0.58999598
2.2138839 0.30551094 0.58791041
1.7770569 0.56406718 0.5815587
1.7982606 0.58841765 0.58170664
1.9004419 0.69561386 0.58241981
1.7813048 0.7364037 0.58158839
1.9817126 0.73547816 0.58298701
1.8103492 0.79739785 0.58179104
2.0090516 0.81041133 0.5823952
2.0318115 0.89981383 0.58161747
1.8319588 0.91108525 0.58194184
1.0576028 0.96566945 0.58321315
1.8761604 0.97959149 0.58225036
3.1199234 0.99685884 0.58505481
3.6094151 0.99854684 0.58201426
1.7724471 1.0129864 0.58152652
1.870611 1.2398393 0.58221161
0.27879784 1.3047081 0.58162403
1.7635211 1.3203506 0.58119875
0.52257496 1.4516201 0.58630568
1.7938554 1.4594958 0.58167595
1.7670665 1.5166065 0.58148897
1.8446901 1.5581881 0.58203065
1.2805722 1.7807846 0.58729208
1.8405036 1.8737714 0.58706522
1.8580244 1.873814 0.58346021
2.0777364 1.8727448 0.58803391
3.3403344 1.9394301 0.58517724
0.6236465 1.9453381 0.58486217
1.4080756 1.9553114 0.58847964
1.9849396 1.9502929 0.58993852
4.4992728 1.9694495 0.58386743
4.839416 1.9661922 0.58155477
2.6596067 0.22716977 0.59481144
1.6620252 0.25252664 0.59059417
3.8391399 0.25692469 0.5937444
1.8715546 0.30719689 0.59240031
4.3331099 0.34999502 0.59884441
1.9156539 0.42271703 0.59848952
2.0072894 0.46534753 0.59842789
1.9050801 0.49217823 0.59771061
1.8738549 0.50975853 0.5930115
3.920718 0.51505345 0.59043968
0.27870318 0.82666183 0.59518963
3.7341216 0.84197271 0.59196317
3.8085277 0.84544748 0.59624255
2.6452792 0.88534343 0.59142482
2.7792487 0.98827499 0.59720957
2.8011837 1.17478 0.59417391
3.691853 1.3241936 0.59208655
0.4303551 1.3480918 0.59082395
0.58310974 1.45162 0.59964073
4.5997686 1.6522601 0.59474641
2.1026208 1.6785084 0.59141749
4.3382268 1.6735935 0.59875906
2.0178089 1.6967963 0.59806848
2.1461151 1.7750521 0.59368521
2.0824852 1.7911203 0.59585899
2.1600032 1.7960831 0.59321076
1.4386921 1.8624021 0.59646839
4.719995 2.0609815 0.59233373
4.4174962 0.17928411 0.60234725
3.9635839 0.2211718 0.60823184
0.24696836 0.27551177 0.60541451
0.94973654 0.35329646 0.60091418
2.9924431 0.429506 0.60474557
4.5836973 0.42610177 0.60247493
0.8478049 0.71241802 0.6023621
0.96534789 0.8713361 0.60898179
3.2885218 1.2502811 0.60718596
2.8318119 1.4352539 0.60718465
3.9227526 1.6475214 0.60881263
4.5524321 1.7853403 0.60993671
3.4274244 1.8645964 0.60804838
4.2926607 0.16275065 0.6195671
4.8519936 0.19744608 0.61612719
2.5167871 0.22145391 0.61392522
1.0577186 0.3461481 0.61657995
4.46421 0.42947659 0.61105162
4.6533465 0.52578914 0.61607313
1.6753026 0.69424403 0.61669797
0.97675735 0.71241802 0.61730057
5.216413 0.99088991 0.61219716
5.188159 1.0674863 0.61884999
3.0889058 1.1757103 0.61043173
0.8240087 1.2721727 0.61003894
2.8282616 1.4174378 0.61819756
4.2202048 1.6522599 0.6110543
4.8175201 1.7156987 0.61018765
1.2783829 1.7362267 0.61976969
1.3763027 1.7551268 0.61989278
1.3797612 1.7812512 0.61871898
3.8591652 1.78492 0.61976999
4.1616049 1.8334135 0.61530483
1.3766019 1.9231248 0.61979133
1.3635079 0.24777189 0.62944877
4.2411647 0.28331444 0.62111729
3.1647189 0.64640129 0.62031502
0.0584636 0.90095925 0.62021601
1.0360625 1.0461704 0.62982577
0.39737073 1.31703 0.62471747
5.2097912 1.3558503 0.62694907
3.1880052 1.5155087 0.62629628
1.124926 1.6506701 0.62117404
4.3975601 1.6958102 0.62820482
0.96615297 1.7372984 0.62713647
1.7101562 1.7305971 0.62406075
1.0517025 1.8521448 0.62722492
4.4058857 1.934348 0.62557083
3.9117093 1.9403374 0.62077659
1.3692093 0.19366485 0.635252
1.5497078 0.20357531 0.63225788
1.8579791 0.21426207 0.6327213
0.54153085 0.22356752 0.63982928
2.6590135 0.26903147 0.63988578
1.6237075 0.27202919 0.63966858
4.5090775 0.28593463 0.63235515
1.797241 0.29870337 0.63566911
0.11792377 0.33086362 0.63984442
4.4840603 0.37540126 0.63147849
4.7900882 0.38304454 0.63691443
1.3449705 0.43302456 0.63422692
3.1473389 0.4706918 0.63169992
4.7965851 0.49267593 0.63058716
1.3050144 0.51336199 0.63685793
0.27844697 0.77935433 0.63190579
0.45082369 1.0730795 0.63907015
5.1751914 1.3902062 0.6331836
5.072937 1.5479697 0.63379931
3.2346749 1.6091163 0.63118279
2.6169457 1.6461706 0.6347121
1.4095383 1.72217 0.63914448
1.2893529 1.8246953 0.6315884
1.2899531 1.8586705 0.63162774
1.8274826 1.8651792 0.63657928
3.3993583 1.8635299 0.63876188
1.295437 1.9100103 0.63198715
1.3188688 1.947984 0.63352293
1.0815152 1.9732456 0.63054329
2.1582127 0.30064037 0.64726973
1.5364456 0.35755068 0.64388901
5.0842586 0.39108184 0.64446813
4.1911831 0.46983299 0.64306247
5.0457339 0.47875041 0.64262056
1.6670705 0.84657562 0.64888829
5.2594976 1.0287185 0.64456797
0.27832335 1.0590156 0.64961988
5.182622 1.3438313 0.64617044
2.8203149 1.3891677 0.64749742
4.1880412 1.6815718 0.64011317
5.0625978 1.7064596 0.64223891
1.4897704 1.7306879 0.64535314
4.2708387 1.8344786 0.64176947
2.0905354 1.8640957 0.64012009
2.3503466 1.8629259 0.64510524
1.6180327 1.8933781 0.64495265
1.5197612 1.9717877 0.64505374
1.6624552 1.9759842 0.64066625
4.5338764 2.0388448 0.64248931
4.1686268 0.17734766 0.65308404
4.3126235 0.21598828 0.65448797
1.7987968 0.3005155 0.65828156
2.2444031 0.30133137 0.65344536
5.0733781 0.30686623 0.65300632
4.7323275 0.511778 0.65035093
4.9991741 0.51576406 0.65949142
0.65618086 0.71241802 0.65529698
5.2037525 0.75164664 0.65180314
0.84483188 0.93277621 0.65326875
0.33988088 0.97840583 0.65593445
1.6655536 1.149111 0.65482104
2.8449368 1.1682357 0.65996492
5.2133942 1.3608091 0.65445834
0.55393207 1.4267869 0.65239632
3.9277308 1.4764957 0.65376496
1.5041444 1.7694356 0.65874851
3.8863924 1.78492 0.6541
5.0102944 1.8466046 0.65739483
2.1132231 1.8627636 0.65890163
4.2571564 1.9049506 0.6558392
4.7017231 1.9426193 0.65873444
1.4568812 0.18703599 0.66342324
4.0067787 0.22018777 0.66986495
5.0083375 0.26778898 0.66506135
1.0856187 0.51336199 0.66218722
4.2708483 0.511778 0.66174638
5.2231383 0.77571607 0.66603041
2.7459946 1.0854932 0.66427219
5.1746674 1.2707022 0.66046309
1.0570426 1.441195 0.66348612
2.8170455 1.4917074 0.6692307
5.0167093 1.5651889 0.66462052
4.451776 1.6522598 0.6698314
1.645682 0.18510933 0.67933762
1.2575672 0.44214401 0.67274791
1.2781415 0.44214398 0.67618501
1.2155857 0.51336193 0.67299724
1.6599385 0.77593839 0.67677838
0.62099016 0.89776289 0.67549026
2.8577011 0.90409261 0.67130476
3.6359479 1.1878958 0.67525953
0.43892756 1.3569372 0.67252475
3.3330772 1.9381543 0.67481905
2.5442076 0.22361909 0.68656904
2.878654 0.3040092 0.68553412
3.3165071 0.30106884 0.68849707
4.3170266 0.33675465 0.68794304
0.067840353 0.78873366 0.68059641
0.70147181 0.89511818 0.68807673
0.64006531 1.0669222 0.68617225
2.784831 1.1790196 0.6843555
1.2878884 1.7231735 0.68176532
0.19851738 1.8691448 0.68634272
2.3111506 1.8604544 0.68165284
4.6265774 1.9997427 0.6812008
1.1763997 0.23398842 0.69585937
4.8646903 0.33680287 0.69308895
1.1011437 0.51336199 0.69111311
3.9326422 0.73556435 0.69810915
5.1548352 0.74779785 0.69379127
3.9321334 0.81154025 0.69351631
3.6384847 0.952806 0.69705868
0.72309089 1.1813039 0.69299662
0.79585326 1.2964375 0.69601727
0.74844253 1.3179398 0.69892585
0.48576507 1.45162 0.69337589
0.9522962 1.45162 0.69863462
3.9325621 1.5996343 0.69738805
4.3698721 1.793798 0.69018471
1.5653191 1.8329991 0.69403499
3.5900941 1.9376655 0.69886798
1.202769 0.30888119 0.70886242
4.8776784 0.32369247 0.70079273
3.9330788 0.42566076 0.70205021
3.8456633 0.77490342 0.7088517
0.036667898 0.84347975 0.70236915
1.6524696 0.84369284 0.70598489
5.2101021 0.99295861 0.70631814
0.62389559 1.1056446 0.70000499
3.6396086 1.2771301 0.7067253
0.047596876 1.2865871 0.7003361
5.2254448 1.3483734 0.70483905
0.96698004 1.45162 0.70437181
1.2803737 1.6506701 0.70470309
3.883018 1.78492 0.70081449
4.7089562 1.8126112 0.70256042
2.3414731 1.9413472 0.70757693
1.7780749 0.21722972 0.71252143
2.6566792 0.26084977 0.71537852
1.6753329 0.30618188 0.71088541
4.5963507 0.33316141 0.71611917
4.5938311 0.35604748 0.71268338
2.7665172 0.37397712 0.71890318
1.063226 0.43191546 0.71331179
4.5365052 0.46776041 0.71620959
3.7762513 0.52043021 0.7186892
5.1471171 0.62765759 0.71661484
2.5882008 0.70951724 0.71757483
3.7983599 0.74676979 0.71531796
0.60464895 0.76836705 0.71143711
5.1724033 0.82534552 0.7152285
0.63231522 0.84818852 0.71273094
0.837937 0.86232018 0.7175771
5.1944742 1.0221577 0.71486723
0.27784073 1.0315834 0.71878874
1.6513231 1.0457964 0.71046865
5.1449332 1.3244483 0.7197305
5.1996913 1.3271028 0.7148537
0.54815835 1.3648994 0.71774673
0.72851628 1.3778756 0.7177726
2.8009229 1.7907194 0.71116835
4.5627518 1.873389 0.71881813
4.3207855 0.18555546 0.72965884
1.2815185 0.21449867 0.72047627
4.9628329 0.27071607 0.72528058
1.3367004 0.28439805 0.72409296
2.066186 0.30750984 0.72901368
4.4589915 0.4248611 0.72207546
3.7336874 0.44681078 0.72517967
1.0798411 0.45538247 0.72103059
4.4031625 0.511778 0.72981417
4.423851 0.511778 0.7267853
5.0696526 0.64126086 0.72271645
0.37750745 0.71241802 0.72949141
0.0093974285 0.84941304 0.72176903
3.6415036 1.2910337 0.72302336
3.7228968 1.3532109 0.72682518
1.0566157 1.4513026 0.72466385
5.1506453 1.5835011 0.72178698
5.0367689 1.8029907 0.722709
3.7501285 1.829401 0.72267258
3.4590511 1.9377828 0.72257257
1.2665577 1.9432324 0.72050244
4.3996749 1.9572575 0.72191429
4.3346148 0.29320651 0.73631185
2.4908853 0.30858409 0.73284513
2.8313465 0.39676839 0.73799849
3.7021339 0.54584336 0.7336632
0.36342579 0.66035056 0.73926717
0.46667337 0.66292065 0.73998809
0.39339811 0.96596479 0.73947668
2.649507 0.97554219 0.73902106
0.17016654 0.98066258 0.7379179
0.27498275 0.9872694 0.7386499
0.28924271 0.99488211 0.73874921
0.33764488 1.0141655 0.73908752
0.20649925 1.0252361 0.73817164
0.44875598 1.0348449 0.73986316
0.3489123 1.1577636 0.73916608
0.25460628 1.2527781 0.73850763
0.46192047 1.375242 0.73995513
1.6447458 1.3765392 0.73618877
0.44455582 1.43443 0.73983383
0.35446739 1.5022418 0.73920465
0.30053166 1.5245192 0.73968154
5.0348225 1.743135 0.73793751
0.15003137 1.8372897 0.7338798
4.8266468 1.9188374 0.73141241
0.87909639 1.9559097 0.7303946
1.1113415 1.9669447 0.73566473
4.3341451 1.9807661 0.73862284
1.605727 0.26178101 0.74207723
1.4672598 0.28136325 0.74839306
1.4837031 0.29432905 0.74037731
1.4790685 0.34488946 0.74263656
5.0356755 0.36515671 0.74288797
0.68809807 0.46793258 0.74645609
0.3825174 0.49907976 0.74897355
0.29037273 0.57495904 0.74803305
1.0111169 0.58570528 0.74696249
1.3150933 0.58273232 0.74654913
0.40086719 0.59560049 0.7477929
0.95589894 0.59692979 0.74703771
1.2226892 0.59702283 0.74667478
1.3335259 0.61356217 0.74652398
5.0484953 0.63878369 0.74453712
1.1171052 0.67043364 0.74583286
1.1988692 0.69647318 0.7450996
1.3589009 0.70193213 0.74621654
1.1999764 0.74778366 0.74510741
1.1639616 0.75320828 0.74485612
1.2885597 0.77192199 0.74572563
1.2508445 0.78851062 0.74546242
0.60362822 0.79361552 0.74094439
0.83302242 0.8171761 0.7425459
5.1996884 0.81139135 0.74249417
5.2105756 0.81998819 0.74256557
0.64956504 0.82044458 0.74126512
1.11182 0.82278538 0.74449217
0.67875564 0.83624399 0.74146891
1.2621758 0.84810078 0.74554157
0.95586532 0.9019506 0.74340355
0.91114324 0.93255997 0.74309134
0.90134025 0.95031846 0.74302292
0.68508196 0.964791 0.74151307
1.3752378 0.98014247 0.74633062
1.2512554 0.99614143 0.74546534
0.79808551 1.0496688 0.74230194
0.54177356 1.0599912 0.74051255
0.8582496 1.0577426 0.74272203
0.9764384 1.0623993 0.7435472
5.1625605 1.0774015 0.74866873
5.1925006 1.0822014 0.74821299
1.1772568 1.1252619 0.74494886
1.3931003 1.1353128 0.74818015
1.0535685 1.1496067 0.74408567
5.2153187 1.1591258 0.74665391
5.2009144 1.1885355 0.74646151
0.70550382 1.1957622 0.74165571
0.60114086 1.2358131 0.7409271
1.0917883 1.274635 0.7443524
0.63828462 1.2843022 0.74118638
5.21314 1.308203 0.74361062
1.1106875 1.3661542 0.74448431
1.3166692 1.3811107 0.74592185
1.3008536 1.3966128 0.74581146
0.60684335 1.411736 0.74096692
0.84490079 1.453676 0.74262887
0.72665435 1.4740709 0.74180329
0.82191777 1.4727886 0.7424683
0.86735904 1.4884562 0.74278522
5.0560741 1.5281734 0.74911952
5.0682888 1.5297204 0.74621242
0.36617023 1.5427454 0.74411666
1.0228506 1.5491773 0.74694675
0.30851585 1.5657098 0.74763662
0.42227146 1.591367 0.74778616
0.54248369 1.6096883 0.74780452
0.44284099 1.6125175 0.74805927
1.1454819 1.6180685 0.74677998
0.80840826 1.669077 0.74495935
4.6187944 1.67308 0.74740285
2.8295641 1.7582617 0.74999046
4.6344194 1.8943055 0.74015701
1.6040983 1.9027798 0.74498874
0.51214153 1.9332108 0.74130851
1.1182232 0.18471165 0.752352
1.1533642 0.22149757 0.75518698
4.5717416 0.23458655 0.75508839
1.0546231 0.36578315 0.75991845
1.1611664 0.36966833 0.75881171
0.97527701 0.37367198 0.75413758
4.40026 0.41066042 0.7550236
1.1455432 0.4480083 0.75155365
0.99147838 0.51646733 0.75582355
5.1257653 0.61714143 0.75954616
2.625257 0.96760535 0.75924808
2.7309756 0.98868704 0.75382388
3.6447408 1.0539248 0.75085682
1.6390224 1.2807423 0.75857037
1.3788533 1.6506701 0.75288594
1.0412316 1.7249951 0.75916851
4.5737867 1.7758622 0.75475544
4.9941978 1.8442323 0.75573289
3.7910199 1.883602 0.7514621
3.0325997 0.23019351 0.76002216
1.1694195 0.28835213 0.76264584
1.5961342 0.28721821 0.76319647
2.7229881 0.37309414 0.76399064
1.0939269 0.39994532 0.76211965
1.4101701 0.41283888 0.76963842
1.130499 0.45756292 0.7641679
1.1205184 0.49965709 0.76360893
1.3112223 0.51791602 0.76453704
5.1652899 0.84950447 0.76297414
5.1839333 1.2072433 0.76549417
0.057168335 1.3754416 0.7696054
1.4098736 1.5301141 0.76797748
0.26587784 1.6744261 0.76793194
4.5133677 1.6848371 0.76462805
2.4071498 1.8523666 0.76828754
4.5104418 1.9404016 0.76510459
4.3926325 0.18743251 0.77147949
2.6521511 0.23932809 0.77132487
1.8902254 0.31276026 0.7755605
4.8599243 0.31327584 0.77301145
1.2516226 0.4637219 0.77706856
5.0084834 0.57882017 0.77783978
3.6730628 0.81310099 0.77939361
0.11293323 1.1427705 0.77002454
2.5735197 1.3340988 0.77443492
2.7642124 1.3306732 0.77210611
3.5547452 1.6615682 0.77480364
1.2679911 1.7475204 0.77935427
0.70047617 1.7692461 0.77066547
1.3455434 1.7868168 0.77855217
4.9178948 1.8672137 0.77103031
1.7672015 0.31444165 0.78901219
2.4151981 0.31359154 0.78918743
4.9839382 0.31763786 0.78295064
1.6355224 0.32390085 0.78163135
1.1700152 0.33653748 0.78466892
0.55220473 0.41422105 0.78727114
5.1749506 0.88369155 0.78661811
3.705457 1.0077213 0.78608412
3.709866 1.0898646 0.78557074
1.6313972 1.3588679 0.78838801
5.1564875 1.3755742 0.78853363
1.6331681 1.4437561 0.78146267
5.0093956 1.5381733 0.78724051
5.0608907 1.7717474 0.7847122
0.87268126 1.7968507 0.78549516
2.1356738 1.8502078 0.78911608
1.3158307 1.9178083 0.78326845
3.6104856 0.23165219 0.79172277
5.0743594 0.44985726 0.79783648
0.21821907 0.52685606 0.79176664
4.9087358 0.56131017 0.79991949
1.6294799 0.83981901 0.79588544
1.629506 1.1025567 0.79578352
0.2329849 1.6514134 0.79713559
5.0404882 1.7935019 0.79929644
3.6672471 1.8317817 0.79504216
2.5869336 1.8492509 0.79882479
4.6420288 0.22899011 0.80471003
2.8643923 0.31314087 0.80559993
4.9871216 0.32300329 0.80302948
1.6502891 0.3387363 0.80675602
4.793148 0.39854223 0.80348611
4.9840965 0.61869878 0.80071259
2.5770924 0.66287673 0.80487967
5.1802249 0.7502169 0.80626869
1.6276037 1.0345966 0.80322236
1.6274887 1.6066834 0.80367166
4.9922595 1.7389747 0.80848056
0.48007369 1.7420043 0.80143964
3.1185923 1.8535838 0.80690897
3.4673996 1.9308443 0.80278403
3.8287568 1.9313887 0.80710745
4.5589638 1.9466212 0.80943525
3.6697474 0.23347792 0.81111825
1.5608094 0.28665647 0.81598902
1.8525081 0.31758693 0.81718087
2.2193103 0.31668305 0.81706113
5.0211892 0.58908767 0.81638396
5.1961827 0.89185762 0.81094003
3.6627007 1.3534817 0.81584322
5.1196852 1.5508053 0.8104381
0.3787162 1.7272052 0.81866598
1.7112355 1.9390523 0.81720579
3.7337081 0.30759624 0.82545465
0.54757398 0.41469118 0.82943726
0.13462132 0.82739097 0.82254821
3.6528637 0.95930022 0.82056403
2.7790842 1.1971843 0.82115066
2.5468094 1.2699964 0.82696646
5.172061 1.3978148 0.82733834
3.5368831 1.5487204 0.82290751
2.6407983 1.7835811 0.82679766
4.8499527 1.8390031 0.82110965
2.8897491 1.8493357 0.825957
4.0717998 1.9093502 0.82349455
2.0093656 1.9342248 0.82664955
2.8585088 0.23793073 0.83225626
0.30136183 0.45864001 0.83966833
3.5343034 1.4639895 0.83093882
4.8546524 1.6571913 0.83538389
3.585361 1.7032696 0.83975542
2.6473978 1.8495492 0.83004558
0.98251772 1.9369956 0.83558673
2.089385 1.9326224 0.83287656
3.8136261 0.23622581 0.84180444
0.41847295 0.25404882 0.84447932
3.715394 0.30984998 0.84222639
0.89443111 0.36477858 0.84784508
0.14634201 0.64600122 0.84774888
1.4136854 1.0959301 0.8451376
0.17122813 1.6134102 0.84095621
5.0055799 1.6634305 0.84618968
1.8198919 1.8425045 0.84955639
1.983276 1.8439515 0.84084672
2.5906937 1.8444688 0.84923887
3.6603758 1.8439932 0.8473314
1.5898125 1.8506229 0.84005523
3.1735475 1.8500316 0.84027529
2.643342 1.9245059 0.84211624
1.4784925 1.950637 0.84154165
1.1913837 0.2163707 0.8568601
2.8986466 0.31820372 0.85905474
3.1908336 0.31507853 0.85082126
2.4309971 0.32105401 0.85793757
1.6146874 1.4686177 0.85365051
1.4130143 1.5129259 0.85810399
3.5492737 1.6549947 0.85884452
1.4295831 1.7284284 0.85135746
4.8988843 1.8187807 0.85676342
4.9071445 1.8138877 0.85759079
4.9083529 1.8229685 0.85203475
2.6349025 1.8436052 0.85807872
0.25152925 1.8711501 0.85688239
3.4534771 1.9243947 0.85640103
3.2233384 0.31622535 0.86808455
1.6933094 0.32337478 0.86239165
0.24413714 0.50516438 0.86250937
5.1518693 1.0900923 0.86654067
3.6576691 1.2879297 0.86183232
2.2912846 1.8424177 0.86016458
3.9497378 1.9134322 0.86142236
3.9543862 1.9209435 0.86991519
2.1322992 0.2416181 0.87795961
2.7604735 0.44724751 0.87178004
1.4119549 0.56636679 0.87857181
5.0447187 0.62197226 0.87082243
1.6091745 1.0436339 0.87398338
2.7151411 1.1809198 0.87360626
0.17334202 1.6301756 0.877891
0.24833021 1.6630298 0.87574518
0.4514972 1.7389616 0.87433088
2.6004796 1.8417679 0.87307501
1.0309319 0.23754166 0.88512146
1.6495678 0.23836884 0.8890208
2.9786863 0.24689938 0.8863337
3.6315525 0.31432644 0.88384783
1.8584726 0.32613969 0.88239276
2.0698929 0.32605106 0.88242406
2.5482521 0.32380065 0.88024604
4.7993174 0.32478482 0.88463545
3.6631713 0.68148637 0.88893545
5.0907159 1.2728293 0.88279146
3.599211 1.4168268 0.88324857
1.4115336 1.4700074 0.88670838
0.14428045 1.4979805 0.8823992
1.4133148 1.6485317 0.88758773
3.591753 1.6968814 0.88528186
1.8850832 1.8376591 0.88363743
3.0050316 1.8442622 0.88898659
4.8105783 0.47359365 0.89227808
1.604023 0.88832968 0.89298427
1.4113407 0.96234643 0.89043415
4.9841781 1.5462586 0.89004838
2.0348775 1.8347043 0.89894301
1.5282234 1.8527974 0.89273119
4.4818969 1.8907084 0.89219141
2.5171504 0.46828991 0.90061033
1.6005765 1.3635736 0.90569532
0.21191329 1.7336284 0.90996492
0.41685253 1.733513 0.90562117
3.5732243 1.7423015 0.90844524
0.23037159 1.8528591 0.90644056
2.92415 0.25728726 0.91548312
2.382344 0.32930404 0.91084403
4.9309168 0.66324186 0.91330022
1.4098525 1.2674779 0.91918635
4.6992512 1.6663473 0.91475576
1.8938049 1.8310249 0.91725487
2.3640604 1.834044 0.91519952
2.6966772 1.8391832 0.91933334
0.57090139 1.9118216 0.91683888
1.5931202 1.9170125 0.9191643
0.61482233 0.25043964 0.92655391
1.4985955 0.32709995 0.92322004
1.607281 0.52184403 0.92344403
1.5957531 0.84975857 0.9234857
4.9196296 1.4538007 0.92264044
3.675796 1.601585 0.92518896
3.6759164 1.7276125 0.92686361
0.74205995 1.7768849 0.92936975
0.9844144 1.8089911 0.92899621
0.24837831 1.8359232 0.92830372
0.99492109 1.9161242 0.92959791
2.1672003 1.9106081 0.9213261
2.6095417 0.32737669 0.93870318
1.772696 0.33610874 0.93268383
1.627884 0.45764756 0.93434745
1.5986737 0.52474976 0.93281555
4.9422011 1.2534106 0.93031418
4.9190826 1.3389876 0.93176556
4.1719446 1.8940432 0.93196404
2.0020111 1.9090716 0.93350971
3.5741847 1.9094507 0.93299949
0.74243683 1.9134641 0.93918532
3.8583033 0.25965887 0.94551504
4.0743146 0.27251601 0.94347584
1.4109905 0.51273113 0.9436059
4.913342 0.92911708 0.94002903
4.9173336 0.9955287 0.94128895
1.408742 1.1663437 0.9406395
2.510679 1.2387955 0.94653076
0.1312277 1.2909063 0.94650328
4.8231339 1.4937764 0.94461215
1.6261543 1.6989487 0.9406032
4.5466647 1.6922506 0.94562292
0.39139616 1.7294118 0.94370943
0.51998973 1.746437 0.9408896
1.9143164 1.825598 0.94478643
0.25040078 1.83775 0.94472301
2.551271 1.9024572 0.94065595
2.6209416 1.9019685 0.9401384
0.52223414 0.26296541 0.95417017
2.627569 0.30952185 0.95128405
0.27858841 0.46842134 0.95994717
1.5878661 0.64961743 0.95257545
0.13617153 0.79999256 0.9530251
0.12931488 1.2052971 0.95966303
0.24386349 1.6738083 0.95529699
1.2120441 1.828886 0.95750839
3.744844 1.8696516 0.95638174
3.7791758 1.8810418 0.95240784
2.3136091 1.9000828 0.95885074
