# .PCD v0.7 - Point Cloud Data file format
VERSION 0.7
FIELDS x y z
SIZE 4 4 4
TYPE F F F
COUNT 1 1 1
WIDTH 1546
HEIGHT 1
VIEWPOINT 0 0 0 1 0 0 0
POINTS 1546
DATA ascii
2.5049207 1.9454989 0.17864467
1.342458 2.0055554 0.17669155
1.925477 2.0315616 0.17031468
0.80340981 2.0494375 0.1793828
0.877186 2.0503085 0.17851178
0.7307393 2.1665366 0.1791448
1.9791741 2.3001802 0.17478563
0.73012936 2.3445966 0.17205743
0.89899749 2.4546638 0.17650425
1.3261091 2.4738598 0.17680286
2.0146937 2.4802282 0.17780215
1.8901207 2.5299764 0.17098609
1.2649484 2.620976 0.17892867
1.9786127 2.7355464 0.17632343
1.5577804 2.8052711 0.17002875
1.8737371 2.8858805 0.17409942
1.4771326 2.9063385 0.17213798
1.9250288 2.914798 0.17581171
2.021194 2.936729 0.17969409
1.4935609 2.9778008 0.17275015
1.3947775 3.0463119 0.17440172
1.9750612 3.0590758 0.17934924
1.8147023 3.0796757 0.17496121
1.3070029 3.0816007 0.17934489
1.3742211 3.0963516 0.17608559
1.3262504 3.1090763 0.17868501
1.3551215 3.1406298 0.17763066
1.5372658 3.1455419 0.17418221
1.4478199 3.2763608 0.17541477
1.4632392 3.2902029 0.17552188
1.298928 3.3457792 0.17941052
1.7942915 3.4432673 0.17909864
1.543613 3.4525912 0.17796238
1.4871807 3.4602551 0.17813592
1.3640745 3.6391044 0.17946985
1.1735049 4.062418 0.17887573
1.2133816 4.3701301 0.17749652
1.106082 4.4103146 0.17807107
1.1064352 4.7101059 0.1770362
1.0032955 4.7958059 0.17982678
0.82942045 5.4483938 0.17809394
0.70615703 5.5586867 0.17476578
2.41416 5.5768199 0.17181927
2.4907038 5.6001797 0.17608529
0.84269577 1.6894603 0.18471894
2.4260528 1.6825118 0.18972163
2.4511721 1.6808429 0.18755111
1.4766319 1.7019644 0.18695217
1.8461864 1.7180713 0.18603364
1.844681 1.7435781 0.18442303
1.360815 1.7603458 0.18776718
1.3734419 1.8656988 0.18118216
1.284969 1.9042215 0.18334448
0.94154662 2.0334592 0.1870926
2.4304073 2.0736301 0.18889685
1.220252 2.084491 0.1865958
1.2875304 2.2175539 0.18076703
2.1226006 2.259038 0.18617204
1.2030255 2.2724528 0.18640588
2.1247256 2.2770042 0.18624657
2.1529713 2.2741146 0.1887393
1.2881978 2.3357437 0.18057507
2.1228943 2.3344398 0.18572915
0.73088861 2.3531208 0.18934014
2.4659791 2.4116745 0.18137437
1.1622748 2.4397669 0.18707652
2.4251001 2.4708271 0.1852354
2.1070833 2.4917898 0.18368663
2.1021504 2.6257696 0.18395051
1.1555074 2.7035804 0.18520707
1.0936919 2.7234769 0.18914229
1.1328427 2.8501446 0.1863042
1.2279934 2.8961616 0.18223499
1.2376604 3.0072949 0.18166065
1.1131096 3.0291526 0.18713111
2.1782346 3.0470316 0.18928197
1.240905 3.1586881 0.18118316
2.1829281 3.1970448 0.18974826
1.1341971 3.2078955 0.18532377
1.2117487 3.2180357 0.18193077
2.0951788 3.2278578 0.18581359
1.1838754 3.2675772 0.18266344
1.9541672 3.2770495 0.18104982
1.0567839 3.3075397 0.18933547
2.035183 3.320014 0.18423215
2.082387 3.3351281 0.18595925
2.0640657 3.3464501 0.18522656
1.2541478 3.3730562 0.18097825
1.282329 3.3852887 0.18019822
1.9525605 3.3893487 0.18113649
2.1020806 3.4299421 0.18635871
1.9909389 3.4327097 0.18215318
1.0457069 3.4477401 0.1892302
1.8885629 3.544827 0.18180442
2.1995704 3.5499058 0.18958202
1.0989054 3.5603485 0.18554702
1.1488299 3.6169503 0.18235207
1.0389522 3.6721337 0.18802157
1.15447 3.6775355 0.18170232
1.3218757 3.6823106 0.18094113
1.9678376 3.6986787 0.1842593
1.0567802 3.715044 0.18675372
1.5901947 3.7161832 0.18195878
1.7283697 3.7971864 0.18351139
1.729171 3.8214641 0.18389663
2.0433645 3.8554189 0.18639939
1.41827 3.893944 0.18005906
1.7018441 3.91976 0.18499529
2.2545881 3.9197359 0.18996809
1.815295 3.9214842 0.18547377
2.0755935 3.9293361 0.18652126
1.5619442 3.9524338 0.18370619
1.4129395 4.0063396 0.18042861
1.7196021 4.0006652 0.18560417
1.6079862 4.0327072 0.1858578
1.712678 4.0379305 0.18626696
1.0890006 4.0480542 0.18210188
2.1620519 4.0468493 0.18619743
1.8544891 4.0552387 0.18652086
2.1221132 4.0788484 0.18558727
1.6954622 4.1090374 0.18772748
1.6624764 4.1108456 0.1881348
1.7251867 4.1230335 0.18739104
2.2074232 4.1521292 0.18616229
1.3503654 4.190691 0.18130156
1.6424439 4.2088151 0.18932144
1.3462451 4.2167044 0.18143171
1.9285378 4.2106066 0.18757319
1.9497895 4.2197647 0.18704621
1.5296869 4.2222338 0.18678015
1.774148 4.2532201 0.18854868
1.2981706 4.2730293 0.18103629
1.8185575 4.3386745 0.18907736
1.3065656 4.3580165 0.1805719
1.9778976 4.3729577 0.18728359
2.1247306 4.3729849 0.18322352
0.97877419 4.4064951 0.18325849
2.061173 4.4070697 0.18520679
1.4025897 4.4115262 0.18228349
2.2471464 4.4269361 0.18496689
0.88352054 4.4560409 0.1880361
2.3848746 4.4677353 0.18885203
1.550379 4.5021915 0.18909845
2.3601394 4.5484533 0.18745536
2.3333654 4.561717 0.18653367
1.9795309 4.5810332 0.18815579
1.3041822 4.591527 0.1804693
1.4923422 4.6158037 0.18814626
1.4611889 4.6248102 0.18683496
2.0896976 4.6238923 0.18515462
2.1508913 4.6359138 0.18347526
2.1838355 4.6380315 0.1825666
2.1445298 4.6425781 0.18365809
0.89812088 4.6617613 0.18677998
2.2828367 4.6655607 0.18422048
2.0092626 4.6809907 0.18743813
2.4022341 4.6857262 0.18775328
2.3561568 4.7065887 0.1861814
2.2146451 4.7185059 0.18311258
2.1848996 4.7224612 0.18264525
0.87267095 4.7380066 0.18981087
0.94638711 4.7789683 0.18189558
0.94495893 4.8308916 0.18164535
2.0320289 4.8978958 0.1883866
2.1998286 4.905417 0.18307319
1.0119059 4.9481821 0.18054733
2.2507491 4.9845476 0.18396303
0.95554304 5.0073929 0.18347116
0.96217602 5.0086761 0.18458864
1.0450518 5.0475273 0.18091998
1.0051229 5.0957479 0.18308915
2.3133843 5.113615 0.18706301
2.4374425 5.1144066 0.1881201
1.1902354 5.1271238 0.18085152
1.2832038 5.2020688 0.18958169
0.87044233 5.4541631 0.18386318
1.4303863 1.5126603 0.19965026
1.9172307 1.5882442 0.19644783
2.405551 1.6290882 0.19463058
0.98984957 1.726891 0.19876292
2.125917 1.7457759 0.19411434
2.1695745 1.8591018 0.19404316
1.1918058 1.8722932 0.19177037
1.1415982 1.8824294 0.19476549
2.3571174 1.8817692 0.19930854
2.3857312 1.9501398 0.1989373
1.02143 1.9613388 0.19882883
1.0431162 2.0231481 0.19829972
2.163805 2.1713059 0.19032745
2.2956638 2.2486341 0.19564456
1.1037503 2.2655959 0.19226377
0.9493525 2.3496091 0.1996378
0.95123601 2.4539356 0.19034505
2.2191439 2.452677 0.19163182
0.82111764 2.4695516 0.1946854
2.3674593 2.5345581 0.19973211
2.2287421 2.5497751 0.19137286
1.0350155 2.5993962 0.19278517
2.3234062 2.6515543 0.19789065
2.328651 2.7203283 0.19855033
0.99798536 2.7955732 0.19510853
1.0331513 2.8573093 0.19272125
1.0248185 2.8798075 0.19320294
2.2020278 2.9490199 0.1906905
2.2306046 2.9440279 0.19251715
2.3572302 3.017832 0.19988924
1.0406653 3.1305621 0.19155413
2.2723637 3.3548448 0.19401538
2.2887492 3.354883 0.19488853
0.94823712 3.3844304 0.19519249
2.3531306 3.3838248 0.19801551
0.9713819 3.3902071 0.19384418
1.0141323 3.4199297 0.19120826
2.2972465 3.5338297 0.1934538
0.9020052 3.554487 0.19569463
2.2445204 3.6237359 0.19094649
0.86535347 3.6556301 0.19682458
2.3263085 3.6828756 0.19370195
2.4554935 3.7857637 0.19915879
0.91231084 3.8049653 0.19248681
2.363102 3.8438451 0.19445415
2.4244924 3.8419654 0.1969849
0.84584647 3.9292226 0.19698402
0.8887406 3.957561 0.19295284
2.3958266 3.9576881 0.19468096
2.4707849 4.0003414 0.19837999
0.86888653 4.1714382 0.19237748
2.3423548 4.1709461 0.19040705
1.6649244 4.2756333 0.19081321
1.7102853 4.2953653 0.19042534
0.87128216 4.3488889 0.19021958
2.5280032 4.4277663 0.19873036
2.4724884 4.4375072 0.19401966
1.7666745 4.448308 0.19180666
1.8183124 4.4427285 0.19074458
1.6625125 4.4810848 0.1940494
1.6732372 4.585969 0.19562469
1.6022344 4.5938778 0.19282877
2.5301948 4.6092248 0.1993719
2.4847128 4.6671262 0.19535929
1.5302129 4.6939893 0.19103786
0.83322608 4.8105874 0.19444343
1.474538 4.9372187 0.19149736
1.7271619 4.9354038 0.199205
1.946449 4.9335623 0.19282082
1.6053504 4.9490113 0.198246
0.77671224 4.9799113 0.190631
1.7668617 4.9860611 0.19875968
1.916903 5.0528603 0.19534534
2.4463682 5.0621719 0.19928093
2.6053946 5.0710664 0.19128489
2.4905176 5.1244588 0.19222122
2.1121604 5.1595383 0.19032712
2.0915623 5.1966076 0.19325745
1.3350744 5.2294745 0.19370383
1.2409118 5.3489132 0.19576249
1.0067204 5.3786564 0.19400474
1.0799965 5.370429 0.19450364
1.1225502 5.3980589 0.1968857
1.758496 1.395444 0.20781253
1.8917978 1.4009225 0.20950186
2.0207217 1.4340698 0.20713374
1.2171872 1.5181084 0.20166306
1.9423114 1.527891 0.2010027
1.072347 1.5339279 0.20181403
2.0018353 1.5778813 0.20004208
2.3188431 1.6285527 0.20173253
2.311976 1.8249929 0.20110773
2.2849832 1.8392482 0.20044965
0.90587831 2.033025 0.20332876
2.6310792 2.753824 0.20891556
0.90343535 2.8396831 0.20101109
0.86945426 2.8977487 0.20302767
0.89310944 2.9890406 0.20125481
2.5505109 3.0065231 0.2068786
2.367785 3.0455246 0.20038016
0.81044841 3.0584435 0.20572965
0.76974291 3.1040993 0.20745316
2.5628271 3.1584003 0.20879707
0.76980877 3.2301695 0.2065084
0.86378014 3.27898 0.20078105
2.4775524 3.2919805 0.20506403
0.762236 3.3284612 0.20642212
0.74738634 3.5456967 0.20640896
2.4912937 3.5589788 0.20337693
2.539073 3.5902009 0.20548421
0.7761429 3.9305036 0.20256415
0.7458415 4.021986 0.2049703
2.5033472 4.0446477 0.20007399
2.5788648 4.1411223 0.20407134
2.5945134 4.2123151 0.20474863
2.6066918 4.2949142 0.20562626
2.555459 4.3245234 0.20124102
2.6572406 4.3371167 0.2098217
2.5758343 4.4082413 0.20280948
2.540822 4.5754375 0.20016676
2.5674262 4.6787419 0.20283514
2.6402805 5.0729465 0.20953795
1.6237948 5.1370945 0.20222408
1.6320029 5.1747417 0.2035903
2.3900151 5.2251544 0.20743379
0.84662902 5.2347851 0.20399925
1.7279093 5.2437696 0.20795135
1.8430157 5.2596998 0.20522985
1.7095478 5.2971139 0.20906818
1.750881 5.2960787 0.20954262
1.5168713 5.3395252 0.20194757
2.1377988 5.3667035 0.20033494
2.0781202 5.3906264 0.20409489
1.3759296 5.441411 0.20684178
1.264142 5.479897 0.20466119
0.94777393 5.4958663 0.20266956
1.0186361 5.4935637 0.20140287
1.0444906 5.4903326 0.20174584
1.1972228 5.5564666 0.20833044
1.1346877 5.5674934 0.20799559
2.4286556 5.6082954 0.20711958
1.826924 1.362444 0.21829823
2.3881326 2.0174735 0.21068016
2.4412313 2.0513625 0.21981597
2.6648896 2.8756444 0.21307473
2.6429045 3.0275249 0.21228141
2.5985303 3.0597548 0.21033707
0.6735726 3.1851478 0.21504904
2.6227908 3.1833053 0.21144739
2.6363919 3.3622675 0.21157026
0.67538482 3.8741789 0.21607046
0.72099602 5.0582647 0.21709751
0.94726855 5.0721855 0.21349053
0.8573485 5.1697922 0.21046035
1.7559834 5.370574 0.21151434
1.7415352 5.4176049 0.21252102
0.94739819 5.5291791 0.21906501
1.7359924 5.5698862 0.21630274
1.2547815 5.5850754 0.21127331
1.4116733 5.6159697 0.21774171
1.8934075 5.6296992 0.2191951
1.1578424 5.6329322 0.21254604
1.6217527 5.6497302 0.21598729
1.73605 5.6471496 0.21825783
1.9780509 5.6536989 0.21967451
2.3390903 5.6778069 0.2172095
1.1897675 5.6922665 0.21695581
2.2001696 5.6939888 0.21865599
2.2246051 5.6924095 0.21820918
2.1318202 1.3956238 0.2284611
1.0892459 1.4405507 0.22163333
2.6366069 1.9248972 0.22283816
2.5297003 2.2805049 0.22940263
2.6355586 2.4681225 0.22416049
2.6474144 2.4972355 0.22386803
2.6287315 2.7108445 0.22486642
2.6666543 3.0422287 0.22168756
0.86431295 4.9630604 0.22966225
2.3905265 4.9684029 0.2235308
0.81232297 5.6222887 0.22395274
1.9104812 5.6763587 0.22063164
1.9115947 5.6932983 0.22130714
0.95661288 5.7640829 0.2233799
1.8675109 5.7633066 0.22505194
2.0725756 5.7629285 0.22667353
1.2066604 5.7738066 0.22523457
2.3402851 5.7707739 0.22613654
1.1303897 5.7866397 0.22541139
1.1837264 5.7809186 0.22575572
1.0818541 5.8040338 0.22668825
1.2270175 1.3723547 0.23566267
0.99177718 1.4585588 0.23600355
0.89646697 1.5513839 0.23180138
2.6170018 1.9218466 0.23419181
0.94931203 2.2917714 0.23205116
0.73529059 2.3137565 0.23519985
2.5297003 2.3442049 0.2392275
0.94930744 2.3801193 0.23046619
2.3881676 2.3888795 0.2372545
2.3881719 2.4038849 0.23891723
2.5970304 2.5859303 0.23754719
2.6660025 4.31181 0.23638052
2.6661456 4.3490496 0.23786777
2.41416 5.0049381 0.23375517
2.5539432 5.0476975 0.23325667
2.6438794 5.1745634 0.23291793
0.73397779 5.1981444 0.23876345
0.94729358 5.6207523 0.23016801
2.4030325 5.7517934 0.23235074
2.0566304 5.7933068 0.23011647
1.4509437 5.8027987 0.23185414
1.5497793 5.8227572 0.23274119
1.004519 5.8402119 0.23379719
1.0818264 5.8529205 0.23357934
2.1157081 5.8563414 0.23802105
1.4981284 5.8665676 0.2391609
1.8425356 5.8611908 0.23487681
2.1460488 5.8713484 0.23949361
1.8496809 5.9083271 0.23984961
1.595152 1.3212193 0.2402395
1.9873616 1.3323629 0.24357268
2.5297 2.1992993 0.2457037
2.6456695 2.5871634 0.24289098
0.66728669 3.5254898 0.24847999
2.5700095 4.958581 0.24637492
2.5841398 4.9590178 0.24474636
2.4647646 5.0902538 0.24405281
0.94709539 5.4227986 0.24877399
2.218931 5.8774905 0.24025078
1.1893618 5.9080105 0.2430023
2.1103964 5.9174895 0.24519598
1.0700108 5.9216604 0.24460746
1.1272001 5.9381323 0.24577025
2.0185797 5.9423022 0.24686156
0.8447544 1.5760062 0.25958475
2.388217 1.9538209 0.25283891
0.75499892 2.003356 0.25923929
0.93897057 2.0312915 0.25920802
0.66620177 3.0060282 0.25612703
0.66870582 4.1572585 0.25188437
0.66962522 4.5258384 0.25790137
2.6683903 4.5915222 0.25726441
0.96217608 5.0303211 0.25048742
2.4298854 5.8754988 0.2526398
2.3750262 5.9301434 0.25487596
1.4918257 5.9571309 0.25075865
1.2889574 5.9696207 0.25222531
2.2701032 5.9689054 0.25266278
1.4948829 5.978013 0.25335771
1.2728324 5.9814239 0.25359386
1.152465 5.993371 0.2537756
1.1516852 6.0203772 0.25776672
1.7960556 6.0575438 0.25871515
1.689844 1.296232 0.26928473
0.82954103 1.914307 0.26232037
0.88587332 2.0032108 0.2631914
2.4878635 2.040314 0.2635583
0.91098368 2.5109453 0.26468417
2.3882325 2.6137366 0.264696
2.3915782 4.859571 0.26251704
2.6148336 4.9530725 0.2669248
2.6353855 5.2827125 0.26510417
2.3906124 5.4872518 0.26960319
1.5441736 6.0381889 0.26017344
1.4993191 6.0874357 0.26716995
2.423912 1.5072379 0.27909097
0.79653931 2.0012362 0.27565405
0.83183897 2.3121142 0.27159005
0.89846325 2.5062318 0.27873439
0.66571194 2.7227902 0.27261326
2.6742475 4.2248917 0.2739315
0.73618412 5.0299945 0.27303624
0.77343774 5.0331888 0.27489337
0.94649756 5.0321765 0.2783353
2.5074573 5.5114236 0.27526146
2.3975167 6.0118046 0.27232015
2.3512311 6.0576034 0.27345431
1.1110828 6.1097827 0.27394465
1.709869 6.1570835 0.27270988
1.4483464 6.1613617 0.27681598
1.7899711 1.2891142 0.28903869
0.96217597 1.95408 0.28903922
0.92700744 1.987642 0.28851977
0.80903727 2.5163002 0.28466392
0.65893412 3.3652987 0.28807712
2.6725345 4.7176313 0.28585348
2.5449803 4.9492188 0.28130123
2.6020749 4.948473 0.28891706
2.4241176 4.9578385 0.28842747
0.94676948 5.2335978 0.28051737
0.850685 5.5136032 0.2890178
2.390811 5.5712838 0.28782991
1.4324881 1.2911549 0.2978223
1.0448482 1.3626205 0.29859275
2.5371258 1.6231952 0.29635203
2.4251001 1.9925081 0.29573807
2.5322738 2.3295906 0.2908951
2.6701801 2.5317941 0.29102144
2.6738446 4.8199091 0.29367781
2.3911369 5.0875683 0.29990935
0.94643128 5.1281514 0.29661834
2.3910561 5.1224532 0.29756147
2.5806906 5.3744645 0.29812559
0.93534988 5.5595379 0.2991116
0.94648337 5.6562781 0.29409194
1.1687964 6.221787 0.29718903
2.1218967 6.2511539 0.29265136
2.1321993 6.2509899 0.29297549
2.1218886 6.2623787 0.29463029
1.5332724 6.3096218 0.29514521
0.94908106 1.8210895 0.30647382
2.3883567 1.8841172 0.30328324
0.85266709 2.4761786 0.30527356
2.5570989 2.5108442 0.30784297
2.6137471 2.7072496 0.30514681
0.65602237 3.2118647 0.30575034
2.6773584 4.5022268 0.30022889
2.6764922 4.581171 0.30475405
0.95123601 5.5560894 0.30598354
0.80467093 5.8121643 0.30606353
1.1241324 6.2207756 0.30750895
2.1634879 1.3266582 0.31485692
2.4867887 1.5325218 0.31840783
0.75146937 1.7371607 0.31541499
2.6648941 2.5272593 0.3191008
0.73070639 2.6002533 0.31199098
0.69569486 2.831135 0.31729475
0.78555071 2.9080532 0.31953412
0.78938293 2.9285445 0.31988263
0.72776163 2.9577632 0.31757569
2.6477275 3.2357757 0.31863794
2.5718408 3.3888035 0.31802958
2.6187778 3.5725875 0.31721678
2.6472974 3.733799 0.318997
0.6964131 3.7552571 0.31711152
0.74537385 3.8085532 0.31663305
0.66888261 3.9484103 0.31665248
2.6583273 3.9799066 0.31772342
2.5669556 3.985013 0.31656653
2.6703656 4.2474475 0.31680173
2.5967746 4.4112253 0.31689191
0.72443837 4.4456139 0.31694275
0.74235827 4.5004325 0.31686646
0.75800049 4.5668292 0.31755754
0.72703969 4.6217842 0.31700534
2.6058254 4.6946073 0.31702375
2.392252 4.8730474 0.31244272
2.4585385 4.9463258 0.31346837
0.74691987 1.7408202 0.32836986
2.5704093 1.9851023 0.32460332
0.84659749 2.3429022 0.32082444
0.72099602 2.5190763 0.3299937
2.6701801 2.5396588 0.32187706
0.69099182 2.7064316 0.32228836
2.5666842 2.8202729 0.32038566
2.5582528 3.5703807 0.32210982
0.77969706 4.0391388 0.32520324
0.70181817 4.2655854 0.32267967
2.5631876 4.5035715 0.32527179
2.6300869 4.5709634 0.32513589
2.5641308 4.8625288 0.32825202
2.63344 5.0249624 0.326199
1.1024519 6.2768192 0.32114461
1.2216144 6.3194103 0.32723138
2.0836964 6.3136139 0.32044327
2.239625 1.3458871 0.33851391
0.96652567 1.3875949 0.33515462
0.84333324 1.5275834 0.33279565
2.4826553 1.9047563 0.33141118
0.72235632 2.5249367 0.33077511
2.6067514 2.5223572 0.33134079
2.3883235 2.6069202 0.33022612
2.5321083 3.0410962 0.33122846
2.6351175 4.4207973 0.33668089
2.6271777 4.8112273 0.33882663
0.79012263 5.0659356 0.33604416
2.5941701 5.2412052 0.33018082
0.81032926 5.9091964 0.33063281
2.3804328 6.1839519 0.33058071
1.3103955 1.2884017 0.34068561
0.71002072 1.8207482 0.34348139
2.5989587 2.2946634 0.34534764
0.8573904 2.7053912 0.34845471
0.69347417 3.9793682 0.34085363
0.7025708 4.4390106 0.34683827
2.5249152 4.8617258 0.34716892
0.94608086 5.1333404 0.3469941
0.94620258 5.207036 0.34749657
2.5297 5.4041233 0.34676263
0.83375251 5.5629225 0.34711894
2.4912634 5.5628138 0.34836331
2.6631835 5.5686688 0.341214
0.78571707 5.737514 0.34674874
1.0978655 6.1507311 0.34591585
1.1046154 6.1866922 0.34380198
2.5113471 1.5497208 0.35697269
2.6512856 2.016727 0.35240167
0.84662902 2.3708339 0.35119891
2.6541505 3.0255013 0.35634267
0.79537994 3.402818 0.35035738
2.5442717 3.4378445 0.35214141
0.78554451 3.7814276 0.35086691
0.78341615 3.8765907 0.35955971
0.70357585 4.564393 0.35934499
2.4731839 4.8617792 0.35875151
2.463783 5.0245237 0.35370597
2.4557502 5.0619292 0.3555482
0.78216302 5.328413 0.35205182
0.78086948 5.6423111 0.35125956
0.82093823 5.7374516 0.35187858
0.8028338 5.9111447 0.35298032
2.4690752 6.0909357 0.358805
2.4622164 6.1045303 0.35487986
1.1077573 6.1996646 0.35429242
2.3149719 6.2397246 0.35767841
2.2587588 6.2700796 0.35164481
1.5041289 1.2696518 0.36606473
2.272572 1.3547543 0.36647168
2.5941701 2.1974316 0.36136007
2.5626507 2.342155 0.36758912
0.7857464 3.7518477 0.36350644
0.78446561 3.8032665 0.36945516
0.77977812 4.0658565 0.3690733
0.80501777 5.0686536 0.36605009
2.5966761 5.5189877 0.36192143
1.4628308 6.3657827 0.36511552
0.96217602 1.9598137 0.37007859
2.4277043 2.0205278 0.37881994
0.84662902 2.1682079 0.37926945
2.6701801 2.5300088 0.37784651
0.81409252 2.8373742 0.37179637
2.5451059 3.4166789 0.37663075
0.79277551 3.452774 0.37128606
2.6446681 4.2417679 0.3783296
0.69828892 4.4148197 0.37518573
2.5297 5.174891 0.3753171
0.94608104 5.4124956 0.37816262
0.70615703 5.5827885 0.37135449
0.83478582 5.7351828 0.37080055
1.1167816 6.2082624 0.37606442
1.1478215 6.2362595 0.37883639
1.3276629 6.3509274 0.37008479
1.7773509 6.3679018 0.37527943
1.7047021 1.2647625 0.38836235
1.4615458 1.2703724 0.3875488
0.95264423 1.3895957 0.38443017
0.96217608 1.9292485 0.38949302
2.6251836 2.2791524 0.38053045
0.94911283 2.4072239 0.38752657
2.4724078 2.4749579 0.38735545
2.5261002 2.8411059 0.38667306
2.6601176 3.3522432 0.38805914
0.78077137 3.9846106 0.38574865
2.5586622 4.3053689 0.38503346
2.5575562 4.4565544 0.38794833
2.5454996 4.8715248 0.38832459
0.84241086 5.2090182 0.38165382
2.458194 5.5180845 0.38734311
2.445765 5.6396136 0.38209957
1.0128309 6.2493739 0.38010541
1.8591059 1.2688893 0.39510018
2.5073876 1.5311031 0.39547467
0.81400752 1.5652852 0.39829844
0.79252744 1.8278013 0.39904949
2.5316167 1.9886993 0.39327997
2.6066041 2.0338042 0.39859128
0.79945481 2.1809046 0.39935958
0.94912684 2.2393472 0.39048201
0.88177001 2.4741116 0.3926971
0.67723632 3.1192057 0.39396375
0.67741382 3.1335647 0.39244884
2.5541942 3.7785685 0.39679688
2.6435094 4.3718762 0.3920255
2.5821052 5.5574117 0.39611089
0.80311227 5.726089 0.39936638
0.76289058 5.7515697 0.39644754
2.5541935 5.8817649 0.39175227
2.509932 6.0169244 0.39699203
0.97263229 6.2173777 0.39834464
1.9801344 6.3442397 0.39345974
1.4161094 6.3579397 0.39976105
1.8605611 1.2686429 0.40467653
1.260232 1.2895617 0.40676886
0.72175556 1.7682173 0.40053689
2.5297 2.3747251 0.40547642
2.6624842 3.1658726 0.40080482
2.5503035 3.5826812 0.40032226
2.6565943 3.8195863 0.40370238
2.6535215 3.9730403 0.40386164
2.5708025 4.9500484 0.40671587
0.87592793 5.075036 0.4063738
0.73255455 5.1464643 0.40582761
2.6386018 5.2287784 0.40982246
0.70615703 5.5982313 0.40360078
0.91046071 5.6379113 0.40155923
2.0206375 6.3369403 0.40132672
1.2873785 1.2863842 0.41508812
2.6442342 2.1053393 0.41835302
2.3883688 2.1809483 0.41084969
0.81556141 2.3144438 0.4122287
2.4601176 2.47245 0.41358417
2.4850357 2.5116761 0.41751033
0.66686493 2.6907294 0.41458204
2.6629381 2.8799922 0.41828543
0.80214864 3.0620525 0.41353041
0.78424561 3.7566879 0.41902339
0.71635211 5.0309935 0.41903055
0.72402501 5.0587683 0.41966861
0.94581234 5.4789152 0.41480976
2.391727 5.5488091 0.41137642
2.4790931 5.5514288 0.41843385
2.5249419 5.6341305 0.41676587
0.7997545 5.9860916 0.4180077
2.4647322 6.1258864 0.41845548
0.82278252 1.5512397 0.42084301
2.4654467 2.041306 0.42331249
2.45083 2.5910625 0.42821634
0.79833186 3.1642637 0.42086259
2.5449319 3.3185802 0.42585695
0.9457773 5.4540043 0.42445576
0.81293666 5.7171116 0.42403632
1.2382432 6.3328776 0.4207831
2.1198502 1.300575 0.43353575
2.2365911 1.3373551 0.43362495
0.82460934 1.8349116 0.43108326
0.94897294 1.8410245 0.43819338
0.82050109 2.5048304 0.43953094
2.5089521 2.5882702 0.43864119
0.94903153 2.6790233 0.43676355
2.5913053 2.6884229 0.43541121
2.5434127 3.2451415 0.43926939
0.79013193 3.4453425 0.43542334
0.67571902 3.6763358 0.43931937
2.6540217 4.0893269 0.43594784
0.69308007 4.4495792 0.43256119
2.555788 4.6233053 0.43637905
2.4661169 4.9564233 0.43049878
1.3562284 6.351367 0.43309355
1.5348532 1.2587845 0.44648358
2.2942894 1.3590848 0.44289994
2.6215329 1.9211271 0.44804671
2.3884487 1.9816624 0.44929406
0.8091076 2.4556904 0.44290403
2.6363428 2.4768121 0.44586852
2.6654747 2.8000071 0.44950509
2.5352035 2.99417 0.44308814
0.6706472 3.3196626 0.44953418
2.5586185 4.0158086 0.44004521
0.69179481 4.4487476 0.44630188
2.5865617 4.8314815 0.44860032
0.94198203 5.0420108 0.44607288
0.72961122 5.0555372 0.44655842
2.4796753 5.0931826 0.44661921
2.3917317 5.2682505 0.44638851
0.85252452 5.494061 0.44610119
2.41416 5.5639224 0.44069105
2.6463141 5.6257524 0.44558698
2.3884559 1.9772573 0.45664302
2.5964816 2.0182848 0.45266414
0.67216158 2.8335776 0.45728797
2.5483985 3.4178898 0.45474169
2.6672678 3.4233589 0.45236611
0.86576402 4.8890681 0.45804667
0.89852977 4.8882122 0.45879418
2.4143133 4.8852272 0.45048299
2.4914377 4.9629326 0.45478329
0.75805247 5.095212 0.45060158
2.5928283 5.0950298 0.45024353
2.3918467 5.4507313 0.45167798
1.431635 6.3714447 0.45948857
2.550245 2.0127928 0.46259335
2.388422 2.4689395 0.46005782
0.79281616 3.3114288 0.4607279
0.70094222 4.0336332 0.46675366
0.77900797 4.1667457 0.46524239
2.6532998 4.2192111 0.46011329
0.75929594 5.0664716 0.46873283
0.76608455 5.4868917 0.46017006
2.417825 5.5421524 0.4601813
2.5646598 5.6995335 0.46814966
2.5303493 6.0338545 0.46295562
2.5115554 1.5209081 0.47980627
0.72042233 1.7604324 0.47874942
2.5353348 2.067096 0.47392264
0.94905561 2.2296383 0.47083473
2.4421568 2.4888539 0.47750628
0.89911723 2.4904702 0.4703297
0.94899535 2.5828743 0.4780429
2.5671766 2.679816 0.47510371
0.79098338 3.3662078 0.47404188
2.6620951 3.8625097 0.47478414
2.5585546 3.9806077 0.47321612
2.5554504 4.620626 0.47280139
0.81929445 5.1061835 0.47213095
0.91916585 5.1047211 0.4778713
0.77334136 5.52952 0.47236857
0.96217597 5.590889 0.47514045
0.74659264 5.6148462 0.4773888
0.79928029 5.6140461 0.47910544
2.3060005 6.2699127 0.47547221
2.3477409 1.3724155 0.48002341
2.4446876 1.8456405 0.4805468
0.78465688 2.4348803 0.48034483
0.73953635 2.8077357 0.484332
0.78720689 3.5255427 0.48359811
2.5888727 4.0342464 0.48020491
2.41416 5.003273 0.48941877
0.94528633 5.0600243 0.48197779
0.84909099 5.1904273 0.48873815
0.94551057 5.3968892 0.48881489
2.6465759 5.513 0.4814845
2.5101874 5.6107998 0.48606527
0.81449664 5.6925573 0.48988575
0.77376395 5.9424167 0.48618349
1.4270499 1.2579913 0.49419382
2.6119614 1.7149386 0.49696469
0.7979238 1.9379404 0.49006402
0.94904512 2.2746391 0.49424931
0.74047536 2.4751909 0.49451905
2.5331342 2.8884878 0.49006891
2.6718712 2.9451697 0.49587125
0.79357612 3.2417619 0.49451864
2.5537362 3.6397109 0.49362457
0.67526853 3.8703511 0.49719959
0.6982857 4.0344138 0.49520546
0.9419589 5.1088514 0.49124849
0.86667824 5.1275077 0.49575168
2.65534 5.5177774 0.49161178
2.3594565 6.2551594 0.49807817
1.9113503 1.2585187 0.50061518
2.0005372 1.2678653 0.50442272
0.68935502 2.6670468 0.50923657
0.66677791 2.8650801 0.50431055
2.6726584 2.9660263 0.50575471
2.5568559 3.8221583 0.50774002
0.68090856 4.1411786 0.50271183
0.68768209 4.4562597 0.50426304
0.78118408 4.4584808 0.50913405
0.67672598 4.4844809 0.50777763
2.5541074 4.6714563 0.50963521
0.78463751 4.6883626 0.50325483
0.78472501 4.6974459 0.50095749
2.421478 4.9007611 0.50588006
2.3921728 5.0651345 0.50248814
0.84662902 5.332458 0.50808609
2.4852297 5.5083652 0.50426829
0.82753003 5.6877899 0.50356215
2.2714491 6.293251 0.50008225
0.94015646 1.3903861 0.51502007
0.93874395 1.856488 0.5104562
0.96217602 1.9735456 0.51933151
0.81244141 2.0636864 0.51979047
0.8580066 2.3985386 0.51668489
2.569277 2.399394 0.5158298
0.94901311 2.4461188 0.51850033
2.5679131 2.4481211 0.51496345
2.6545238 2.6631873 0.51562339
0.79115593 3.307353 0.517263
2.6536787 4.0338702 0.51237792
2.6670682 4.3260565 0.51959914
2.4685452 4.9109693 0.51966596
2.633013 4.9879069 0.51144302
0.80790555 5.149014 0.51725733
0.73157507 5.3172469 0.51445049
0.84291816 5.4902968 0.51278788
0.70615703 5.5172791 0.51357645
2.3799973 6.2524638 0.51771939
0.9795742 6.2619705 0.51643193
2.1696012 1.3040857 0.52906233
0.91453552 1.4136825 0.523597
2.600178 2.4494429 0.52669168
2.6295378 2.4514656 0.52370274
0.70615703 2.4728508 0.52120084
2.672168 2.7627385 0.52435124
0.66446376 3.1454484 0.52747315
0.65890831 3.6194949 0.52580631
0.65968609 3.6701081 0.52495682
0.69680053 4.035429 0.52852678
2.5598221 4.2251954 0.52591944
2.5575733 4.4524069 0.52048254
0.78477079 4.9966736 0.52591598
0.70615703 5.0460515 0.52502948
2.5183914 5.1123896 0.5284934
2.4624736 5.1548252 0.52306795
2.6455426 5.3206739 0.52460736
2.3923187 5.6349583 0.52031779
2.6050634 5.6738462 0.52286839
1.2976587 6.3779707 0.52260703
1.4689288 6.3995051 0.52272618
1.7714728 1.2754936 0.53125322
1.6815376 1.2877082 0.5350005
2.2560947 1.3365711 0.53643805
2.5266392 1.547026 0.53273201
2.5502176 1.8706429 0.53089428
2.3884699 2.02109 0.53654575
0.86624682 2.3715088 0.53570551
2.4300985 2.3900375 0.53742337
2.4142981 2.6564615 0.53882933
0.67048347 2.8047984 0.53088886
2.6835122 3.1155303 0.53335369
2.5551853 3.67365 0.53914517
0.77889866 4.2694573 0.53890938
2.6500287 4.5495768 0.53296912
2.5772955 5.0006776 0.53163379
2.6359644 5.1045437 0.53691161
0.88438654 5.6704664 0.53707588
1.0005426 6.2779164 0.53224009
2.0194321 1.3167181 0.54901195
2.6198311 1.8792902 0.54825097
2.4427249 2.1341078 0.54622436
2.5538235 2.1515639 0.54390383
2.4847574 2.3455431 0.5489378
0.78841794 2.3622956 0.54040068
2.6016371 2.8026679 0.54304737
0.80190021 2.9356163 0.54038495
2.6714263 3.5179102 0.54257661
0.67978764 4.1677494 0.54836756
0.67991561 4.174336 0.54892915
0.68073958 4.2015977 0.54111153
2.5597608 4.267992 0.54626608
2.6194179 5.4559689 0.54711461
0.95243424 5.5675039 0.54183418
0.74560463 5.821332 0.54084969
1.4883659 1.331359 0.5538612
0.72425026 1.7749951 0.55457747
0.87273049 1.9755315 0.55284572
0.95123601 2.0906358 0.55036569
2.4428978 2.3547101 0.55542427
2.4691832 2.4055526 0.55633974
2.3884664 2.4169555 0.55890834
0.66025466 2.7766702 0.55696923
2.6745579 2.9200029 0.55101532
2.5469842 3.2463958 0.55886942
0.66211855 3.7028751 0.55540466
2.6689358 4.0406318 0.55815339
0.78580517 4.7166977 0.55397761
2.655169 4.7332468 0.55849463
2.6437688 4.8128123 0.55431938
2.5607958 4.8719893 0.55933696
2.3936949 4.9356809 0.55897313
2.3935246 4.9522834 0.55439252
0.96217602 5.1092739 0.557706
2.5416307 5.4408698 0.55872583
0.90444738 5.462925 0.55200922
2.4509025 5.4654675 0.55022895
1.8365912 1.3579855 0.5675087
0.72328365 1.7891198 0.56683767
2.601702 2.2076349 0.56377411
0.88858199 2.2399426 0.56889123
0.81549907 2.2669847 0.56889987
2.5420692 3.062027 0.56824714
0.66269588 3.0981092 0.56651711
2.6746495 3.2717319 0.56675553
2.6641235 3.9399621 0.565534
2.5597839 4.2823353 0.56276804
0.79294717 5.2242899 0.56007648
2.4688952 5.3405437 0.56358421
0.94503343 5.6444445 0.56899345
1.3097928 6.3924747 0.56525809
1.6066388 1.3331939 0.57460439
1.3832129 1.3537025 0.57203746
1.9793689 1.3570256 0.57171208
2.5931365 1.9927084 0.57432783
0.72567719 2.2965937 0.57126403
2.517169 2.3674114 0.57577372
2.3884704 2.3781126 0.57699764
2.5167592 2.3768098 0.57098508
2.6651633 2.399389 0.57585484
2.6701803 2.4718847 0.57395369
0.75238907 2.5106549 0.57783407
2.6490927 2.512079 0.57281518
0.84033477 2.6315527 0.57793778
2.5508051 3.3905928 0.57667696
0.70615703 5.0682602 0.57566756
0.73459947 5.1518278 0.57153165
0.72402501 5.2242255 0.57758188
2.4287682 5.2507582 0.57436776
2.4297261 5.2845712 0.5797233
2.491132 5.2885251 0.57025063
0.72099602 5.4284248 0.57488841
0.82459885 5.436904 0.57022786
0.76646745 5.9676189 0.57899457
0.83093011 6.1587639 0.57138872
0.83833146 6.1687794 0.57082427
2.0440259 1.3620021 0.58140838
0.69844973 1.8615513 0.58307528
2.5131128 2.3671346 0.58610505
2.5534258 2.3738 0.58299625
2.5303054 2.6274858 0.58230937
0.66296673 2.9547861 0.58511889
0.78327686 3.6350543 0.58873206
0.67134511 3.798882 0.58326077
0.67878902 4.1576571 0.5821147
0.78294706 4.5503502 0.58568817
0.78328776 4.5702853 0.58049124
0.94427168 4.9889965 0.58506507
2.6031284 5.047132 0.5887503
2.6246674 5.0404634 0.58208191
0.85347784 5.1765137 0.58460045
2.4672463 5.2005734 0.58647633
2.6476505 5.2013388 0.58770794
0.73973817 5.2609754 0.58676684
0.76417041 5.6221662 0.58968902
0.78450418 1.6767722 0.59865272
2.5786965 1.6895732 0.59169495
0.73618549 1.7888664 0.59595102
2.4943845 2.2155955 0.59929866
0.85333747 2.2947018 0.59877318
2.6413546 2.3009014 0.59041214
0.94899607 2.3224971 0.59834838
0.79075682 2.3381307 0.59069312
0.88853729 2.4918876 0.59659964
2.5431411 3.0720694 0.59723455
0.66654646 3.541769 0.59877837
0.70615703 5.177496 0.59549552
0.9100095 5.1984372 0.59482336
0.9452042 5.193573 0.59557176
0.9220047 5.213151 0.59963465
2.5474653 5.2180161 0.59334624
0.7799964 5.3755126 0.59882146
0.94517875 5.487936 0.5930807
2.6095736 5.6811032 0.59133965
0.76323926 5.9407244 0.59522331
0.78028005 6.0421195 0.59754199
0.85684818 6.1904974 0.59361887
1.8134043 6.4263325 0.5999614
2.5375597 1.907976 0.60047722
2.41416 2.1205482 0.60263205
0.74495775 2.1781788 0.60376161
2.5927081 2.2137077 0.60887945
2.5786927 2.2331684 0.60208213
2.6435983 2.2544479 0.60062009
2.3884752 2.3163719 0.60108811
2.6701801 2.3953061 0.60024995
0.78261203 2.8055797 0.60701752
0.66884977 3.6825118 0.6027472
0.67859077 4.1556673 0.60056317
2.392293 5.1651869 0.60037494
2.5090466 5.2472482 0.60831434
2.5894561 5.2556057 0.60904545
0.77996445 5.321373 0.60088444
0.86175835 5.32617 0.60949135
2.6159065 5.3465929 0.60656911
0.95684248 5.504097 0.60444474
2.4268508 5.6139874 0.60754794
1.8976456 6.421217 0.60600656
2.1755178 1.3881938 0.61513925
2.4873352 1.5827458 0.61618155
0.96217602 2.0839856 0.61531228
0.95209885 2.2240243 0.61388409
2.4970191 2.2415371 0.61131382
2.6324975 2.6062703 0.61173648
2.5532966 3.4854116 0.61808109
2.642556 4.8902779 0.61399961
0.94395173 4.9774699 0.6149075
2.4899468 5.0720081 0.61262977
0.82326353 5.5170383 0.61111248
0.87327909 5.5131512 0.61383367
0.94507098 5.5572448 0.6155743
1.1717391 1.3780441 0.62662208
1.1746689 1.4233329 0.62859702
0.96552998 1.4589974 0.62959486
2.4721034 1.5940685 0.6261338
2.41416 2.1312857 0.62578863
0.89571774 2.6080151 0.62288958
2.5453539 3.1198173 0.62077373
2.6701801 5.2189679 0.62006533
0.94516194 5.4066849 0.62193704
2.6701801 5.4007273 0.62154406
2.1355081 1.4157822 0.6384694
2.2560463 1.4533701 0.63868046
0.89295232 1.5563823 0.63669372
0.83020329 1.9498435 0.63925689
2.6119211 2.439882 0.63712525
0.66296244 2.7776346 0.6320377
2.6755702 3.206419 0.63205624
2.675106 3.2808914 0.63009322
2.5496612 3.2975488 0.63629317
2.4182169 5.1283388 0.63449144
2.6701801 5.2110171 0.63516611
0.9169637 5.4856787 0.63306832
0.94509447 5.5126934 0.63271475
2.5392547 5.585906 0.6371116
1.049197 6.3220415 0.63431108
1.2207737 1.3751903 0.64470768
2.4671459 1.5877976 0.64281309
2.5747869 1.9564176 0.64450848
0.86861014 2.418232 0.64994007
0.66487426 3.4125788 0.64873183
0.78206939 3.6746264 0.64523298
2.657939 4.2593389 0.64829159
0.69396913 4.8373852 0.64248502
2.358232 6.2788515 0.64892894
1.6265799 1.3314734 0.65956968
0.94895983 1.9836832 0.65485108
0.73567039 2.1072955 0.65863979
2.5865102 2.1092048 0.65953004
0.8761586 2.4038732 0.65663546
0.79720002 2.9969687 0.65568388
2.6734252 3.4246631 0.65671754
0.83676237 5.1478534 0.65889978
0.8861174 5.1482973 0.65910697
0.70615709 5.3967514 0.65049016
1.0256268 6.3019829 0.65084499
1.2072868 1.3816164 0.66139603
0.71895933 1.8857894 0.66339898
2.4735978 2.1117787 0.66073036
2.4462271 2.1292014 0.66885442
0.95668679 2.152467 0.66279912
0.80850554 2.5412259 0.66961086
0.66895199 3.6692383 0.66865313
0.6731692 3.8918793 0.66916841
0.78735363 4.7328038 0.66087848
2.4002867 5.0407543 0.66483581
0.84450996 5.1566882 0.66301966
2.5957422 5.1559553 0.66267788
2.6145191 5.15905 0.66412091
0.90609044 5.1639915 0.66642505
0.7084167 5.2138729 0.66572618
0.90697783 5.5419235 0.66808265
0.91910315 6.2079277 0.66994309
1.2649813 6.34407 0.66188371
1.9071997 6.3787484 0.66203505
2.1098638 1.3957274 0.67716551
2.6410747 1.9585276 0.67817199
2.4972343 1.9944863 0.67756891
0.86765277 2.1656733 0.67954898
2.5773549 2.3499494 0.67720377
0.66271126 2.905844 0.67822659
2.5431795 3.0379972 0.67440289
0.66560727 3.4457946 0.67679054
2.5533049 3.4480791 0.67721522
2.6723399 3.4896097 0.67353827
2.6655283 3.8781805 0.67645228
2.6548898 4.4141297 0.6758976
0.68865103 4.6508164 0.67773342
2.5604525 5.0578585 0.6715163
0.77441895 5.1993294 0.67784905
2.6406929 5.4073658 0.67253715
2.0016599 1.354605 0.68374377
1.1654401 1.3990623 0.68886304
2.4490604 1.5736907 0.68619174
0.81944263 1.6358876 0.68984348
2.4627945 2.1724348 0.68136066
2.4743328 2.1708691 0.68094116
2.45051 2.2223296 0.68938637
2.4601912 2.2850087 0.68934578
2.5377498 2.8884377 0.68102551
2.5445416 3.0744896 0.68789071
2.5528953 3.4229221 0.68060565
2.5562334 3.6402764 0.6844787
2.6690249 3.690834 0.68363744
0.67461163 3.9584298 0.68584615
2.6572945 4.2858424 0.68927294
2.6337709 5.078444 0.6821686
0.94459873 5.0804634 0.6815244
0.87915152 5.2279878 0.68552804
0.83163178 5.3271623 0.68915731
0.77710426 5.4952421 0.68788904
2.2958632 6.2751532 0.68607682
2.4879458 2.0147176 0.69456232
0.66825962 3.6091907 0.69131035
0.78066105 3.7600179 0.69005007
0.67492342 3.9667192 0.69352347
0.78982532 4.8085108 0.69557202
0.71126491 5.097578 0.69276536
0.94507837 5.3129206 0.69617045
2.5221419 5.494566 0.69022661
2.5529928 5.9759073 0.69454879
1.4023017 6.3482032 0.69573444
0.74488181 1.801901 0.70160073
2.5672243 2.0370388 0.70754069
2.6738448 2.6643043 0.70630014
0.79008967 3.2184854 0.70691472
0.7880584 3.3112016 0.70132053
0.66537142 3.3488283 0.70979667
2.5586331 3.8200653 0.70710552
2.3926754 5.1340342 0.70653349
0.98963332 6.2334976 0.70360094
1.4206398 6.349452 0.70018053
1.1118166 1.4666239 0.71866804
0.80992115 1.6572453 0.713763
0.707789 2.453567 0.71896994
2.584064 2.807672 0.71559608
0.66426921 2.927382 0.71673954
0.66586637 3.3752756 0.71961188
2.555378 3.5778911 0.71079576
2.5921783 5.1540246 0.71872139
2.6345801 5.4378424 0.71474999
2.5767639 5.8225718 0.7151469
0.94895655 2.0801334 0.7230947
0.72601527 2.8093674 0.72787511
0.66509306 3.0557694 0.72856325
0.77831137 4.2613611 0.72240847
2.6551819 4.3688097 0.72692209
0.70091629 5.0001469 0.72215199
2.392467 5.2615514 0.72244841
2.4835346 6.109077 0.72994369
1.2805855 6.3293376 0.72367001
1.2673256 1.3677613 0.73099583
0.86387599 2.1004486 0.7300424
0.94895703 2.1285448 0.73157144
0.77010888 2.1428635 0.73986793
0.94895905 2.2360773 0.73573375
0.93560994 2.4109974 0.73681831
0.66694093 2.6211567 0.73620903
0.77830589 3.964308 0.73558265
2.62621 4.0439334 0.73223901
2.6610758 4.0599847 0.73307538
0.77886677 4.3169909 0.73908752
0.70267904 5.0303411 0.73482358
2.5433979 1.6923343 0.74423891
0.68860495 2.225441 0.74876189
2.6593981 2.3412154 0.74695891
0.80264491 2.8415852 0.74497956
0.66663235 3.283324 0.7454564
0.77842534 4.2519197 0.74905282
0.78925991 5.2749605 0.74059409
1.4318956 6.3490601 0.74852526
1.2766491 1.3737632 0.75649226
1.1926329 1.4234459 0.75508457
2.4106405 1.5635626 0.75156426
0.84544402 2.3427346 0.75423151
2.6710005 2.9238174 0.75357032
0.78190577 3.6662779 0.75743008
0.77992135 4.4020042 0.75012076
2.5483284 4.7881551 0.75862771
2.5368457 6.0246344 0.75861239
0.87789559 6.1342397 0.75345004
1.0693375 6.2672358 0.75279111
2.1977286 6.2903929 0.75519377
1.3607084 6.3409371 0.75594401
1.8367873 1.3595009 0.76990032
2.3781171 1.5208057 0.76217365
2.4516764 1.5739146 0.76574922
0.71173275 1.9576449 0.76483315
2.6680231 2.3580434 0.76421785
2.6720777 2.7607701 0.76959372
2.5567675 3.6777015 0.76964998
0.77766883 4.1329975 0.76264489
0.79281336 4.8663359 0.76465547
0.7464689 5.0811958 0.76370144
2.5964675 5.5911732 0.76235867
2.2241766 1.4506904 0.77902341
2.2717443 1.4645898 0.7701745
2.5752311 1.793668 0.77338713
0.79907858 2.9514165 0.77233124
2.5412211 2.9949851 0.77038711
0.67132366 3.6230984 0.77244127
0.67534244 3.8844984 0.77223694
2.6607559 4.0196013 0.77650446
2.5610397 4.1085587 0.7738325
0.68759865 4.5352659 0.77969772
0.79449093 4.9078259 0.77107799
0.79958963 5.0456161 0.77839029
2.5633001 5.9083576 0.77300715
2.5334539 6.0246201 0.77397585
0.87365448 1.6024011 0.78433788
0.66883993 2.6728909 0.78816909
2.6677489 3.3665478 0.78634822
0.78547597 3.4472644 0.78279525
2.5542269 3.5265861 0.78865743
0.79457796 4.8920774 0.78002638
2.6291561 5.1274347 0.78178906
1.9393542 1.3867035 0.79054642
2.2714963 1.4920139 0.79325557
0.86520344 1.6266297 0.79012716
0.67048603 2.7395134 0.7984854
2.6652617 3.6680281 0.79336464
2.5597477 3.9459686 0.7999177
0.77767706 4.0366621 0.79729867
1.645471 6.3074784 0.79932737
1.5207202 1.3798829 0.80283701
1.274974 1.4056131 0.8030479
2.115607 1.4322118 0.80937535
0.90818518 1.6121693 0.80792558
0.73228705 1.9903708 0.80747515
2.6532054 2.3623974 0.80732393
0.68308723 2.4494624 0.80151832
2.5422606 2.8147912 0.80841386
2.5380991 2.9289141 0.80771083
0.67532361 3.0869102 0.80876237
0.68707418 4.4716949 0.80246031
2.6196337 5.3072548 0.80380881
1.6396344 1.3966837 0.81866217
0.83971876 1.7293131 0.81860465
0.68595052 2.4594924 0.81013769
2.6561427 2.7392864 0.8172645
0.79352319 3.1146252 0.81298643
0.67647511 3.1430969 0.81710899
2.6616297 3.1506426 0.81950337
2.6638575 3.3127389 0.81539184
0.67493504 3.3987298 0.81873441
0.78391361 4.4692011 0.81773871
0.78615582 4.5552564 0.81248492
0.70066172 4.9213324 0.81622708
2.6136007 5.0947342 0.81154466
2.0371263 1.4407082 0.82844591
0.69081777 2.3439462 0.82032746
0.77874362 3.9744039 0.82818747
2.657129 4.0956898 0.82609081
2.5448422 4.7493229 0.82268298
2.5310819 5.0892797 0.82821596
0.72254229 5.2834139 0.82569677
1.2113849 6.3011374 0.82355976
1.2264309 1.4697998 0.83058816
1.0416226 1.6164531 0.83846754
2.3817558 1.6473877 0.83057481
0.69231254 2.6368709 0.83843791
2.6457157 2.6315689 0.83943725
2.6190464 5.235404 0.83169007
1.0907904 1.621105 0.84875709
0.68669319 2.9335418 0.84145653
2.6531715 3.1015277 0.84891534
0.68407393 3.1574857 0.84811699
0.97844905 6.2119465 0.84339106
1.5947928 1.4787296 0.85635382
2.0668974 1.5081589 0.85245502
2.3154626 1.7078078 0.85912943
0.85277176 1.8730892 0.85775691
0.7389406 2.8193414 0.85913569
2.5527265 3.546273 0.85143548
0.78578269 3.5545213 0.85258675
2.6512032 4.3818188 0.8559736
0.80731708 4.9884048 0.85393679
0.87175703 6.1143465 0.8567006
1.0409174 6.2398233 0.85231847
1.2479444 6.3028307 0.85156441
1.9098274 1.5109183 0.86327803
2.3835242 1.772691 0.86055052
0.6916973 3.0764031 0.86663425
0.73611224 5.407856 0.86356199
0.80231249 5.9871378 0.8624872
0.99382544 6.2149339 0.86501288
1.432882 1.5640297 0.87596232
2.2328837 1.7245512 0.87768328
0.7618022 2.1909797 0.87123126
0.80823946 2.856988 0.87413055
0.68552876 4.1800752 0.87593579
2.6492567 4.4377766 0.87650764
0.73261905 4.9188414 0.87181401
0.714077 5.0964489 0.87496203
1.613739 1.5736477 0.88047838
1.8258657 1.6122273 0.88690126
1.1168028 1.7585688 0.88690645
2.3564613 1.8703738 0.88715887
2.5787041 2.3132076 0.88874328
0.79372668 3.2610059 0.88252687
0.68142629 3.8815608 0.88293785
2.6407664 4.7642803 0.88094133
0.8062216 5.9853444 0.88441741
1.5970232 1.6301861 0.89246112
1.2573373 1.6694032 0.89119911
1.1617227 1.706303 0.89050031
2.3161819 1.8692774 0.89464533
0.69573379 3.3949149 0.8973189
2.6542845 3.8554301 0.89042389
2.6528687 4.060329 0.89433557
2.6478987 4.4588847 0.89555645
0.69321853 4.5937586 0.89043498
2.5387888 5.9474554 0.89706922
1.6384672 1.6744744 0.90190816
1.5795119 1.6939211 0.90597069
1.9203752 1.6998028 0.90333635
1.4853845 1.7201509 0.90951943
2.0050323 1.7232516 0.90461242
2.2188551 1.8478501 0.90734512
2.3043346 1.9043624 0.90383011
0.83739221 2.155195 0.90308231
2.579494 2.4760749 0.90961081
0.6892969 3.7055757 0.90426195
0.78396869 3.8269367 0.90557969
1.2904097 6.283546 0.9060685
2.0996447 1.7891271 0.9132129
1.3262957 1.7937664 0.91798782
2.2788434 1.9538662 0.91860682
0.8358804 2.2062221 0.91013616
2.5023322 2.2160988 0.91285563
0.75196147 2.5409942 0.91012442
0.80643678 3.0518124 0.91655415
0.80730563 4.8075356 0.91704929
2.5839872 5.5296125 0.91402763
0.83015931 6.0283747 0.91156965
1.021381 6.2101865 0.91814566
1.4484901 6.2807918 0.91166198
1.6979346 1.8120193 0.92544085
1.5293039 1.8370689 0.92885536
1.8316811 1.832202 0.9277432
1.2801377 1.8464353 0.92539483
0.84155601 2.3360116 0.92909312
0.7690531 2.571054 0.92740339
2.6063561 3.013721 0.92667556
2.6107306 3.127306 0.92845619
0.79532731 3.4056523 0.92251921
2.627054 3.4239573 0.92321444
2.5469718 3.536685 0.92039198
2.6362886 3.6906283 0.92391193
2.6450236 4.1345501 0.9240281
0.69642645 4.4494562 0.92909974
0.79416299 4.5135322 0.92530692
2.530452 4.8051043 0.92516959
1.8076291 1.8551457 0.93193042
1.5333209 1.8831835 0.9362995
2.2167311 1.9189132 0.93120944
1.0732234 2.0561845 0.9392727
1.0626105 2.0679367 0.93947029
0.9102118 2.2578192 0.93721741
2.5903342 2.8150611 0.93390518
2.5432029 3.4457302 0.93164378
0.77682525 4.0532999 0.93804729
2.5497015 4.3785229 0.93252802
0.79689622 4.5556431 0.93666416
2.5309389 4.7703395 0.93650335
0.70743269 4.7908788 0.93704993
2.6004698 5.3200283 0.93139648
0.86737013 6.0765829 0.93787533
1.3417784 1.9322387 0.94071466
1.3841213 1.9512432 0.94473606
1.8401735 1.9563895 0.94826561
1.1602676 1.9679813 0.94163573
2.2439332 2.0359659 0.94042146
0.97274727 2.2293062 0.94804531
2.5864758 2.9209726 0.94851583
2.5924609 2.9223495 0.94022304
2.5317726 3.1522386 0.94678295
0.71733898 4.8843241 0.94786799
0.79271102 5.8199005 0.94773483
1.3300893 6.2808838 0.94548595
1.4677385 1.9775167 0.95053661
1.858214 1.9783645 0.95163822
1.8955436 1.9737954 0.95037234
1.3262784 2.0125804 0.95305228
1.689517 2.0125973 0.95828992
1.1677668 2.0403361 0.95396495
2.5267782 2.6291916 0.95907038
2.5927892 3.1789825 0.95932126
0.79492766 3.6138499 0.95999283
2.614428 3.7290421 0.95988244
2.6229079 4.6846294 0.95590222
2.5840678 5.4012184 0.95488858
1.7003589 6.3043437 0.95955646
1.7998097 2.0261896 0.96021199
1.9757944 2.0572858 0.96264857
1.9809703 2.0643294 0.96362472
1.4159656 2.079828 0.96633857
2.5097091 2.6244247 0.96177286
2.5473602 4.3428621 0.96950281
2.5607738 5.5601435 0.9693976
2.45576 6.0797482 0.96024239
1.2346404 2.1309419 0.97009301
2.1988206 2.2112024 0.97956634
2.5284994 3.1133842 0.97622353
0.75535536 3.2868605 0.97927153
2.5360737 3.341512 0.97192371
0.7477684 3.4196453 0.97806311
2.6007333 3.6876082 0.97871649
0.80701661 4.6704464 0.97306716
2.5677083 5.063798 0.97530103
1.7228328 6.2976513 0.97041118
1.8034968 2.1899233 0.98805022
2.0301936 2.1964641 0.9834795
1.2291659 2.2416296 0.98788369
2.2003748 2.2760606 0.98863298
0.75608951 3.3468416 0.98393208
0.80030519 3.4500248 0.98057973
2.5521469 4.0625739 0.98694009
0.72953653 4.5240259 0.9851144
0.7320953 4.669395 0.98413599
0.73205674 4.7460556 0.98034966
2.5487545 5.5806799 0.98492509
2.4987195 5.9824519 0.98295432
1.7878085 6.2911134 0.98011541
1.4632788 2.2266345 0.99276239
0.93543482 2.5599406 0.99156427
2.4976513 2.7218242 0.99407393
0.80066717 3.1946013 0.99576998
2.5763025 3.4659047 0.99684006
2.5440435 3.7459671 0.99490291
2.6032121 4.2835851 0.9986617
1.8499174 2.2897592 1.0045124
2.0799794 2.3751285 1.0094817
2.2388563 2.4005375 1.0038835
2.349061 2.5433683 1.003872
2.54459 3.3375034 1.0039475
2.593832 3.9886487 1.0063146
2.5485775 4.008131 1.0098667
2.5645182 5.26963 1.0031838
0.92006552 6.1197314 1.0029988
1.94871 2.3691285 1.0152227
1.2950839 2.394784 1.0169193
2.1636097 2.4334829 1.0126688
1.1392161 2.4688139 1.0179129
2.37637 2.6207819 1.0132909
0.79176015 3.7811761 1.0128489
0.79368794 4.2399492 1.0183178
2.5797172 4.9286194 1.0130357
1.1834536 6.242795 1.0148859
1.8313379 2.3895421 1.0229727
1.3216723 2.4184303 1.0225128
1.3908532 2.4166412 1.0255885
1.3281986 2.4400525 1.0267445
1.9754419 2.4613314 1.0291004
1.1177644 2.5088367 1.0208211
2.7382927 3.0869887 1.0225681
0.76850152 4.9251342 1.0290525
2.5043502 5.0252366 1.0212779
2.557142 5.1832108 1.0256824
1.3890074 6.2769933 1.0238875
1.651989 6.2965541 1.0263503
1.5167828 2.4586487 1.0371387
1.2966707 2.5306802 1.0398897
1.1709503 2.5553288 1.0323299
0.8092196 3.0503311 1.0389665
0.78289545 3.082375 1.0366826
2.7488713 3.0848098 1.0385237
0.79447651 3.4138794 1.0318738
0.78272289 4.0271521 1.0322769
2.5633419 4.1324158 1.0387397
0.75857615 4.4759383 1.0336862
2.5814664 4.5194073 1.0317715
2.5706768 4.7818298 1.0361967
2.5061197 2.8802218 1.0465722
2.5420506 3.5670938 1.0479391
2.5444522 3.6448293 1.0485814
0.78574771 3.7901897 1.0412785
2.5630012 4.6133881 1.0469869
0.78393233 5.0305653 1.0433893
1.3386607 6.2726021 1.0423567
2.0123332 6.2715697 1.0475359
1.1510016 2.6079271 1.0570338
1.019029 2.6861465 1.0579972
2.5363157 3.5392191 1.0583103
0.79392046 3.7119374 1.0531517
2.5547171 4.0554028 1.0553721
2.5500536 4.4965496 1.0510613
2.5438268 4.7308183 1.0594201
0.90484029 6.0319004 1.0571156
1.5701373 6.2988625 1.0512164
1.5644615 2.5302477 1.062272
1.4358411 2.5531259 1.0607291
1.3792144 2.5693147 1.0644767
2.5569727 3.0807452 1.0625689
2.5206039 3.1304309 1.0624858
0.79662824 3.9323065 1.0697389
2.5528886 4.1120753 1.0617747
2.5537736 4.1451845 1.0624158
0.80773467 4.9144788 1.0653492
0.8447094 5.5209136 1.0673816
2.4298925 5.9750319 1.0649003
1.6656127 6.2984953 1.0682812
0.79793692 3.0734203 1.0787733
0.71660882 3.1012921 1.0752476
0.81134611 3.5167091 1.0763264
0.79377228 4.0468726 1.076485
0.79440594 4.0744615 1.0791761
2.3148165 2.7355957 1.0879709
0.809596 3.6252635 1.0807096
0.80701351 3.7782493 1.0866344
2.5336571 3.9210448 1.084807
2.53899 4.4870653 1.0877533
0.80644304 4.7039328 1.0804619
2.5111639 5.1583109 1.0838293
2.4437237 5.6990881 1.0832442
2.433393 2.8488061 1.0958045
0.74487191 3.0129912 1.0973569
2.541147 3.0502419 1.0933914
2.5119174 3.2916994 1.0927064
2.5193858 3.5410476 1.0952756
0.8178581 3.6006804 1.0968263
0.81011784 3.7434084 1.0907584
