# .PCD v0.7 - Point Cloud Data file format
VERSION 0.7
FIELDS x y z
SIZE 4 4 4
TYPE F F F
COUNT 1 1 1
WIDTH 1578
HEIGHT 1
VIEWPOINT 0 0 0 1 0 0 0
POINTS 1578
DATA ascii
132.84709 -48.178467 1.0361514
155.88028 -35.865921 13.215238
218.97919 -20.738312 34.858398
232.93922 11.413612 7.9187112
171.92044 -15.314386 11.448488
162.69089 -19.701506 3.2006698
213.78563 -17.43119 -1.27698
148.48795 -44.394768 3.7744286
237.34232 11.8499 26.974443
169.72189 -16.117638 3.2006698
139.13077 -4.7382283 33.264301
156.35201 -26.158545 5.9510026
243.45264 -42.067802 -0.55999148
130.05997 7.2164397 16.581932
151.12109 -16.525988 12.642599
217.88171 -4.6904521 33.198479
140.65955 -46.088005 -1.7450912
223.10257 -17.117992 -1.27698
195.59747 8.8399496 10.368273
124.02451 7.0218868 6.4052582
237.92607 -38.3265 -0.88611913
122.87234 -21.050379 31.302612
131.51796 11.020697 8.7724476
159.47563 -37.210583 3.20067
225.43932 -48.479202 31.388792
224.0585 -48.066696 10.808015
185.82259 -43.905102 -1.27698
252.47034 -49.109344 42.808849
230.24313 -46.769184 -2.7936349
222.28455 11.8499 20.866039
214.77446 -39.630608 26.932074
256.16129 -35.305939 3.3714647
205.47141 -30.443163 8.1706095
167.09918 -32.1129 9.5348549
137.56604 -41.101799 23.331726
229.51578 11.8499 30.245285
207.12405 -18.573414 -1.27698
207.61731 -14.106358 12.498257
138.31303 2.85552 3.2006702
177.36978 -37.135445 21.881298
190.73709 -35.43317 6.0553575
139.90167 4.4725599 23.696327
143.78059 9.7259102 0.070084192
175.76874 -10.191925 -1.27698
228.88907 10.871092 18.527756
221.53986 -48.479198 27.898491
157.78976 -20.457222 11.586199
148.8801 -11.352542 -1.27698
181.06277 -46.596054 33.264301
114.77999 -24.446331 -1.27698
210.23993 -0.55774581 17.787291
95.691803 -23.162741 1.3505639
145.90858 -35.481777 15.513735
151.34834 -5.9990497 12.248854
202.95154 11.8499 23.978817
204.4588 -38.751438 6.1285329
237.94337 11.08215 4.9208727
169.73274 11.8499 14.361017
205.83954 -15.65774 8.9130478
168.39946 -41.454384 39.289051
212.66673 11.8499 0.8009693
222.90459 8.4373503 -4.285965
134.25644 -39.122902 25.880428
212.15767 -18.579388 36.421227
128.07307 8.3065052 12.129786
135.38515 -40.185902 17.132812
209.16443 -31.804684 -1.27698
110.48746 -38.509235 24.233833
153.72556 -15.540169 13.352672
171.96303 6.9051399 33.588871
200.89639 -34.178356 34.676929
226.11124 11.628113 14.302889
119.47224 -4.7290907 29.543896
142.1506 -41.480148 33.264301
149.71527 7.435545 -1.27698
112.29684 -3.3851728 -1.27698
139.77438 -34.585121 3.20067
229.27385 -45.065578 19.223684
201.16646 -5.9957271 3.2006698
154.52426 -8.8117828 7.617291
131.43904 -41.5993 2.0488443
200.84821 -36.658333 3.6164622
151.67342 -29.3374 12.02062
221.44168 -37.693508 33.992546
229.86183 -47.565498 10.75852
170.21909 -3.7228878 42.63298
180.39471 -16.318935 -1.27698
246.77783 -36.881721 39.357246
194.05608 -41.061035 14.702477
170.74048 -1.1900303 8.3350887
119.74379 -48.479202 0.035683781
245.32686 -3.5584416 32.166813
122.17368 11.8499 -0.98214686
197.80038 -48.479202 30.737865
250.25237 -24.762939 40.980385
128.57112 -43.942482 22.787285
163.90981 -32.355179 -1.2769802
211.53271 -41.098148 32.379757
216.7448 11.369674 -1.2087606
161.2437 11.8499 2.4171464
188.48782 11.8499 -0.13497376
180.20999 -21.460899 5.8344355
138.29852 -47.565498 9.1513042
221.56418 8.8112335 -3.6041884
243.70796 -46.45435 0.78862673
134.367 -8.0402288 3.4897969
115.53978 11.8499 9.0767193
195.08675 -33.275593 -1.27698
133.6709 4.9699502 17.740074
135.01953 -10.455919 -1.27698
112.65599 -10.655594 27.537781
158.74927 -43.397461 33.964211
166.91415 6.2023025 35.514973
151.99036 -19.194523 11.5862
113.21712 1.2229586 17.280216
181.48645 -39.95406 -1.27698
194.07465 8.8399487 3.0950153
159.46346 -10.7381 6.1229582
184.29945 11.849899 30.317669
134.94702 -27.677397 28.016907
144.38602 3.1094456 -1.2769802
140.1806 -41.5993 2.4586186
143.29535 -46.289536 14.645632
248.29228 -29.979385 32.106209
196.98381 4.4725599 9.9170456
147.93088 -21.148979 26.682003
251.8244 -35.210918 -0.54577523
173.0213 -21.460899 4.3671093
210.62289 -48.479198 10.172536
182.34967 -25.445286 30.981224
134.367 -22.129572 11.125238
134.367 0.33935785 10.673113
198.33192 -45.444603 -1.2389905
112.50763 -34.2043 22.190113
138.10199 -20.138903 4.1763978
137.16998 -39.447533 18.836395
209.05502 -5.1748924 34.323906
197.45926 -21.554449 29.317787
237.41785 8.1275406 13.517117
162.67441 11.8499 3.0307918
140.45319 -4.9194059 31.040859
151.16035 -7.8220549 38.258667
157.1516 -17.837162 40.56234
204.38647 4.483779 29.296894
222.74907 11.743099 14.923807
134.367 -13.828858 23.184361
197.27266 -16.484087 3.2006702
111.70686 -27.774574 26.920895
170.37888 -47.535969 -1.259491
142.20563 4.9699502 17.599712
244.00026 6.8476634 -0.54877859
138.46443 -12.066496 6.669208
237.9393 -45.194977 1.2793188
166.27914 -5.6955986 8.1555748
149.0296 -31.858345 25.022305
257.42242 -0.91612709 13.94701
239.79971 -11.765343 32.466423
181.06706 0.21133099 17.380396
112.17424 -41.66396 24.195982
181.10951 -23.432659 -1.27698
174.25139 11.849901 19.071642
139.1976 0.82025373 8.4333916
238.76289 -44.330105 9.2722435
127.98534 -48.479198 24.997959
200.8356 -23.718311 3.6188908
194.79172 11.849901 25.066811
231.7222 -6.9861498 33.028057
191.71117 -37.25658 8.3205748
136.7135 8.9320831 -4.2517848
164.33604 -37.841122 3.20067
249.59622 -43.506905 25.192791
136.76886 10.7345 11.105494
228.79977 -47.3638 2.7481508
131.20825 4.0872798 26.400942
127.78795 10.574975 1.4193798
163.14113 11.195183 -1.2647991
214.97769 -31.398449 -1.27698
204.64514 -2.0695133 34.573154
137.50078 -16.189125 11.712462
139.45288 -40.555607 9.0476847
249.02264 -10.383877 -0.66721165
189.65367 -17.609491 3.20067
216.14967 -0.45639277 29.705479
139.42288 -39.937164 27.621101
147.82578 -48.479195 24.954277
197.90932 0.063585401 33.326393
138.11864 -10.727146 -1.2769799
139.82187 -41.5993 6.244916
127.04842 -40.72311 30.924831
185.8739 -2.8864107 -1.27698
231.40971 -48.083847 14.601921
218.85884 -20.971329 34.887959
160.00261 -48.479202 10.37204
169.89 -35.073898 5.0034962
161.30571 -25.209492 41.371262
139.35957 3.0326178 27.415398
140.08849 -24.113403 3.20067
199.35005 10.018069 33.264301
224.82477 -41.42342 33.264301
105.70429 -0.99274141 22.169081
118.67775 -4.6336884 -1.27698
111.91986 -16.472828 -1.27698
163.9211 -37.9361 12.885036
247.59697 -11.889378 -0.70815742
138.63962 -17.699183 9.6713696
147.15742 -48.171169 -0.14088908
236.46309 -40.522316 32.468624
106.93661 -44.704193 16.632126
259.59894 -18.649347 7.3833132
130.13423 9.1633797 -2.0784657
252.36841 -17.69212 42.705559
145.89131 -41.101799 19.173061
138.5923 5.8931799 -3.8418326
165.75104 -32.1129 11.872148
151.73419 -15.301661 11.927116
234.33923 5.8931799 -0.95405608
186.9025 -3.0341091 42.649681
237.46515 -48.479198 24.851107
148.35466 -48.479198 28.605949
244.57132 -30.723396 32.216816
160.59859 -39.942726 3.2006698
230.98471 8.5861015 17.890465
221.70486 -44.325314 15.841067
188.0733 -34.50539 42.531151
95.757339 -26.317617 3.5494885
101.24314 -3.1280129 -0.041593403
260.14795 -12.889662 15.561763
171.85397 -15.335712 11.674706
169.49225 -9.6533508 8.2958088
154.66254 -38.49181 -1.27698
114.41753 4.4407682 25.654573
180.50928 -19.059999 43.046597
199.56558 -24.839436 40.338219
169.91782 -35.832466 8.294816
146.51666 6.2136931 6.2586174
220.3078 -48.479195 18.945578
110.11038 -35.765213 20.004898
192.16956 -4.0744576 5.288003
148.73424 9.7084904 10.508219
145.52643 1.8675445 3.20067
97.470406 -3.0597525 14.081285
161.22507 -18.3146 5.5989814
157.3443 -11.873 5.6410999
147.14632 8.9022141 0.71462566
176.68288 -14.867517 43.084267
228.80792 -42.970253 -4.7615709
133.71049 -18.901823 -1.27698
126.52417 -48.151379 -0.80844396
182.97778 -4.5957637 34.312084
133.19185 4.9699502 12.860792
169.0554 -48.479198 12.501134
140.21227 9.6775331 -2.8064189
203.58026 -45.4692 5.9967203
238.55396 -44.398525 3.7374101
168.96872 4.8593931 39.195034
152.74745 -1.2942716 23.416744
195.24168 -6.1213531 18.609972
137.2487 -1.1019537 -1.27698
134.367 1.7204945 17.486404
140.49847 -48.181427 18.091896
185.71423 -10.377161 33.594376
226.27393 11.339699 -0.90265322
174.35797 -29.844141 3.20067
112.1395 11.8499 16.851995
118.94691 -38.534809 16.756954
156.19197 -21.460899 8.4568462
217.64394 -21.765564 -1.27698
135.63623 -42.522499 -3.399554
145.13736 9.6627216 15.094711
171.12503 -17.973198 11.5862
155.41379 -17.186132 24.054884
141.28201 8.4568577 16.047649
131.75237 -47.969002 -0.88368928
210.97629 -28.099735 36.813145
144.80899 -25.80183 36.073181
195.3757 -44.071041 33.264301
175.95215 -11.341319 43.052071
195.65419 -35.560326 20.206194
228.0479 11.849901 24.148899
134.367 -27.776901 20.123714
148.46744 -22.801586 5.9346504
95.230583 -6.6014991 8.7259293
108.35234 -31.764668 -0.93796337
126.3251 -45.70163 12.061808
188.08878 -8.273591 42.53067
129.661 -38.148254 22.448978
174.5314 -18.3146 8.5831814
126.38169 9.7511683 14.185743
137.53595 -16.184862 5.0797005
125.60062 -18.891066 -1.27698
183.31451 -33.834229 -1.27698
200.22375 -31.852242 34.685543
102.13245 -38.693893 0.52974558
227.85878 -42.911583 -3.3169918
184.46021 -8.8857946 29.80755
198.44586 -15.215949 -1.27698
257.59708 -10.999803 25.095942
215.95447 -26.145018 29.31179
136.26067 -16.980511 -1.27698
232.8878 -35.110893 32.840599
184.47881 8.8478251 3.0666759
228.80586 -41.059277 -0.85858887
176.61264 11.8499 25.355293
140.09525 -21.903988 14.359301
159.89551 -34.671318 -1.27698
137.94621 7.5669518 32.91872
140.68207 -10.517556 34.208961
191.5134 -1.914802 3.20067
154.4507 11.849901 27.116539
103.34404 6.080236 5.4534883
189.20798 -18.39246 10.047006
157.436 -8.9922829 7.749176
207.23882 6.6074777 34.404629
137.17 -40.415752 20.467415
206.45406 9.1592216 -1.2330339
137.17 -1.6197889 23.17
236.79012 -21.348839 32.665203
159.30986 -28.545778 7.8412685
181.34152 11.8499 2.0149622
198.8658 -48.479195 25.110401
130.43907 -45.526188 16.872894
188.44429 -15.297018 -1.27698
153.31644 -31.086596 3.20067
233.022 4.4725599 15.29545
135.71832 -42.987404 18.68119
250.56964 -13.365887 41.197838
122.6707 -31.555304 30.610455
200.44859 -20.329157 3.6934292
161.17622 7.3401947 -1.2769799
140.03819 -12.752003 10.947109
250.80386 -2.5668752 40.087055
251.86464 -25.599148 41.187248
237.22794 -46.47802 5.4556489
101.53236 -2.49406 19.792526
143.50262 -12.2676 20.894382
203.58481 -29.313496 39.24511
148.26778 -5.3087826 25.554502
167.67786 -27.835213 12.191158
130.70689 10.080544 -2.5179889
210.90529 -15.45892 19.129137
175.92877 0.21133099 19.318567
220.80724 -1.7736962 -1.27698
138.45706 -9.677494 3.20067
131.47232 2.3452728 24.280945
252.96666 -20.794552 32.051662
144.52951 5.8931799 -0.46849924
138.54112 -33.326206 27.699076
160.96523 -0.83586305 3.20067
233.80888 -48.031891 11.203257
248.03227 -39.62748 32.058418
242.46185 -2.5847447 32.258636
217.70627 -45.082287 0.24544512
214.1091 -46.729763 5.7384853
137.66087 -46.012016 -4.1290326
126.92329 -47.04229 3.0909445
185.08481 -19.921621 12.212273
137.09991 -5.0575819 3.20067
197.71906 -41.101799 4.372715
202.60416 -28.378361 3.2782576
135.22182 8.0081806 17.829861
125.30217 11.8499 0.25517303
134.14291 -1.5185862 24.136625
123.60001 -34.750771 23.861528
217.16399 -8.7516031 31.751047
129.32553 4.985507 27.793232
196.69798 -26.379704 -1.27698
131.13643 6.7680149 18.314657
196.6817 8.8399496 3.2079504
111.77791 -16.854225 27.648224
241.11856 -12.422033 32.398392
168.808 -7.2508297 -1.27698
206.10643 -24.611147 9.4512644
138.63235 -46.598022 19.346132
149.92958 -3.4240446 27.335035
136.68015 -6.7466321 27.863665
147.87218 4.9699502 7.3246565
180.46339 3.4266567 3.20067
220.65973 9.7204399 15.039253
155.95245 -11.554174 40.008343
237.64499 10.019822 32.089897
178.31305 -5.3925171 -1.2769799
185.69672 -36.81189 42.783127
196.06677 -29.659807 4.5373845
221.22488 -42.702686 15.472843
232.33308 -38.98381 -1.029973
149.47292 -24.160412 -1.2769802
134.05434 -3.3692255 32.986698
163.27664 -29.794052 12.338207
173.85774 -23.5142 10.487223
116.43829 -11.26714 29.068419
249.07664 3.6153309 39.235023
232.88974 -41.101799 4.6488805
134.367 -35.864635 24.509426
259.49811 -9.033473 9.8999481
256.15674 0.23146749 20.451
199.62891 -46.129066 15.835709
159.43529 -15.334293 11.586199
133.41386 -45.429642 -4.213202
105.95026 8.1162977 13.572886
137.92572 -47.565498 5.8169684
155.77847 -2.6188679 -1.27698
194.88316 -36.208168 17.381861
229.88881 -43.493053 -2.0643461
214.66693 -7.141674 35.840672
222.43413 11.594618 6.7499914
139.41148 -41.101799 15.285056
154.77046 -24.345718 39.695812
125.16968 -46.316742 1.6530555
161.50824 -21.460899 8.1209869
172.85477 -48.479195 10.927762
161.53893 -16.07008 12.6426
137.85287 10.9362 2.9185691
143.54428 -18.3146 11.959934
232.4512 10.846794 16.313343
175.94501 11.047413 33.264301
256.93539 -21.097935 27.213997
149.9389 -14.26939 3.8446317
241.67076 2.502264 -0.77890462
122.5118 4.0545464 29.406998
226.25803 -48.479202 25.970215
176.87112 -4.1940374 24.107929
108.20439 -19.610374 26.054831
102.31448 -30.082512 21.40588
160.14111 -30.027617 -1.2769802
134.367 -27.470362 9.4649343
129.65833 -42.216251 17.376402
194.84259 -12.501789 -1.27698
199.82625 -45.4692 8.4989166
206.76271 -12.867798 10.774781
150.13847 -41.831589 35.707478
147.99886 7.2182274 5.3423548
232.53577 2.1418369 32.793587
133.02948 7.4682493 24.538927
185.32248 11.8499 0.17869139
253.13208 -29.716028 -0.54933202
119.81866 -2.4249899 22.268339
134.367 -3.5437794 21.179737
210.3253 -36.505383 36.662125
182.10374 -9.1632681 33.606628
242.94086 11.811192 17.965952
190.6955 -5.8035507 42.166595
132.43427 10.7345 4.7825174
231.77147 -43.816872 -3.0040836
142.54837 11.849901 21.626659
109.29469 -26.442757 -1.2273977
127.08709 -45.366673 13.508116
138.14676 -40.650917 -1.2769802
152.83418 -21.382214 10.629206
209.01334 -48.479198 9.8455954
250.72882 -22.035219 40.034637
130.25885 -26.204006 32.64772
202.80524 8.8399496 10.73619
215.66847 2.7683854 -1.2769802
180.54497 -36.699112 3.20067
139.039 -28.215616 27.655048
211.14807 -23.594051 34.160645
205.61148 -16.285187 38.473824
160.67778 11.849899 22.818607
105.31944 -6.5842505 23.273598
159.3774 9.7557726 -1.27698
187.26855 -9.5740919 3.2006698
222.18036 10.510245 33.061478
163.78734 5.2667313 38.078777
113.98983 -48.479198 0.96959388
235.50372 -41.101799 0.63237345
259.13046 -7.5730457 9.1444025
137.17 -42.878368 28.840179
228.66656 -47.443214 17.771008
256.89182 -35.240364 6.1394501
171.92371 -27.138201 7.4397278
158.21544 -5.5286546 3.20067
127.37141 -40.014782 16.934401
184.79767 -1.2454 33.660484
135.3385 -43.317657 19.471439
164.51236 -48.479198 29.532093
153.44278 -15.105844 17.508987
134.367 -19.123699 26.451937
182.32361 11.8499 20.706787
197.77089 -45.4692 8.6432953
145.94315 -41.101799 24.108919
199.43082 -41.101799 12.876248
210.59174 -43.321655 34.17207
159.6674 -2.6041996 7.8179922
134.367 -20.38168 5.2877908
140.54004 -26.674654 11.553513
256.54932 -37.937531 13.573597
119.87041 -2.4249899 22.095434
143.61676 -30.13703 13.823122
147.68884 -1.7720274 16.467924
250.54297 -49.933197 39.761848
144.60576 -16.352205 9.6713696
140.17746 10.9362 4.6376143
223.12325 10.7345 7.7782917
185.75214 -18.095264 -1.27698
260.3262 -14.758316 11.733245
149.15994 11.8499 23.492222
158.39297 -0.7518968 7.6823215
120.47037 11.8499 1.0293276
152.75859 -32.913609 13.083327
138.1795 6.23632 19.432486
183.33 6.4436064 34.853687
172.92741 -8.2070971 9.2024088
230.4846 -41.101799 8.2910147
139.95747 9.9252338 -2.9119618
116.01033 11.8499 18.131504
128.8047 8.4702892 16.834545
257.57324 -4.1133671 4.2296019
152.17465 -5.5056281 21.623308
139.31142 -11.962419 -1.27698
153.40677 6.1125345 -1.27698
186.46912 11.849899 18.075279
201.85504 -48.479198 17.399506
107.1753 -42.026375 -0.18268031
197.13524 -40.34668 27.246267
151.25685 -33.254322 -1.27698
129.661 2.250823 19.131193
240.82086 -27.03891 -0.87175405
191.02684 -45.473034 10.784525
94.392235 -15.043185 15.899937
128.37564 -45.216393 -0.62677836
242.82645 0.23988777 32.212494
205.81818 -45.903259 1.2025917
184.59901 -15.297839 11.247053
138.0518 -32.934242 5.6763115
162.33977 -15.168401 4.2866526
167.26965 -7.165803 -1.27698
198.01486 -3.4021311 34.503349
234.99785 11.7431 14.839016
126.68712 -41.599297 2.8557184
237.82193 8.9091558 1.0661442
197.53563 -7.6866446 29.935991
192.06763 9.6977005 33.264301
162.74152 -43.38813 -1.27698
249.73608 -33.226944 -0.61493886
245.15218 -4.1944308 32.181286
238.99742 -42.638641 -0.57404512
212.88014 -2.948035 23.111774
118.6806 -24.005112 29.966413
121.45515 11.849899 17.216148
202.13678 0.46720731 34.652279
232.60739 8.3892689 -1.6330776
170.61279 0.821679 11.797191
221.53073 -41.101799 13.110296
224.88211 9.2244635 18.571096
240.26241 10.643749 31.817377
148.37369 -44.648823 11.914026
115.27782 11.8499 13.967737
234.77859 10.047859 15.510025
111.38387 -35.442379 -1.1305962
215.66393 11.378894 10.465474
194.33434 -35.293919 15.555639
248.0202 -0.55184203 32.078213
191.0191 -37.944969 6.7077808
246.81348 -45.890976 5.2104468
130.8739 7.1354141 18.098543
247.88892 -2.9654331 -0.66001356
162.04054 -18.593908 18.112604
188.50354 -41.033691 40.441921
140.29971 -4.1636109 27.734457
220.92834 11.8499 27.335005
121.73523 11.8499 8.8335829
115.82032 -46.893147 22.652376
231.46829 -11.386335 33.083233
196.99449 6.8072052 33.857269
172.2932 0.21133099 11.817118
243.03535 9.462676 -0.15841913
196.83556 -33.154892 25.563284
112.98613 -5.2943821 27.017611
130.49652 4.9699502 9.0665951
218.85855 -41.101799 10.822791
166.20309 -48.479195 20.326008
152.38425 -25.681328 20.964493
183.9451 -4.1386151 27.328133
142.72067 11.516396 7.5687065
189.44543 -45.4692 5.9926224
184.74921 -2.9134383 3.20067
135.47974 4.9699497 5.4882545
139.91158 -39.102322 33.264301
191.28775 -31.97427 -1.27698
132.63565 9.3300161 31.431553
182.5063 -20.976707 12.762297
202.76224 -8.4135246 39.459389
196.55298 -8.3332596 4.4437408
126.70182 -48.479195 25.464428
184.80272 -6.7786078 31.788141
117.50716 -36.591423 18.762791
130.9304 9.663908 17.782091
179.12703 4.4904418 40.206146
123.91647 -41.918659 7.2567029
154.12439 -12.652636 3.20067
205.61894 -48.479198 14.471002
220.05627 -48.479202 32.81963
160.62857 -48.479198 31.976734
219.96898 10.589537 -1.9516422
209.12177 -5.1007195 15.532298
145.44742 -5.0949116 -1.27698
201.04933 -30.188374 -1.2769799
136.44908 -44.695965 19.298948
137.03008 -34.843056 -1.27698
239.55701 -23.199661 -0.91383135
154.62254 -29.444866 39.350018
132.03749 5.6025286 19.608257
125.07643 -41.599304 4.2140369
235.74178 11.674637 13.026693
185.45685 -15.1684 8.1880865
258.78302 -31.72163 8.0083456
147.77049 -9.0996695 3.20067
216.88263 4.4725599 4.4124746
172.81209 -19.786892 14.3593
158.56418 -21.098083 -1.27698
179.95789 8.1398048 33.264301
137.69987 -26.41255 4.8294506
233.96167 -44.741993 17.182156
180.1279 -48.479198 12.942841
142.62064 -5.4690123 3.2006702
134.367 -24.057669 18.729816
233.27357 -41.101799 4.0577579
170.51144 11.849901 17.231434
137.52055 -20.66572 7.7334304
248.29578 5.7235675 -0.53890747
156.80591 -21.460899 6.0270605
250.93756 -38.555817 -0.51472229
156.17085 -25.360834 7.5669017
193.71617 -35.66832 13.660309
228.87015 -13.769546 -1.180344
203.571 -35.377525 38.975452
144.67317 11.8499 31.219616
196.95297 -46.725979 15.154488
173.67624 -23.933172 3.2006702
197.90964 -29.241823 33.329964
126.48103 4.6103268 18.366652
150.5145 -23.298931 24.958334
252.56119 -23.417328 42.900898
129.661 -39.281368 23.741314
182.62627 -22.441772 3.20067
188.3956 -48.479195 30.453407
104.86448 2.0217342 -0.16904199
115.56255 -15.21435 29.059597
194.1077 -20.523054 14.860806
107.64797 -18.279814 -1.2010288
123.33843 -34.2043 22.571571
140.48587 7.8926625 17.253479
142.39569 -39.474808 33.264301
257.46887 -35.284241 10.140846
169.66219 -43.308506 34.208008
144.3179 -15.016844 9.6713696
141.70448 -15.737244 12.642599
235.40176 11.8499 17.442566
108.16882 -0.090839803 18.862267
168.42384 -23.850758 8.3101892
177.20575 -32.676006 11.331387
155.33902 11.849901 3.576694
239.0275 -44.483032 4.3348117
180.66913 -48.198879 8.5579348
216.67439 -47.771439 1.4153705
201.80879 2.4732492 34.660252
216.08727 -17.072601 29.579617
137.17 -41.415604 26.618689
99.624962 -14.332413 21.109379
147.62289 -21.544868 3.20067
171.01816 -48.479198 6.1600642
138.57794 8.4112253 -3.2222953
215.99567 -46.326637 7.1157026
138.70447 11.479061 9.969841
112.48116 -2.6905735 26.382566
232.53891 8.1566629 -2.667815
146.38403 -24.861889 3.2006702
158.87518 2.6371949 39.671249
134.367 -22.392672 10.308138
189.15839 -38.886246 41.941345
255.64749 13.3039 42.203152
246.19432 -33.453793 32.134296
195.60938 -8.79702 3.20067
228.78018 11.494039 12.072855
206.34454 -2.7319481 -1.27698
183.98154 -9.4505701 -1.27698
143.69948 -12.894095 6.9763908
141.00357 -25.670015 11.895449
121.91321 -28.631485 -1.27698
213.21672 -0.31556863 35.855736
219.83783 -48.009178 17.490337
140.81302 10.734499 5.7975101
222.02281 10.3321 7.0812416
124.30521 -10.626206 -1.27698
159.77881 -1.66745 4.8189297
189.82495 -47.997654 1.8547978
119.79707 11.040311 -0.95179445
235.96974 -35.326488 32.601742
172.61073 -48.479198 21.501377
223.72403 11.3397 13.144573
137.08571 8.7843704 -2.6023304
195.18738 -11.033416 18.42395
184.05756 0.19632635 23.98111
186.84622 -18.3146 6.9846764
126.42728 -44.538853 1.0005742
252.09969 -33.160835 41.570183
259.37241 -7.7377477 13.439241
155.64305 -26.383015 -1.27698
133.22755 -35.715748 20.060528
216.21262 -44.670189 9.0936308
115.20682 -48.479198 1.3459802
134.62807 -41.101799 6.8917813
173.84732 -30.707573 3.2006702
132.41696 5.8931799 16.389585
215.57219 -27.463383 33.711212
194.51178 -41.08799 12.89642
110.64285 11.256152 4.5643044
252.02167 -25.446732 32.056206
195.72487 -30.9506 3.20067
201.85014 -41.085503 24.237305
234.79358 -47.031296 32.157246
212.37605 1.4661739 35.944492
157.4395 11.849901 8.5597038
170.37083 -48.479202 2.6257415
139.62018 -37.481194 3.2006702
110.24479 -34.323296 23.53484
156.67653 -21.460899 9.543334
233.19208 -47.092155 32.217861
161.28308 -37.9361 9.1734114
231.38783 -39.231136 -1.0531102
98.187302 -8.9778633 18.844887
145.80598 -19.485289 13.406584
231.73244 6.8346939 -1.2842894
187.37093 -20.759415 3.2006698
195.92616 -32.414223 21.262596
174.05954 -32.998299 10.718332
242.83611 -30.842453 32.287292
137.80084 -9.9539661 5.072413
95.096428 -29.154205 12.421125
171.84035 -15.592934 13.747197
158.72336 -17.553951 9.6713696
194.18591 -40.318275 15.100513
136.04909 -5.9049916 27.4154
130.11684 7.1009197 -2.0651195
127.01388 9.006773 13.412714
197.94185 2.7376294 33.689285
173.53471 -32.710747 42.918259
246.73065 -18.735138 39.193832
144.52466 -13.232847 11.326009
174.76703 -18.75025 3.20067
148.2247 -43.943485 7.05762
169.35559 -20.297749 12.642599
208.55658 4.4821048 28.006372
224.87817 -43.887657 33.182671
144.01149 11.8499 29.041031
140.71371 -10.442478 27.415398
143.35648 7.0842314 33.264301
142.16748 9.368639 17.400475
182.95068 -29.822578 3.20067
182.10931 -20.347498 12.642599
228.2962 5.8931799 -2.7607293
200.34312 4.4725599 14.964181
257.05856 -17.217411 26.654207
130.63882 -0.6762948 22.433098
259.66763 -9.2816296 11.761672
182.43585 -37.325802 19.699076
105.23367 -2.0960202 22.1803
136.76355 -41.101799 23.596558
145.67546 10.754817 -0.80043244
213.99796 4.8529496 6.6144643
144.61139 8.1720562 -2.0684562
243.29768 -48.133549 19.11569
129.661 -39.093487 24.135132
185.78574 -21.460899 6.8457618
185.22748 -27.238701 34.389549
147.79486 8.5712051 10.4249
134.41206 -24.3617 17.695732
171.29343 -48.479198 24.014832
180.93414 -29.061419 3.20067
149.12746 -48.479202 27.375914
224.70985 -47.565498 8.4220972
133.62044 -39.325966 15.535828
180.84274 7.2419958 33.264305
170.09665 -3.955585 42.622299
199.24292 -14.149764 40.412556
210.41875 4.2710204 35.405369
213.5195 -17.192081 -1.27698
210.48535 -16.252028 36.93935
145.31598 4.9699502 1.5547047
137.83258 -47.380424 7.3879395
248.74149 -33.898342 40.121506
228.14586 -47.565498 12.062917
255.57513 -8.5954094 28.492514
233.03085 -48.372398 -1.5976162
151.32503 -39.124733 18.689045
200.24249 4.4880781 27.398296
249.5087 -20.587816 40.527893
241.78896 11.849899 5.9775496
189.30782 11.8499 26.029343
250.83755 -42.250034 27.249542
124.16075 9.6104107 8.8744612
249.02167 -1.8041153 40.26474
138.32434 -41.101799 22.556953
193.01044 0.67637998 3.2006698
198.58661 -41.098984 33.631065
166.33711 -11.873 6.2827425
186.01836 4.710052 39.604317
117.40871 -48.479198 17.423735
163.20694 -21.460899 8.3898401
143.46208 -44.441536 -0.97731507
173.12964 -11.342018 17.249973
146.56729 -46.342674 6.6436152
179.1006 -8.8529997 3.20067
144.52322 -48.479202 31.798124
157.20595 -33.400776 7.7375941
243.53667 -20.438385 -0.81067419
202.13475 -43.266964 34.321922
211.11142 2.0745678 19.544804
177.97876 -26.424578 24.669853
135.42905 2.4220331 15.959696
103.18596 -39.512756 15.677681
249.73349 -49.933197 41.337376
189.62698 11.8499 23.806694
256.69937 13.3039 45.294724
247.40941 -36.228504 32.086643
225.60576 -48.074024 8.9695377
132.6582 -22.092888 -1.2769799
218.10483 -35.322189 -1.27698
146.03702 -47.106091 15.226838
103.58591 -28.948269 22.434027
224.68839 -47.565498 5.3018346
165.03622 11.8499 7.8791142
249.49016 13.3039 40.54776
162.94751 -7.77707 8.6444359
121.84018 11.8499 18.034695
147.49141 11.8499 29.099337
175.05461 -35.713375 -1.27698
167.42339 -5.0015302 9.7832527
203.54015 -13.194958 -1.2769802
232.72505 -34.653778 32.861717
216.51262 -16.573261 35.374435
137.16212 8.9898863 32.607075
132.70604 -43.472427 29.70639
224.51382 3.2209554 -1.2179103
164.71292 -20.26552 9.6713696
205.80222 4.4725599 17.512821
184.07993 -10.997707 42.880177
130.26505 -41.026329 31.757175
166.57376 -10.912545 8.1367416
231.65982 -44.077328 18.643299
146.87354 -6.2391958 26.341547
143.08749 4.9699507 8.5316858
180.30679 -11.362417 43.05814
218.74414 11.630259 2.365432
181.58557 -23.678802 -1.27698
255.56207 -36.587982 2.9630527
145.5629 9.823657 13.259809
144.0379 -27.212341 14.133789
237.98039 -42.884171 5.2021761
147.3289 -33.822277 3.20067
235.44852 6.598958 16.229073
240.74078 -4.6361928 -0.85500902
133.22791 -48.479202 25.058643
96.362671 -10.462799 2.0315571
160.00983 -35.521492 40.614716
233.54132 -44.933029 17.419258
230.17465 -44.141174 19.051807
144.65503 -45.101444 1.4469528
187.75301 -21.629606 3.2006702
119.35268 -8.130147 29.854187
134.28749 -39.514664 15.682944
242.4352 -25.973454 32.32373
157.99222 11.8499 23.872555
97.6437 -13.169156 19.584494
173.46455 -34.612682 -1.27698
136.9278 10.936199 9.1533909
141.18616 -20.393785 3.2006698
189.7942 5.4653511 -1.27698
102.42485 -41.420532 4.0379052
195.30908 -3.6671779 3.2006698
234.89894 -25.782764 32.792351
158.68216 -15.693264 -1.27698
131.34151 -0.59692329 22.655895
205.3304 -41.101799 16.326704
103.35401 4.746469 1.5931616
156.31239 -5.0015302 13.010162
196.47307 4.4906149 16.878233
141.98315 -21.158508 11.436301
136.38464 -44.693275 -3.4225373
173.52377 -16.983526 9.6713696
244.33432 8.741478 30.047239
134.19221 -40.165535 17.109196
251.08191 -48.839996 41.574364
238.69312 11.081254 7.0531654
230.90668 -21.229908 33.14164
180.02963 -15.770494 3.20067
127.53338 10.628422 15.127173
165.14449 -35.012577 41.857384
127.36287 7.8549004 15.536931
92.89463 -13.903368 10.437736
140.98138 -47.908043 -3.3314037
149.4269 -22.209497 15.996328
182.2805 -35.920444 -1.27698
134.55783 -39.998348 19.89682
201.24965 -34.890366 3.5391424
146.86575 -48.219139 12.668229
145.96687 -10.818159 26.531538
174.77676 11.205938 -1.2562656
186.84477 -13.504892 42.620373
128.44604 6.0244236 0.56178921
139.11653 10.9362 5.0669203
142.74391 -38.455395 3.2006698
134.64938 -35.329185 3.2006702
106.37101 0.12580809 22.253313
122.4666 -20.392008 -1.27698
165.41495 0.77754086 41.822365
169.1911 -10.835379 42.60656
160.01468 -23.845341 -1.27698
149.09731 -46.558262 4.885869
237.45398 6.3768373 11.247944
176.33635 -32.477169 43.046112
140.55112 -48.479202 28.050407
126.16821 -45.793461 2.8774257
164.05482 -48.479202 8.8429623
199.99319 -37.55587 3.20067
255.00993 -28.798605 29.254345
148.73724 -12.2676 21.299595
196.22246 -22.066534 4.5074
141.83177 -31.799837 -1.27698
248.82919 -44.113426 24.453457
134.367 -28.813391 22.370771
116.17404 -3.7029881 28.174717
140.48201 -32.623791 33.290554
155.4465 -22.392321 22.083767
189.36534 -17.561554 4.2744913
152.15466 -18.3146 3.4580612
126.4204 6.0021925 -0.61985892
206.82945 -45.4692 4.6313553
207.43793 -29.360308 12.136519
148.89734 11.716808 6.5868397
164.44368 -25.865246 -1.27698
182.93094 -1.2454 35.389523
252.66315 -2.0445969 -0.3111977
220.69559 5.3871069 18.034822
137.37088 -17.575153 -1.27698
215.81612 1.8412559 29.032793
194.02448 -35.771618 41.554737
146.66446 -40.815582 34.451176
201.28751 -46.668236 1.4739388
218.86742 -34.515999 -1.27698
235.97423 -3.13006 -0.96862763
159.14064 -0.93332905 7.7442417
217.85568 -21.394104 33.145958
209.75693 9.8971634 9.4869785
175.37775 -11.080183 20.281485
152.62619 -9.8811092 9.4456196
178.06276 -24.1245 12.192701
140.67877 -48.033073 7.4137449
184.11688 -36.411106 42.904411
164.25021 -5.802887 3.20067
101.58006 -2.0761428 -0.025714718
182.87546 -35.582764 21.295307
197.88695 -36.63409 33.076935
234.12526 -23.678587 32.866859
137.78055 11.8499 30.198433
147.90413 -22.747744 9.6713696
220.22437 4.4725599 2.4604802
165.38269 -48.479198 26.215145
226.98141 -41.101799 3.5670323
107.39523 -18.92985 25.678137
209.47348 8.8399496 6.2379203
190.46387 -44.983047 33.264301
137.40826 -22.278849 5.3422132
208.62997 -25.004192 14.540515
215.77681 3.1289315 34.57814
138.21552 -13.335135 14.290503
165.64203 -35.167019 41.936245
132.00636 -38.481186 16.83972
137.75542 6.4979649 18.67701
256.30206 -36.593376 5.7423058
172.38188 -18.097118 9.6713696
148.94142 -17.287743 9.6713696
230.51318 -16.57617 -1.1341127
197.6048 8.8399496 8.0566082
208.02402 -13.777016 13.318461
210.91718 -10.872626 19.153114
236.62759 7.3740997 11.206657
201.22289 4.4780121 17.52359
212.63676 -22.748152 22.620983
157.06892 -3.5234432 7.7287164
214.01961 11.8499 13.111672
118.18959 -32.563972 29.012016
143.00951 -39.568382 -1.27698
152.03262 2.3814855 20.209103
120.2723 11.849901 -0.42582616
107.52924 -46.340405 11.905682
134.367 -14.747705 4.8161368
170.595 6.8237462 33.811935
144.40509 -47.797115 -1.23611
179.89381 -1.7036645 15.08051
193.72444 -33.84185 13.6856
130.89896 5.9728813 16.243484
156.44067 -31.164066 13.303503
180.20299 -12.9899 15.488405
136.22226 10.948517 18.74754
169.16412 -12.772095 13.438571
152.54836 -26.741405 10.607286
101.96568 -23.46081 22.395126
140.4863 -12.2676 26.584028
203.44009 -36.596546 -1.27698
194.13554 1.574465 -1.27698
249.10522 -42.886745 28.665142
254.63513 -33.253601 28.146313
136.98764 -48.372398 3.1757607
224.10872 -48.233158 10.74088
251.37531 -43.642914 10.015239
168.36151 -6.6119614 3.2006702
170.97784 5.9176974 36.294895
213.28865 -19.377064 33.960903
123.96011 -20.18602 31.602467
179.23047 -9.0606709 -1.27698
185.36545 -25.5812 36.493385
206.31325 -19.284864 34.495384
109.12301 -13.505003 -1.2769799
243.56468 -47.219959 24.636135
138.99329 11.617383 4.2520552
185.51143 -21.411694 10.270355
127.31576 8.9855051 12.416607
141.04941 -48.479198 29.320793
95.109863 -12.594423 16.271156
218.73528 6.0914874 13.046123
115.27628 -44.042725 23.954403
216.68427 -43.329811 0.57268089
236.06769 -40.397324 -0.81384838
218.29645 -41.173805 16.511911
125.21255 -47.609375 7.4666967
217.15157 -40.811222 31.726006
201.37915 4.4836373 29.99827
162.17247 -17.023935 11.5862
258.94186 -31.710108 9.051095
168.75888 11.8499 10.239761
204.62813 8.8399496 2.3803349
170.76245 -7.3100963 -1.2769799
121.54041 -48.479198 7.5142107
246.23526 -9.247015 32.168644
129.20053 2.1600726 -1.2769802
171.31433 -12.9899 12.585425
178.07874 0.21133101 18.390415
220.73743 -47.171436 33.221016
216.33228 10.170117 4.5573525
214.12779 -4.8262105 33.872932
132.66849 4.9699502 2.3681316
179.35004 -45.680981 -1.2529116
248.50543 8.4332085 19.3783
214.16505 -39.262531 25.703066
150.19662 -5.9364452 24.207012
180.37132 -26.028898 29.110954
170.04337 -39.578339 -1.27698
123.05507 11.8499 12.15947
218.37994 -47.705681 -0.63238239
142.00778 11.8499 32.688473
215.66219 -41.101799 30.756851
168.72501 -5.5662293 8.2650957
224.93117 11.8499 25.310953
252.51512 -19.014084 32.053581
199.84709 -48.479198 19.286718
147.18257 -46.355202 5.59583
215.24002 -5.9869056 27.870974
161.41635 5.9252143 36.274292
256.77356 -1.4787027 20.512241
185.66733 -17.267357 -1.27698
218.83438 -36.646164 34.528076
99.746658 -35.750565 2.4985292
258.93814 -10.235815 20.546375
128.99988 -8.3868608 -1.27698
155.1591 -21.460899 7.560287
149.97873 0.6233412 -1.27698
231.30338 9.0052118 -2.3544643
157.55737 3.6830151 -1.27698
208.46956 -41.101799 18.391636
232.24362 -36.404499 32.868679
140.77264 -27.839552 3.20067
232.25665 -2.4947329 32.90966
131.46269 -5.1401539 -1.27698
134.367 -29.19598 4.9797049
162.53587 11.849899 9.9784813
135.11177 10.3321 11.13154
157.37836 11.8499 28.729439
214.26099 4.4755449 32.338387
241.66986 -45.869308 32.051006
185.30624 -2.6088505 42.815731
132.33551 -35.12339 20.71072
168.62317 11.849899 12.799385
182.72556 -4.0872045 3.20067
139.80045 -22.71673 3.2006702
136.35928 -8.3637905 3.20067
238.34775 -5.2207613 -0.92080253
141.42917 11.849901 32.163712
197.22733 8.9331169 -1.2398006
181.92273 2.01349 42.74168
136.53773 -10.702471 27.760719
205.40659 -15.307357 8.0398951
256.255 -27.697794 27.345509
198.30397 -5.6218796 34.69421
139.30101 -41.599297 11.220833
171.41083 -26.979784 12.339811
124.17822 7.7234373 27.06094
167.3143 -8.9101839 42.36274
140.18289 -5.8461394 -1.2769799
159.28296 -48.479202 22.123699
136.19931 -12.267601 25.191296
130.24359 6.9143143 26.588259
166.74625 -1.66745 7.0240645
133.52986 -41.983521 26.858067
127.48005 -20.671108 -1.27698
173.53807 -2.1662066 18.048138
151.0614 11.8499 19.880304
166.81781 -18.186371 3.20067
196.73047 -38.433346 4.4095545
127.14833 -42.522495 1.2174052
162.78993 -36.2089 8.0538874
220.18137 11.8499 19.521311
209.06276 -19.610668 37.339516
217.24545 -34.052246 -1.2769799
139.72762 -48.372398 -3.1754339
169.73439 -32.448013 8.3117495
215.2464 -46.872139 6.8366642
201.64471 -48.479198 19.659733
151.48906 -30.896706 -1.2769799
134.34109 -46.876923 17.713928
100.8913 -37.788586 2.3128719
156.76665 -13.055247 13.534196
210.58131 1.9604715 18.475777
187.7446 -42.042862 37.67646
134.367 -5.0351944 17.276739
217.09677 -27.124968 31.615469
147.45718 -15.181077 3.20067
114.15347 -48.479198 16.505619
232.09415 -44.94558 -1.0067773
125.65139 -41.789028 19.201202
134.367 -8.9784126 10.453824
170.03078 -4.9802198 12.115221
138.25858 -30.940952 6.1738663
182.98154 -34.954601 36.628803
179.41177 -28.979916 3.20067
208.54324 -9.6642447 14.365568
121.19484 -41.77877 28.019392
215.15964 11.7431 9.3213453
214.37555 4.0991001 26.127594
240.442 -17.061163 -0.88596171
187.10568 -45.712646 7.2215266
135.70172 7.2781062 22.376656
204.52104 -26.709169 -1.27698
124.17036 10.404614 5.2556839
117.06758 -28.418915 29.048817
133.93393 7.2714682 25.771387
164.32097 -35.779778 41.67662
140.95319 -26.638256 -1.27698
194.86023 11.8499 -0.056280673
133.39427 7.1767421 21.093731
177.38519 -12.989901 11.868259
217.71693 -22.693731 35.141052
244.39798 -46.037582 0.77995068
213.24759 9.6933556 -1.2280514
259.61459 -21.837112 19.789396
116.19608 -39.943832 -1.27698
232.02255 -48.479195 25.01026
226.50238 11.7431 16.160358
167.15884 -5.1571546 -1.27698
203.98711 -1.989042 -1.27698
140.3318 11.3397 12.636744
97.565758 -8.4007864 0.5634172
258.12207 -27.305801 3.0412707
170.97096 -15.1684 8.1162214
170.6805 -17.522707 3.20067
248.92465 8.4987059 14.08691
121.14111 -6.7242517 30.291649
150.49686 11.8499 14.511709
200.12439 8.8399496 2.7714515
155.94318 -21.393431 -1.2769802
114.41519 -0.27773297 25.038095
154.90652 -22.190567 23.251965
115.64946 10.680292 22.124725
186.45901 11.8499 27.355118
115.21313 -35.088997 27.448414
197.6098 4.4916935 19.221085
171.88776 -19.483625 42.894867
244.00214 -1.3592151 -0.74946684
178.59178 -22.514893 3.20067
202.01593 2.5095036 38.762459
142.83098 2.0671802 -1.2769799
232.90526 -48.331394 6.9924049
134.96895 -25.93824 -1.2769799
134.367 -10.033652 23.782097
143.18863 -0.017500162 13.507305
213.94223 -39.977123 25.253696
148.91096 -0.96366072 27.969753
143.54907 -15.885949 12.6426
140.85123 8.4417868 33.257721
197.86984 -15.476797 32.886223
200.50514 -12.116171 40.079208
147.37099 -48.372398 3.1411941
156.7607 4.0548563 -1.27698
234.5527 -26.949696 32.811573
232.09447 6.9517393 15.566937
167.09079 -26.173777 12.184443
194.57799 -18.640026 41.393066
150.82904 -4.5850754 -1.27698
148.55423 10.021525 33.264301
101.96037 2.7749958 1.9787419
148.20258 -21.601158 14.359299
136.62393 -6.7663336 33.264301
213.98351 5.3925343 6.7283173
198.43588 4.4725599 7.3754435
157.89468 -19.800444 9.6713696
227.40479 -11.351212 -1.2127815
224.10869 8.2231817 33.143745
131.85774 9.6694193 31.104593
254.86214 -18.388226 30.430925
178.62877 7.4665003 -1.27698
251.92458 -18.3146 42.272259
221.56403 -47.634914 8.9324322
244.64667 -31.373356 -0.75803924
109.66781 -37.651016 24.009895
251.46298 -39.335938 29.837503
209.86545 4.4725599 19.889227
143.01247 -48.479198 19.331089
234.41245 4.4725599 5.6302223
174.53143 -48.479198 18.01372
184.21916 -24.1245 27.109287
178.90678 -18.540684 9.6713696
177.7791 11.8499 -1.0514505
155.58968 -20.626162 12.6426
159.81915 -48.479198 9.3925304
201.73691 -45.4692 6.0653234
172.29063 -24.936512 10.194989
211.06757 -38.652348 19.456388
137.4296 4.4725599 13.058912
244.48769 -46.656925 24.700741
119.34279 2.0332022 16.559875
216.92807 8.0423832 3.0794547
138.14795 -6.505847 5.9076176
144.90085 4.4725599 24.727547
208.98631 -41.09293 27.565577
213.63821 11.8499 5.3070664
108.39772 -45.89043 3.1702232
234.65311 11.55127 0.11500289
196.10136 -26.569225 22.039865
123.95215 -39.139069 30.170147
205.86134 -3.3834455 38.27747
153.69362 -31.54092 -1.2769802
144.01379 -26.994236 26.940804
206.49985 -17.907581 38.129379
165.44638 -30.457329 42.012547
158.70639 11.8499 14.526367
116.82901 -44.331112 25.244907
180.50702 -25.724319 29.177284
145.74445 11.07226 1.5371764
184.73589 -11.29178 30.402901
128.17661 6.089232 30.890991
249.18678 7.6882582 22.090824
180.75946 -37.874062 43.062782
234.57025 -26.382423 -1.0303801
129.04721 -48.479202 27.805595
139.12262 -20.912025 9.6713696
216.12543 -44.687271 33.264301
125.55034 -46.09798 2.4409292
115.30624 -1.5225601 24.133585
109.71895 6.1828418 -0.36868197
237.93118 -44.779354 9.7320919
243.9339 11.072602 19.814245
213.42195 -41.097832 31.874817
197.5909 8.8399496 9.903182
258.2995 -33.32703 13.282935
214.67464 -44.770538 6.6802149
258.1452 -32.149223 20.208794
134.367 -21.61438 11.080523
154.3455 -2.0798674 -1.2769802
137.90953 -45.083473 -4.7641673
241.97566 -8.837656 -0.84104693
106.30326 -45.094101 6.1471877
110.8662 -32.330746 -1.2068193
221.50389 -36.228569 -1.2769799
145.41714 8.3370132 12.013393
124.96124 -27.909853 -1.27698
117.5855 -27.689653 -1.2769799
148.96204 11.8499 32.823692
180.81808 -21.42025 10.166204
130.22456 9.2184839 -2.1477952
123.72514 -41.06823 26.960258
217.48604 -16.930208 32.400513
248.00525 -12.728498 32.12899
172.09402 11.663553 -1.2582331
104.64665 -6.2431221 22.796812
198.02846 -0.43020391 34.655155
97.356995 -12.543642 0.049142595
151.49139 2.1023564 19.046501
179.95274 0.21133099 20.305706
132.78909 -47.969002 0.98556352
151.45804 -4.3283281 24.081327
138.6861 -43.319847 19.222931
228.21899 -45.792446 17.829941
185.51575 -20.113171 11.5862
211.05794 -28.422649 19.436974
241.27347 8.090126 32.078354
144.90468 6.1001606 15.536852
250.37881 7.6175208 15.441601
212.88591 5.5592237 34.470894
99.004547 -28.932314 19.327696
181.45557 -48.479195 27.607819
221.86768 5.8931799 16.546721
211.04848 -5.1437993 34.168774
231.35725 -22.648823 -1.1183351
143.24414 -12.851366 5.9569178
213.87834 -43.564137 7.5571809
252.27121 -9.2839575 42.607063
165.49217 11.8499 25.108665
214.4735 -28.584049 26.325119
92.575394 -17.675554 8.9740849
213.09335 -4.8839321 -1.27698
102.89326 -9.7111053 -0.48855335
207.44553 -42.940422 35.216705
164.28656 -4.2066951 3.20067
157.09987 -18.738834 11.586201
259.16342 -6.5293803 9.9569397
212.56229 -7.6240096 -1.27698
196.88179 1.400306 25.806387
117.39083 -3.3188741 28.631481
192.06218 -12.333502 9.2060013
117.29059 11.8499 7.0293679
196.70627 -2.9170983 24.883146
216.03146 -47.424171 0.087352037
157.64006 4.4131479 -1.27698
174.1429 -18.414106 12.6426
137.25757 -30.992859 33.264301
243.6658 -8.6256437 32.257561
180.33859 11.849901 17.05386
250.78209 -37.886753 31.834606
217.01135 -43.814644 1.1510075
187.01619 -32.123516 -1.27698
227.39021 10.220528 19.583096
149.01347 -22.045723 12.273098
120.64908 -0.21240202 29.418266
138.03024 -13.121158 13.525585
158.17484 -33.71505 13.021379
150.75366 9.7730751 -1.27698
224.87975 -41.101799 11.835999
238.56844 -48.479198 30.057951
238.40051 -24.219536 -0.94067812
256.17221 -38.284283 16.985806
147.79881 -38.988293 3.20067
148.77776 11.8499 18.189854
134.78412 -35.95393 22.43576
214.21388 10.812576 4.9128122
154.49869 -21.208954 24.013969
148.88423 -15.654637 12.6426
154.28954 -22.541948 -1.27698
160.61385 -27.932629 41.117535
184.59544 -32.576675 30.725327
227.58391 -45.473404 19.546141
213.97086 1.0554862 -1.27698
238.90265 -41.942997 3.3492393
133.16045 -39.60453 15.930975
147.9044 -0.65051997 16.578251
113.31389 0.097314298 -1.2769802
218.56642 -41.101799 2.7283173
142.62698 -6.0323424 27.231413
237.51154 -48.372398 6.6125307
134.367 -15.212607 16.540911
126.14969 -47.086754 8.6153421
193.0705 -36.055084 41.742069
141.53087 1.2575631 29.844868
195.00227 -31.570297 41.391914
155.27415 -29.258066 -1.27698
147.36479 8.2656984 3.0971479
131.80246 11.3397 3.9136033
176.99109 -32.893112 43.065338
227.90622 -41.101799 7.0307178
143.33023 -32.058205 13.611773
146.96417 -45.479683 2.1298556
215.57385 -19.924301 -1.27698
211.17693 -10.933717 -1.27698
156.24707 -4.2146287 13.376948
151.29959 -48.479195 4.8315048
200.65695 -3.8267894 3.6533003
247.97096 -20.220621 39.077774
214.48108 -1.594389 26.340418
150.89406 -24.526339 3.2006702
212.92908 -15.2716 -1.27698
128.68748 4.7606707 27.46899
136.25641 -38.482609 25.715679
215.43307 -46.88332 4.3275466
182.57776 11.8499 11.201474
162.37167 -22.6236 41.686977
163.56758 -48.479198 8.1878099
196.39832 -24.339231 3.2006702
171.12096 -2.8023901 6.6954637
197.41431 -22.323927 40.843151
204.64764 -13.458399 34.573067
229.28563 -26.498888 33.268059
205.34799 -33.081329 38.4618
235.73834 7.6830492 11.237833
110.4826 -27.723211 -1.27698
174.70099 -42.851665 -1.2769799
252.80466 -35.239689 30.160107
205.65356 -41.090153 24.924175
134.82812 -48.372398 3.1695437
142.61176 -39.997364 -1.27698
251.37125 -17.642782 40.587368
177.5271 -30.30514 43.084583
174.29211 -36.083618 10.266335
194.87982 -40.187679 40.205654
144.45715 4.4725599 19.452068
171.86951 -13.6003 8.9605408
105.1619 -5.8351502 -0.61067396
146.04106 9.7103376 10.507011
184.4465 -39.022861 42.412048
206.32738 -16.40789 9.8968582
148.19046 9.2415876 6.797596
181.5954 -5.8500381 3.2006698
126.77115 -2.4249899 21.916639
260.11823 -17.260611 14.400099
198.05972 8.8399496 7.5315475
140.68495 -8.343977 3.2006702
134.367 -19.224222 15.169233
177.71313 10.444868 33.264301
184.01007 5.5956192 37.177525
110.85356 -46.989967 0.53890717
160.46172 -18.314602 9.351902
94.165878 -14.123768 4.5248041
155.06255 -29.467739 7.6533194
140.27391 -46.355202 16.487556
114.51807 -6.6786661 27.882355
169.29071 -27.687729 -1.27698
135.42105 -12.844114 3.20067
168.82384 -7.77707 10.10425
241.98404 10.345353 0.11407304
149.56012 -48.479202 4.8169956
115.1857 -33.562637 27.687111
144.8622 -18.670734 14.359301
144.89639 -45.129368 -1.6887535
142.65985 4.4725599 13.487219
198.81738 -22.266079 3.2006702
139.28297 11.8499 21.410141
154.39368 -18.314602 20.078823
193.65665 -45.656143 33.264301
162.32376 -13.6003 8.7729855
151.77989 -18.3146 18.850788
134.367 -21.931026 15.631366
158.08109 -48.479202 22.273163
231.83768 -46.124264 17.537096
251.93143 -6.7443638 32.05307
117.53966 -2.2090878 23.608904
93.606857 -24.669037 10.355405
187.00203 -48.479202 30.317142
152.24033 -20.44101 39.10841
236.1714 4.4725599 12.491807
130.59 -27.700129 -1.27698
134.367 -28.99258 5.8653083
217.06561 -4.828764 -1.27698
231.00119 -39.266186 -1.0630778
136.94708 -21.708279 3.2006698
231.83028 -14.332405 33.063984
111.44914 1.6780537 16.970907
187.24203 -45.4692 3.2384326
137.83098 -12.2676 10.422031
132.84517 -47.969002 7.1513729
124.39853 -21.243143 -1.27698
174.92976 -37.325802 11.513159
106.97997 -35.887352 -0.58887351
135.87778 4.4725599 18.080269
167.84007 -35.073898 7.5521755
124.12611 11.849899 2.7054181
118.47485 2.7402477 25.943899
149.38219 -14.749605 12.467299
101.81537 -14.699705 -0.51274556
219.57259 -48.479202 25.490885
190.88678 -30.189249 6.401597
139.64964 5.8931799 -3.6236279
213.00435 -43.449677 -1.2282299
189.79996 -37.598141 -1.27698
149.00569 -22.089085 26.437357
210.7536 -10.148351 18.82324
124.96133 8.3731833 7.3972116
135.42035 -41.5993 5.1758585
200.77312 9.405983 -1.2372003
148.0791 -42.764305 10.477314
258.35849 -29.765678 5.2300949
145.33026 4.9699502 10.780988
140.44418 -8.3889551 30.748013
164.73929 -13.6003 12.441464
97.619148 -25.990898 18.70826
144.01086 -18.3146 4.3790641
123.90689 3.5203195 17.090765
207.15732 -33.788528 -1.2769802
190.69781 -48.479198 26.660381
194.64777 10.655152 -1.2416924
181.66599 -31.419636 19.854176
194.98001 -41.824463 -1.2769799
163.86093 4.4325404 -1.27698
126.15192 -34.821453 23.915546
169.23779 11.849901 9.9216976
139.20978 -0.19500214 30.294905
97.308792 -28.023647 17.740784
183.20798 -21.460899 7.5945473
147.52359 -48.372398 7.692409
203.74466 10.933684 1.3267765
134.367 -27.389355 3.7393255
255.35519 1.851772 4.9341536
229.87711 4.4725599 9.5934906
140.20566 -20.292044 12.6426
150.39407 5.7732167 35.631916
256.53091 -10.425327 27.256966
109.5623 6.2445178 20.027058
197.88281 -48.479198 28.336927
122.18289 1.6836723 16.967089
104.72836 7.6551895 10.838384
200.10912 -41.090065 18.218876
159.99306 -23.263893 3.20067
118.31856 2.6595378 25.923134
155.21138 -14.812965 18.719646
121.42137 -36.596737 -1.27698
178.26511 -41.773884 -1.27698
138.64526 -12.419813 6.1746674
170.48029 -23.5142 10.055404
178.62469 -37.325802 21.831318
141.83295 -41.5993 10.307884
185.67114 9.6659527 8.1270256
167.30988 -48.479198 29.953028
126.02661 7.823349 6.8803387
141.00894 -37.057011 3.20067
165.71829 -45.880562 33.264301
128.38338 -46.342808 13.916955
177.33394 -21.149124 9.6713696
158.9836 -18.314602 5.3569884
145.03271 7.840127 15.485254
150.35345 -15.405565 16.171818
195.91545 -26.36219 -1.2769799
259.51068 -26.13517 17.851269
124.41782 -41.5993 5.0970087
195.52237 8.8399496 4.4709139
162.35266 -48.479198 24.984329
135.38466 -41.101799 18.736095
228.27618 -13.538601 -1.1948302
192.61534 1.9822369 10.601286
129.43793 -45.572056 15.122021
140.51382 -12.595148 7.5622015
181.20065 -40.871582 -1.2769799
204.86713 -11.629297 -1.2769799
197.84422 4.4725599 6.6881227
197.93475 -23.681433 33.609985
145.68095 6.4980149 1.4544483
185.92094 -48.479198 24.676441
103.81214 -16.352818 23.732964
182.27461 -28.851334 35.64706
223.20526 -42.946716 33.264301
151.78999 -18.679222 26.138302
216.12634 -43.386803 13.834119
234.58327 4.4725599 2.7017703
214.98897 -10.704961 27.364666
164.33521 11.849901 0.17818311
206.1391 -36.509026 -1.27698
136.23398 -45.401978 19.642277
134.367 -4.8484344 20.178722
224.86743 -48.169968 18.569164
171.82793 -28.54093 15.951879
146.5757 -12.2676 24.943604
134.367 -35.204247 6.6971569
155.36322 1.3641665 3.20067
144.59302 -15.37557 11.586199
200.97754 4.4866829 20.259279
219.73965 -27.406639 34.666092
206.25247 -14.949492 9.7457943
152.77963 11.8499 6.2519059
134.69487 3.6471055 26.163416
241.03549 5.7338257 -0.56770867
190.46504 8.7566328 -1.24476
147.92455 -46.555222 9.7825146
203.33131 -7.8682261 3.8546982
219.30389 4.4725599 12.904018
158.54201 8.8653564 33.264301
184.05701 -29.515697 34.281803
186.74785 -16.598438 11.198868
226.99309 4.4725599 4.9591689
193.32227 -6.7892532 12.542679
199.51974 4.4865041 18.396534
173.86629 -0.25301608 11.976417
128.98047 4.9699497 4.8928151
