# .PCD v0.7 - Point Cloud Data file format
VERSION 0.7
FIELDS x y z
SIZE 4 4 4
TYPE F F F
COUNT 1 1 1
WIDTH 1620
HEIGHT 1
VIEWPOINT 0 0 0 1 0 0 0
POINTS 1620
DATA ascii
12.668023 73.662468 30.589397
62.792011 5.901165 37.709225
46.897774 73.887558 29.782236
114.80476 60.947525 9.8972864
140.09145 63.9002 16.818392
76.329208 64.96199 8.798666
47.979553 23.356071 7.9891815
42.7043 52.127739 38.604019
179.66565 61.647293 14.767374
77.676819 10.142262 49.34819
4.4524918 60.622002 26.97444
144.45445 59.74823 10.743851
150.01547 25.605095 51.171928
71.409752 12.131969 51.749702
141.97134 63.9002 13.506713
185.91702 72.574471 29.125319
159.60533 69.155869 19.001392
31.633587 73.900192 11.043408
38.723969 29.369751 37.878571
113.2824 34.470322 9.8538103
163.49454 10.156387 12.097751
168.75104 3.4002399 23.985109
69.707344 42.091724 8.6095867
30.97728 69.632645 0
41.725685 63.9002 5.2666035
79.262199 69.62352 42.582611
148.48505 73.9002 18.797733
81.096565 20.505655 8.9347925
145.97423 72.913338 33.275848
137.7162 8.3867188 44.53038
56.659447 14.727333 8.2370253
31.766964 15.949927 7.5262547
160.26743 63.9002 12.442492
48.530323 10.727848 39.665863
56.271503 30.839767 42.69548
109.69941 73.9002 24.930988
168.58981 68.7229 12.938908
99.285141 69.993454 41.567463
96.33429 45.957428 9.3698816
144.02472 7.5960093 23.856598
57.127682 65.761665 8.2503958
143.25783 69.077255 44.081631
96.287628 3.4002399 21.710846
168.86635 9.8235102 43.499771
34.143299 13.4002 12.171645
27.200542 10.189087 35.778313
127.44608 73.9002 25.837078
46.424866 64.405945 12.140092
100.15868 8.4296837 44.648323
7.8023052 15.289579 6.8419762
141.7364 65.886063 2.1059527
23.331219 12.443682 19.313469
31.766611 24.345779 36.610531
132.52475 6.046464 10.818882
41.563683 12.668547 38.39613
63.176365 68.910759 44.538628
163.4783 45.3022 44.898228
23.717386 37.289547 7.2964082
53.52087 35.909809 8.1474047
123.96194 47.928268 10.158751
152.82555 48.663818 49.961609
97.179642 10.983867 51.657837
161.84459 5.6089678 36.907326
148.27695 47.582203 51.920727
66.551895 3.8222725 44.201508
80.64357 29.288383 55.846802
68.056625 31.981201 8.5624523
75.346687 73.9002 21.942312
47.265038 42.830421 39.435253
137.34914 3.4002399 14.363829
136.90117 8.8154144 15.517024
88.440742 39.427757 9.1444921
59.286076 53.403687 44.557137
81.897369 26.190203 56.305115
90.679489 40.185387 57.797054
21.285814 9.6309338 11.139034
104.37463 3.4002399 27.519737
128.56732 44.10804 10.290251
129.56015 33.551083 10.318599
75.983643 69.962097 41.653427
126.63642 13.472511 10.235127
136.43065 6.8473816 40.30595
109.84459 66.817871 50.282269
32.202503 3.4002399 1.9350392
128.98628 3.4002399 21.507774
37.276596 22.750202 7.6835737
163.67769 70.324272 40.659344
67.636459 51.574852 49.713909
181.05775 63.627899 14.997192
46.121857 4.9848995 14.048128
135.11935 3.8637881 31.399199
182.1178 3.4002399 20.252384
48.540779 6.9595442 9.456212
31.146816 39.715309 7.5085454
100.84567 12.170893 54.91544
154.02248 72.848434 33.508614
17.082535 4.829402 12.635221
92.328163 3.4002399 23.374893
148.03465 67.834602 24.860701
120.45631 45.387756 58.682297
156.34164 4.4525862 33.510632
36.53767 73.9002 12.127021
7.0706263 45.425987 31.050301
38.683804 33.82198 7.723753
111.12051 73.9002 28.071663
31.923677 63.9002 7.0259161
42.75705 73.9002 17.484081
64.01548 23.808104 8.4470644
136.573 72.838623 14.078465
147.91077 50.222294 10.842548
40.212242 63.9002 21.928526
137.75317 71.29863 18.33116
39.380905 73.9002 8.0032167
1.4990847 71.329018 13.104783
24.952915 13.4002 19.62447
23.154491 13.4002 10.972153
80.424133 8.9920864 46.191723
145.49779 51.754513 53.117744
94.146881 7.0000486 40.724907
1.3532151 24.877295 13.347857
106.60345 10.215507 9.6631126
36.750744 73.9002 5.2752266
130.49475 37.172806 10.345285
140.44537 73.32103 31.813833
153.20413 22.51553 10.993707
0.010347418 38.799046 15.58526
18.30477 68.449524 7.1418605
172.7001 5.4214053 36.392567
65.404091 57.656464 48.335316
114.06088 15.466751 9.8760462
188.36256 17.018919 25.11747
153.88989 39.462219 11.0133
25.202888 71.770676 3.2001929
51.58696 73.9002 16.395674
2.7910538 56.967697 23.803593
53.581532 23.575197 8.1491385
32.969307 22.979584 7.5605855
91.72493 73.9002 28.837234
170.42389 48.196251 13.241682
138.4099 6.1785097 19.154659
140.23882 55.365555 55.382771
112.25299 11.948649 54.305515
96.5504 3.4002399 19.474295
120.999 72.611992 34.356548
188.23584 64.138802 18.183956
79.247383 51.512383 55.336445
67.850113 5.5574346 36.7659
169.38568 29.64455 13.070292
9.6466656 42.770828 6.894639
124.75298 9.1941967 46.746361
82.3647 6.8543863 9.6131573
51.516495 65.737976 40.210121
85.518761 58.547314 9.0610619
85.523628 47.752579 57.09539
144.14067 5.461545 36.502785
147.04518 3.4002399 14.332916
95.330894 7.2390318 41.38076
0.79608083 47.438019 14.276119
35.684574 36.880165 7.6381149
154.72226 28.512777 11.037059
89.65789 3.4002399 28.807907
5.1143947 27.009836 28.237642
154.66933 13.4002 6.5334911
142.0121 57.375862 54.619053
129.09595 23.539652 10.305349
13.366913 46.424095 7.0008659
128.82077 13.459449 57.368221
91.41761 6.9663706 40.632477
142.21448 3.4002399 7.2361469
7.260807 34.965645 31.166479
69.700134 76.090492 41.151657
147.71048 12.413619 24.860703
120.04723 73.027863 13.46623
80.384583 53.774837 8.9144621
174.95303 23.706078 13.98938
96.873909 5.3944836 36.318718
58.025124 66.876343 8.2760191
91.874512 15.268322 57.88311
100.75574 41.707253 9.49613
70.356346 73.9002 21.476183
76.564331 48.667076 8.8053789
115.83365 41.514324 9.9266586
73.294388 73.365822 13.970586
9.5912371 19.914951 32.568863
69.650833 45.10289 50.881634
22.936943 47.330521 35.001263
22.302452 66.068176 34.885593
85.55043 73.9002 28.643475
69.142227 1.9814295 44.960995
165.8111 6.1461248 38.381454
139.97287 4.6204262 34.112495
1.0473473 26.986273 13.857475
3.5141525 66.241837 25.18364
93.818512 21.94459 9.298049
176.27963 11.532413 42.427025
81.987701 13.8707 8.9602356
93.530228 39.543713 9.2898159
157.22981 12.815055 21.98011
94.098106 3.4002399 24.751934
35.580536 69.810455 37.305641
99.418633 7.1394329 9.4579611
147.74651 4.2769561 32.88081
123.03 64.50872 10.132151
130.14207 31.594522 10.335216
141.88055 73.9002 26.940807
41.839111 11.557973 2.6482034
4.3418632 42.116798 8.3683424
86.538033 36.009392 9.0901632
124.46441 24.217222 10.1731
183.14946 49.242298 39.426155
58.745522 62.950394 8.2965899
96.155701 55.548077 9.3647842
79.711548 34.400936 55.506115
99.415871 3.4002399 17.410954
57.668888 66.46904 43.558441
96.673416 72.919022 13.30378
37.942917 34.599251 7.7025981
150.28375 3.4002399 12.465795
144.30978 73.900208 14.15819
74.855255 55.091019 8.7565804
159.94745 68.095123 18.572411
29.241798 63.9002 19.065435
145.91129 52.411236 10.785452
144.84007 73.900208 11.868816
15.162746 28.557335 33.584351
116.52765 43.030731 9.9464741
6.0175295 68.784294 29.961275
79.840561 35.637417 55.553272
158.55075 12.180649 47.267639
1.8813486 64.307838 12.467905
47.488575 7.1441646 9.1806889
39.395416 3.4002399 4.4432526
183.14384 49.316582 39.817085
177.4698 49.126392 14.404864
183.20401 48.044518 35.666603
77.373413 66.168793 8.8284826
124.20277 63.910206 57.282658
47.382416 66.794037 7.9721336
158.0442 66.47908 3.9017172
92.816612 3.4002399 14.814727
60.553871 58.62986 45.340061
8.3600731 35.563343 6.8579021
164.59036 50.576309 44.363491
76.941513 25.855362 8.8161488
23.999361 10.606378 20.151299
161.88124 42.526817 11.826998
140.20668 59.587448 55.396664
65.898636 38.018131 8.5008335
13.719498 32.280872 7.0109329
68.818947 67.579239 48.192818
103.1254 73.900192 27.287243
166.27603 6.8989615 40.447487
136.28439 33.529488 10.510601
12.127506 20.987228 6.9654765
163.9287 36.167992 12.169422
103.94493 70.706993 39.609276
93.570045 65.939377 52.693153
79.499596 67.123711 49.442963
43.943211 13.4002 13.804221
128.38377 26.867329 10.28501
85.785637 71.384193 11.013168
65.518524 3.7275519 14.279622
101.46697 28.254412 9.5164394
125.9734 3.4002399 24.794394
56.129135 65.374634 8.2218838
182.78368 67.379517 41.485867
99.691841 4.7277341 34.488899
102.4307 38.728489 9.5439558
101.89057 24.023512 9.5285349
155.29355 73.9002 7.6436214
186.9292 73.9002 24.137527
119.29243 49.004154 10.02542
111.58778 13.325174 57.202065
2.0474677 54.229893 12.191133
149.3275 63.9002 9.4082403
183.23569 8.9804955 33.513302
32.243866 3.4002399 24.61729
176.63324 68.944801 14.266768
104.95219 4.5443296 33.839687
67.743317 61.300594 49.779907
3.0338824 3.7259035 24.267056
145.66489 50.626266 53.045753
144.06076 60.404701 10.732609
80.148697 28.612446 55.665901
80.081039 66.903877 50.046249
179.99057 30.281256 14.821005
108.57208 66.861748 9.7193241
64.919022 6.1809716 38.477119
119.19628 34.989002 58.659027
165.0177 29.828747 44.157982
3.919019 33.398197 25.956272
98.554008 30.020069 9.4332628
46.33905 65.251068 13.096507
159.75029 4.4426661 33.47506
74.488808 3.4002399 19.215017
91.468018 73.9002 19.659758
89.971962 69.469788 43.004509
129.59186 3.5787375 14.501712
81.442978 23.971664 8.9446831
181.17636 32.345852 41.718445
188.29964 49.385857 21.674704
25.26899 67.323669 21.743366
87.393593 32.239449 9.1145926
31.914764 22.160091 7.5304742
94.71331 62.897835 58.087517
44.678001 65.751778 18.652609
160.42395 3.4002399 21.863123
66.416924 3.5239437 30.180504
23.902245 70.446457 4.8311253
118.34241 52.3722 9.9982929
183.15819 68.735962 38.85622
108.24318 21.87508 9.7099228
159.75273 5.8709335 18.816563
65.593178 71.704315 11.490923
35.786144 29.695101 7.6410151
96.724228 28.929089 9.3810158
42.767303 3.4002399 26.134544
137.15862 5.217133 8.2150698
12.821217 56.520195 6.9852848
124.16305 28.899738 10.164494
76.759933 41.602947 54.390148
99.227127 44.642776 58.290321
169.41626 3.4002399 19.591583
119.21609 45.095024 10.023239
118.05449 66.167381 52.067345
10.508201 70.503578 9.698946
41.362617 45.605293 38.359489
148.59448 29.435572 10.862103
27.928074 28.149187 7.4166398
29.26973 56.125816 36.155449
14.043751 56.257404 7.0201921
120.63929 37.464413 58.685673
175.62625 24.527973 14.100517
141.34229 49.780464 10.655025
11.477307 66.520737 6.9469109
16.745422 4.0090828 13.859463
112.38481 46.114128 58.533264
59.312202 25.247276 44.573265
156.73814 38.164227 48.139225
81.6437 73.9002 21.433018
176.04587 41.430439 14.169792
68.718529 24.368723 50.382145
44.301956 10.988842 5.7364731
160.44104 3.4002399 12.099493
33.456642 3.4002397 25.399265
33.218136 12.092823 36.875072
65.890923 68.660736 45.224838
154.20755 3.4002399 29.182055
36.445194 31.308529 7.6598334
108.70586 19.399778 9.7231369
54.368881 39.583794 41.520519
108.02322 67.261292 49.065376
149.12711 52.485519 10.877283
77.678024 58.492886 54.762787
2.5170612 42.330795 11.408724
68.7257 3.4002402 20.050663
15.92397 73.9002 17.09791
89.09935 43.377491 57.683289
39.510574 13.4002 3.8477068
33.047726 21.200779 7.5628242
9.5954199 47.015072 6.8931761
69.167847 67.383301 8.594183
158.68301 50.098267 11.244596
115.95763 20.593731 9.9302015
155.91504 63.954369 22.871136
154.16971 3.4002399 16.696178
94.931007 23.723475 58.10318
136.05591 41.652058 10.504077
58.265572 56.665306 8.2828846
17.535055 56.420284 34.016712
140.33678 33.794601 55.340416
9.9549799 22.205111 6.9034429
112.72665 70.317947 9.8379564
42.348083 20.971863 38.539093
118.82235 3.4002399 20.116364
134.35541 3.4002399 29.397163
62.804733 69.154633 43.86932
132.62891 47.358597 10.406223
181.08598 46.441135 15.001842
185.92456 9.5754738 29.114763
65.311005 51.58083 48.277828
188.24551 23.102568 18.713345
181.13879 73.9002 20.562933
156.00307 73.9002 27.829397
188.23131 8.0699997 17.935078
116.98581 12.852566 9.9595661
11.067148 44.364189 6.9351993
168.60005 3.4002399 23.160816
123.9478 8.7248001 10.158361
64.484505 5.2294798 35.865875
67.34993 67.78376 47.631554
34.149895 50.510769 7.5942945
26.764702 45.290535 35.698906
161.94867 29.979746 45.633755
0.87170434 42.60931 14.150121
182.83369 41.164654 41.478626
128.50752 65.879158 52.858318
140.64639 69.069305 44.10347
118.22878 29.108322 58.641167
52.450069 51.359821 40.380272
106.81184 13.696762 9.6690598
45.89888 21.402214 7.9297709
78.250977 68.341835 46.100018
48.270889 11.602432 7.9975023
27.180027 47.70834 7.3952799
122.68413 29.270063 10.122265
129.43164 22.34201 10.314936
185.86745 54.25808 15.791191
1.4506949 3.4002399 15.117443
67.329002 71.878639 41.13567
117.98839 73.9002 15.97357
183.24751 34.399269 32.68343
46.362862 20.633316 39.270821
22.110188 64.026642 17.333506
36.18026 28.513281 7.6522689
134.95892 65.384888 54.214779
77.291458 68.015091 46.996696
134.04254 59.366394 10.446598
61.975906 46.784664 8.3888273
76.925797 7.5037665 42.107262
45.899429 68.065575 9.8379326
144.9091 53.533436 53.371288
92.718445 73.9002 18.193392
1.5096339 24.448702 13.08724
127.58942 18.158152 58.813999
140.91505 35.271523 10.642822
188.26117 5.3014464 19.568958
134.32375 11.94642 54.29932
161.13069 20.10713 46.027073
87.579834 67.517227 48.363007
152.80501 26.613714 49.970451
0.020973941 21.129025 16.399263
95.973663 71.795944 36.620689
22.920218 29.922459 7.2736473
160.23335 27.517357 46.458557
9.0125113 3.4002399 15.638912
137.83939 29.76545 10.555002
139.31255 11.313088 20.286518
39.773438 40.448227 38.069855
160.66876 73.9002 24.88435
122.54464 20.600344 10.118286
117.33534 18.17532 58.624672
108.75611 69.526711 9.7245808
67.426376 32.727219 49.584175
105.22116 10.139894 49.341686
117.15032 49.358971 9.9642553
118.87996 23.953861 58.653191
10.088036 11.475093 6.9072418
54.618179 68.039886 41.674477
54.084183 3.4002399 23.465622
33.475651 73.490295 31.206848
25.152565 3.6146159 30.505642
9.0010233 65.529099 32.22961
122.19215 43.07338 58.714348
101.03963 4.4016142 33.327896
152.4617 63.9002 1.7309376
23.715847 41.777313 7.2963648
28.207216 13.4002 3.1807933
98.763016 47.016479 58.281754
122.3978 65.524094 53.832756
21.534853 70.891853 10.047884
123.42435 68.891197 10.143415
113.91225 3.4002399 28.415754
14.674924 15.984072 33.495438
89.895187 66.660332 50.714626
60.923748 25.994791 8.3587847
4.1500425 69.988495 26.397219
46.836655 34.353497 39.357178
167.21141 35.526642 43.739254
21.618095 13.202883 7.2364678
114.2579 73.900192 29.594732
6.0180459 54.31414 29.962254
24.779613 27.783558 7.3267393
145.11087 73.9002 1.2201478
158.44179 7.4644403 20.460407
105.24693 8.5233631 44.90538
13.601503 9.2476158 33.299801
114.68031 65.972702 52.601639
131.68892 8.5278492 10.37937
14.801012 72.326904 12.420046
128.13785 67.760666 47.694794
16.668011 71.689835 11.469288
137.48718 6.3892384 6.8629789
115.69093 69.952576 41.67952
11.983723 30.189804 6.9613705
45.879395 69.37249 15.110453
19.009308 50.057751 34.285416
67.250359 3.4002399 24.566362
175.78714 3.4002399 22.862671
42.242271 45.79916 7.8253603
62.702473 48.112183 46.666931
151.14273 16.188831 50.686409
131.79584 67.944496 47.190277
185.24246 72.269775 15.688018
135.813 11.286248 52.487625
67.570724 3.3601294 40.970505
85.617523 70.056778 41.393597
181.34937 3.4002399 23.156544
1.8474474 57.074982 12.524397
20.995731 6.213027 12.410009
149.54388 23.184898 10.889184
25.017517 58.639717 7.3335338
51.53265 71.217079 38.209305
69.163177 4.41747 40.997322
184.97968 32.279961 15.644636
3.2018685 18.830898 24.587614
100.68801 51.947781 9.4941969
78.79895 29.980732 55.172527
35.615135 42.368996 7.6361322
121.67728 34.311768 10.093514
121.63185 30.853388 10.092218
91.185974 61.301788 9.2228804
147.85764 26.293482 52.101334
37.608715 67.056068 24.364431
174.80008 73.900192 15.899866
4.6654043 69.848885 27.380775
183.17111 61.715389 37.965633
3.9274943 35.651337 25.972448
136.05719 25.980988 10.504117
103.12769 9.2294521 46.843155
174.21776 11.240395 42.725384
35.171242 73.900208 4.9118381
115.71714 48.350315 58.594791
57.407795 48.266216 8.2583914
111.29565 26.809559 9.7970839
153.18179 59.723427 49.80817
113.71565 63.740097 9.8661909
27.472984 55.838966 7.4036455
103.99837 9.9018822 48.688515
63.107853 45.717911 46.917274
12.757606 49.962574 6.9834685
25.354568 5.5680928 3.0099933
4.5506973 4.4016891 27.161861
34.079918 72.893356 33.347591
135.40149 18.093603 10.4854
64.535767 70.4589 40.289925
41.547302 68.743225 2.3929706
144.85181 59.067806 10.755197
16.514553 73.238777 13.780947
157.25865 15.536256 47.888939
138.33882 45.544216 56.200935
188.34384 16.530344 24.093224
29.040987 45.477192 7.4484167
156.6741 25.074684 11.092796
12.185848 18.872103 6.9671421
51.102177 45.896286 8.0783424
142.69481 63.9002 14.010681
68.708015 73.9002 18.981768
68.837761 22.802881 8.5847588
20.52478 73.9002 16.15266
82.221809 3.4002399 27.57254
165.37038 8.3831406 44.005665
145.45505 73.9002 1.3733602
109.56197 43.800156 9.7475796
96.088234 3.4002399 22.423412
58.86348 53.188244 8.2999573
19.665321 24.919529 7.1807089
43.354599 3.4002399 14.098698
162.96574 27.529104 12.010452
74.493317 69.80883 8.7462473
112.01969 48.197124 9.8177567
4.6239128 42.031395 27.301561
7.8736243 49.429672 31.540846
93.369873 73.574303 14.281734
180.00739 3.4002399 15.878153
40.760735 63.9002 2.0967026
134.10577 38.083755 57.763565
171.45987 3.4002399 18.315693
45.440613 12.185297 7.827672
52.90173 64.635818 40.614483
68.395454 54.559826 50.182625
149.81004 11.213774 0
5.8263164 4.2311783 29.596352
44.341469 34.790054 38.902412
66.996552 47.228222 8.5321846
62.893776 72.062759 12.025878
54.297966 35.33712 8.1695938
58.200962 28.864519 8.2810392
59.150421 4.16678 32.485725
123.07013 69.223969 43.679031
58.462761 45.843754 44.048691
101.82197 54.436195 58.338234
131.10936 12.160595 10.362848
6.114399 16.864758 6.7937799
3.4327488 5.4280038 11.741876
170.10919 51.570343 43.319927
41.47641 33.304916 7.8034925
14.380048 65.184433 33.441692
173.84702 3.4002399 19.31809
82.735519 5.8168583 11.16156
183.41809 73.506981 15.386847
122.84743 65.214767 54.681664
17.835245 68.615524 7.1284542
47.550743 58.705547 7.9769382
64.489883 50.905605 8.4606094
81.163986 16.751358 8.9367161
162.67615 73.9002 24.970482
159.48322 16.258949 46.819252
117.94017 56.317471 58.635834
152.67816 15.822193 50.025082
184.44955 33.892632 15.557123
188.29437 35.227188 21.385757
25.309258 71.845787 21.793861
25.988068 38.830204 35.557365
100.16626 6.8227196 40.238289
183.13226 8.6494503 40.632225
111.47093 43.219288 58.516392
121.39868 70.548256 10.085576
49.130787 16.948788 8.0220547
33.886032 3.4002399 26.854221
148.83167 13.4002 6.3152637
47.319016 3.4002399 29.110668
123.53905 68.683395 45.162521
125.84164 60.466011 10.212431
127.03181 53.950489 10.246409
159.90063 13.773876 46.618542
34.142632 52.729919 37.043579
28.702063 66.503189 1.0603881
73.445877 33.959496 8.7163353
50.377983 9.763175 40.002617
121.33664 73.177635 32.328114
51.594307 61.194027 8.0923977
145.40744 29.162796 53.156605
69.131607 10.999767 8.5931473
82.316559 50.045044 8.9696255
139.80589 33.276115 10.611151
52.072975 40.851395 8.1060629
49.502213 3.4002399 26.602829
30.842278 29.188816 7.4998503
128.09996 42.121708 58.775578
58.122295 51.366936 43.838444
188.34299 40.816826 24.045666
11.004051 73.9002 26.822182
103.56956 22.153107 9.5764742
75.68821 72.986435 33.013809
40.686089 73.9002 8.4656849
66.713333 3.5335579 30.214981
185.94969 73.9002 17.745861
47.683327 47.001534 39.511494
90.236977 60.065105 9.1957827
16.091978 49.309914 7.0786757
104.52705 33.937649 9.6038141
77.285362 71.822144 36.548767
101.75471 73.900192 22.706501
66.106865 73.087723 43.484337
47.09988 68.055962 7.9640665
123.44777 57.360672 10.144075
110.41355 51.269039 58.496864
177.38046 4.1252117 32.336678
24.818932 9.9419117 21.179008
29.356163 57.983185 36.171204
11.816835 3.4002399 23.773254
38.343449 44.259987 37.809223
168.89804 70.36467 40.548485
148.81644 13.4002 17.876219
136.50822 56.381977 10.517
113.63148 64.010429 9.8637877
44.664566 29.274475 7.8945265
178.82614 63.662235 14.628784
29.730101 24.832981 36.239361
6.1973028 14.405985 6.7961469
78.254669 3.9082747 31.558722
147.17676 73.378754 31.606827
60.471634 33.113522 8.3458748
110.62903 49.604992 9.7780495
3.3217163 26.927698 10.068054
27.643848 29.898766 7.4085236
22.522488 36.206352 34.925732
86.331459 65.689644 53.378475
28.658508 50.818867 7.4374962
34.994106 68.44857 24.860701
55.438148 29.668325 8.2021503
88.304947 3.4002399 19.101812
170.19904 71.125854 38.459553
19.371668 16.143658 34.35144
72.786797 4.4987955 13.128624
25.303453 3.4002399 29.308271
8.1590185 20.059814 6.8521614
32.534348 16.565495 36.75045
54.504585 11.627804 41.604321
149.0661 63.9002 11.768621
98.044838 66.095345 9.4187298
86.871582 34.773148 9.0996876
44.928818 18.843445 39.009457
147.90285 32.466808 10.842352
48.68573 35.761177 8.0093451
71.482185 67.197372 49.24078
8.2042294 37.160774 31.742809
151.7471 47.414345 10.952101
157.3006 13.194494 21.89135
78.419823 38.777771 8.8583593
6.7408381 23.850142 6.8116674
22.224215 4.9726319 34.87133
38.266869 73.9002 15.987659
72.332916 31.660671 52.205307
158.20459 18.211294 11.157475
96.750267 9.3522081 47.180019
173.31929 51.92662 42.855408
38.826393 63.9002 12.152603
143.59732 70.739067 39.521042
42.065876 72.050156 21.928123
144.49188 53.193687 10.744957
23.346096 73.9002 22.675215
174.41995 49.239986 13.901376
109.29175 9.3614292 9.7398748
72.281326 69.11734 43.97176
15.594229 63.262081 33.662983
11.997616 28.327124 33.007488
113.89601 70.815422 39.311687
106.02524 10.658255 50.76424
69.78524 36.501564 8.6118107
169.58777 3.4002399 22.764103
29.849476 30.685242 7.4715023
53.345284 4.5392032 33.821239
32.299255 12.615503 36.707596
77.197433 68.238846 8.8234587
85.346924 68.590591 45.417336
83.993546 16.856789 9.0175095
127.37744 4.7670813 34.596882
99.210915 70.226654 40.927448
151.50293 15.825247 50.531273
174.0101 14.998653 13.833717
180.44954 44.181099 41.823624
11.465543 4.0112128 31.927822
188.24878 16.277023 18.891476
28.388334 72.092056 1.2114691
35.281071 36.945393 7.6265936
36.725262 49.43972 7.6678305
3.1145725 26.730324 10.413184
183.26096 30.971588 31.755459
154.8495 47.436295 49.047379
64.905975 3.4002399 21.620541
70.887383 45.509911 8.6432819
176.65901 21.136562 42.372131
96.612534 31.620378 9.3778267
0.050954666 22.731709 17.538179
92.411644 73.648277 30.640339
56.706081 58.205002 42.96386
15.923521 52.135693 7.0738668
89.642982 32.857349 9.1788216
16.784134 73.9002 15.619579
117.57782 59.081467 9.9764662
125.51362 10.511772 10.203071
0.69120967 63.936726 14.450829
170.24728 16.854847 43.299942
37.262871 49.737801 7.6831813
31.307171 73.9002 13.475406
98.137245 73.9002 26.72813
46.473152 5.3105993 12.351671
57.54369 73.9002 23.750919
144.47375 33.557274 10.744436
105.10498 73.9002 18.082283
76.345863 26.253164 54.185791
137.42786 38.8409 10.543249
77.186996 65.538605 53.79287
25.549814 55.09967 7.348732
59.945717 3.4002399 17.227901
83.843727 32.034554 56.809532
159.60269 6.1443253 5.8559203
130.54494 43.036621 10.346719
105.88779 3.4002399 26.752888
61.132839 73.9002 27.191994
152.35193 3.4002399 27.729317
85.961372 60.931534 57.169884
122.83849 72.994446 32.985016
67.123474 73.9002 28.974743
49.03669 9.872448 8.0193682
94.660988 42.249954 58.083714
170.5704 73.9002 16.783035
23.064354 56.042366 7.2777634
112.9129 55.062664 9.8432617
100.36021 63.853558 57.352741
100.52934 51.626621 58.314369
111.36098 71.707832 36.862534
20.653313 28.525339 7.2089186
10.253016 40.446213 32.689503
16.516468 52.645638 7.0907974
50.160587 55.731934 8.0514584
120.51324 73.900192 17.48245
128.66513 24.96644 10.293047
136.3315 12.850977 11.840727
100.87914 4.1421533 13.660876
87.474716 69.524673 42.853886
164.41083 41.646412 12.249014
30.182516 72.735077 0.34744439
66.561279 8.619873 45.170235
39.587746 68.534241 1.4493072
23.301483 13.4002 8.047451
3.4610817 62.806534 9.8358498
117 23.216496 58.618481
23.266357 63.9002 5.723773
115.65384 7.3528323 41.693039
21.198465 10.715288 7.2244864
23.621269 33.613811 7.293664
87.115303 68.03054 9.1066523
129.52766 59.244644 58.535053
81.182678 69.932991 8.9372549
53.884026 47.372318 8.157774
0.17198046 9.4852982 22.13574
155.48933 63.9002 21.079746
127.13512 38.942089 58.805614
99.016518 41.97131 58.286434
43.103474 71.814064 36.570938
183.96298 73.9002 27.837643
70.874809 44.934635 8.6429224
181.6053 70.147057 15.087584
64.516388 68.377563 46.001968
98.681664 68.796974 44.85096
29.202808 8.7852297 36.143242
67.49939 23.966101 49.629269
47.810677 3.4002399 20.63287
188.25159 72.110672 19.044952
83.966965 67.235558 9.0167542
14.977922 28.064947 7.0468664
64.595139 5.2427645 35.902328
140.64516 10.412741 2.9031551
18.514429 60.459389 7.1478467
120.25569 52.809227 10.052925
183.24937 10.483391 32.567444
74.264374 66.648338 50.74749
21.639254 13.098494 15.270141
39.116585 73.900192 3.078793
82.74678 57.999432 56.615601
32.191376 63.9002 6.6453543
140.74655 5.4403043 36.444481
37.654266 13.4002 14.326785
1.4180148 34.171871 13.239891
47.465652 28.464455 7.9745078
165.04199 42.26088 44.146301
36.503929 54.082462 7.6615114
80.926079 45.227467 8.9299221
139.70956 54.115921 10.608408
104.32373 66.322418 9.5980167
89.942192 41.500122 9.1873646
40.378735 20.719515 7.772151
89.659798 25.447895 9.1793022
169.21152 11.676065 13.041542
130.52892 62.544514 10.346272
125.86049 6.6254425 10.212977
96.464859 48.947426 9.3736105
91.352127 22.622768 9.2276249
25.518959 57.135815 7.3478513
150.01059 7.332746 0
95.260262 56.616287 9.3392143
43.610519 21.679249 38.769184
42.325302 39.081062 38.534954
154.18048 3.4002399 8.3609848
103.50031 3.4002399 27.665571
165.96272 6.9359736 40.549061
37.445419 3.4002402 13.051353
181.89838 71.100945 38.527935
55.679638 5.0157576 35.279339
48.511711 11.117039 8.0043793
73.32988 7.6361418 42.470539
40.645847 57.762005 7.7797785
38.275124 16.625696 7.7120867
49.738209 30.17432 8.0393963
3.9320965 7.0949259 25.981277
24.381847 15.766073 7.315383
3.4581077 31.243492 9.840806
60.413097 5.5632887 11.539978
152.03423 27.140175 10.960299
12.412217 4.9186902 12.501969
29.551903 3.9558802 31.729412
80.321136 67.676208 47.926708
74.630852 33.271065 8.7501717
120.00726 15.935663 58.674004
78.458672 67.168617 49.319714
38.839287 3.4002399 21.318689
42.195606 8.6886816 3.0952282
84.882462 64.152328 9.0428925
19.75979 16.574495 7.1834068
147.53398 57.360825 52.240734
16.947836 23.592949 7.1031141
92.547409 70.265358 9.3433905
128.45555 57.265221 10.287066
114.90031 13.249445 9.9000177
186.72888 22.504417 16.389606
62.684055 73.9002 19.785938
18.309052 63.716 7.1419826
76.184174 70.23381 40.907738
144.46822 3.4002399 6.5266867
12.70162 4.1922388 32.576977
123.12173 73.9002 18.887846
185.2878 8.7670546 30.00589
57.402512 38.365391 8.2582388
106.39767 59.005043 9.6572304
35.820515 73.900208 9.4666538
96.370644 61.148697 9.3709221
119.2066 56.411934 10.022972
44.197678 16.710203 38.876198
26.148167 73.9002 14.88706
142.18256 45.534531 54.545494
66.806107 33.831615 8.5267467
41.35458 13.236557 22.56052
140.03859 59.331112 55.469055
21.818537 13.344957 8.8049393
57.91967 72.434273 34.868847
117.15382 38.069244 9.9643536
107.27904 56.443012 58.438988
163.18512 13.455771 45.039207
120.85188 60.814346 58.689594
130.9883 22.762989 10.359384
94.90744 65.639709 9.3291454
187.72046 6.5092411 26.601507
183.20096 11.922703 35.9044
101.80076 16.04705 9.5259733
34.961582 51.07621 7.6174717
172.8839 73.352173 13.950199
41.494682 57.217812 7.8040152
68.864868 3.4002399 23.31094
138.79036 70.433868 40.358749
78.009148 6.0437331 38.100491
105.81379 49.988651 9.6405573
39.067482 50.597424 37.941174
30.790409 73.9002 10.281073
39.539135 46.108105 7.7481766
148.48257 25.426941 10.858878
82.892891 63.860531 56.647732
150.21304 8.9011288 0
6.3876247 58.17347 30.63306
9.2862415 3.4002399 26.360058
183.26888 16.04748 31.217165
115.33066 15.204722 9.9123039
106.20979 71.852791 11.712526
45.003872 63.522408 39.023136
51.429306 48.639599 40.194233
83.011909 48.075676 8.989481
123.26479 6.9182038 40.500298
13.640999 41.503353 7.0086908
5.2577968 3.4002399 27.985146
39.250786 66.65905 23.573652
59.679775 20.951876 44.800262
32.704838 3.4002399 10.262544
103.03983 70.286148 40.764267
186.19008 31.293762 15.844453
12.639549 70.382797 33.124481
52.590897 49.604095 40.422523
78.82756 22.864124 8.8700027
20.042631 3.9174635 31.59164
9.1528692 5.4585562 11.69628
35.477825 68.143745 0
169.74232 41.98317 43.37302
19.327709 37.453396 34.34346
0.68739063 65.773872 22.51116
0.030704569 59.704163 16.768913
43.240219 55.249294 7.8538566
84.151772 47.970451 56.86195
41.513 58.758976 38.386894
149.71338 13.4002 0.551278
0.10115552 10.703245 19.445223
180.82268 18.041222 41.76963
121.18187 51.013134 58.695694
62.456596 72.843735 13.191417
29.019733 73.9002 20.628784
188.36575 24.065422 25.291298
154.43292 54.484669 11.028796
10.040981 73.900208 27.417404
83.363411 16.437204 56.727798
152.06369 63.9002 3.322051
111.45418 51.955292 58.516079
0.010421971 17.648287 15.585135
175.10329 62.349747 14.014191
44.474987 17.453863 38.926739
38.56324 63.9002 7.3372726
166.30551 69.972977 41.623398
152.94824 54.532162 49.908768
105.64594 15.220165 9.6357679
82.70755 70.468239 40.264393
135.70374 3.4002399 25.444921
129.7265 36.493652 10.323349
85.95784 65.497391 9.0736008
117.9236 49.039471 9.9863358
148.34125 18.501226 10.854842
25.815332 6.8836675 22.41013
54.374718 64.538605 8.1717892
33.224628 13.4002 12.522817
104.69267 55.040234 9.6085443
66.062111 7.8736944 43.122456
27.798626 46.733078 7.4129429
160.82094 69.689255 16.267534
83.447289 35.368679 56.742069
39.656506 58.613735 7.7515287
146.13753 4.4248552 33.411175
32.297634 51.458641 7.5414062
140.67682 57.488976 10.636006
171.61176 64.73568 43.102493
6.130723 49.158199 30.177296
129.24274 34.929089 10.309537
178.80957 73.9002 20.927284
167.24843 4.1985817 32.599781
95.853737 65.37088 54.253315
156.69479 70.224731 22.495602
106.65971 11.328151 52.602665
65.387306 68.841187 44.729614
109.60078 58.290855 9.7486906
35.398491 31.546515 7.6299458
184.58984 27.173536 30.724396
43.858788 6.7151794 19.679873
176.95171 69.776917 42.161495
89.770706 36.603832 9.1824675
183.19235 11.140141 36.498142
100.453 18.907488 9.4874868
183.14951 32.68531 39.404312
9.3089523 66.87709 6.8849964
178.2709 61.466034 14.537119
3.1944995 18.400595 10.280015
24.976065 63.9002 11.009281
188.20941 73.9002 23.979984
182.64172 8.8931646 15.258681
41.75951 13.4002 11.777584
145.366 3.4002402 25.445477
128.2449 21.075203 10.281051
82.492599 3.4002399 23.353748
138.69376 5.4797907 36.552834
68.692909 5.0130429 35.271889
72.238632 68.293884 8.6818666
32.142216 73.9002 27.6964
57.900978 15.638309 8.2724762
43.795185 25.458893 7.8697023
154.76593 60.009911 11.038305
130.89552 52.984348 10.356733
74.739418 49.015419 8.7532711
188.35394 18.929415 24.645947
88.461639 70.480675 40.230282
4.7798328 67.519485 27.599161
102.91792 57.316002 58.358467
74.952736 5.6920495 37.135353
61.61869 38.837452 8.3786259
9.0234957 6.359108 32.24334
44.423382 29.422976 38.917336
38.364532 72.281052 35.289333
146.65802 3.4002402 3.9438496
0.061434366 43.019653 17.936285
115.07318 3.4002399 21.0555
105.2644 28.761831 9.6248693
4.8200026 49.986069 27.675797
116.04626 14.377079 9.9327374
159.1868 63.9002 7.7342496
4.7560635 60.219593 27.553797
29.858829 9.742938 24.357374
26.853178 34.754372 35.715034
128.31239 54.672981 10.282976
88.778061 41.437778 9.1541243
5.0244064 28.947264 7.2311277
83.677376 4.8620381 12.586525
130.53575 62.753052 58.317017
25.899544 30.346394 35.541222
188.32645 46.861122 23.14016
108.39725 6.5419297 39.467697
8.5187054 70.068085 31.934958
117.46501 21.235229 9.9732437
40.939911 3.4002399 12.227933
38.941196 16.46018 7.7311053
45.398201 8.1037817 17.21876
188.35715 62.810272 24.821367
46.207474 4.0233846 31.9715
40.769737 3.4002399 24.042549
95.881805 53.047203 58.171631
60.306587 8.5796375 45.059753
183.19206 23.252792 36.47612
144.37477 19.243999 10.741575
178.31873 56.51862 14.545013
114.78285 61.507889 9.8966608
19.229004 73.407425 31.503986
172.87311 4.6317534 34.153118
138.25012 13.4002 14.781811
131.13229 64.701355 56.090611
66.233429 17.612705 8.510397
76.346489 22.606766 8.79916
185.23734 24.606281 30.076504
88.708908 18.923714 57.637421
59.098083 72.303162 12.384655
16.687988 47.020981 7.0956945
129.04709 3.4002399 29.571314
42.857582 72.881805 33.389008
137.78159 70.312325 6.493824
141.17302 25.892971 10.650194
4.6619453 20.273666 27.374172
102.80994 5.2758203 35.993042
145.79572 10.563027 0.15132859
164.09245 34.448105 44.602917
157.29012 38.076328 11.110389
44.115211 8.8428192 5.502306
153.99763 13.4002 8.3654232
98.076126 55.071011 9.4196186
128.5332 67.138519 49.402168
82.154503 61.290588 56.399101
0.080993235 69.63282 18.679295
22.326199 49.712509 7.2566862
158.80623 47.855675 47.144794
93.271103 71.87973 11.752716
30.44854 73.900192 13.595962
114.79197 3.5655398 14.521408
138.92674 44.847759 10.586048
165.33826 73.9002 16.978283
107.20303 56.354942 9.6802244
56.294159 4.0602241 32.103615
130.12158 68.905075 44.554138
11.615955 57.502029 32.937927
171.56419 69.895515 13.429939
113.72614 3.4002399 17.747578
72.039627 37.474186 52.060562
67.28978 62.477936 49.499828
135.70737 67.072464 49.583511
122.9994 72.879478 13.244793
4.7972484 59.821022 27.632401
46.32251 33.066296 7.9418659
178.2915 63.609657 42.135902
138.40344 63.9002 13.764924
18.265646 69.277161 7.8686113
160.64102 67.727081 17.055521
53.954006 64.252937 41.264313
136.9072 66.235176 51.881287
150.84659 63.9002 15.933724
22.482405 73.9002 6.803391
85.387756 35.415676 57.072273
66.841995 71.240501 38.145065
115.32533 68.492172 9.9121561
0.14180063 28.278219 20.989262
126.1656 48.632572 58.787704
138.75671 65.330307 5.2710876
3.6332006 44.446404 25.410791
182.54118 23.6462 41.520958
78.847427 6.0007067 37.982414
151.99716 13.400199 19.87076
139.87134 3.4002399 13.999968
44.834003 73.9002 24.209095
22.062605 4.6407185 7.7355852
171.38237 71.222 38.195686
84.917023 23.804453 56.992168
186.19147 26.533272 28.741211
123.08215 43.276611 10.133629
36.764061 51.86639 37.521358
91.397957 73.9002 22.95859
113.83672 9.379941 47.256111
7.5687704 37.722687 6.8353076
43.634277 22.652325 7.8651085
53.504475 33.446823 8.1469364
85.56881 34.0839 9.0624886
69.257019 3.4002399 25.919624
95.228027 53.566509 9.338295
68.913574 5.3102512 41.480072
3.325316 5.0472479 24.82325
59.550972 72.986671 33.013
137.50276 62.268452 10.545337
61.282818 3.4252303 29.826515
118.03547 64.085266 57.066063
71.996674 34.704384 52.039364
40.152309 37.339378 7.7656846
183.24289 68.866508 33.015732
137.69846 3.4002399 17.585703
111.91225 65.084564 55.039021
81.4207 54.508816 56.130867
153.15704 49.10759 10.992363
28.567711 63.9002 10.399369
31.253307 63.9002 24.68819
4.9399238 6.9748011 27.904694
65.332779 3.4002399 21.593332
52.728436 29.028734 40.507465
108.26379 27.245668 9.7105131
163.42325 62.652096 44.924698
46.712891 72.656639 12.912128
127.66165 59.96978 10.264399
160.70418 17.122803 46.232162
40.090393 37.91552 7.763917
100.79549 65.03614 55.171951
111.64597 4.9493728 35.097153
149.57822 66.896156 50.067287
0.44866011 4.1789522 22.419371
110.98889 5.7451839 37.281143
123.70473 68.763046 44.943947
97.298866 65.451195 54.03289
131.11244 73.9002 20.558369
0.02860632 28.690924 16.689205
51.426441 18.519266 8.0876036
150.72931 63.9002 21.993679
133.94124 46.372307 57.791328
73.084755 69.351265 43.329781
63.939354 67.42408 47.430767
171.29056 67.978165 43.148972
180.20248 15.923922 41.859375
89.985405 25.658279 9.1885996
58.086769 31.805058 8.2777777
140.18857 62.105186 10.622034
172.80191 60.63802 42.930267
131.70093 10.219252 49.55941
18.113907 52.001911 7.1364102
66.089714 57.87291 8.5062933
35.867184 64.435059 24.860701
183.22281 45.483116 34.380234
35.422832 73.711174 30.414747
14.420652 17.345242 7.0309544
34.046333 43.213882 37.026039
36.622993 31.932589 37.495651
139.65939 4.7824416 20.721445
119.40841 21.841208 10.028734
130.43797 53.888123 58.381687
88.344467 22.132322 9.1417456
17.571896 30.670977 34.023438
43.23069 62.47459 38.699959
117.2049 53.81826 9.9658136
58.565567 72.533981 12.729135
52.821045 68.484291 8.1274242
116.03687 73.678078 30.533453
88.419777 15.51553 9.1438951
122.29413 67.134064 10.111141
3.2137642 24.066954 10.247918
153.74065 73.900208 2.862824
27.004238 55.669029 7.3902617
176.83034 32.367352 14.299296
93.091675 62.123672 57.970749
15.450778 53.501472 7.0603685
77.640625 67.779648 47.64283
135.36343 66.361755 51.533943
73.246246 24.832281 52.656052
62.815224 25.730701 8.4127932
151.59816 3.4002399 27.614975
30.628506 3.4002399 22.615749
14.170419 18.874907 33.403488
134.03085 36.691589 10.446253
81.040245 68.943771 8.9331875
149.10098 73.311646 31.847496
175.62234 40.742676 14.099873
154.47549 13.4002 4.5838647
96.601753 41.671692 9.3775187
53.490894 40.895325 8.1465492
171.29582 70.361328 40.557644
124.35954 3.4002399 21.877337
120.5511 55.990387 58.684044
150.47815 3.4002399 15.646884
101.3448 73.9002 27.234915
127.22306 5.3087368 36.083378
168.59117 63.96936 43.539589
68.906914 61.917774 50.498478
50.458023 29.830151 40.017204
168.26175 71.483994 37.476692
13.907758 58.30508 7.0163093
132.10938 35.683666 58.099979
68.022591 6.9264522 9.5056009
105.12016 22.271564 9.6207485
68.205055 25.421341 50.065052
70.185242 54.530426 8.6232328
125.0162 7.9589133 10.188869
143.53502 55.622448 10.717595
183.1974 70.144279 36.154148
177.43954 64.701385 42.259182
31.362745 5.2644529 24.860699
66.353645 35.529373 8.5138264
169.2299 12.240763 43.447159
22.22282 54.439877 7.2537346
81.866547 3.4002399 26.362698
30.974346 45.660759 7.5036211
77.649414 71.475296 11.149134
136.51555 71.349434 37.846035
8.9718037 3.4002399 26.318756
151.2354 3.4002399 1.4232546
6.7052636 3.4002399 29.618439
158.82596 6.4750099 19.97868
3.4865484 36.594139 9.7934198
150.91272 55.591042 10.928273
51.24052 55.192375 40.159824
97.79081 15.534115 9.4114742
153.94559 73.9002 2.8503466
54.488155 65.346405 8.1750278
34.705017 3.4002399 0.96669477
113.07529 71.466919 11.136668
40.034557 68.63092 38.117432
79.733032 46.077057 55.513962
132.43173 67.99633 10.400574
72.260994 67.577782 48.196846
128.43735 29.194283 58.718739
73.909363 37.263012 52.983322
131.83 46.067825 58.147079
184.27705 47.20919 15.528642
55.537216 70.913963 39.041187
173.36111 73.580429 30.883602
143.44121 4.715662 34.454014
130.75528 36.01746 10.352724
68.993156 51.690941 8.5891953
87.362305 67.826469 47.514328
81.281746 57.614906 56.080078
69.559593 47.19313 8.6053677
107.71775 69.39183 9.6949329
79.087296 34.921146 8.8774176
80.898865 36.255646 8.9291439
114.84772 73.863518 14.713364
89.300995 21.334993 9.1690578
116.48672 14.881982 9.9453144
18.416639 64.116302 7.1450548
25.000956 56.284191 35.37743
150.28891 4.1741009 32.511971
6.2936749 11.850725 30.488291
156.62982 53.161186 11.091532
23.155172 58.485729 7.2803569
93.387177 3.4002399 18.621761
156.47472 13.4002 4.0693026
92.478615 6.3630714 38.976852
50.301239 61.130196 8.0554762
79.20784 5.4291716 36.413902
42.37537 68.257538 3.3206406
16.310389 73.900208 19.394817
45.709534 11.740943 9.0059433
66.975082 42.544159 49.305477
188.28348 64.598984 20.790091
53.751823 55.029034 41.139458
63.967499 17.79969 8.4456968
42.578041 41.69038 7.8349476
164.87306 8.4694061 44.227539
80.546326 67.035263 49.685703
139.52727 43.990891 55.689072
10.727383 14.559687 6.925498
97.374634 64.115463 57.028709
95.083313 61.635754 9.3341646
72.540794 26.992905 8.6904926
0.10504841 40.553143 19.593109
109.70235 68.002075 9.7515984
27.593815 53.269558 35.850006
68.622353 66.656487 8.5786066
160.5498 12.296793 7.4055381
108.40324 3.4002399 19.803532
177.19246 26.824306 42.294945
186.70032 51.849815 16.360544
101.32721 14.55663 58.319866
123.33902 69.081276 44.070595
26.121342 22.998919 7.3650513
45.309711 70.012268 7.254128
183.19081 34.803917 36.577255
67.117577 73.9002 21.957624
56.397778 39.955322 8.2295513
155.50803 24.753681 48.730728
134.43245 56.509163 10.457729
109.27641 6.6197014 9.9634094
173.2354 7.8118777 42.867538
53.22226 16.932724 40.812424
79.074165 33.920658 8.8770437
74.378456 33.985573 53.214828
5.437273 44.071815 6.7744455
157.4073 3.4002399 22.493793
116.71527 71.532066 37.344906
150.28212 43.723831 10.910288
62.590096 13.065862 8.4063663
70.329773 1.7667676 42.17466
24.603693 65.135345 3.9515479
112.64517 37.441879 9.8356161
55.804352 24.042746 42.406994
81.042572 40.018677 55.992649
91.759331 29.479572 9.2392502
21.508366 18.657522 7.2333345
172.65985 63.387054 42.950825
153.55594 26.780165 49.647011
98.886375 14.691197 58.284031
127.18815 6.4503183 39.216278
125.98321 22.942108 10.216469
159.60144 26.032917 46.762409
9.1432514 64.050446 32.316498
141.2899 3.4002399 29.62788
32.463192 3.4002399 24.245024
104.86865 58.414993 9.6135702
123.49817 50.200306 58.738457
117.20768 52.175419 9.9658928
164.18068 73.9002 16.238132
162.44507 55.219589 11.924494
16.312508 52.672981 33.7939
23.89855 3.4002399 12.104881
167.41797 29.309729 12.745451
85.482857 32.487602 57.088451
144.9473 11.153746 24.300837
46.734673 36.931206 7.9536343
14.057298 48.329895 33.382874
67.432297 58.197342 8.5446291
120.1171 30.073734 10.048967
100.24715 69.175102 43.813297
157.94957 63.9002 5.7843561
1.6331422 6.3419237 12.881428
75.945618 21.171692 53.988262
35.410751 71.973251 36.134068
17.431297 4.0366774 32.019135
14.275836 3.4002399 28.28812
25.385937 66.769043 21.890013
128.24118 34.355122 58.751789
13.509521 73.9002 16.026276
177.73955 65.493759 42.215771
141.21896 13.4002 15.375528
1.7708986 17.029459 12.651937
61.526844 63.372765 8.3760071
152.39865 3.4002399 18.501225
127.4668 4.9829216 35.189224
104.08606 11.170659 52.170456
59.36903 28.403801 8.3143911
0.010715537 7.1134915 16.009565
183.26761 8.4045038 31.305706
160.97534 55.575768 11.662047
3.4174025 61.438324 24.998995
99.143372 47.941051 9.4500914
85.990349 52.132523 9.0745258
183.15868 63.852654 38.831696
181.33797 73.9002 25.119831
93.996597 3.4002399 29.349487
80.052711 70.051971 41.406765
133.48131 3.4002399 19.859861
79.084091 52.993591 55.276756
91.053726 72.719864 33.969738
90.078743 44.34288 9.1912632
55.386414 63.144039 8.200676
186.95636 57.822441 27.670847
167.10072 8.8789778 12.693081
121.50848 15.94809 10.088704
120.22672 3.4002399 16.329704
117.2731 10.483762 9.9677715
86.618233 73.334702 13.924144
46.960487 42.014702 7.9600821
26.174114 34.640244 7.3665571
148.3627 9.4992971 47.583664
144.10193 40.042007 53.718758
103.07387 68.393585 45.958042
33.181519 3.4002397 9.0786362
106.0044 73.9002 28.139811
45.217587 42.329971 7.910316
113.0952 14.521372 58.308716
178.7094 52.497383 42.075428
53.531284 19.222984 8.1477041
33.688122 48.554688 36.960747
99.082169 55.007309 9.4483452
182.64673 3.4002399 28.769381
30.082327 9.2197447 36.303547
127.55382 60.758888 10.26132
25.318085 73.9002 26.824797
3.5254006 67.807655 25.205107
137.8291 3.56183 6.4342337
98.248131 38.183353 9.4245281
18.977074 26.003147 7.161057
155.56825 37.823162 48.701763
128.91586 67.147034 49.378796
33.60833 4.231647 0
179.05203 65.086853 42.025848
150.44048 52.419304 10.914788
127.48421 17.806957 10.259333
11.589937 36.76252 6.9501257
67.967194 39.967373 8.5598984
187.76836 71.46711 26.534458
128.65915 46.952919 10.292872
155.65158 24.88113 11.063597
133.31625 5.6075621 11.473888
4.9079933 41.648071 27.843727
183.22475 8.838397 34.267719
88.137436 73.9002 23.06469
146.35002 4.5451937 0
136.91818 73.9002 14.046556
94.503761 55.572422 58.072426
187.57677 73.9002 25.006975
143.15108 8.2358522 23.435928
162.74374 4.8083229 12.666677
106.97598 5.730175 11.290928
32.957249 40.870899 7.5602398
160.60611 14.778748 11.594814
120.96209 47.097374 10.073094
53.373318 13.389565 40.905704
27.975975 13.4002 8.9734325
22.836098 59.793392 7.271246
1.0423909 19.183199 22.647657
66.378326 5.1614537 41.534248
87.294098 68.498749 45.669369
32.693268 10.266174 24.860701
158.04337 63.9002 7.2325144
170.48351 60.407196 13.251525
2.2845833 68.3265 23.125278
8.8084679 72.510956 12.694763
59.275528 72.594864 12.819997
69.799896 57.798412 8.6122322
151.59972 13.4002 18.959913
171.50368 3.4002399 23.448318
92.040192 65.944427 52.679306
45.704247 13.4002 14.612119
32.651474 3.4002399 22.696932
99.659729 52.649971 9.4648361
7.9243574 6.6506839 9.9171543
29.59341 3.4002399 20.224815
0.10461286 46.74152 19.576561
65.126648 22.371328 8.4787922
146.60175 13.4002 19.55234
28.475464 59.384594 7.4322705
44.955135 64.922859 6.5555229
173.31381 27.910507 42.856201
160.80191 4.396472 8.5097351
75.763733 13.443199 8.7825184
129.90358 72.869316 33.433731
140.43805 12.357712 3.1628428
188.28734 24.451845 21.000889
52.279057 3.4002399 28.509077
172.79802 27.00856 42.93084
178.69095 73.9002 19.227879
7.1334295 34.090454 31.088665
63.123154 3.4002399 28.349874
60.180943 49.138119 8.337575
160.05229 73.9002 10.639601
99.70163 57.792625 58.299088
52.948631 33.118782 8.1310654
40.3078 44.387276 38.167244
110.73106 63.535652 57.746059
22.849728 43.001266 34.985371
162.70276 26.629757 45.271149
72.302979 4.837337 12.62339
19.378792 50.767487 7.1725273
172.4767 49.143822 42.977337
58.534996 20.292166 8.2905779
151.17662 16.580198 50.671818
40.59668 30.168303 7.7783737
30.92536 72.743927 33.883461
160.728 3.4002402 29.496542
155.26573 63.9002 22.846481
139.04933 6.4353819 39.175304
140.71146 58.078678 10.636965
24.344727 7.5956206 4.2762766
57.459831 12.077785 43.429337
137.07787 66.158264 8.5690231
27.499809 36.6106 7.4044099
29.42421 26.745499 36.183613
183.23975 15.445943 33.226662
176.19174 66.999496 14.193884
159.91223 22.152264 11.468441
0.14895214 29.262955 21.260935
86.87262 56.220085 9.099719
8.4362431 64.725311 6.8600774
1.5276647 9.0351753 13.057177
139.55879 3.4002399 16.220711
144.14391 8.1506481 43.88253
72.68911 70.90667 39.061214
148.98499 24.201954 51.615772
161.25371 31.217783 45.967922
51.084499 60.523697 40.131386
46.58242 56.752934 7.9492884
61.072956 37.375084 8.3630438
167.74283 73.9002 23.107172
82.892113 68.655869 45.238186
105.65363 67.638893 9.6359921
109.48747 4.6504216 34.220127
45.528732 69.34642 7.9720702
89.342117 67.982162 47.087067
143.38773 13.4002 22.352537
48.106701 41.870415 39.588657
127.79272 72.670601 12.933069
68.15937 3.6034634 14.464811
89.503555 70.019241 9.1748466
159.30351 34.750183 46.90567
98.429413 72.990723 13.410772
104.81396 29.843269 9.6120071
151.36952 3.4282784 29.837446
89.173347 9.4011068 47.314217
132.99887 14.56223 57.950165
77.82843 12.207019 8.8414745
107.27913 64.96154 55.376648
139.41008 4.5297465 33.787323
134.31647 17.626196 10.45442
118.33411 21.993198 9.9980583
45.506306 3.6990173 16.745115
45.412682 47.716225 7.9158874
183.1492 69.602272 39.476055
112.50271 53.943069 9.8315487
85.559082 22.814659 9.0622139
10.742926 43.190926 32.778809
36.383606 21.915365 37.452015
138.38014 53.061428 10.570447
10.087514 69.986717 32.659332
92.605545 60.071011 9.2634134
89.377121 11.90192 9.1712341
163.79327 13.364531 12.147067
68.922058 73.9002 17.645609
79.064896 5.516221 36.652828
103.80556 42.30822 9.5832129
49.791744 26.438364 8.040926
111.67638 55.893028 9.8079557
151.28685 31.043892 10.938957
184.44246 39.911667 30.778484
78.631645 25.374119 8.8644085
136.49684 71.835381 36.512493
44.003204 31.769833 7.8756418
116.24335 68.646622 45.2635
51.786079 49.344604 40.259254
22.617348 65.808517 34.942986
26.10338 21.708473 35.578362
91.672554 70.230209 40.917633
56.108833 31.22179 42.595024
155.69133 32.599621 11.064732
161.59308 3.4002399 26.215353
0.060675845 27.249628 17.907471
82.535339 49.924168 56.538311
140.61426 10.05354 21.918783
70.082443 73.9002 17.540295
139.4296 73.220612 32.173904
61.744137 50.373711 46.075111
8.590517 68.185837 31.978828
60.139439 38.155827 45.084129
97.079643 20.371412 58.250671
127.58193 24.567619 10.262116
171.01479 73.9002 26.442734
89.234146 8.2288742 9.1671543
157.38879 33.15662 11.113204
70.788589 28.384266 51.443146
186.57651 29.451355 28.202408
120.59467 25.789833 58.684849
141.39157 63.900196 12.49829
150.49014 50.340027 10.916206
13.550599 43.40572 7.0061107
21.273239 44.175842 34.698044
49.495556 60.996429 8.0324707
10.788506 59.049603 32.787121
143.32874 73.9002 6.8380365
84.784012 51.018204 56.969536
5.8683529 54.501472 6.7867546
78.953712 36.290825 8.8736048
148.30659 63.9002 6.0976253
145.32642 73.9002 13.594254
112.34887 66.787262 9.8271656
70.699898 23.426586 51.399376
149.58388 47.266674 10.890353
188.36221 46.281406 25.097643
66.690071 54.509094 8.5234337
105.84183 59.329498 58.41246
38.646862 38.196999 37.864525
