# .PCD v0.7 - Point Cloud Data file format
VERSION 0.7
FIELDS x y z
SIZE 4 4 4
TYPE F F F
COUNT 1 1 1
WIDTH 1461
HEIGHT 1
VIEWPOINT 0 0 0 1 0 0 0
POINTS 1461
DATA ascii
-1.3295192 -4.1478434 0.10457664
-1.2171314 -4.1278 0.10300693
-3.3420992 -0.26288992 0.10799719
-3.3737578 -4.0814085 0.11664312
-1.1485221 -4.0386782 0.11620992
-3.2007885 -4.2465682 0.12649582
-1.2561059 -4.2569613 0.13080135
-1.321732 -3.980773 0.13824408
-3.3289843 -4.2806163 0.14165005
-1.2477893 -3.7929814 0.14911981
-3.3224645 -0.39578259 0.14830758
-3.3917348 -0.37027547 0.14411713
-1.1847095 -0.23974697 0.14813888
-1.277015 -0.16572103 0.14125869
-1.0994301 -0.05041809 0.14940977
-3.2138252 -4.2265625 0.15485229
-3.3224096 -4.0323782 0.15552224
-3.3022296 -4.0268316 0.15544617
-1.2464373 -4.0241251 0.15656699
-3.2613995 -0.48556986 0.15081289
-3.1905584 -0.39487788 0.1500238
-1.28649 -0.28116089 0.15699923
-1.1057422 -0.22390845 0.15488991
-3.40341 -0.18235922 0.15625787
-3.2347319 -0.66466999 0.16017683
-3.3736732 -4.2215199 0.17451584
-3.2519703 -4.1774578 0.17034025
-1.1149455 -0.66273081 0.17868282
-3.0918696 -0.62050784 0.17152703
-3.3483436 -0.1736033 0.17558858
-1.1751943 -4.0361271 0.18194154
-3.3067555 -4.028491 0.18510415
-3.2486801 -3.7665009 0.18216185
-3.3141997 -0.5297575 0.18294844
-1.28649 -0.4539775 0.18989268
-3.3049693 -0.21135968 0.18805727
-3.1733069 0.04485102 0.18464662
-1.31249 -4.2704773 0.1919625
-3.2790337 -4.0095801 0.19293649
-3.2765346 -0.19966935 0.19289944
-3.2553301 -4.3120284 0.20623074
-1.3034499 -3.9439259 0.20277168
-2.0783045 -3.6908879 0.20876996
-2.0857444 -3.6042042 0.20068929
-1.5736215 -3.5762215 0.20266283
-1.2512537 -0.46111345 0.20840199
-1.1572454 -0.370363 0.20848559
-1.1521572 -0.32835758 0.20002227
-1.1062434 -0.18409741 0.20951363
-1.3498605 0.055566609 0.20323397
-1.3175033 0.057466708 0.20648137
-1.1708977 0.058081459 0.20734794
-3.2398536 -3.9382739 0.21084015
-1.311558 -3.9322448 0.21598902
-1.9708111 -3.4015884 0.21498394
-1.5729585 -3.3807793 0.21644937
-1.6605234 -3.3752139 0.2168425
-2.5747182 -3.3537486 0.21836062
-2.7870562 -3.3401079 0.21932307
-1.2827611 -0.69872046 0.2121622
-3.2803934 -0.11808032 0.21954805
-2.695024 -4.5795603 0.22803977
-1.1454811 -4.1533432 0.22970136
-2.5239723 -3.764137 0.22210273
-2.849175 -3.2020462 0.22906424
-3.1263359 -2.8070095 0.22959593
-3.1376548 -2.7631183 0.22970177
-1.3388987 -2.2261052 0.22845802
-1.3169791 -2.1024051 0.22709394
-3.1754384 -1.6415876 0.22645624
-3.1606908 -1.1209631 0.2263363
-1.2721204 -0.56702441 0.22094297
-1.1022756 -0.072938487 0.22175416
-3.2773511 -4.3907075 0.23697531
-1.1900802 -4.2051101 0.23803832
-1.9324218 -3.8259964 0.23336238
-3.0075181 -3.1788764 0.23801221
-2.9127526 -3.0187154 0.23672503
-2.3764687 -3.0096786 0.23688266
-2.4328749 -2.9692004 0.23758991
-1.8186817 -2.9682462 0.23760566
-2.8021913 -2.9504821 0.23791674
-2.1969616 -2.9421287 0.23806253
-2.822547 -2.9303739 0.2382679
-2.2056351 -2.9276202 0.23831603
-2.3246496 -2.8662691 0.2393876
-1.5051696 -2.7065234 0.23818319
-1.4630938 -2.6209905 0.23577113
-2.9939289 -2.375803 0.23748186
-3.0602043 -2.2297816 0.233675
-3.0894756 -2.1658726 0.23199472
-1.5043521 -2.0213888 0.23880297
-3.0901773 -1.5341511 0.23116729
-1.4590211 -1.1429265 0.23888373
-1.4053744 -1.1432867 0.23374537
-1.1414325 -0.71411246 0.23909023
-2.962759 -4.9513755 0.24564242
-3.2322907 -4.3955269 0.24484122
-3.3323092 -4.3524141 0.24712007
-2.6989346 -3.9004235 0.24690957
-1.1694077 -3.9065583 0.24328803
-2.3929715 -3.895762 0.24606103
-2.7284744 -3.8782814 0.24287924
-2.3767653 -2.8161745 0.24026248
-2.0784569 -2.8028102 0.24049598
-2.2000446 -2.6972342 0.24203634
-1.9423211 -2.6986217 0.24203113
-2.639169 -2.6781864 0.24210797
-2.8418818 -2.6373215 0.24226171
-1.6108152 -2.6041987 0.24238642
-2.4998391 -2.572655 0.24250504
-2.228992 -2.524281 0.24268708
-2.6186113 -2.4993527 0.24278085
-2.3685791 -2.4935834 0.24280256
-2.3113177 -2.4839761 0.24283871
-1.7864047 -2.4897101 0.24281718
-1.7415595 -2.4550369 0.24294764
-2.8690894 -2.3536234 0.24332944
-2.6826854 -2.3427701 0.24337006
-1.7438362 -2.3419657 0.24337307
-2.3124499 -2.3338635 0.24340351
-1.8309662 -2.2729201 0.24363285
-2.3670948 -2.2558544 0.24369703
-2.881124 -2.2333496 0.2437821
-1.9863505 -2.217871 0.24383996
-2.71896 -2.1157069 0.24422467
-2.2197528 -2.0316701 0.24454054
-1.8849452 -2.0054822 0.2446391
-2.3962185 -1.9857438 0.24471341
-2.3448236 -1.9627439 0.24479991
-2.5777357 -1.9498563 0.2448487
-2.0215402 -1.9455001 0.24486478
-2.9523032 -1.8843937 0.24232978
-1.8825533 -1.8813695 0.24510607
-2.7290974 -1.7815394 0.24548236
-2.152205 -1.7559524 0.24557796
-2.0304856 -1.7076095 0.24575986
-1.9621873 -1.6755207 0.24588059
-1.6977286 -1.6052191 0.24614511
-1.5819879 -1.5655696 0.2462943
-2.7678123 -1.5433476 0.24637884
-2.7280879 -1.5308143 0.24642599
-2.9857447 -1.4791203 0.24082367
-2.6877432 -1.4533561 0.24671742
-2.5205555 -1.3616395 0.24706241
-2.2434464 -1.360279 0.24706721
-1.7819375 -1.3233458 0.24720569
-2.7897978 -1.2595222 0.24744707
-1.8243923 -1.2469556 0.24749318
-1.9200439 -1.1917918 0.24770093
-2.7653317 -1.1680388 0.24779133
-2.7296154 -1.1527927 0.24784869
-1.5873842 -1.093961 0.24806878
-2.1115799 -1.0058022 0.24840114
-3.0108237 -0.99187624 0.24024446
-1.5045477 -0.93709838 0.24194317
-1.9264746 -0.90175402 0.24536578
-1.5879675 -0.81703138 0.242544
-1.744082 -0.80202335 0.2420418
-2.6905925 -0.78807598 0.2415774
-1.6904041 -0.76924878 0.24095075
-1.33355 -0.061510235 0.24678226
-2.841753 -4.9669399 0.25599596
-2.7320344 -4.9314213 0.25470448
-3.0055561 -4.5666337 0.25401473
-1.2431376 -4.5331898 0.25701615
-3.3664358 -4.2818995 0.25081089
-3.0491929 -4.0917754 0.25915581
-2.5750892 -3.9704318 0.2596525
-1.9440569 -3.9633794 0.25831807
-1.3237221 -3.8518023 0.25851175
-1.6390184 -3.4974358 0.25959301
-1.9057618 -3.44859 0.25959301
-1.4091696 -3.4136276 0.25959301
-1.5616708 -3.3525996 0.25959301
-3.0334158 -3.3290431 0.25959301
-1.8092804 -3.3018422 0.25959301
-2.8345394 -3.1784267 0.25959301
-1.8281338 -3.1122413 0.25959301
-2.5050895 -2.9539592 0.25959301
-1.2822294 -2.9530122 0.25264737
-1.5227222 -2.9200964 0.25959301
-1.6093075 -2.9196687 0.25959301
-2.7327621 -2.8191681 0.25959301
-2.6364622 -2.8189621 0.25959301
-2.4784396 -2.8120503 0.25959301
-2.4745481 -2.5819273 0.25959301
-2.791307 -2.5650473 0.25959301
-3.0941393 -2.5453532 0.25959301
-3.0720949 -2.5328259 0.25959301
-2.5326295 -2.527946 0.25959301
-2.6174276 -2.4616582 0.25959301
-1.8282838 -2.4290204 0.25959301
-1.7581096 -2.362215 0.25959301
-1.354545 -0.7230792 0.25634128
-3.3255355 -0.51461488 0.25472647
-1.1647617 -0.46282405 0.25770992
-1.2286 -0.046540167 0.25077671
-3.321419 -4.5347133 0.26185223
-3.3204281 -4.3321443 0.26354274
-3.1345246 -4.0784302 0.26390272
-1.4816689 -3.6061046 0.26936615
-3.2216506 -2.8000076 0.26096296
-2.6272504 -2.1873171 0.26016584
-2.9597013 -2.1588507 0.26027596
-2.8058245 -2.1527014 0.26029974
-1.4226292 -2.0721693 0.2606113
-1.7947243 -2.0484312 0.26070309
-2.5769522 -2.0208387 0.26080984
-1.4709209 -2.0010056 0.26088658
-1.9345005 -1.9869113 0.26094109
-2.0430539 -1.9138533 0.26122373
-3.2058291 -1.8061054 0.26034835
-2.7163601 -1.7111274 0.26200798
-3.1231956 -1.6929984 0.26602668
-1.4389644 -1.6679583 0.26217496
-3.1230385 -1.6480291 0.26517636
-2.9753881 -1.6419945 0.2622754
-2.0019467 -1.6218818 0.26235321
-1.6544894 -1.5977356 0.26244664
-1.6062465 -1.5413929 0.26266462
-1.6992278 -1.4631416 0.26296729
-2.0270367 -1.4510137 0.2630142
-2.6419325 -1.4445294 0.26303932
-1.6205976 -1.4471583 0.26302916
-2.4652445 -1.3612061 0.26318932
-1.5423566 -1.3135424 0.26321214
-3.0635769 -1.2782574 0.26322904
-2.641737 -1.2714173 0.26323232
-2.5063703 -1.2526816 0.26324126
-1.9752996 -1.222322 0.2632558
-3.0698814 -1.1916101 0.26327053
-2.0009279 -1.1441938 0.26329318
-1.444333 -1.1074793 0.26331079
-1.5870606 -1.0531733 0.26333678
-1.3795686 -1.0564004 0.26333523
-1.8135464 -1.0319034 0.26334694
-1.7049897 -0.99111825 0.26740712
-1.1020169 -0.61612868 0.26782545
-2.8479946 -5.1421976 0.27691215
-2.0098915 -4.0721188 0.27806142
-2.5716097 -4.0685277 0.27750781
-1.8878028 -4.0576725 0.27538171
-1.877141 -4.0567102 0.27520189
-1.2845258 -3.7189386 0.27449936
-2.1982446 -3.4233685 0.27666712
-1.3757886 -2.3770218 0.27772713
-3.2202272 -1.958914 0.27995312
-3.2140613 -1.8733858 0.27206641
-1.2918596 -1.6074756 0.27102658
-2.060926 -1.5079781 0.27311677
-1.3644724 -1.1524612 0.27697071
-1.2982148 -1.0681876 0.2712574
-2.5528831 -0.94427383 0.27576137
-1.372501 -0.72855806 0.27316031
-3.3048382 -0.3586328 0.27887839
-1.1585877 -0.15555719 0.27124622
-2.8253648 -4.8318443 0.28456977
-2.6898415 -4.4567318 0.28785735
-3.0218153 -4.4433284 0.28236371
-3.2430522 -4.4180408 0.2821663
-1.6058643 -4.0962315 0.28222957
-3.1900601 -3.8833714 0.2838003
-1.5399063 -3.7266192 0.28608769
-2.0652561 -3.1063766 0.28372627
-3.2330008 -2.7391183 0.28101259
-3.2150888 -1.3380833 0.28438264
-2.0470581 -1.0184917 0.28736183
-1.4296463 -0.91062319 0.28475472
-2.5120587 -0.88439167 0.28497773
-3.3016238 -4.5458183 0.29598612
-3.271524 -4.371356 0.29689139
-3.2816703 -4.3131614 0.295876
-2.1162295 -4.1883116 0.2991761
-1.265605 -4.1045585 0.29021031
-3.3550801 -3.8716078 0.29454103
-1.31249 -3.8787823 0.29227439
-1.1529139 -3.8692575 0.29920724
-3.1051404 -3.4240971 0.29707593
-2.0005634 -3.4239421 0.29273576
-3.2281461 -1.6547821 0.2975412
-2.4514296 -0.92214656 0.29718781
-3.3548367 -0.73576701 0.2958847
-1.1439841 -0.31253552 0.29860249
-2.8622994 -5.0863767 0.30631125
-3.0132186 -4.6379452 0.30431005
-2.9916003 -4.5296206 0.30748188
-1.3249457 -4.4265337 0.30266878
-1.7979517 -4.2364492 0.30774203
-2.2639866 -4.2133565 0.30378982
-3.2529092 -2.8908331 0.30962899
-3.2347426 -1.9695028 0.30230004
-2.0709727 -1.7028975 0.30388182
-3.2297018 -0.97413588 0.30314893
-2.0521307 -0.86015493 0.30441272
-2.3894269 -0.75628865 0.30496609
-1.5609522 -0.56754482 0.30530202
-1.5515486 -0.43563724 0.30943647
-3.4035428 0.060530528 0.30691165
-3.3165677 -4.3188906 0.3124153
-2.9451327 -3.6661186 0.31703275
-1.3577466 -2.5236952 0.31869817
-1.6009063 -0.76160014 0.31565613
-2.8342056 -0.74367249 0.31326064
-2.6169269 -0.72559196 0.31258401
-2.605973 -0.6924777 0.31797934
-1.5654584 -0.41636387 0.31234425
-1.1896316 0.10418583 0.31472635
-1.2619714 -4.3995934 0.32537067
-1.7418957 -4.3538537 0.32899493
-2.8032873 -4.3351226 0.32603335
-2.1793661 -4.3095121 0.32117677
-1.1465462 -4.2299376 0.32392526
-3.3471315 -4.0142293 0.32532501
-3.1900599 -3.8673809 0.32567465
-1.8917621 -3.425004 0.32247269
-2.0841553 -2.924844 0.32767785
-1.351606 -2.774786 0.32790792
-1.3524995 -2.1009569 0.32744038
-1.3499106 -1.2313569 0.32153088
-3.2467301 -1.2073133 0.32289067
-1.6258351 -0.44817182 0.32000721
-1.4634327 -0.28027138 0.32339573
-1.3794757 -0.22658172 0.32823905
-1.4281206 -0.21644545 0.32243106
-3.3998547 -0.025005043 0.32845953
-1.33355 -0.028641406 0.32716405
-3.3020198 -0.011236218 0.32181701
-3.1072619 0.087963946 0.32873282
-1.1689764 -4.559567 0.33837765
-2.9417489 -4.5192928 0.33594221
-1.9117579 -4.3944292 0.33643484
-2.1570332 -4.3740215 0.33285871
-1.9592836 -4.3772702 0.33334839
-1.1562454 -3.6996975 0.33809125
-3.1557643 -3.4617698 0.33212313
-1.3402069 -2.7813511 0.33146504
-3.1682565 -2.6043789 0.33627111
-1.2675061 -2.3780003 0.33007067
-2.032553 -2.1522684 0.3367613
-3.1548309 -1.7449884 0.3336038
-1.2630339 -1.506968 0.33595455
-3.2387114 -1.3770362 0.33665475
-3.2309389 -1.2258478 0.33272725
-2.0745897 -1.1513151 0.33636627
-2.0684714 -1.0117979 0.3370086
-1.7848177 -0.61308938 0.33241838
-2.4306273 -0.58822286 0.33341485
-2.8393025 -0.37911779 0.33165288
-1.3102685 -0.32876995 0.33900592
-2.9447017 -4.6907673 0.34913793
-3.3531482 -4.4417901 0.34821987
-3.3564601 -4.4005895 0.34050015
-1.2091945 -4.4072719 0.34775922
-1.2599245 -4.397233 0.34142032
-3.2131438 -4.3266072 0.34942392
-1.1691998 -4.2051086 0.3443056
-1.1658208 -3.8513892 0.3450923
-2.7772856 -3.4258943 0.34740713
-2.4472139 -3.4259634 0.34934026
-2.4066303 -2.9464767 0.34567735
-2.0950818 -2.5960546 0.34623843
-3.1868489 -2.2333558 0.3400186
-1.2969499 -2.0618405 0.34068191
-3.0424013 -1.6932914 0.34643012
-1.2644081 -1.5697944 0.34258488
-3.1902981 -1.3989323 0.34320128
-3.2633014 -1.1983739 0.34329781
-1.2504386 -0.56699616 0.34407347
-1.2873251 -0.30379021 0.34180498
-1.4693888 -0.1721241 0.34531772
-3.1784399 -0.040931296 0.34700742
-1.2087009 -0.0046935193 0.34496641
-2.9697478 -4.4868174 0.35364479
-3.3736551 -4.4442248 0.351601
-2.8014588 -4.4410949 0.35323137
-1.1645366 -4.4424906 0.35113561
-1.2341197 -3.2817416 0.352696
-1.3605666 -3.0111156 0.35416061
-2.2271912 -3.0083628 0.35448
-1.2353927 -2.5867491 0.35491657
-3.2100942 -2.5742574 0.35366893
-1.2910603 -2.5236106 0.35230637
-2.0699944 -2.047533 0.35642236
-3.0838532 -1.8894601 0.3567993
-1.4696083 -1.8391547 0.35819119
-2.0402977 -1.6374192 0.35790235
-2.4116898 -1.0852292 0.3594507
-2.4157555 -0.63675654 0.35883498
-1.1222208 -0.44532755 0.35585627
-1.4768267 -0.43074113 0.3533259
-1.147305 -0.43797272 0.35030434
-2.8826327 -4.7811842 0.36455777
-2.4935191 -4.5435181 0.36375058
-1.1492829 -3.7025428 0.36317468
-1.285512 -3.5722976 0.36652952
-3.2710118 -2.9158244 0.36463135
-3.2109973 -2.5005009 0.3646417
-1.2317994 -2.3281946 0.36465096
-1.9455844 -2.261703 0.36878875
-3.0314534 -2.2383378 0.3633658
-1.615973 -2.2314334 0.36419767
-1.7275829 -2.1948252 0.36860803
-1.7512753 -2.1855359 0.36972719
-3.0488772 -2.0195322 0.36430305
-2.1165071 -1.9840597 0.36905876
-2.3737171 -1.9610575 0.3679519
-1.2299128 -1.8865072 0.36954409
-3.2121906 -1.6030376 0.36060378
-1.2319033 -1.2135012 0.36557645
-1.2888334 -1.2001107 0.36302662
-2.4050596 -1.1576405 0.36272103
-3.1423321 -0.75239998 0.36142755
-1.5710895 -0.2396422 0.36180723
-1.4933286 -0.13425139 0.36286283
-3.3172371 0.0011986999 0.36950976
-3.3871441 0.10142884 0.3687498
-3.1010375 -4.8698688 0.37353233
-1.8372231 -4.5919085 0.37219289
-3.022927 -4.5295415 0.37730172
-3.3684335 -3.8445635 0.37354419
-1.1889713 -3.6937551 0.3775202
-1.2257271 -3.4106262 0.37841213
-3.1483324 -3.2078087 0.37644687
-1.3132178 -2.9310493 0.37285808
-2.1258435 -2.498147 0.3769978
-2.0894225 -2.2655725 0.3741594
-2.4861627 -2.1933079 0.37380958
-3.0483813 -1.6700276 0.3746638
-1.4429736 -0.42244282 0.37131783
-3.3892877 -0.31571829 0.3719115
-3.1756105 -4.4494319 0.38621143
-1.251596 -4.218997 0.38279703
-2.3527007 -2.0777979 0.3886297
-1.6127534 -2.0280695 0.38848013
-2.3685677 -1.8932134 0.38318014
-2.3726525 -1.709168 0.38214451
-2.3739221 -1.540832 0.38154197
-2.1408725 -1.4507571 0.38813192
-3.1835651 -0.99051201 0.38585845
-2.3779233 -0.55401403 0.3887772
-3.1472406 -0.15434748 0.3822788
-1.9628764 -4.9261546 0.39874938
-1.6527281 -4.9172773 0.39533442
-1.236912 -4.3883228 0.39176497
-3.2896373 -4.317718 0.39937824
-1.2435652 -3.9727373 0.39988771
-3.1464996 -3.5253038 0.39138836
-3.1505935 -3.4274855 0.39196339
-1.3115189 -3.0562873 0.39393646
-1.2193246 -2.5418215 0.39923567
-1.2212892 -2.2601161 0.39361256
-2.1599514 -1.6001754 0.39496756
-2.3608475 -0.55315733 0.39541754
-1.7564121 -0.53988451 0.39131662
-1.1165768 -0.22507133 0.39076579
-2.4978766 0.50788665 0.393498
-2.3267574 -4.9337273 0.40195039
-2.939131 -4.9243903 0.40047395
-1.3727018 -4.9226518 0.40290105
-1.1412261 -4.4183121 0.40062368
-3.3504753 -4.1980357 0.40465859
-2.0400951 -3.741395 0.40374869
-1.7965091 -3.7442226 0.40595335
-3.0666575 -3.7304754 0.40483627
-1.2521203 -3.5686574 0.4073993
-2.3640497 -3.4774868 0.40847963
-2.1857612 -3.4455311 0.40549874
-2.83002 -3.4373209 0.40473282
-2.2050776 -3.2805572 0.401604
-2.3167932 -3.0773792 0.40158716
-2.2358069 -2.7938106 0.401604
-2.307502 -2.3468268 0.401604
-2.9816551 -2.2843671 0.40949529
-2.7846112 -2.2843568 0.40941143
-3.2824697 -2.0524728 0.4006443
-3.2823088 -1.9951944 0.40015864
-1.4452462 -1.948135 0.40424433
-2.2002196 -1.6144891 0.40439284
-2.1718643 -0.97675377 0.40536803
-1.3298048 -0.95708919 0.40632504
-2.3728173 -0.75660658 0.40448701
-1.5032009 -0.70492887 0.40548575
-3.2744274 -0.64074671 0.40294975
-2.1994772 -0.61586964 0.405368
-2.7549064 -0.53755409 0.40649101
-2.3155944 -0.5235948 0.405368
-2.2505138 -0.51169103 0.405368
-1.5654153 -0.41572282 0.40403223
-2.6330853 0.51196599 0.40269947
-1.4828629 -4.3446803 0.41209698
-1.5575103 -3.8917935 0.41898096
-3.1564784 -3.6116226 0.41466355
-1.4076611 -3.614728 0.41796219
-2.9541931 -3.5977595 0.41969901
-1.7258251 -3.58602 0.41860396
-2.0656078 -3.5405619 0.4143635
-1.5408666 -3.5454061 0.41481537
-2.9149082 -3.5233803 0.41276079
-2.1665189 -3.5140004 0.41188577
-1.2149873 -3.258755 0.41497806
-3.1224387 -3.0669477 0.41056302
-1.3096536 -2.9993467 0.4135389
-3.2857428 -2.7314944 0.41488326
-2.8639584 -2.2847972 0.41308036
-3.2154446 -2.1143441 0.41801828
-2.0357792 -1.8461463 0.4103415
-1.8657808 -1.8311157 0.41213301
-1.2129107 -1.8284445 0.41645256
-2.8581576 -1.8149981 0.41405404
-2.0600042 -1.812202 0.41438726
-2.5867817 -1.7937789 0.41658276
-1.8246551 -1.7933892 0.41662923
-1.9635231 -1.7899522 0.41703883
-1.4678845 -1.7700284 0.41941321
-2.3740637 -1.6797676 0.41339344
-1.2110355 -0.580428 0.41851786
-1.1687696 -0.085314214 0.41802377
-1.7273651 -3.87392 0.42977285
-1.7136586 -3.8597033 0.42951676
-3.1918752 -3.8359857 0.42224947
-2.8994687 -3.8281183 0.42894787
-2.448673 -3.8224511 0.42884582
-2.6190174 -3.818212 0.42876941
-1.9452732 -3.8132436 0.42867997
-1.9671752 -3.7256742 0.42710266
-1.81299 -3.6904881 0.42646891
-2.8599877 -3.6269042 0.42241773
-3.2160835 -3.4178386 0.42183512
-1.3005143 -3.2472882 0.4210268
-3.2890754 -3.0182891 0.42717057
-2.118336 -1.5698167 0.42939126
-1.2090495 -1.4842257 0.42722481
-2.8928947 -0.69837564 0.42562932
-2.3145947 -0.50604916 0.42025518
-2.9552424 -0.3122828 0.42968062
-1.3857394 -0.31516629 0.42525029
-2.5305381 0.54572982 0.42937008
-3.2478776 -4.2714167 0.43896866
-2.550631 -3.7579279 0.43443599
-3.1741316 -3.6889386 0.43782127
-2.2391601 -2.2599266 0.43818992
-2.7676063 -1.6274648 0.43661255
-2.9498425 -1.6174616 0.43781626
-2.3724854 -0.99553525 0.4399035
-1.4153577 -0.88386369 0.43573397
-1.4041238 -0.72778857 0.43970835
-2.529918 -0.51725024 0.4361771
-3.2800097 -0.29771081 0.43674266
-1.538462 0.53273243 0.43685293
-2.6320193 0.54698408 0.43472007
-2.4451344 0.55723953 0.43657026
-2.4080014 -4.9962444 0.44145313
-3.2327166 -4.3142929 0.44315174
-3.2476101 -4.1584139 0.44964635
-1.2834824 -4.1041307 0.44351462
-2.3698084 -4.0013962 0.44945791
-3.3135698 -3.8043907 0.44565606
-1.4349604 -2.2899532 0.44868481
-3.13976 -2.2336187 0.44071895
-1.2833967 -1.8511539 0.44414875
-1.2016795 -1.5708271 0.44739002
-2.3180218 -1.5364572 0.44885164
-2.2428346 -1.464249 0.44610989
-2.1802371 -1.438796 0.44661489
-2.3724921 -1.1604514 0.44308344
-3.3468275 -0.64129746 0.44577265
-1.2910624 -0.60546196 0.44591904
-2.988821 -0.52228469 0.44062483
-1.1628563 -0.080162272 0.44184658
-1.3040273 0.51945382 0.44632307
-2.3388288 -5.0238166 0.45812416
-2.0935326 -5.0153151 0.45332342
-1.2740723 -4.3893085 0.45333958
-2.7643504 -4.0057559 0.4551577
-3.1949797 -3.1613872 0.45628965
-2.5646672 -2.9917543 0.45849967
-3.0667415 -2.3030322 0.45431432
-2.950037 -2.2891376 0.4546839
-2.180059 -1.7737091 0.45428553
-2.2251077 -1.7242712 0.45315322
-1.8403671 -1.5227737 0.45932996
-2.2030046 -1.494946 0.45986286
-1.2816062 -1.1018945 0.45806554
-1.1978576 -1.0517528 0.45887518
-1.3269601 -0.64021981 0.45946765
-1.1467081 -0.47234541 0.45404005
-1.5878451 0.31075466 0.45144367
-1.269407 -4.3058662 0.4647544
-1.2219545 -4.3057814 0.46497181
-3.242964 -4.2126198 0.46540219
-3.3581293 -3.9729953 0.4616093
-3.0177872 -3.9627211 0.4656449
-1.553247 -3.941303 0.46765718
-3.0955782 -3.5805979 0.46668109
-1.2518094 -3.5793717 0.46059436
-1.7850828 -2.9928145 0.46900612
-1.5116251 -2.276562 0.46647993
-1.764818 -2.2564721 0.46323693
-1.5524909 -2.2406204 0.4605085
-1.1964359 -2.2077184 0.46217453
-2.2391601 -2.0609462 0.46784469
-1.4323599 -1.8036183 0.46741873
-1.8993123 -1.5202557 0.46030259
-1.6256056 -1.515538 0.46212474
-2.5357156 -0.51145172 0.46825799
-3.3530703 -0.32836422 0.46541825
-1.5278417 0.66665506 0.46311873
-1.6312629 -5.0213509 0.47028846
-2.8632257 -4.0214157 0.475631
-3.3185496 -3.9865322 0.47017467
-3.1711557 -3.8065639 0.47326308
-1.5510666 -3.6521392 0.47563627
-1.8889562 -2.214241 0.47283208
-1.6521802 -2.218883 0.47332412
-2.6812716 -2.1050601 0.47688922
-3.3100014 -1.6139269 0.47644621
-2.9527447 -0.36063135 0.47613358
-2.9915066 -0.28079331 0.47767133
-3.3487155 -4.5608292 0.48639512
-1.12514 -4.4275293 0.48746169
-3.2445459 -4.4125319 0.48796079
-1.2625498 -4.2721953 0.48139068
-2.1241276 -3.7817121 0.48208475
-1.5525198 -3.7188444 0.48712078
-1.3013483 -3.4334731 0.4897356
-2.8634934 -2.9948897 0.48626047
-2.7247572 -2.154969 0.48098642
-3.3126724 -2.1478465 0.48408717
-3.3073106 -0.17078194 0.4876579
-1.1453804 -0.17697114 0.48170897
-3.0309603 -4.554039 0.49058878
-3.1429999 -4.4324403 0.492419
-3.3140707 -4.07339 0.49464464
-1.5123526 -4.0233388 0.49908322
-1.5509887 -3.9282947 0.49534088
-2.7245803 -3.7885227 0.49014595
-2.3701451 -3.4952579 0.49122182
-1.6584817 -2.9954181 0.49536774
-1.6121104 -2.9990823 0.49969244
-2.0626297 -2.1645179 0.49404269
-2.6200106 -2.0179939 0.49587071
-1.114403 -0.4020761 0.49072093
-3.0492253 -0.29087648 0.49414968
-1.5455949 -0.038883209 0.49391055
-3.0911777 0.72097081 0.49479201
-2.5431504 -5.0275984 0.5047074
-3.2758329 -4.7905645 0.5040704
-1.2173598 -4.7295704 0.50407702
-3.1758735 -4.2350807 0.5009914
-3.2576494 -4.1473064 0.50986874
-1.9657285 -3.4579082 0.50232244
-3.0190072 -2.3188343 0.50725591
-2.5847819 -2.3171742 0.50295287
-2.1601501 -1.9995784 0.50736016
-1.4323602 -1.9945754 0.50945419
-1.33355 -0.60977441 0.50118619
-3.3973203 -0.44628823 0.50295353
-1.7701094 -5.0261111 0.51155311
-3.2096362 -4.6351852 0.51418877
-1.4582601 -4.4971857 0.5161041
-3.3292603 -4.2808933 0.51905477
-1.3155717 -4.2300739 0.51545978
-2.9498191 -4.049983 0.51298028
-2.4773009 -3.3944049 0.51216441
-2.7369132 -2.9992359 0.51963651
-3.2232122 -2.8079805 0.51126707
-3.2237444 -2.7228413 0.51940489
-1.2779529 -2.7108102 0.51325768
-3.2224183 -1.913697 0.51306629
-3.2230806 -1.750762 0.51862943
-3.1951399 -0.75065804 0.51693606
-1.6605194 -0.52819055 0.51471853
-1.10524 -0.12703839 0.51170921
-3.2173328 -4.2942963 0.52136344
-2.3404865 -4.062511 0.52935946
-3.2290535 -3.8501644 0.52000225
-1.3264503 -3.4159021 0.52213073
-2.1013072 -3.2624681 0.5263198
-3.0781515 -3.0453281 0.52239484
-1.2773653 -2.4388618 0.52601558
-2.7147756 -2.3259113 0.52559918
-2.10622 -1.9487846 0.52586108
-3.3270819 -1.2555374 0.52349877
-2.115093 -1.056782 0.52795517
-2.3272972 -0.48619899 0.52894682
-3.201247 0.68835342 0.52265298
-1.8622735 0.74478197 0.52265298
-3.295249 -4.8175716 0.53519064
-1.1369995 -4.7229543 0.53436148
-3.3046274 -4.6531272 0.53086793
-3.3482065 -4.3080735 0.538966
-2.566256 -4.0687413 0.53750497
-1.4582601 -4.0133452 0.53707063
-1.2719646 -3.8619752 0.53893751
-1.818537 -3.3484707 0.53937411
-1.3768958 -3.3173766 0.53319871
-2.5548778 -3.3063197 0.5316779
-2.2494683 -3.2646117 0.53633857
-2.1010835 -3.2280552 0.53328854
-2.4062452 -3.0286093 0.53345746
-1.298233 -3.0037775 0.53690708
-1.1772323 -2.6908259 0.53397781
-1.6397514 -2.3297539 0.53348875
-2.902581 -2.2584119 0.53457946
-3.0426178 -2.1858835 0.535667
-1.1683351 -1.9896885 0.53958315
-1.985374 -1.8880093 0.53127909
-1.5450162 -1.4521933 0.53124535
-3.3328736 -1.4106708 0.53953052
-2.1452963 -1.3103372 0.53359115
-2.3713751 -1.1004819 0.53786874
-1.5221186 -0.22045758 0.53196102
-3.2054217 -0.01282328 0.53773594
-1.4312787 0.7191155 0.53214848
-1.2037208 -4.9660525 0.54462296
-1.8778622 -4.0769873 0.54828596
-1.4597667 -3.2217865 0.54922903
-2.1789374 -3.199399 0.5461002
-1.5314608 -3.1824059 0.54845202
-2.0577106 -3.0748177 0.54600143
-1.8354692 -3.076334 0.54977334
-1.645978 -3.0595744 0.54041427
-3.2039399 -2.9876263 0.54730886
-1.1704061 -2.3502424 0.54444903
-2.0872467 -1.5118314 0.54451096
-3.0058339 -1.4505816 0.54700673
-3.0110874 -0.58193958 0.54482502
-3.1717515 0.38754547 0.54282558
-1.3129915 -5.0814476 0.55535573
-1.3039538 -5.0822349 0.55771202
-1.2155432 -4.6155705 0.55856186
-3.3657551 -4.4260392 0.55424708
-1.13124 -4.009202 0.55930209
-1.4097383 -3.7475259 0.55548739
-1.4756129 -3.598371 0.55492419
-1.7709386 -3.1019373 0.55466592
-1.7923696 -1.4686148 0.5573746
-3.2263312 -1.0414441 0.55848646
-2.1142163 -0.79150879 0.55425954
-1.143904 -0.40851659 0.55805153
-3.2478981 -0.28666705 0.55472833
-1.1739706 -0.11224507 0.55440539
-3.3801932 0.094456404 0.55155885
-3.3542566 -5.0325904 0.56999677
-3.1815948 -5.0213933 0.56177217
-1.2159216 -5.0092587 0.56273866
-1.2856683 -4.3836632 0.56187963
-1.1875141 -4.1403036 0.56672394
-1.6039293 -4.0862617 0.56041098
-2.776118 -3.6794438 0.56429458
-1.9930686 -3.6790416 0.56660885
-3.3056781 -3.2783282 0.56826901
-3.2050006 -3.1908917 0.56537551
-3.3481736 -3.1519961 0.56870306
-1.1827366 -3.13625 0.56875718
-3.2902336 -2.9667361 0.56933969
-3.3467772 -2.7615616 0.56938601
-3.3544042 -2.3826475 0.56938601
-2.8322206 -2.2467263 0.56727713
-1.2748163 -2.249934 0.56098729
-1.1947956 -1.9918412 0.56938601
-1.1479084 -1.731837 0.56938601
-3.3409433 -1.3659483 0.56938601
-3.3846171 -0.42869481 0.56822598
-1.4730719 -0.27155599 0.56080019
-1.8853031 0.63870966 0.56711233
-2.8102632 -5.0302033 0.57413632
-3.213119 -4.4156957 0.57796192
-1.3924921 -3.7240589 0.57241476
-3.1665494 -3.6052547 0.57593429
-3.2051814 -3.5760739 0.57706517
-1.1649135 -2.7769432 0.57619929
-1.2748208 -2.3379722 0.57974476
-2.9092939 -1.6850462 0.57454723
-1.9219615 -1.6113738 0.57467312
-1.7475413 -1.5748302 0.57377976
-2.9353468 -1.5686914 0.573623
-1.1569223 -1.3626844 0.57167268
-2.113915 -1.0542459 0.57517236
-3.3312101 -0.99259996 0.57590848
-1.4263383 -0.68522727 0.57842922
-3.3452933 -0.60583574 0.57773238
-3.305151 -0.53608394 0.57534444
-1.1617514 -0.29451773 0.57141638
-1.5214647 -0.15516806 0.57998705
-1.1504192 -0.15369061 0.57926095
-3.1176515 0.6044628 0.57180113
-3.1070275 0.60733056 0.57560283
-1.43747 0.61105382 0.57534838
-2.1902049 -5.1455216 0.58675164
-2.112294 -5.0359306 0.58527195
-3.3736508 -4.4161983 0.58146048
-3.2068398 -3.8837125 0.58093089
-2.3772664 -3.6847391 0.58213329
-2.6260159 -3.6777084 0.58036655
-1.1539323 -3.5387046 0.58262146
-1.2747533 -2.6998599 0.58480442
-1.2748256 -2.332417 0.58268809
-3.2226701 -2.1667414 0.5844776
-3.345125 -2.1559896 0.58461225
-1.1532609 -1.8145585 0.58415562
-3.0076303 -1.6922326 0.58625323
-2.1002741 -1.6318166 0.58909488
-1.1533204 -1.4461881 0.58384287
-1.1333044 -0.30053717 0.58632457
-1.13124 -4.2451267 0.59208512
-1.5418608 -4.0519061 0.59735763
-2.4201109 -3.839731 0.59286654
-3.3675091 -2.4673743 0.59714437
-3.3446641 -2.4691343 0.59392411
-1.1546066 -2.4120207 0.59828556
-1.8616996 -2.359633 0.59013444
-3.3497381 -1.9139345 0.59176379
-1.5325444 -1.8192081 0.59529394
-2.3706717 -1.1514504 0.59954208
-3.0931439 -0.68917584 0.59234071
-3.3682749 -0.598037 0.59045869
-3.3096027 -0.55931103 0.59109879
-3.2258077 -0.32379305 0.59816384
-3.1382668 -0.21804771 0.59914571
-2.9632342 0.097217791 0.59202832
-2.4386277 0.65847784 0.59577131
-1.2682445 -4.3967867 0.60882348
-2.8351531 -4.1192861 0.60358775
-3.3216805 -3.9890721 0.60670018
-3.3011653 -3.6668775 0.60952467
-3.2747986 -2.9390135 0.60341448
-1.5330142 -1.7298207 0.6033529
-1.1290836 -0.3450579 0.60306585
-1.1052401 -0.3373729 0.60033005
-3.2211173 -0.26646593 0.60788596
-3.0681846 -4.4875765 0.61492479
-3.1894929 -4.2058444 0.6165418
-1.2392188 -3.8609669 0.61216164
-2.9615083 -3.8089571 0.61679596
-3.3762879 -2.3124049 0.61942148
-2.700242 -2.2596612 0.61494851
-1.1474807 -2.2534456 0.61680722
-2.1127212 -0.98015571 0.61953253
-1.4300195 -0.85197794 0.61454278
-1.3715513 -0.67905235 0.61828452
-3.3519392 -0.44354215 0.61379367
-1.1560347 -0.4432835 0.61162877
-3.1157222 0.170524 0.61762226
-1.6114215 0.63690627 0.61221254
-2.656605 0.86638063 0.61308867
-1.6080122 -5.1484227 0.62519217
-3.2186191 -4.5218973 0.62704784
-1.2516081 -4.1942797 0.62862355
-1.429395 -3.8086877 0.62519503
-1.4302689 -3.7684157 0.62241155
-3.3465376 -3.6239617 0.62902927
-3.3529067 -2.4731507 0.62184989
-1.509431 -1.6352661 0.62308216
-2.4996166 -1.5895252 0.62757021
-1.1407292 -1.2241278 0.62623155
-1.2749114 -1.1455617 0.6244446
-3.2663879 -0.96306187 0.62328541
-1.1880844 -0.96295524 0.62443566
-1.4546952 -0.65214527 0.62171078
-2.5197403 -0.48566625 0.6248318
-1.1489525 -4.8077936 0.63738424
-3.285759 -4.2956305 0.63102567
-2.8658853 -4.1403785 0.63116354
-2.7212906 -4.1446114 0.63669825
-2.6807337 -4.1428237 0.63436079
-3.3212314 -3.9623408 0.63370878
-3.2154431 -3.7408209 0.63541961
-3.164124 -3.7316375 0.63098335
-1.8804767 -3.693007 0.6335873
-1.5044274 -3.6358964 0.63625824
-1.2394078 -2.9448345 0.63798875
-1.117286 -2.6440301 0.63864881
-3.1057038 -2.3750949 0.63437974
-1.54466 -2.1905909 0.63651693
-1.6400692 -0.53577071 0.63669819
-1.3919189 -0.37503874 0.63302845
-3.0381677 -0.20800132 0.63605434
-1.5040324 -0.19981535 0.63535869
-3.292985 -0.16157459 0.63227552
-1.9123683 0.66170049 0.63322425
-1.8704786 -5.1643767 0.64174962
-3.0309601 -4.4273248 0.64801908
-1.2875975 -3.1617007 0.64678162
-3.3571653 -3.0708089 0.64865994
-1.1814973 -2.8369005 0.64868402
-3.1199901 -2.1883323 0.64297909
-1.1524447 -2.1892126 0.64868402
-1.2749832 -1.8269426 0.64003068
-3.3435364 -1.7752192 0.64868402
-1.1446288 -1.2672955 0.64868402
-1.1726538 -0.84729916 0.64868498
-1.139328 -0.50635803 0.64579153
-2.1776006 0.68093503 0.64398503
-2.8757961 -5.1614022 0.65416491
-1.209144 -5.024817 0.65636313
-1.8787812 -4.5569124 0.65873897
-2.2670894 -4.5470657 0.65873897
-2.1899095 -4.5157189 0.65873897
-1.597634 -4.4497008 0.65873897
-2.041563 -4.4167371 0.65873897
-2.3930993 -4.4082608 0.65873897
-2.9489844 -4.393157 0.65873897
-2.3089619 -4.3720789 0.65873897
-3.3665833 -4.3603673 0.65428269
-3.3774099 -4.3554859 0.65673774
-1.70697 -4.3228493 0.65873897
-2.5567422 -4.3142185 0.65873903
-1.906003 -4.2150221 0.65873897
-2.7989492 -4.1799645 0.65873897
-2.4558535 -4.1641121 0.65873897
-1.3587036 -3.7534156 0.6570788
-1.0873296 -3.7193508 0.65558743
-1.4473569 -3.6439219 0.65205777
-1.287137 -3.4416296 0.6506741
-1.1291146 -3.4474146 0.65809125
-1.2749927 -2.9378181 0.65588039
-3.2262416 -2.3008194 0.65443754
-3.2262251 -0.97961301 0.65555185
-1.2552381 -0.96014798 0.65473825
-3.2509665 -0.45887887 0.65058696
-3.3385115 -0.14566526 0.65973222
-3.1587694 0.75837386 0.65334249
-1.3285018 -5.0309258 0.66845775
-2.6166148 -4.7878919 0.66852498
-2.1767395 -4.7893496 0.6686241
-1.9142082 -4.7044816 0.66284955
-2.4596744 -4.6924849 0.6620332
-2.1480641 -4.6945601 0.6621744
-1.5617741 -4.6695971 0.66047591
-3.3765354 -4.4189711 0.66814697
-3.2451432 -4.3450809 0.66822815
-3.319767 -3.9626822 0.66921151
-1.8062859 -2.2578745 0.66756767
-1.659452 -2.2573833 0.66512924
-2.0328445 -0.47904623 0.66088992
-1.4559461 -4.9494176 0.6795156
-3.1010206 -4.9344883 0.67849976
-2.4914041 -4.8952065 0.67582691
-2.1532552 -4.8938766 0.67573637
-1.6509427 -4.8972125 0.6759634
-1.7656252 -4.8831959 0.67500961
-2.3597591 -4.8691783 0.67405593
-1.6297638 -4.8603163 0.67345285
-3.4330812 -4.7658067 0.67271227
-3.3936782 -4.6065898 0.67313379
-3.2790959 -4.5371795 0.67558002
-1.2923331 -4.2257185 0.67277229
-1.219061 -3.9641964 0.67013943
-2.186131 -3.8827336 0.67645603
-2.4205952 -3.7304378 0.6790837
-2.6460788 -0.4888767 0.67381883
-2.9586215 0.79463935 0.67250925
-2.4184585 -5.190834 0.68662781
-3.3785319 -5.1025157 0.68449855
-2.4188395 -4.9926858 0.68245959
-2.5335228 -4.9786835 0.68150687
-3.2068601 -4.8756771 0.68240863
-3.2640712 -4.3288732 0.68207109
-1.1469731 -3.9878118 0.6846115
-2.4227555 -3.887042 0.68348199
-1.724094 -3.7239833 0.6841926
-1.2840096 -3.402957 0.68368697
-1.1242019 -3.3071213 0.68266207
-3.0058398 -2.2730985 0.6826371
-1.7438922 -2.2661719 0.68017679
-2.3696892 -1.1955016 0.68512982
-1.4652801 -0.30428183 0.68577868
-3.2476249 -0.26466018 0.68663031
-1.4731501 0.031963229 0.68321913
-1.6232984 0.79886353 0.68905711
-2.1580684 -5.0454721 0.69433141
-3.2452083 -5.0299325 0.69422644
-1.2850902 -4.8612833 0.69811088
-3.3959417 -4.6249237 0.69130754
-1.280365 -4.2559257 0.69060415
-1.1553725 -4.242691 0.69217551
-1.123685 -2.3638463 0.69303221
-3.3805838 -1.8635505 0.69440472
-3.3802023 -1.6959221 0.6930629
-3.2666383 -0.29336172 0.69074219
-1.2668037 -0.29453427 0.69083446
-1.2976044 -0.13147777 0.69347781
-3.369808 0.21156546 0.69157922
-3.3587766 0.30145723 0.6940006
-1.7603755 0.87023103 0.69240063
-1.1084061 -4.6681671 0.70065606
-3.1046832 -4.4721532 0.70503378
-3.0710938 -4.4391522 0.70433372
-1.4539783 -4.3888545 0.70633215
-1.12514 -4.0270443 0.70458692
-1.9208863 -3.738348 0.70475179
-3.2260594 -2.5282049 0.70608461
-3.384485 -1.0663354 0.70729339
-1.9061906 -0.48260346 0.7052362
-1.1031498 -0.4803158 0.7050516
-1.28649 -0.35423744 0.70493549
-1.1603849 -0.23139209 0.70343316
-1.2210677 0.021780774 0.70790219
-1.5133502 0.7359916 0.70730698
-2.9565287 0.74926579 0.70730698
-1.4264157 0.75980401 0.70730698
-1.9086859 0.76117563 0.70730698
-2.6533508 0.78984272 0.70848989
-3.0351171 -4.6149526 0.71029264
-1.12514 -4.1025457 0.71830904
-3.1691544 -3.7949638 0.71530282
-2.6294115 -3.7410195 0.71272242
-3.3916731 -3.3314939 0.71916997
-1.43251 -2.1914377 0.71500826
-3.2260919 -1.7725687 0.71380377
-3.2261119 -1.4858252 0.7171362
-1.1154803 -0.83383358 0.71481562
-3.0239401 -0.50233918 0.71779656
-3.2959278 -0.29404831 0.71891838
-3.0129368 -5.1636 0.72433794
-2.2681844 -5.1479511 0.724338
-2.1587443 -5.1471596 0.72433805
-3.2673874 -5.119153 0.724338
-1.9215968 -5.0644889 0.72790903
-3.4310203 -4.7163482 0.724338
-1.2174748 -4.4677224 0.72694129
-3.1843405 -4.1749711 0.7242893
-1.2289475 -4.127377 0.72075438
-2.3517859 -3.7480581 0.72086334
-1.2798554 -3.3581588 0.7294445
-1.1103662 -2.5933366 0.72999942
-3.3908019 -1.641701 0.72878313
-1.1670666 -0.96068645 0.72042632
-3.3508503 -0.95325345 0.72915924
-1.6006936 -0.61159432 0.72033548
-1.4592342 -0.53417283 0.72959793
-3.2642441 0.0042753266 0.72727978
-1.1841156 0.0072066328 0.72407937
-3.4275863 -4.4927807 0.73736155
-3.0969353 -4.3490148 0.733109
-1.127823 -3.9831798 0.73415112
-2.4516132 -3.758503 0.73200655
-3.2220876 -3.4434795 0.73825276
-3.391526 -3.1191278 0.73173082
-2.4937472 -2.4327013 0.73213077
-1.2751143 -2.0094888 0.738675
-3.4217405 0.040057 0.73094809
-1.2949759 0.6593551 0.73996556
-1.4299386 -5.0744309 0.74721938
-1.0914351 -4.547276 0.7477721
-3.329809 -4.4304395 0.74974889
-1.1272316 -4.2854085 0.74684989
-3.1368723 -4.2320457 0.74550408
-3.0500181 -3.9800198 0.74516785
-1.8124063 -3.916718 0.74217677
-1.429544 -3.8629518 0.74302649
-3.2613916 -3.8211944 0.74443966
-2.9746602 -3.8053396 0.74455959
-3.2260308 -2.121774 0.74450201
-2.3689981 -1.0522803 0.74012816
-1.1009014 -0.14876412 0.74477464
-1.2109151 -0.014409338 0.74800253
-1.1313612 -4.5656691 0.75951219
-1.5266914 -4.4887919 0.75673437
-1.3314908 -3.8947387 0.75823224
-1.3237807 -3.7366483 0.75468183
-1.2751884 -2.7221761 0.7543925
-3.3935812 -2.3858519 0.75124848
-2.0874777 -2.1916654 0.75133991
-3.2260904 -1.4903971 0.75304073
-3.0952919 -0.53125793 0.75586516
-1.1333702 -0.31861463 0.75265777
-3.2335427 0.65908128 0.75783437
-3.081491 -4.1645179 0.76430142
-3.3303838 -3.8658407 0.76070261
-3.2484698 -3.0760612 0.76952779
-1.7790192 -2.4460855 0.76025343
-1.2750385 -1.1205149 0.76442552
-1.2767627 -0.053794999 0.76723111
-3.2667961 -0.030129977 0.76749307
-2.0261989 0.64724362 0.7676369
-1.3625149 -4.5500245 0.77513593
-1.2999696 -4.5545936 0.77057314
-1.2894776 -4.5479093 0.77724838
-1.2058909 -4.3434772 0.77461123
-1.3455492 -4.1534457 0.77879471
-2.8718269 -3.9441061 0.77853405
-1.5713608 -3.7761111 0.7724669
-3.3951087 -1.9334112 0.77151668
-3.3343148 -0.56655967 0.77923584
-2.7954574 -0.48935467 0.7753157
-1.2435497 -0.06153477 0.7774235
-1.685894 0.61811548 0.77684557
-1.4966433 -5.0819178 0.785218
-1.6424093 -5.0092626 0.78649652
-2.9796944 -3.9375246 0.78692865
-2.7507644 -3.7836947 0.78796101
-3.2263823 -3.5677774 0.78045201
-3.22595 -2.7811117 0.78033441
-1.2805001 -1.4798591 0.78425539
-2.2539449 -1.2113202 0.78572607
-3.3961759 -1.0704991 0.78497177
-2.3482442 -0.46125722 0.78234851
-2.143549 -0.46184415 0.78226233
-1.3540335 -0.44721419 0.78104585
-3.0433447 -0.27078697 0.78726894
-3.3716295 0.42058262 0.78474885
-3.0515478 -5.0072832 0.79238927
-1.2176368 -4.3717413 0.79641002
-3.2610397 -4.0672007 0.79774439
-1.0934966 -3.8161247 0.790142
-1.112522 -3.8008914 0.79966521
-1.3522214 -2.6177926 0.79342097
-3.396853 -2.5159929 0.79621035
-3.1395466 -2.5001497 0.79021662
-3.1181226 -2.3510842 0.79999989
-1.414459 -0.83647966 0.79797685
-3.2105246 -0.43591154 0.79550314
-1.3352711 -0.38559777 0.79870194
-1.3696619 -0.17565691 0.79153705
-3.3823161 0.28002918 0.79072499
-1.1029891 -4.6843138 0.8029055
-1.1021054 -4.6276112 0.80483085
-2.9777789 -4.3910437 0.80418777
-3.3319802 -4.1706457 0.80543458
-3.29353 -4.0867395 0.80317855
-3.3083665 -4.0662766 0.80579835
-3.0060413 -2.3057871 0.80598491
-1.1039215 -1.7370851 0.80034238
-3.2260895 -1.3323555 0.80306792
-1.2750663 -1.2937744 0.80140722
-3.4042764 -0.47438377 0.80738759
-1.1968912 -0.44531542 0.80817258
-1.1689686 -0.11385974 0.80720705
-2.1667609 -5.0958014 0.81336272
-3.0138006 -5.0874825 0.8174237
-1.5991007 -5.0879841 0.81200469
-1.1277815 -4.950367 0.81295085
-1.2781048 -4.8207655 0.81955469
-1.2703559 -3.6011519 0.81940687
-1.1025865 -3.3255568 0.81356788
-2.6403904 -2.4721088 0.81519032
-1.6143081 -2.4706686 0.81220794
-1.1024839 -1.547217 0.81975162
-3.3983481 -0.87241209 0.81439507
-3.2242782 -0.37707439 0.81032348
-3.1997602 -0.24013166 0.81075853
-1.234736 -0.19769746 0.81195378
-2.979465 -4.1331649 0.82895172
-3.4326198 -4.1108885 0.82530314
-2.2422421 -3.9348214 0.82701612
-1.9615896 -3.9359715 0.82301491
-1.6751761 -3.7922254 0.82182765
-1.1007358 -3.5133872 0.82864505
-1.2715515 -3.2002501 0.82063538
-2.5139501 -2.4746797 0.82051307
-3.2259712 -2.4512901 0.82311034
-1.6245636 -1.2451048 0.82675576
-3.398602 0.12810881 0.82017434
-3.3636494 0.52037978 0.82992184
-1.3074429 0.59305453 0.82505417
-3.1565132 -4.4541206 0.83695304
-1.4041976 -3.7873902 0.83232045
-1.2752209 -2.7541149 0.83142567
-1.5375879 -2.4827876 0.83730096
-3.2259781 -2.35165 0.83480126
-2.5618892 -2.3413074 0.83060563
-1.6238818 -2.3429577 0.83851254
-3.1304026 -1.9940516 0.83345962
-3.2143703 -1.5579842 0.83808398
-1.1403823 -0.37886292 0.83139241
-3.3479872 -0.34747368 0.83566445
-3.3745909 0.45350194 0.83958822
-1.299334 -5.0865774 0.84884155
-1.2957207 -5.0553293 0.84467113
-3.3899691 -4.8115311 0.84900403
-3.3589187 -4.4213281 0.84975833
-2.980531 -4.1194525 0.84814411
-1.260751 -3.9792981 0.8442688
-2.3706582 -3.9413173 0.84945679
-3.1182623 -3.885931 0.84555036
-3.4009604 -3.8202033 0.84596097
-1.6302214 -3.7975993 0.84388381
-3.4013669 -3.4573362 0.84168118
-1.1000648 -3.4500663 0.84986985
-3.2259722 -2.3686261 0.84871709
-1.9898641 -2.3204324 0.84318918
-2.4503822 -2.3175368 0.84624624
-1.1008197 -1.918131 0.84300995
-1.2750765 -1.2622993 0.84325993
-1.1137989 -0.95444053 0.84974217
-1.0637279 -0.30023307 0.84982693
-3.22155 -0.17578954 0.84714234
-3.3694382 0.48111385 0.84401649
-2.2376873 0.74363208 0.84144044
-2.7111199 0.84419698 0.84744412
-3.3670769 -4.4174733 0.8512634
-1.3155355 -4.4131069 0.85296857
-3.2191834 -4.2650576 0.85025257
-1.373139 -4.2466278 0.85418451
-3.3588347 -4.1926594 0.85376704
-1.081126 -4.1956778 0.85994929
-2.8288429 -3.7991955 0.85306162
-2.4534616 -2.4437742 0.85594004
-2.9237719 -2.3443584 0.85344422
-1.4366965 -2.3011651 0.85349035
-1.2751538 -2.006393 0.85905755
-2.0793641 -1.2552491 0.85487294
-3.2827051 -0.94861066 0.85189819
-3.2074704 -0.42398918 0.85686338
-1.2585568 -0.2125579 0.85658115
-2.3938107 -5.0861001 0.86661804
-2.1803589 -5.018733 0.86820555
-3.1171656 -4.0792375 0.86861193
-1.3291557 -3.9274995 0.86015666
-2.9716139 -3.802238 0.86707294
-1.7981138 -2.4984741 0.86978078
-2.0304432 -1.2584074 0.86381185
-3.2260671 -1.2346044 0.86199379
-1.0994958 -1.1784356 0.8649357
-1.0995021 -1.0425518 0.86262161
-3.2336209 -0.94574499 0.86226183
-3.2570419 -0.38858724 0.86437994
-3.1445267 -0.36668473 0.86905414
-1.2216363 -0.28383148 0.869398
-2.888279 0.59248203 0.8697288
-3.3129697 -3.9933786 0.87917417
-1.891627 -3.7970524 0.87645686
-1.5918317 -1.2617567 0.87282491
-1.8759 0.84356076 0.8786906
-2.9262085 -5.011941 0.88163292
-3.2718301 -4.2903695 0.8827579
-1.2185425 -4.2371526 0.88837755
-1.1937407 -4.0359917 0.88638175
-3.2764959 -4.0282011 0.88506413
-1.1990957 -4.0240989 0.88437021
-3.2337248 -3.5354435 0.88892353
-3.233645 -3.2163215 0.88081098
-2.0967386 -2.412456 0.8886593
-3.1305342 -2.2700863 0.88400304
-1.3037993 -2.1368306 0.8803736
-3.4199603 -0.3433544 0.88114774
-1.376496 0.59233034 0.88243109
-2.2259123 0.61627555 0.88090754
-1.5630541 -5.0866046 0.89196736
-1.1278057 -4.9443455 0.89585465
-1.1742476 -4.1176891 0.89867795
-1.3087614 -4.0762057 0.89318359
-3.4009986 -3.3384132 0.89412105
-1.099304 -1.742249 0.89507961
-1.2752094 -1.6826144 0.89311624
-3.3992805 -3.6873488 0.90068388
-1.2753711 -2.9425004 0.90710121
-1.2753247 -2.5343533 0.90295976
-3.0016584 -2.328723 0.90649509
-1.27837 -1.9748033 0.90584773
-3.2259588 -1.3565742 0.90059257
-1.1521019 -0.94452906 0.90474892
-1.0947434 -0.0937538 0.90218806
-1.2783267 0.68678778 0.90035594
-1.1009715 -4.2011385 0.91409272
-1.2662711 -3.1148019 0.91527319
-2.8904366 -2.5147481 0.91946536
-1.0992239 -2.4463713 0.91552657
-3.0686586 -2.2948937 0.91200829
-1.1695093 0.59306753 0.91788214
-2.3871434 0.7070024 0.91358602
-2.5795934 0.7110914 0.91358602
-2.4083588 0.72327787 0.91358602
-2.5893474 -5.017499 0.92147261
-2.2542095 -3.9589825 0.92609698
-2.0538538 -3.8224721 0.92499906
-2.9960525 -2.3468943 0.92591447
-1.0990171 -1.4514189 0.92484075
-2.7430992 -1.2094287 0.92666721
-1.1597791 -0.94452894 0.92976797
-1.1183743 -4.8278298 0.93966323
-1.5859091 -2.3928347 0.93768775
-1.0989172 -1.5457002 0.93946493
-1.7028412 -1.2835239 0.93325573
-3.2504249 -0.94663334 0.93644959
-2.74527 0.87270594 0.93792719
-3.1799729 -5.0556927 0.94176859
-3.3974266 -4.2938519 0.94688678
-2.7874389 -2.397522 0.94571507
-3.4022274 -1.6316353 0.94033813
-3.4023051 -1.4119401 0.9449954
-3.2258375 -1.3053536 0.94976097
-2.0083354 -1.2968156 0.94915473
-2.1493051 -1.2868553 0.94228238
-3.2407725 0.59338295 0.94410098
-3.1474459 0.59344655 0.94782519
-1.2886331 0.68779224 0.94519383
-2.0455132 0.70862752 0.94157934
-1.5475924 0.71288109 0.94999635
-1.7341899 0.85817146 0.94976848
-3.3463459 -5.0740986 0.95791048
-2.1850176 -5.0597897 0.95431757
-1.8678734 -5.0184469 0.95991111
-1.2731248 -5.00316 0.95137995
-1.2719458 -4.1065688 0.95963591
-2.3628316 -3.8387139 0.95996392
-1.6932187 -3.8306894 0.95364743
-1.9808986 -1.2984369 0.95314431
-3.12814 -1.2594819 0.9557445
-3.010442 0.70672643 0.95835799
-3.1910858 -5.0862212 0.96982884
-2.1287451 -3.8439064 0.96533942
-3.2366052 -3.1622469 0.9663319
-1.1246436 -2.9529381 0.96750593
-1.0987884 -2.128983 0.96617365
-2.6753531 0.72606361 0.96535081
-1.7985405 0.84177828 0.96627313
-3.2370222 -3.210887 0.97938216
-1.2640965 -3.1624177 0.97962135
-1.2783701 -2.7942474 0.97735757
-3.2569544 -0.94698012 0.97855043
-1.1386956 -0.94452906 0.97968125
-2.0874219 -5.0502539 0.98622489
-2.0795867 -3.9740233 0.98024476
-1.0986764 -2.4862123 0.98727137
-3.2196 -1.197399 0.98407871
-3.4027126 -0.97529054 0.98653638
-1.1386456 -0.95245069 0.98352253
-3.1175265 0.59397322 0.98386705
-1.9251112 -2.5377316 0.99728656
-1.4003844 0.69548273 0.99170429
-2.3197856 -5.0242004 1.0092549
-3.3835387 -4.847249 1.0095057
-1.1052464 -4.5082722 1.0017173
-1.104615 -3.2851846 1.0033399
-3.2380295 -2.9877396 1.0047778
-1.098586 -2.7226977 1.0034411
-1.1073904 -1.9431778 1.0099571
-1.1054945 -1.8857739 1.0082552
-1.3700751 -1.3137937 1.0070722
-2.4139295 -1.2659194 1.0089579
-1.2754643 -1.2291782 1.0083491
-3.396069 -1.0381076 1.0000175
-3.1878572 0.68574053 1.0088565
-2.381901 0.73241615 1.0018547
-2.9866233 -2.4344075 1.0148575
-3.3856201 -2.1494617 1.0170693
-3.3855581 -1.7805166 1.0148686
-2.4711738 -1.3324314 1.0161402
-2.5677276 -1.2489355 1.0143877
-2.7727027 0.7229768 1.0100677
-2.8055835 -5.0398035 1.0259672
-3.2394576 -3.6593804 1.0202612
-3.225534 -2.7201619 1.0223036
-2.9225318 -1.5707673 1.0286648
-2.0149045 -1.3253006 1.0212454
-2.0839584 0.71986282 1.0202641
-1.1069171 -4.7245135 1.0317305
-3.2306266 -3.9934154 1.038955
-2.371079 -3.8801138 1.036625
-1.1234236 -3.6642809 1.036544
-3.1354899 -2.9755332 1.0390381
-2.4736848 -2.5301411 1.0322295
-2.7625525 -1.536155 1.0394063
-1.7097859 -1.30618 1.0301094
-2.413281 -1.2792871 1.034781
-3.0819848 0.64322186 1.0341239
-2.9003825 -5.0863805 1.043999
-1.4043752 -5.0889759 1.0494661
-2.349534 -5.0340452 1.0405647
-1.2866406 -4.7430129 1.0432993
-3.3020926 0.19421934 1.044472
-2.152539 0.71451485 1.0457902
-2.0676017 -3.9925644 1.0554014
-3.3795989 -3.5621777 1.0585649
-3.382422 -2.653883 1.0575967
-1.2757144 -2.5203621 1.055135
-2.7184231 -2.4553838 1.0579019
-1.2756882 -2.3991361 1.050247
-2.0415766 -1.3259573 1.0571538
-2.1965489 -1.3092344 1.0559524
-3.3825982 -1.2438607 1.0531904
-3.3822439 -0.3369137 1.0595527
-1.8980168 -5.0884147 1.0609686
-1.2757918 -2.8964803 1.0690029
-3.0055299 -1.2838087 1.0654851
-3.2255495 -1.2462641 1.0610743
-1.4154676 0.59081626 1.0622702
-2.1912766 0.61082184 1.0613364
-2.9716067 -5.0778737 1.0752336
-1.1437615 -4.9399514 1.073423
-1.1217219 -4.559803 1.0786867
-1.3638029 -4.0191374 1.0749764
-1.4742022 -2.5526743 1.074684
-2.263351 -1.2979945 1.0798948
-3.3822262 -1.0736192 1.0724834
-2.5218911 0.67553425 1.0794214
-2.8231659 -5.0776772 1.0802295
-1.9659708 -2.4495595 1.086551
-3.2256894 -1.7715837 1.0853575
-2.0280802 0.43790117 1.0864886
-3.3635287 -4.7311258 1.0988221
-1.1238884 -4.5173588 1.0927918
-1.4856584 -4.0249987 1.0969741
-2.7384348 -1.1260669 1.0981997
-3.3487315 -0.96093577 1.0995452
-1.3188212 0.32247296 1.0945928
-1.2708054 0.38648167 1.0917208
-3.3278632 0.4059839 1.09908
-1.201278 0.51442546 1.0923332
-1.7396693 0.59496343 1.0976225
-1.9709175 -3.8858206 1.1045222
-3.3721938 -3.722476 1.1079013
-1.7043264 -2.5741882 1.1090528
-1.7984713 -2.4902461 1.1037802
-1.27837 -2.4072483 1.1080848
-2.7516773 -1.512085 1.1038022
-2.5809317 -1.3054287 1.1073543
-1.4710431 -1.3036182 1.1070423
-2.6898627 -1.2634765 1.105549
-2.3845258 -1.1954865 1.1019275
-3.3020267 -0.35586184 1.1033648
-3.3020377 -0.25358868 1.1019301
-3.3020496 -0.14807288 1.1001083
-1.3044635 0.23449111 1.1040404
-1.2815667 0.48315126 1.1026927
-2.498661 0.56921458 1.1056011
-3.3713145 -4.5546103 1.1104854
-1.1290604 -4.4642115 1.1102195
-3.3677149 -2.7796049 1.1170492
-3.2251287 -2.5393548 1.1171565
-3.3725913 -0.69218743 1.1130885
-2.5241489 0.53785044 1.1111735
-2.3967662 -4.0285482 1.1237971
-1.9935277 -2.4401984 1.1271598
-2.7436862 -1.2932758 1.1201147
-1.1991345 -0.36569327 1.1270006
-1.1416415 -0.10099986 1.1253107
-3.3020763 0.078455679 1.1252048
-3.1857436 0.11013881 1.1298203
-1.3845953 0.38910705 1.1249208
-3.3630109 -3.6052325 1.1380045
-1.1198239 -2.7864025 1.1312727
-1.1023753 -2.5991628 1.1331515
-1.2184166 -0.95678419 1.1313272
-1.2542001 -0.087710306 1.1398282
-2.598491 0.38881481 1.139164
-3.2246685 -2.8734241 1.1461446
-3.2246771 -2.8433263 1.1471412
-1.1139292 -2.7155857 1.1447778
-2.5243568 -2.5867825 1.1403997
-1.1418947 -2.0578504 1.1446075
-3.0432243 -1.201481 1.1499515
-1.28053 -1.0097477 1.1403124
-1.3234103 -0.73886263 1.1433951
-2.7479281 -0.10937568 1.1443852
-1.3526307 0.24065112 1.1426264
-2.1710513 0.36098674 1.1448615
-2.0586703 0.38064846 1.141219
-2.4263916 -5.0642729 1.151208
-3.2964926 -5.0549903 1.1579145
-3.3579257 -4.3500257 1.1593913
-2.4316077 -3.9142294 1.151381
-1.4274392 -3.9083664 1.1505914
-3.2248189 -2.566175 1.1504903
-2.8342957 -1.1907521 1.1534313
-3.0355024 -1.1816715 1.1563765
-1.2732877 -1.1514246 1.1584785
