# .PCD v0.7 - Point Cloud Data file format
VERSION 0.7
FIELDS x y z
SIZE 4 4 4
TYPE F F F
COUNT 1 1 1
WIDTH 1515
HEIGHT 1
VIEWPOINT 0 0 0 1 0 0 0
POINTS 1515
DATA ascii
-114.0515 -35.604523 17.142963
4.3170767 -160.14922 43.621788
-137.935 -417.94656 47.576748
-75.535629 -387.56979 87.117996
-13.791049 -98.187065 58.290058
-41.436562 -67.597969 27.141914
-31.21917 4.7334881 25.073669
-22.417999 -86.198715 15.965194
-141.40866 -60.052917 67.560547
-106.41294 -153.14299 16.233601
-114.08852 -89.591751 51.554104
-153.31781 -1.2122061 19.714138
-17.429199 -394.07932 49.369675
-79.979866 -351.28943 87.998451
-75.940834 -455.50232 35.540985
-28.111959 -66.023293 36.33802
-140.98344 -129.47525 14.996146
-17.429199 -383.36328 20.607155
-11.479836 -90.069328 36.619915
-115.76102 -85.229286 44.79998
-19.778336 -35.843338 57.638962
-71.495651 -261.17316 28.912292
-23.641109 -90.055664 12.916836
-11.505449 -91.648544 25.912237
-23.03558 -246.78587 97.264084
-140.76932 -114.9987 85.90744
-127.37923 -329.853 41.185993
-39.5112 -439.46854 38.949066
-138.35307 -65.821259 34.801788
-6.843256 -391.47141 71.916237
-157.24692 -350.91083 34.810139
-132.10797 -248.033 107.52414
-23.799086 -64.662926 17.142799
-39.665939 -4.3175831 14.155617
-1.5175955 -68.057732 69.73597
-15.718 -374.85812 41.252907
-63.783108 -89.836685 54.448448
-128.22711 -416.18253 54.580406
-99.97126 -171.08012 16.72809
-15.973713 -399.89105 4.6367111
-68.724098 -437.48215 71.375069
-141.46001 -377.96579 28.054062
-11.319368 12.736801 19.520737
-127.59946 -132.97221 28.02919
-17.40506 -122.98267 68.094025
-156.75038 -349.69894 23.044392
-24.1292 -110.5581 19.257542
-31.168936 -438.57074 46.261047
-105.25623 -91.319199 83.023888
-113.06734 -63.062729 17.143055
-143.17102 -372.36584 41.427105
-148.09998 -31.964312 62.190128
-116.06495 3.1380169 32.089279
-158.29472 0.55831194 27.054356
-148.41571 -66.40831 39.260548
-125.61031 -198.11708 16.233601
-22.757301 -235.26349 97.524254
-147.79749 -120.1355 39.920559
-152.57846 -322.27814 74.419571
-120.47554 -307.42358 15.855943
-149.57848 -101.7857 24.813572
-111.81618 -431.52951 69.421883
-78.990646 7.9570827 18.788601
-15.747221 -417.95905 61.539524
-3.0394976 -104.94383 35.257332
-5.8017874 -392.08282 43.486938
-4.8267555 -401.4469 4.5844812
-20.947798 -72.293846 53.603645
-10.423114 -416.13495 22.268009
-147.55548 -101.26848 10.364316
1.9953963 -316.96683 21.032484
-113.50848 5.1068325 22.157494
-23.336868 4.502141 19.9575
-164.06383 -344.86377 66.477158
-151.79318 -354.28278 42.097023
-108.76921 -227.24301 16.077869
-145.75247 -351.24625 30.082588
-141.22475 -108.00781 55.038086
-17.538095 -187.40091 16.233601
-143.17101 -382.6601 21.191032
-31.526035 -344.72162 82.944321
-138.57866 -395.92072 72.165749
-20.849483 -81.071022 66.005287
-136.86755 -411.88287 59.888458
-17.955725 -171.62878 87.557999
-28.197823 -362.91168 56.540077
-16.422445 -79.196823 39.22366
-26.858101 -141.46548 21.211479
-106.63846 -289.76996 14.786086
-1.59509 -354.00369 34.39209
-1.5536187 -4.2374539 21.207075
-34.217266 -177.00291 105.65253
-28.044888 -370.34641 63.339844
-150.20834 -386.34521 2.0190439
-76.930016 -165.54701 105.69698
-24.1292 -118.74736 41.027824
-131.53061 -169.25903 103.05559
-16.264465 -353.15979 74.341393
-88.482666 -456.60626 34.660786
-127.00081 -162.80351 16.233601
-145.85791 -396.2843 77.873177
-144.19637 -383.77228 3.4998643
-153.42062 -79.688278 4.9795012
-124.861 -421.6366 26.002878
-27.360369 -365.17075 48.231918
-23.965721 -79.605873 26.296387
-163.64413 -27.372215 58.615028
-81.873306 -25.969368 17.143713
-164.42767 -409.67581 63.284271
-29.624695 -378.92841 73.935265
-26.322603 -353.74524 33.200699
-30.810188 -193.90613 106.47375
-13.339428 -234.56778 21.429695
-10.331354 -220.74446 21.047932
-58.846485 -288.37515 14.741718
-19.509378 -92.178329 65.127426
-8.7256012 -417.72998 18.653908
-153.6088 -104.35135 66.523346
-4.311379 -424.37268 28.280439
-145.77455 -393.73093 41.519035
-164.19344 -339.03345 65.947975
-24.1292 -99.069794 11.995363
-29.184134 -127.14282 13.777146
-151.10851 -403.69431 69.134155
-164.36847 -329.95169 64.89328
3.7729015 -244.30995 31.845041
-10.434478 -368.86023 50.03307
-144.86447 -285.09311 15.433232
-51.573708 -433.68073 67.120316
-26.753658 -356.73987 14.183281
-144.72754 -203.70576 16.233601
-163.9978 -103.86737 25.324659
-98.780045 -206.15089 110.90396
-55.299122 -3.8605967 16.681625
-15.132827 -219.30206 39.046402
-3.5758941 -387.81732 38.644512
-153.55266 -419.46384 54.527187
-149.58852 -417.07324 44.526104
-26.20343 -246.74374 105.73183
-6.5470915 -235.40767 21.352919
-140.40779 -187.91559 93.374191
0.63180715 -197.37747 15.066415
-39.102882 -70.588791 40.226448
-40.728199 -69.720978 46.752861
-134.1124 -406.87903 66.468956
-133.33212 -370.83157 63.111454
-138.63687 -418.09122 21.293446
-5.285573 -38.284527 15.579514
-127.26393 -75.326218 53.3326
-104.25133 -407.974 85.696907
-24.099226 -269.3869 15.453344
-131.11497 -336.91809 82.402679
-100.52271 -339.66132 86.938095
-147.32629 -90.121536 73.537308
2.1126251 -193.62875 52.569733
-7.2436943 -389.95163 69.748535
-5.4628015 -396.03589 31.285995
-2.9984777 -353.73883 74.663048
-153.94554 -386.04749 22.143543
-147.61241 -274.46722 71.654587
-65.832291 -443.02774 51.839539
-12.51035 -293.60059 20.108852
-32.039753 -380.03943 70.955894
-10.332413 -81.820061 71.43837
-24.991882 -97.472366 27.694904
-41.17202 -160.0658 16.233601
-17.105322 -243.70682 75.999176
-23.093809 -373.22113 60.247204
-101.40482 -50.897255 66.473976
-2.928154 -73.070419 19.383682
-40.334435 -68.86174 18.941463
-6.9174948 -29.229103 17.142799
-129.42242 -69.210373 45.470016
-146.88463 -27.197906 17.142799
-161.65143 -209.90761 64.956703
-12.081503 -224.35666 20.777647
-149.29541 -374.84583 25.26512
-62.4781 -232.01129 111.43726
-53.132908 -112.26225 90.088959
-154.95654 -419.43903 45.248684
-16.546419 -397.34497 57.429642
-148.18237 -387.05081 60.302334
-147.70593 -401.97083 5.69488
-23.681866 -442.99976 18.952656
-143.17101 -399.72943 26.520107
1.4805658 -366.31006 71.105324
-110.3726 -284.91861 14.944386
-16.443998 -414.77631 33.125607
-143.09091 -374.68408 4.565897
-21.647177 -110.86459 63.705299
-17.051834 -411.67142 42.131874
-130.25948 -126.81023 10.789354
-20.970398 -118.38069 36.388107
-164.87938 -192.59865 38.220543
-122.80057 -371.91132 84.020302
-11.003267 -24.273046 17.142799
-140.51965 -358.24631 26.550055
-133.64372 -323.39252 17.867958
-63.690544 -157.2831 18.610718
-105.61825 -440.92813 50.441055
-116.92979 -120.69526 68.60759
4.337626 -217.98042 41.503258
-117.67749 -449.39032 20.22266
-24.1292 -111.06796 14.613732
-116.10516 -27.388403 55.122227
-164.73891 -225.89616 37.102425
-34.028198 -359.49445 55.399841
-27.793606 -329.853 25.87167
-160.60178 -279.90268 13.499711
-26.783619 -80.024483 64.306702
-147.79369 -97.031738 27.801785
-16.056133 -243.52243 15.862385
-154.34418 -134.66405 41.649723
-139.14053 -407.65079 63.135742
-20.877024 -132.28073 20.533197
-76.177002 -455.10269 22.381102
-151.41083 -100.43242 53.872261
-51.424446 -149.55432 16.233601
-147.08589 -223.26901 30.579884
-57.944542 -123.0812 93.886765
-6.6918526 -385.08734 67.545959
-15.950863 4.5072746 18.01899
-85.277466 -3.0424159 43.204575
-15.293636 -218.94487 67.882317
-31.446922 -90.788521 1.183494
-129.10535 -404.50116 50.190842
-156.16888 -416.56122 16.020632
-107.65055 -134.45845 27.728634
-154.50716 -21.61582 16.676746
-51.395134 -134.22771 97.368156
-130.32874 -371.78564 75.681259
-17.429199 -375.20245 18.014
-148.57782 -394.20172 37.927647
-138.14026 -105.33656 71.141945
-127.83263 -421.86166 42.31321
-118.55206 -67.349213 23.997126
-139.70708 -374.88461 6.3820271
-13.137683 -211.16945 21.028494
-83.727036 -244.69708 34.378792
-156.21899 -68.669823 32.325378
-149.34555 -131.17065 44.610023
0.89054352 -199.04015 16.037249
-162.3651 -66.864609 18.63677
-116.4861 -128.56345 95.189682
-13.164911 -272.26474 28.053814
-117.83295 -10.368648 47.062397
-17.025341 -104.86162 32.62542
-57.486763 4.8602672 30.520348
-126.53545 -94.537453 0.035594121
-26.110409 -420.14447 49.847412
-119.75169 -445.48453 33.894138
-164.68742 -339.84567 43.985023
-75.070831 -106.66537 89.597458
5.8013563 -186.06844 38.171288
-23.026682 -362.53064 56.043503
-40.728199 -126.82971 55.860199
-141.92099 -112.77956 52.053726
-13.629508 -208.86517 41.623108
-24.37108 -32.328526 56.692802
-62.290726 -436.73639 64.14888
3.6078598 -35.921772 52.178535
-15.718 -378.67719 48.500317
-157.75763 -251.29422 11.239211
-123.18688 -450.96002 24.263973
-128.32994 -86.608032 4.7102156
-161.33382 -385.05524 70.187958
-113.73178 -95.573502 55.864437
-56.281235 -202.07681 16.233601
-26.015232 -360.31729 18.856682
-26.497797 -387.47412 69.347198
-120.50397 -70.854362 49.712463
-41.944912 -92.073402 82.545601
-12.982944 -329.85303 43.992458
-130.27615 -71.559753 19.145552
-147.54482 -270.22787 37.091999
-18.014462 -286.073 75.559753
-87.793465 -441.85635 53.859146
-13.565591 -229.96875 60.065174
-10.869317 -217.17393 68.671829
-147.51872 -279.83859 27.634766
-2.0343919 -122.93233 69.737045
-163.26562 -311.60379 42.794731
-133.77681 -117.11543 61.011856
1.8973043 -193.56349 60.025524
-20.064507 -381.32297 64.906876
-14.546317 -381.08627 68.506241
-28.937984 -141.28714 24.117052
-11.559557 -131.53259 18.726929
-17.429199 -378.89297 24.718773
-136.96573 -219.64511 101.8552
0.78990972 -334.82623 71.070221
-77.339401 -433.00012 81.938187
-111.76425 -157.56192 103.70969
-150.80733 -366.21478 18.610968
-87.565102 -144.95154 31.531944
-0.41676623 -198.67784 64.576065
-160.0388 -164.73541 12.230297
-3.7435248 -247.71883 69.519783
-33.949795 -427.66818 71.297928
-22.417999 -107.28905 47.649796
-151.41161 -286.14313 15.475609
-22.607996 -74.923195 50.347099
-97.777397 -438.42499 60.194611
1.8671935 -285.81207 18.787876
-55.183578 -327.38483 86.787697
-148.58768 -11.486262 13.361967
-50.675289 -451.90741 28.351902
-119.46709 -56.681667 17.142799
3.61237 -54.55143 60.430206
-124.67927 -391.26715 68.52317
-64.475769 -314.79947 23.403637
-30.910776 -237.22159 108.5808
-1.6107149 -417.95892 14.730062
-140.894 -94.781006 23.978857
-140.25298 -80.853745 62.242325
-20.216152 -390.29434 64.996536
-143.98499 -70.091293 44.963882
-131.99806 -355.85568 77.893967
-140.29558 -407.41437 74.742744
-161.05412 -305.89169 18.212744
-163.50781 -308.24225 37.750092
-40.898369 -134.69902 56.887199
-2.7976046 -380.87485 3.8491509
-21.212395 -364.35486 10.345611
-106.17374 -151.92221 102.85976
-34.973015 -264.90259 15.564059
-10.694264 -125.59898 56.383442
-14.1939 -76.58709 21.173605
-123.61101 -67.897232 26.934933
-164.23824 -55.333801 55.407608
-13.195328 -269.23157 44.240742
-1.6891291 -40.735558 69.839081
-7.8333793 8.626091 25.420761
-59.420914 -307.0358 86.908089
-76.841591 -172.82706 34.442154
-103.16559 -88.862259 82.204063
-148.27728 -356.53799 43.707935
-50.417614 -439.22061 43.146046
-89.994446 -259.97507 27.764978
-129.53168 -123.9736 5.2832618
-110.42027 -235.86694 15.960066
-15.633999 -251.42824 53.684273
-86.586555 -391.93143 87.117996
-114.4883 -109.41304 89.252769
-22.191597 -417.37329 51.951469
-140.894 -92.322662 32.284206
-16.16214 6.5672007 16.47661
-50.194363 -277.28882 97.592484
-142.5462 -101.85092 29.719177
-103.18494 -321.99908 86.901001
-36.730713 -439.68475 44.732704
-9.1554537 -72.446396 17.004356
-80.680466 -141.24068 35.732048
-16.7451 -399.09326 37.279102
-32.75808 -81.883453 57.897404
-10.125553 -96.490379 26.754372
-113.62099 -268.61273 104.11548
-127.00634 -416.32095 71.302948
-160.70572 -297.79779 40.2043
-132.96735 -383.25958 67.998184
-129.82806 -370.95602 76.366135
-164.05305 -42.852844 26.006468
-46.288532 -420.16516 73.564499
4.123929 -319.8761 40.869926
3.6304073 -174.6413 28.718088
-49.572334 -452.02975 29.403753
-103.36514 -452.80054 22.210793
-8.2492628 -358.16357 48.136089
-6.8145871 -375.53354 6.0203371
-144.90062 -99.761742 30.273083
-77.664276 -235.20911 111.54206
-155.40454 -389.50269 1.634848
-10.631227 -6.4026418 27.741833
-138.57608 -357.28528 19.205101
-110.95851 -44.27578 63.070366
-17.429199 -397.1391 16.703587
-151.42693 -100.25636 -0.71734393
-89.194542 -235.73865 28.906946
-8.9362926 -410.31122 62.397335
-148.99481 -76.060135 57.6436
-141.49893 -80.882637 7.3031912
-149.88428 -193.88239 33.203083
-164.66591 -330.03128 57.009689
-97.601021 1.2045211 38.493507
-138.21193 -423.28946 23.571894
-11.315394 -389.72681 10.194701
-163.02124 -311.16299 32.984344
-156.98816 -350.67047 32.428368
-16.454102 -238.30685 74.463608
-163.82358 -110.99096 65.397171
-147.94199 -280.672 34.146561
-16.777287 -373.86951 63.999393
-136.01781 -127.67805 8.4313631
-157.9913 -101.45328 20.500126
-149.76651 -77.778519 43.449352
4.3629713 -183.94815 50.912689
-15.892288 -277.71631 37.091999
-124.861 -355.90161 29.929693
-154.32945 -232.33008 14.31273
3.7832849 -112.83058 29.515169
-116.91085 -103.02272 57.49992
-22.417999 -101.97307 46.922012
-24.978647 -268.19537 15.491949
-28.560482 -365.73718 45.472973
-22.723082 -419.13742 47.692707
-148.86929 -79.282722 51.417175
4.3365059 -228.32515 40.54274
-9.4098034 -329.85297 55.51305
-143.07899 -407.32849 20.578705
-160.6272 -435.89517 67.884598
-151.72289 -244.14111 69.917885
-125.29353 -67.991013 30.394928
-78.983673 -365.31924 87.117996
-9.0335722 -93.566055 68.129189
-104.34734 -423.39172 81.489494
-11.949475 -63.850235 70.548294
-154.26532 -351.73911 40.65313
-8.8672657 -417.55301 64.115654
-157.49423 -106.78484 70.233185
-86.299774 -240.17395 111.3546
-37.712086 -83.666985 61.477573
-88.045486 -281.36896 94.757248
-131.95221 -298.7662 15.274271
-156.74875 -393.87363 67.897308
-144.991 -229.41795 42.287003
-23.053841 -392.08994 3.0854855
-129.26714 -399.50131 65.123955
-16.119518 -371.18451 64.298935
-10.384315 -380.61475 1.290657
-154.66208 -126.68904 58.960495
-118.95936 -444.41785 41.534523
-104.8395 -131.97083 96.865715
-87.242569 9.7827768 11.936123
-145.87901 -118.86857 61.721218
-132.28839 -96.359711 64.450363
-144.65941 -369.4696 62.06641
4.1324162 -312.4032 39.670406
-150.69502 -83.019905 28.36591
-89.239342 -161.62782 29.338942
-124.80116 -245.56061 109.36429
-66.370247 -141.79593 22.857359
-157.37907 -358.65869 44.241657
-139.7946 -329.85303 49.161976
-163.99408 -300.97937 66.521942
-140.65204 -198.50793 92.363487
-135.90198 -389.7196 60.322113
-84.332909 -256.31305 110.74522
-150.15416 -394.95361 63.263123
-135.30507 -88.781174 2.6073544
-153.94138 -365.42834 64.966034
3.6623445 -38.525887 28.506693
4.3597136 -47.040268 38.150097
-133.34677 -358.76682 21.938662
-125.89823 -265.07446 105.176
-145.12349 -128.33437 47.432533
-157.02864 -287.57178 11.781976
-130.14313 -357.00458 43.073669
-149.86784 -120.92386 60.460732
-22.417999 -91.236351 46.566071
-7.7066336 -349.47192 19.049755
-132.50276 -421.44086 24.79571
-39.593361 -329.853 34.306187
-11.255962 -100.50792 -2.7155323
-3.1575274 -7.8891001 16.419147
-7.8387575 -351.3009 37.200859
-69.1828 -454.90472 25.191553
-157.28239 -395.98236 70.21241
-65.117149 -37.337509 60.389626
-46.439552 -303.3732 15.322639
-164.73218 -347.67667 48.989738
-9.5595589 -285.71252 20.848753
-155.62245 -419.98978 25.876781
-29.494083 -420.54419 71.324181
-34.123512 -40.184391 17.142799
-146.70351 -394.16217 29.89518
-154.50993 -91.428085 68.203476
-148.71179 -410.47455 58.757683
-140.19427 -420.44067 42.012859
-146.51054 -393.10223 68.649078
-8.2950897 -132.1683 49.675827
-21.110645 -57.813084 67.073227
-150.02544 -17.391636 60.126236
-34.055153 -349.47165 83.821747
-155.52342 -86.461578 3.5681672
-114.98461 -121.78099 92.92485
-10.993933 -436.86346 49.519958
-1.42061 -372.00485 64.010948
-11.43487 -140.1163 44.482094
-164.96597 -173.44408 48.759148
-125.01534 -413.79034 55.23777
-129.61691 -169.94366 103.74904
-133.25888 -435.18091 68.44593
-136.08961 -181.88295 102.24641
-156.04401 -127.43646 56.288185
-141.65422 -135.35381 33.335964
-164.66238 -316.70868 57.996803
-42.836006 -140.92007 30.097736
-33.917377 -418.93701 71.374763
2.0284145 -321.48157 21.435013
-17.429199 -406.85095 21.244003
-139.38354 -392.60107 63.911797
-17.743881 -425.31442 36.8904
-14.878218 -219.37209 64.536957
-149.87454 -219.10258 37.091999
-65.442612 -75.578087 77.652138
-155.00006 -376.95502 69.213539
-134.82933 -399.47733 3.3550012
-142.144 -378.18182 39.850754
-29.638695 -450.23505 40.502663
-153.75067 -417.64133 20.207365
-134.67993 -380.18921 2.9823337
-20.913141 -83.56694 61.400803
-0.16892606 -328.91599 46.939468
-146.01662 -303.78363 72.056892
3.0847793 -133.88457 22.917166
-108.4508 -440.83337 55.652351
-155.73039 -247.0396 21.663828
-147.22644 -400.61035 5.1312971
-164.75923 -204.78062 35.79097
-162.4819 -132.16795 17.871403
1.517642 -397.75784 71.899864
-9.9724684 -115.13922 2.1821105
-47.892803 -329.853 58.714733
-152.78738 -65.859238 35.090221
-151.4939 -398.24036 4.1495156
-103.26295 -170.491 16.281521
-149.961 -281.62247 15.536613
-141.79988 -106.19508 10.370339
-69.616623 -91.599213 57.933556
-130.29619 -97.854523 64.647156
-134.72681 -427.65161 71.371887
-42.473511 -193.4942 108.29462
-30.391754 -290.97772 15.123775
-26.565836 -30.516619 17.142799
-127.78004 -196.52777 16.233601
-160.68913 -99.968918 13.74328
-153.60789 -104.78792 25.524637
-14.084952 -166.71437 76.336761
-115.24889 -40.907711 17.142885
-150.75369 -442.19611 53.638767
-9.0305977 -420.47098 24.595963
-131.86813 -34.507362 57.844315
-149.93149 -368.36481 8.5771036
2.472966 -64.781517 20.756266
-108.85487 -6.7913618 17.142887
-12.92275 -126.7225 67.047981
-14.232579 -77.89518 9.6466265
-119.81738 -329.853 45.977856
-90.281334 -294.61975 28.69149
-81.130005 -151.39001 35.08604
-20.09549 -450.95038 34.794155
-162.50307 -350.44952 69.915565
-72.891449 -243.267 111.23781
-6.1081743 -432.59473 19.249857
-157.46899 -417.47763 50.021904
-138.15363 -66.172005 37.465759
-154.33055 -106.13544 39.510479
-137.935 -362.79791 18.034929
-102.17874 -285.86978 14.851675
-62.822914 -240.58514 111.20314
-148.19769 -37.808403 64.584969
-138.22682 -276.26126 91.562454
-2.0926757 -421.48529 25.4051
3.3967142 -161.89618 59.790764
-133.79137 -381.93735 72.347
-164.66888 -331.29773 56.892647
-14.747832 -329.85297 21.724052
-164.45596 -300.32404 56.332661
-146.74066 -376.16205 65.457169
-140.21001 -94.128403 46.459877
3.8008487 -182.25668 30.722816
-49.319443 -93.798111 56.211697
-134.70378 -119.12144 61.527187
-15.718 -398.37897 54.398487
-18.287617 -115.32727 66.153328
-24.1292 -117.28635 29.726395
-152.35588 -67.746735 21.633947
1.3442791 -18.513706 39.750469
-24.1292 -107.42271 52.116711
-139.09322 -369.70624 60.704201
-153.08371 -193.59605 21.973705
1.860363 -245.77585 19.825333
-19.072021 -414.45038 14.379622
-48.576485 -141.20157 17.13205
-2.2881067 -255.88997 21.901476
-145.8468 -108.71352 65.949081
-16.890537 -221.41792 81.557877
-120.95649 -421.8847 71.530823
-26.252899 -100.44744 25.431389
-18.56859 -272.28198 76.291565
-150.44838 -391.91278 66.668404
-83.762543 -329.853 52.901363
-27.653074 -79.425133 13.478847
-150.29871 -34.368202 17.142799
-15.718 -394.81683 18.831465
-22.2271 -215.44231 16.233601
-13.389105 -249.52357 60.195515
-147.09552 -222.70062 43.060623
-156.02875 -269.15173 81.363861
-106.96634 -308.40149 15.932034
-17.429199 -374.5434 45.251965
-49.360931 -344.5654 86.230659
-129.32521 -13.331342 48.309711
-8.9944668 -140.97537 29.8538
-82.091545 -181.86859 108.53343
-3.8206887 -392.32037 43.388538
-100.76611 -281.49844 94.611076
-141.92101 -115.49188 14.876579
-125.74321 -388.50613 -0.85820222
-18.55501 -382.3176 75.228958
-165.86267 -93.626373 37.175957
-17.930208 -72.908737 15.411858
4.4045019 -158.48962 38.908974
-158.36537 -58.504066 10.510199
-163.25121 -137.43015 66.51017
-82.929008 -174.8237 107.48631
-149.86748 -421.42688 59.887733
-161.73486 -297.82233 29.731186
-141.55057 -402.1557 32.485722
-155.62386 -128.58066 59.185253
-15.018719 -351.04565 74.831993
-24.1292 -90.953384 42.067917
-146.8721 -210.14703 61.071671
-21.006912 -120.11846 88.141846
-160.931 -177.86655 61.282825
-27.044777 -379.73914 56.853012
-157.91924 -7.1803665 27.491684
-16.739275 -379.17249 4.5130687
-105.09352 -453.5051 27.564043
-31.595966 -106.60689 87.253212
-78.14724 -452.83289 19.618006
-7.054287 -421.05301 31.635141
-125.45593 -267.68784 103.28615
-143.24078 -137.56494 33.893196
-151.39664 -350.39474 27.779591
-147.21078 -225.89696 71.709854
-154.25557 -123.82099 9.9893618
-59.042542 -69.157761 21.87677
-22.465446 -109.66973 11.375215
-38.498116 -70.506821 44.64056
-7.6853838 -402.90863 38.437256
-92.822212 -377.71686 87.072578
4.9853182 -158.63849 38.669937
-14.414896 -280.672 36.337242
-164.70337 -172.38824 49.138283
-131.20892 -225.22763 108.07956
-142.00418 -366.73251 62.162979
-150.97887 -415.72891 65.044174
-15.796419 -383.37433 58.189739
-129.25188 -381.47281 67.446999
-144.69997 -68.174629 22.90238
-6.1421909 -394.28165 20.679981
-142.22971 -71.093796 52.039452
-112.16785 -97.439491 56.104851
-146.43309 -353.60602 45.062721
-147.57216 -249.74744 20.27026
-23.730328 -415.13632 55.270512
-15.360956 -131.61349 48.732677
-27.031605 -69.082977 42.346588
-12.438581 -140.2534 42.089008
-126.8192 -329.85303 35.358406
-14.847258 -244.83842 55.474632
-147.98697 -350.90155 30.762657
-26.252899 -94.700905 33.277241
-16.7451 -390.98947 46.967907
-138.56282 -84.959442 3.4939291
-124.80859 -93.245209 1.9754884
-49.507961 -18.424568 51.217224
-24.546062 -67.19339 17.142799
-0.87883389 -339.10757 72.70771
-14.670025 -406.29108 6.5908766
-137.37979 -80.14595 50.004753
-141.80786 -98.545486 33.877544
-42.018898 -336.59616 85.484421
-140.34976 -104.97336 10.209499
-137.98288 -104.64029 59.521069
-148.3571 -295.24847 55.399323
2.388288 -202.45552 62.739624
2.8468676 -307.09674 23.086887
-29.38805 -393.71106 72.245255
-12.704521 -3.0698814 28.225441
-42.303963 -436.66037 56.586464
-70.222481 -109.39769 90.350014
-13.474589 -82.310181 2.9674888
-149.51801 -407.41824 68.32901
-9.3269796 -68.685738 36.867237
-102.1741 -446.23706 41.484367
-157.07439 -80.327019 58.122269
-27.265509 -70.037369 44.227013
-132.87866 -384.26929 67.815201
3.5600986 -92.680328 27.10289
-153.54327 -410.30048 9.3214006
-150.88272 -390.26907 6.4787245
-121.43665 -123.14924 68.035324
-120.50615 -91.416718 82.148941
-16.974117 -413.94916 28.475758
-81.133003 3.4631207 35.45562
-40.291702 -451.73087 40.341232
-33.589218 -414.69473 58.378239
-36.445034 -386.17603 79.298454
-42.628475 -35.087265 58.580147
-39.638721 -329.853 42.363659
-148.79684 -87.617981 66.020721
-130.97609 -360.90704 53.145107
-68.575745 -84.547066 47.259003
-8.2589607 -427.92953 42.507172
-156.96797 -406.32089 64.156166
-17.429201 -389.49878 14.342994
-15.797539 -384.36993 69.22126
-129.72658 -80.830566 62.224537
-3.8078759 -195.68187 65.233932
-139.51102 -357.64777 31.019947
-140.86217 -131.57642 22.385323
-141.36215 -278.61816 81.061256
-107.78853 -315.97791 16.948832
-7.7591686 -267.38776 20.833302
2.9653392 -249.85852 25.730934
-140.22092 -235.77791 90.4412
-35.495079 -438.55847 47.998665
-143.17101 -407.88794 22.485638
-72.800522 -192.92184 30.951694
-140.21001 -118.52845 39.719517
-68.378548 -427.24008 83.663513
-154.21181 -220.6665 21.727697
-43.106667 -441.65335 18.054993
-23.811684 -380.2226 68.249435
-9.6196575 -415.92706 48.53561
-2.6831791 -356.67566 41.692074
-100.46686 -73.474152 28.912735
-63.316429 -315.40863 21.164787
-138.42651 -449.41406 31.514168
-12.622202 -117.10017 21.160139
-147.20862 -260.92664 37.091999
-13.44507 -69.811028 46.85537
-143.78711 -159.94086 16.233601
4.3391485 -214.02966 45.908012
3.1000676 -171.34882 23.963345
-155.84808 -137.13731 37.140247
-84.776306 -452.03949 35.799957
-21.974022 -91.899963 63.393509
-154.10168 -393.48041 67.949074
-134.07559 -412.14343 7.4954152
-37.701641 5.0884433 17.539114
-70.610298 2.5970054 10.776958
-22.600174 -124.35292 21.350464
-33.574844 -169.49094 104.35048
-3.6525559 -215.59723 21.778038
-104.8058 8.3723278 11.799903
-45.794502 -442.33237 18.067385
-129.34059 -407.71582 62.769333
-140.1423 -79.640991 5.0157757
-1.8890557 -421.60687 46.317253
-127.08031 -134.69801 30.355328
-156.10974 -370.52756 62.368324
-34.228363 -189.00674 16.233601
-139.9624 -378.43588 4.9110947
-120.00558 -67.986847 32.117744
-109.31507 -167.65491 105.66306
-141.33888 -98.831757 66.229698
-104.68497 -149.10045 101.61438
-146.69031 -80.492615 58.725117
-115.48872 -114.60307 90.353149
-21.064569 -372.83218 72.496819
-87.011917 -396.06042 87.117996
-156.04401 -92.578049 66.436798
-62.608868 -221.71677 17.025814
-143.17101 -386.5524 49.587467
-164.64337 -117.48819 32.767487
-148.13048 -357.18951 19.436314
-81.995834 -359.60672 87.117996
-133.48071 -68.130089 36.902107
-131.38501 -126.44597 93.421188
-14.796685 -315.10498 17.168062
-130.44897 -115.63394 63.524754
-103.34364 -366.0246 86.775269
-144.63321 -192.51999 81.324013
-19.04475 -312.11365 16.783092
-67.020164 14.652034 16.146767
-50.281113 -440.94952 17.988346
-99.384506 -448.63135 34.052898
-1.59509 -395.17078 70.300438
-161.05212 -256.19904 14.319561
-157.58047 -108.96658 35.974304
-53.122154 -61.444355 17.143332
-4.3072243 -349.88049 24.653931
-153.94852 -377.15222 40.474861
-55.920914 -277.56573 97.605637
-164.74854 -298.78851 37.901222
-40.351879 -455.50943 36.646877
-81.242867 -440.87195 58.472172
-147.79825 -366.09451 62.206879
-14.39352 -193.90202 74.697838
-143.17101 -411.40582 31.484303
-164.81522 -86.104889 36.243969
-44.796494 -279.39624 95.709007
-157.73248 -81.455582 30.158529
-124.16937 -90.481689 68.737
-20.282112 -366.02161 21.468193
-31.034761 -412.18909 13.271016
-140.21001 -107.19455 20.902998
-157.28459 -107.45139 46.221947
-13.781846 -97.312645 18.217804
-23.445101 -106.98109 22.181051
-3.6807859 -110.94019 56.552788
-27.478096 -42.739883 61.422791
-148.2514 -283.16916 77.790474
-11.340644 -216.50758 21.189726
-24.022455 -420.87598 48.138519
-23.843445 -401.05066 60.695
-59.985836 -265.1059 107.80679
-154.4899 -90.918701 64.605598
-86.232735 -282.45056 32.87188
-11.025629 -84.859833 71.419502
-143.51089 -109.4225 68.165741
-73.247017 -314.86203 69.751701
-127.15283 -417.89047 20.808826
-156.60474 -74.897324 42.457748
-158.12166 -378.8439 69.566437
-114.47328 -329.853 23.286015
-38.472172 -117.85181 69.616112
-94.380699 -41.053288 62.138145
-13.104262 -281.12936 33.65625
-32.693268 -376.71786 69.580032
-114.16228 -273.854 100.09024
-164.60608 -299.08893 53.306252
-36.20343 -449.63553 40.991501
-27.180763 -242.48643 15.87249
-15.405276 -390.13074 65.524734
-8.1206198 -98.710037 65.97644
4.2466278 -125.96725 38.877136
-22.417999 -82.11689 27.14603
-127.94834 -87.498924 65.971405
-56.401924 -443.01624 49.106781
-164.37314 -264.974 31.860445
-14.056477 -408.86111 66.942429
-79.535774 -271.49722 103.0984
-10.930515 -358.57819 22.878975
-125.18966 -83.751076 61.225445
-157.46899 -394.38254 2.3421786
-140.21001 -105.22234 19.116741
-141.92102 -101.81172 46.153786
-141.46001 -382.83817 13.318072
-93.908386 -251.89542 22.212265
-5.7913346 -307.96069 73.191795
-34.259186 -309.492 72.556343
-78.720818 -48.726326 17.144629
-13.117659 -274.96786 23.44808
-153.0325 -69.782616 36.011585
-143.17101 -371.15829 27.966486
-132.0759 -132.13319 19.144539
-116.71033 -280.46396 15.090181
-5.1052608 -329.853 43.843502
-37.243183 -245.98947 109.54904
-143.17113 -395.85443 30.093781
-22.609934 -101.79555 19.767132
-139.90482 -188.00842 16.233601
-154.39613 -390.99753 3.0068865
-30.065174 -220.90514 108.07765
-24.1292 -118.10867 34.205444
-153.28227 -167.90894 15.188391
-11.217909 -122.05675 3.8128166
-26.277939 -329.853 58.234921
-14.237164 -384.55389 3.3648205
-145.66258 -406.79077 63.795609
-1.3376038 -307.61743 31.932339
-19.336649 -293.13416 77.555214
0.2559433 -297.77881 32.459286
-130.31773 -95.886711 83.124031
-139.27724 -81.602165 76.276741
-156.64313 -102.95358 69.282066
-10.232555 -72.663528 12.242146
-16.144531 -396.8382 32.754581
-14.679193 -199.28067 73.29425
-129.53123 -359.05646 49.787361
-65.128159 -221.71246 19.852585
-17.33247 -214.31104 83.576035
-20.223978 -66.064659 36.652222
-30.145161 -86.303726 61.075485
-81.68541 -63.222954 17.145205
-162.23654 -267.6402 18.70647
-148.80644 -93.463089 36.629707
-115.0527 -143.28928 16.233601
-28.686785 -33.259689 17.142799
-155.79961 -354.10211 40.723888
-16.140425 -95.527237 27.727282
-45.242905 -70.903534 75.084503
-57.023762 -31.612169 17.142958
-9.3433437 -414.69528 47.580349
-150.21582 -386.89142 69.573586
-30.340652 -349.16565 81.891861
-66.609619 -119.35611 92.899185
-32.298931 -134.77567 26.377405
-150.96562 -93.084099 65.472969
2.2736151 -284.93793 20.308071
-44.653584 -276.00482 98.256805
2.1352332 -335.35495 21.963131
-22.890175 -192.81944 100.57393
-56.540436 -456.76932 36.285542
-20.836803 -95.306198 -2.030725
-136.47371 -322.358 66.441978
-133.92747 -360.01974 50.785366
-96.298462 -155.94481 19.595556
-164.9622 -107.29112 44.366028
-161.09477 -436.92212 64.722397
-15.865666 -228.63391 70.989464
-114.28017 -272.29797 15.355311
-23.627529 -3.0304794 10.697739
-74.840225 -47.700066 65.458618
-123.42099 -93.558998 64.995293
-8.4535751 -297.76703 25.763184
-85.521393 -130.42871 96.956177
-8.1206198 -127.81351 51.998028
-1.5942488 -85.663223 11.546587
-12.706119 -292.38324 20.485199
-62.900581 -456.53113 35.461403
-53.036877 -437.95847 59.662621
-15.26057 -99.987984 3.8026013
3.1485493 -334.9733 29.133106
-23.568701 -72.829933 46.383919
-126.8687 -128.97536 51.982914
-108.44041 -441.155 42.606968
-7.3876581 -419.05542 47.89064
-12.551023 -328.37704 18.520851
-86.026894 -187.15875 109.09764
-150.36388 -286.05984 20.761978
-5.5786896 -290.1153 13.043381
-20.20224 -101.40921 24.822941
-10.85726 -399.793 78.574478
-85.990479 -434.33481 80.46254
3.5395033 -96.48732 63.078766
-12.595831 -70.956337 51.860577
-141.06282 -389.16357 61.005196
-81.475357 -202.73595 110.75897
-158.20985 -123.20259 15.607326
-131.19135 1.9251688 29.881752
-87.219742 -309.45227 72.527267
-33.303024 -18.468458 50.720978
-152.39404 -131.52214 47.625793
-22.417999 -96.732498 15.34574
-144.06912 -363.57935 61.454796
-91.13501 -179.01772 108.22939
-54.177647 -417.54156 83.585747
-24.106796 -448.53159 40.857105
-11.504418 -367.8356 65.802551
-142.20885 -126.56175 11.198932
-150.80563 -75.727516 11.410793
-24.003235 -93.384995 81.069992
-142.20792 -228.42685 85.331512
2.7079444 -131.16698 21.223209
-28.419483 -361.04706 27.070484
-7.2125854 -352.92993 44.935669
-20.944168 -75.724487 14.624441
-164.60379 -118.49779 31.712978
-12.791164 -60.223427 66.139793
-24.215862 -142.11847 96.084534
-35.13385 -441.17267 50.886856
-20.133728 -359.8558 51.502068
-83.236313 -459.00882 35.781956
-3.821789 -430.90964 74.569626
-61.751469 -457.71582 36.68187
-18.333214 -361.71826 58.840168
-164.81303 -177.19139 39.189373
3.3183141 -219.14331 61.905277
-2.5042837 -97.94384 15.461473
-10.345559 -91.712311 68.228394
-79.87516 -276.91412 98.582253
-23.317066 -329.85297 50.114872
-21.609804 -134.52223 37.306507
-12.447781 -374.78531 6.3302507
-20.909945 -133.48352 30.005508
-82.470879 -220.14639 111.37204
-6.7081208 -419.47348 20.548702
-18.429726 -99.173737 30.950401
-134.90834 -91.233421 0.89515811
-96.43557 -202.06006 110.5887
-35.58215 -57.900345 17.142799
-17.429199 -397.11975 19.892017
3.2785864 -102.94898 24.403992
-77.029358 -55.75848 17.144863
-162.14513 -232.29523 22.489468
-15.634 -250.63832 54.347847
-129.05995 -424.54056 28.446218
-15.718 -391.80917 20.650019
-23.197765 -403.52612 7.3448877
-150.66389 -74.389519 14.21566
-151.48206 -194.15665 32.880535
-156.04401 -121.76418 60.581394
-10.383873 -394.57437 78.577164
-32.166725 -415.78418 54.076225
-40.760899 -129.95325 51.457741
-102.23853 -228.45995 111.22055
-35.465744 -439.48013 50.514549
-2.9987617 -418.07364 53.225636
3.4710133 -93.71019 26.163927
-156.97952 -89.096031 59.64846
-154.83507 -210.89272 21.830925
-34.028198 -370.51276 6.5689812
-2.8091018 -103.86179 26.986992
-152.41843 -247.80246 15.65963
-6.4978871 -128.26373 70.906677
-141.98372 -79.063324 46.644981
-27.493338 -373.7395 65.844345
-119.19611 -168.7095 16.233601
-52.174622 -13.218708 17.142799
-164.59274 -152.8535 32.484451
-154.32426 -441.26666 62.857857
-129.29111 -114.94895 2.7995837
-19.04678 -260.08972 15.630879
-28.371937 -373.40802 4.1184983
-141.58359 -361.76331 57.734257
-100.78175 -49.525433 65.857658
-96.212502 -233.70404 111.50386
-34.287613 -122.3786 59.028038
-143.17101 -409.39853 34.077724
-12.295277 -75.657845 71.050262
-2.3229506 -108.10374 10.38493
-26.608271 -130.51846 24.173824
-124.93961 -440.36105 50.466896
-143.37216 -421.7814 19.930971
-136.31279 -128.42987 9.4110708
-164.2386 -61.553383 51.807693
-143.17101 -388.13062 12.592716
-6.6887388 -418.73627 20.40798
-89.394844 -146.10297 29.219273
-9.9771004 -98.33268 27.043047
-63.954269 -268.39706 17.523304
-63.097847 -315.38153 20.625912
-162.46841 -435.67737 35.269466
-140.11737 -419.24579 54.81131
-12.938953 -120.66432 7.3744249
-132.55069 -424.68997 71.474693
-148.13977 -74.523811 15.861786
-143.17101 -390.89297 21.292738
-142.17328 -417.25262 53.60788
-164.76236 -266.08783 60.085197
-25.757935 -193.0697 104.34773
-154.05737 -392.89899 77.978401
-150.75807 -392.50055 34.568062
-125.61974 -423.82721 24.870178
-3.5440972 -21.443893 68.604347
-29.3731 -68.765182 26.19862
-145.476 -187.33549 16.233601
-143.17101 -404.4295 25.897806
-1.42061 -420.10089 47.133354
-66.411797 -276.20364 20.917627
-44.1255 -189.11224 16.233601
-147.2356 -243.53726 33.974163
-144.16843 -223.69617 37.091999
-31.43133 -405.30615 50.058754
-10.893467 -96.627388 29.4841
-29.775967 -421.06689 46.292725
-83.803253 -171.92924 106.92322
-13.902315 -279.37823 76.773087
-25.924538 -131.73172 22.153502
-63.362343 -138.16528 27.897455
0.62505525 -387.88855 70.183357
-106.82472 -79.050919 78.446182
-143.369 -80.559113 34.277916
-142.24391 -121.86624 6.9064226
-44.216793 -377.91998 85.210938
-130.21565 -91.703903 67.713165
-36.041233 -310.54315 85.040375
-86.081696 -86.232018 81.973907
-155.80865 -89.336349 -0.40495217
-9.0557919 -59.288136 71.110367
-164.23801 -39.173164 63.906994
-112.34032 -328.34164 62.779743
-19.332949 -110.71004 0.34735
-150.89847 -145.53001 16.233601
-101.25726 -142.5114 16.388092
-142.24802 -151.26422 89.022537
-150.82896 -372.8027 77.853882
-131.72417 -364.09711 41.040329
-104.40816 -29.178486 56.30117
-103.90182 -456.24231 35.80135
-64.821671 -189.51547 19.924171
0.25714982 -314.6199 14.157736
-146.20512 -396.98892 2.0258546
-155.56549 -38.782341 15.184977
3.61237 -44.402824 61.317688
1.4169273 -324.47809 18.811184
-160.19078 11.037626 16.022448
-34.095493 -74.909645 13.537426
-47.913177 -304.13492 15.363426
-0.41462645 -132.61505 69.094528
-25.167662 -127.87064 18.874926
-147.40704 -266.10788 54.343742
-22.842514 -155.55051 97.821426
-11.711787 -359.21753 16.800697
-134.72272 -68.226761 30.225405
-21.475401 -98.937195 34.515289
-157.44128 -79.239098 43.777393
-22.293026 -362.1806 59.388031
-154.4995 -279.91229 21.088243
-132.20267 -209.23299 107.09325
-53.493458 -295.29254 14.619699
-138.41312 -96.45401 0.41091621
-158.46831 -306.39673 30.830791
-22.759331 -135.62558 32.837479
-32.499199 -329.85303 38.497505
2.7418952 -46.370853 21.533955
-61.092979 -213.09914 111.01995
-125.38289 -117.49445 69.732147
-35.702194 -65.7117 33.971256
-144.29962 -50.623947 17.142799
-161.67465 -7.678802 27.153709
-35.88382 -22.883331 17.142799
-144.991 -235.60162 53.653374
-64.40506 -162.69931 19.647276
-133.07388 -134.92838 56.44207
-140.056 -370.30002 40.755493
-76.658783 -0.32990038 12.268868
-156.68669 -421.21292 25.277306
-3.6953282 -105.86269 58.517994
-21.663326 -97.19429 66.29686
-156.76154 -63.779488 70.535316
-39.211014 -208.70932 109.34711
-99.527733 -327.41821 86.972107
-164.40186 -86.523972 50.363983
-19.369774 -246.62306 86.121941
-13.734109 -447.19446 34.062019
-157.35452 -427.64618 44.549393
-116.90087 -85.606827 50.87418
3.5261259 -43.41687 27.056072
-162.22519 -110.74303 17.65834
-119.15176 -431.59058 69.67849
-131.28822 -90.081825 64.258957
-155.31177 -124.99258 70.602707
-15.634 -250.52325 41.030869
-38.373322 -133.38264 36.77618
-144.62169 -73.68856 53.709049
1.014406 -17.800808 49.749619
-18.833101 -413.28763 31.107597
-13.936529 -440.41324 52.598671
-147.21188 -240.59384 35.581455
-27.45643 -405.56686 55.377666
-108.50883 -277.17511 15.195864
-140.056 -367.64969 44.452194
-90.410141 -449.70282 34.069801
-30.609684 -33.388908 57.406105
-62.064976 -381.37808 86.930893
-39.471645 0.51699114 15.470493
-98.955811 -131.8282 41.465706
-113.14111 -26.05109 17.143017
-150.18396 -112.49081 64.546265
-100.04123 -277.1637 98.163734
-146.23973 -417.73627 56.778416
4.1872582 -275.21481 40.580452
4.1896548 -213.1888 37.720005
-24.1292 -117.44807 48.893143
-129.57886 -88.792862 66.50737
-6.8237534 -193.98944 58.135468
-128.91803 -384.16135 68.116905
-142.89449 -395.75571 67.932266
-17.385061 -355.58728 24.414537
-54.342552 5.0312762 29.520668
-124.99716 -105.83788 64.557907
0.65649962 -298.55585 15.256395
-164.90161 -97.086517 38.524734
-80.345009 -248.23267 35.237087
-13.668431 -204.34581 38.273743
-164.73479 -337.09134 46.483177
-15.633999 -267.23383 36.67765
-164.52991 -298.68533 33.648514
-138.52231 -207.20146 98.299232
-38.354683 -124.41441 55.763729
-163.7305 -193.66139 30.488092
-10.244107 -166.09329 69.800095
0.046500862 -343.74231 71.981308
-17.359913 -94.445068 29.394325
-7.87573 -393.65613 25.246016
-90.602142 5.0664868 31.421782
-94.437813 -296.31592 20.045244
-87.04747 -63.334412 72.729187
-152.68184 -245.33174 70.008911
-27.376316 -68.49752 30.890089
-4.2434525 -396.97754 30.657864
-127.92023 -76.630798 55.032768
-24.377869 -65.785004 31.799532
-147.68169 -92.590973 72.200958
-75.007011 8.3852034 19.9575
-154.11351 -117.11223 3.695734
-68.63298 -92.186157 83.931808
-149.71107 -390.92261 47.248486
-21.76054 -287.09726 15.305058
-32.824703 -402.6239 66.558899
3.1581383 -155.61697 23.369118
-72.595688 -441.46057 55.761845
-29.161375 -363.99658 39.306973
-10.431732 -400.72382 4.9816456
-147.87926 -119.7283 38.533421
-67.391418 -250.57031 23.256996
-13.076432 -68.762032 37.446747
-24.041498 -153.88725 16.233601
-162.92674 -120.70831 19.91918
-164.18558 -295.78949 65.560745
-23.257061 -27.608454 17.142799
4.1405396 -77.706352 35.108849
-3.5978582 -350.19977 27.928379
-1.1477671 -378.02753 74.63208
-135.50281 -117.71661 69.621429
-22.311165 -51.009743 17.142799
-147.33324 -218.70599 29.592865
-126.33711 -73.042282 47.50312
-6.2977047 -329.853 50.499016
-73.380806 -326.74973 87.117996
-160.98718 -33.005154 15.069888
-125.29875 -128.86383 66.343719
-153.75954 -410.1702 9.2214603
-129.39236 -308.30658 84.18045
5.1509299 -174.63536 35.774944
-142.87039 -224.41739 83.802429
-159.26364 -168.06909 11.421478
-126.42595 -185.08456 106.60704
-157.1568 -176.4444 63.313931
-21.819746 -365.53412 12.791517
-15.880648 -108.01886 6.8204384
-1.59509 -399.23517 3.4433849
-9.4778652 -419.70752 62.00996
-9.124321 -387.05701 6.6580625
-13.402332 -420.98865 25.84584
-152.67661 -115.20277 29.045458
-153.42346 -375.66144 25.783833
-9.2668753 -124.30367 8.7765989
-13.047121 -93.533806 64.04525
-5.45753 -421.56647 25.601021
-89.98745 -210.82841 111.18994
-58.2169 -282.74747 14.964827
-143.17101 -373.83722 34.053764
-165.12752 -45.430717 45.074509
-146.05066 -90.111824 2.0561788
-160.52594 -297.92523 63.423782
-30.439892 -440.29083 50.335827
3.6161442 -293.18481 65.261375
-147.00963 -215.67879 50.059273
-117.92976 -136.20036 53.393532
-164.43103 -60.241676 30.030281
-127.02715 -135.08517 35.37603
-26.510429 -202.92502 105.52581
-12.644369 -294.18954 61.768959
-127.63612 -364.07721 82.04879
1.9668289 -423.61346 68.464104
-19.209322 -0.33336008 20.231745
-111.91698 -416.90018 77.24411
-35.140499 -276.12189 15.232693
-115.7102 -451.35019 34.417267
-146.94991 -381.89038 66.048187
3.688668 -297.86517 59.866734
-13.453187 -234.1021 50.630356
-48.328121 -329.85297 40.953979
-42.037479 -253.56461 15.71862
-140.14355 -234.23398 90.845093
-24.1292 -117.18098 21.932842
-156.04401 -95.443222 67.076447
-33.268005 -74.182472 49.381771
-123.60159 -303.38901 15.535085
-15.212124 -381.17841 68.060921
-125.80833 -194.79007 16.233601
-11.532344 -268.53156 20.252565
-24.434019 -358.93518 55.158943
-19.601246 -72.596809 20.194704
-36.890186 -109.62155 71.960495
-130.79109 -311.29593 83.826714
-140.21001 -86.64032 19.107018
-13.297132 -255.34447 38.436188
-149.09737 -272.7814 20.652716
-149.48976 -376.29141 68.785728
-142.46892 -1.7515999 18.624195
-101.59325 -445.69046 18.163752
-143.17101 -375.87936 49.253151
0.99788678 -15.509228 19.331512
-157.61128 -109.11296 34.906563
-77.767982 -78.472145 79.158554
4.0823274 -41.977135 33.616936
4.3365803 -227.63719 43.684128
-21.652246 -71.538475 50.214909
-0.19500551 -264.13464 68.910278
-138.37625 -220.29974 97.698303
-9.0566196 -394.61203 40.225109
-26.913187 -419.33099 21.843767
-16.486115 -73.470886 41.560352
-111.94838 -177.04425 107.14554
-142.57318 -127.81359 51.036602
-0.17154104 -434.19891 52.911064
-0.017631482 -216.3329 13.4722
-14.171072 -358.89014 55.10025
-65.617142 -236.42485 20.525839
-18.833099 -408.42905 47.535118
-11.502291 -68.97522 33.845798
-15.718 -399.17807 26.960794
-5.0377007 -129.06949 59.259361
-36.550983 -268.76056 15.471813
-140.21001 -99.395981 10.824877
3.6535468 -134.22305 62.20636
-98.002701 -246.1138 110.98717
-9.4643145 -15.77194 57.874516
-35.453438 10.901466 16.729065
-60.391182 -443.76996 41.658424
-90.413391 -165.78926 27.838203
-82.029747 -227.59238 111.51756
-96.907623 -303.79312 17.61639
-74.26506 -82.35733 80.506805
-79.230225 -411.54303 87.025177
-146.28954 -350.68671 25.454308
-12.122782 -293.29831 36.074333
-142.3252 -110.38043 63.801857
-151.43141 -420.79431 17.547768
-36.513092 -164.20477 16.233601
-146.25171 -196.95847 68.939575
-10.56584 -104.49883 37.139252
-101.57007 -318.23581 68.077568
-137.28752 -284.47415 15.261582
-32.0159 -412.91144 9.1947384
-10.180972 -243.62032 21.077137
-15.245527 -424.85974 31.982216
-147.14131 -395.29794 60.264397
-139.81117 -426.85004 40.777794
0.21194962 -16.487747 31.721783
-22.898363 -106.20134 37.985619
-63.624805 -112.13921 58.394611
-147.17511 -235.13194 31.23534
-148.88873 -368.04446 43.387634
-5.9623427 -275.65137 13.617256
-137.06816 -437.58377 66.310944
-138.21675 -360.95377 16.589811
-7.4287472 -381.9129 38.698345
-140.26392 -397.5076 3.8638828
-17.943535 -178.46262 86.943863
-8.4046564 -418.29828 53.682301
-61.178249 -281.88834 94.291359
-105.8764 -257.52493 15.663662
-140.43437 -98.733742 36.505722
-23.388863 -399.91919 61.308739
-16.625717 -396.90442 38.859406
-32.099838 -404.8916 49.278133
-126.44343 -438.50146 46.398968
-117.45668 -329.853 38.460327
-34.028198 -379.24429 68.805298
-12.661436 -293.13712 25.289036
-2.649276 -354.3255 50.32225
-23.393303 -147.58107 96.909569
-128.28705 -130.98085 53.592323
-30.554823 -416.31763 59.736698
-17.918198 -140.86996 31.286369
-77.690323 -163.80696 34.734741
3.6229277 -279.46899 64.696548
-40.314503 -450.36774 21.919062
-54.392651 -448.59589 34.104164
-10.54318 -130.85184 45.987064
-137.64561 -307.49213 73.495216
-30.611769 -377.37161 69.85083
-1.8833086 -213.1416 21.973835
-75.606117 -443.48401 44.653408
-29.487556 -408.62946 10.539517
-1.7203002 -234.05829 11.197785
-137.55475 -79.232819 63.083176
3.8245656 -121.73259 30.039005
-37.262859 -249.1532 15.779242
4.0491471 -333.68048 56.674797
-147.57668 -247.83472 37.091999
-28.172911 -183.36182 16.233601
-46.589401 -401.14648 84.300598
-17.359764 -76.432899 58.54007
-42.292473 -15.798494 49.841259
-127.04293 -111.26418 71.400192
-146.30061 -422.11206 40.412403
-111.35726 -322.23923 17.780378
-117.14731 -77.7565 60.596943
-11.154463 -381.34723 35.934212
-141.46513 -82.423462 63.4468
-144.94984 -69.16523 70.376129
-72.994751 -45.119427 17.144356
-17.429199 -391.34262 50.574364
-138.51904 -75.698746 54.567558
-41.671513 -81.637642 78.703308
-148.95915 -386.21509 34.053459
-6.2439575 -352.6496 44.016533
-157.35313 -113.0728 44.532238
-144.67326 -103.20471 68.984291
-156.21899 -112.09911 1.366775
-70.2967 -329.853 51.725521
-24.1292 -93.277817 45.918007
-127.34309 -84.711967 62.41935
-87.353401 -287.09763 32.144581
-137.48431 -224.18396 99.923218
-11.337229 -109.08178 64.163963
-40.479992 -450.59952 34.388157
-76.958023 14.984945 15.605982
-20.349283 -68.335159 28.516777
-73.612045 -130.01311 96.807739
-107.54981 -273.97125 15.299883
-143.26059 -383.68359 1.7417805
-8.1840267 -358.56128 76.663651
-103.76835 -273.17352 15.325244
-38.30772 -448.45251 34.201843
-148.80316 -297.79688 45.590164
-143.573 -355.62668 36.87001
-18.220043 -69.36496 43.189632
-42.87204 5.514164 27.310801
-141.44751 -281.14603 80.318581
-148.24252 -444.9024 25.065372
-136.08871 -232.36208 101.78661
-11.461931 -280.672 38.795372
-141.46001 -379.57755 46.519093
-144.619 -368.03802 29.021122
-145.55167 -97.358536 3.0606437
-138.3226 -116.54433 69.538879
-4.4914269 -380.08936 40.752197
-155.20114 -372.74094 62.364845
-8.388793 -124.28986 60.801289
-21.270372 -139.96048 44.791
-11.154829 -275.01855 71.40715
-10.571517 -425.03156 53.948021
-133.34464 -86.075333 62.984074
-42.517567 -155.79262 102.87653
-162.20636 -268.50635 18.544239
-16.7451 -395.36987 42.033867
-155.06906 -133.97272 48.428288
-38.825478 -104.76666 64.73204
-29.35405 -356.63794 28.263077
-23.416767 -415.9046 56.801628
-158.44189 -160.07291 10.489803
-143.57365 -213.55386 82.723618
-149.02702 -18.068604 50.280563
-84.483437 -221.40677 33.838524
-18.515619 -261.02139 77.458496
-33.934357 3.7589684 22.658113
-142.47342 -358.92151 21.973602
-141.46001 -394.75787 53.794449
-100.59463 1.9403193 13.996397
-151.91537 -422.36285 28.94311
-11.267504 -68.617706 27.31875
-164.78406 -285.65469 45.646091
-123.02774 -313.30017 70.682037
-38.995655 -126.95533 66.901642
-141.80075 5.7775106 22.290154
-141.92101 -89.056961 24.957123
-146.01749 -156.00641 77.557213
-30.165241 3.9567194 23.929291
-124.22645 -452.78522 39.81517
-18.848499 -367.98492 7.5599656
-55.744297 -193.63043 16.233601
-119.55162 -295.20438 82.956863
-128.61813 -419.25818 50.270561
-26.565533 -183.42876 16.233601
-5.2560587 -194.0444 36.842125
-2.7854781 -260.09564 11.236694
-30.846222 -149.72638 16.233601
-24.65448 -354.34665 28.633816
-7.4800797 -273.17422 14.731804
-17.207405 -408.24057 8.8509007
-141.92101 -88.14579 47.430237
-10.424769 -133.27628 16.220016
4.0715199 -314.46887 45.870255
-124.49068 -68.268929 33.69957
-145.33739 -218.81091 67.892876
-43.73959 -81.894844 41.838505
-140.39893 -355.28989 43.762051
-51.351765 -329.853 30.819677
-115.87443 -450.10989 41.051239
-13.476733 -230.10545 42.29998
-11.051498 -409.6283 55.116486
3.1362593 -73.068634 22.900057
-81.568802 -202.36777 34.989555
-73.36319 -310.4502 72.015259
-50.771366 -102.32019 86.887894
-2.7215407 -81.550369 22.821602
-22.417999 -116.5631 41.436733
-24.845848 -121.18883 5.5657806
-153.76663 -103.2531 -2.6503711
-28.224987 -411.86285 10.809233
-65.931923 -441.04553 58.26091
-3.364476 -431.9744 73.904839
0.8282603 -124.47299 13.941307
-28.25375 -405.62494 68.098351
-5.2031631 -300.87097 12.925503
-93.065552 -57.270386 17.144419
-98.014069 -318.17633 20.684263
-3.7194808 -118.17079 48.207245
-33.202354 -8.7095547 45.330597
3.8102832 -65.732353 30.082203
-132.7585 -134.11823 40.373245
-25.328972 -127.00696 13.600094
-125.58762 -356.17929 41.066696
-142.46216 -376.04385 4.0026817
-27.214281 -416.97144 58.88456
5.3596978 -193.94963 35.66296
-72.254745 -160.66327 30.448009
-116.92633 -116.28485 67.577614
-15.718 -372.06525 23.235344
-164.41734 -131.97147 50.962715
-162.58788 -112.96992 67.649445
-19.315102 -234.90959 87.286194
-81.688583 -445.09152 18.070503
-24.876698 -255.65225 102.41058
-19.047527 -210.5948 88.883728
-11.032234 -420.64359 43.489212
-14.629192 -261.68781 23.434946
-28.972502 -101.00879 -0.78323823
-93.134171 -181.17139 24.077904
-144.55232 -240.10086 15.910232
-10.295721 -405.59738 78.632095
-17.589518 -18.51857 49.924553
-8.4243212 -164.55188 16.194817
-88.56308 -198.46588 110.30356
-11.488533 -392.61972 78.371109
-31.437864 -101.03442 -0.78661394
-147.09583 -225.27121 50.156792
-33.814301 -36.736244 17.142799
-140.52486 -300.56204 76.783569
-153.46989 -78.358795 8.4185286
-37.232544 -196.04129 16.233601
-128.01183 -123.01445 68.094902
-128.57228 -358.97968 48.274441
-29.329695 -364.08362 38.126362
