# .PCD v0.7 - Point Cloud Data file format
VERSION 0.7
FIELDS x y z
SIZE 4 4 4
TYPE F F F
COUNT 1 1 1
WIDTH 1615
HEIGHT 1
VIEWPOINT 0 0 0 1 0 0 0
POINTS 1615
DATA ascii
7.849658 34.639908 13.586899
70.297401 152.73602 14.340028
50.684563 24.7803 5.064126
22.563612 60.962433 9.3214703
16.855612 19.399048 21.484287
63.539711 125.65881 21.564363
39.234097 30.299894 4.4554667
16.713022 17.351156 19.701603
19.1712 30.551888 17.256422
71.772919 147.0011 0.052917346
68.217102 157.97375 32.228611
30.934128 161.22946 15.737623
6.8123651 48.207283 10.068645
68.86647 90.999962 4.3050299
66.402924 90.760323 19.027603
5.6822124 131.32033 29.105011
14.632208 88.383614 5.5798197
9.4758844 153.94275 26.015202
60.755943 168.39345 14.852551
74.659431 45.307686 17.728283
77.264618 162.72896 15.591252
70.749924 132.46201 23.601162
64.410934 33.61853 27.954754
50.430237 168.27968 33.400066
11.292587 23.93152 9.0380211
30.502571 96.140503 9.9830227
43.234634 144.29314 5.4235172
64.277588 123.98548 22.824749
31.611881 100.34101 34.398922
65.0522 35.848541 14.631346
46.085876 124.55527 24.802038
21.439728 77.205078 4.3050299
11.255857 120.71885 29.148157
64.978424 161.44299 15.176134
16.81493 71.39949 16.590611
50.050453 166.77425 10.045766
8.3457584 35.524567 16.873095
21.415371 80.660805 13.075774
72.601974 152.34784 26.67527
13.650294 62.530312 5.5570202
19.304775 94.692947 19.853333
47.360657 119.52071 4.3050299
59.831528 93.941643 9.3214703
73.835854 87.426857 23.407223
17.224388 163.45407 12.9496
35.057121 86.974976 23.051228
8.4737616 123.23579 17.230862
6.8007202 36.614399 2.6883397
79.735397 136.39682 12.544851
37.15033 53.073143 4.3050299
42.046051 114.48009 31.670567
64.963417 119.10657 21.384665
67.675377 66.127884 15.614147
38.434502 60.101852 14.741379
76.920509 120.94462 27.963066
42.096043 149.13437 5.9824018
67.456635 158.94649 12.830176
18.131475 73.811272 18.6875
66.125885 169.94574 11.152603
75.575958 119.26874 20.512089
19.198778 38.881115 4.3914866
39.770683 54.720913 4.3050299
57.702175 138.39613 13.868409
19.5952 79.583626 26.335674
21.610756 48.187851 25.974331
55.481293 82.828529 4.3050299
61.491142 87.706177 9.3214703
16.034609 134.61951 19.905586
48.29211 137.04047 22.220383
53.961914 74.459114 4.3050299
34.528927 126.27602 19.965218
53.711803 168.63861 14.987734
19.1712 41.87529 5.2811475
37.30986 119.0534 15.880165
70.530006 85.156433 5.5570202
38.909084 65.95385 40.114754
26.951168 138.10495 31.79414
34.832954 121.11188 15.94502
26.929749 163.48087 20.303337
19.1712 35.556469 7.9824772
79.735397 136.77411 15.795857
20.756901 140.25443 7.6024084
71.141296 35.736019 13.594542
42.511982 121.8481 25.965031
69.491653 102.5891 11.495598
9.7222357 153.92197 24.568836
13.160788 101.72993 27.025309
75.647934 29.930046 23.368563
38.509842 80.292725 4.3050299
73.620193 85.982117 14.223334
34.608692 136.16927 21.815516
13.204823 42.592209 4.8895931
35.895741 71.103012 4.3050299
20.342257 127.93237 11.622079
79.717964 140.18494 28.339081
42.196465 156.80676 6.8680854
55.023277 129.63959 4.3031788
76.978767 145.78391 26.093821
24.68483 21.773659 23.193565
50.268841 133.19598 4.2994814
59.807541 125.29686 4.3050299
53.504211 131.10518 4.3016548
12.083167 74.785721 14.224258
68.756531 103.47213 10.750078
69.875565 19.480289 5.5570202
35.589542 100.14588 4.3050299
47.164028 65.528381 41.650639
75.090942 124.55389 4.3050299
10.9041 138.96613 9.1765785
21.931801 158.46097 11.586957
77.422699 47.788948 14.363945
73.274261 51.710178 14.649083
72.06076 107.12316 25.911366
16.836077 108.0085 20.657516
15.457101 168.61055 10.741843
25.691986 7.5333843 13.194224
46.3927 131.6671 26.475483
22.672733 36.717773 27.17219
75.18203 38.548725 25.849684
11.154716 156.55855 15.24934
70.998482 46.466068 15.340822
24.692001 169.23666 15.317517
46.518661 117.578 26.167578
47.29982 114.35135 24.056957
35.62558 87.595001 4.3050299
47.49263 170.68675 34.218136
76.458778 41.805733 0.70244586
74.339737 110.20306 19.869473
71.255676 152.2565 26.71307
71.721909 31.052723 13.534756
56.853363 160.13644 12.099043
19.144875 118.29071 26.668262
4.48805 152.79062 4.8204002
13.813128 109.633 13.242327
19.833414 119.45787 22.838886
12.666838 21.920891 4.4966202
52.455948 119.69688 16.985662
29.626328 123.2227 19.773966
4.48805 152.50832 4.6878195
61.307655 159.29309 21.330015
12.874403 168.03047 33.352909
54.797695 5.4035406 4.6999378
35.955505 129.11401 24.712215
69.486 97.293968 11.46925
16.715647 155.04852 18.758801
39.960186 123.18002 23.878895
40.900513 44.266987 26.198868
76.296272 49.188301 7.3193922
68.141006 149.05136 22.442635
57.170776 56.50333 34.32811
16.186253 139.01389 9.0916357
10.64746 145.02414 0.31321654
13.246357 25.550129 13.858013
8.1522532 166.56238 15.67987
40.772652 26.476749 4.4839716
47.406162 122.63246 4.3050299
39.864429 168.40375 13.66449
70.644249 145.33807 0.27188265
12.7072 39.973568 17.996218
22.715473 39.071205 20.628736
45.186871 64.697769 4.3050299
39.536415 118.54153 4.3050299
16.026012 157.88678 5.6645327
64.88916 116.26459 18.065168
8.1873178 114.50046 12.467981
46.976372 82.650024 4.3050299
46.292252 162.28323 9.7307301
22.956623 52.119057 27.370871
13.556245 32.745071 5.1920972
70.438858 89.75753 4.3050299
51.354187 59.842896 4.3050299
6.9344263 150.50417 27.249554
39.811298 123.34766 34.770576
39.392372 65.550354 40.486187
64.213127 124.60907 22.773542
60.277782 93.854546 9.3214703
16.990923 168.93971 14.819429
69.74334 76.422028 25.108805
6.8007202 44.672417 5.8402719
12.466413 114.09527 9.4187012
20.627512 132.58716 19.436186
68.923813 168.04715 8.6877279
71.300804 137.58484 21.779419
10.885592 101.70044 22.408258
19.1712 37.050621 4.4616308
44.980042 53.840698 16.311398
10.490237 101.15101 5.7249632
75.7052 33.916561 18.512671
70.205551 36.940514 25.808252
74.889336 112.07677 4.3050299
52.904438 151.92531 9.8239155
7.2108335 149.87856 32.867077
77.711845 161.57828 16.185547
37.06641 54.752251 36.428402
13.194447 14.129849 8.4087801
74.560272 114.45581 18.396517
64.459457 133.13441 12.694001
66.435875 21.623859 4.4966207
77.172348 30.970943 21.915634
66.461349 96.422569 6.7922049
44.746258 126.55072 4.3050299
6.466145 129.20251 9.6102953
10.9354 148.20198 7.3066792
38.434502 66.84462 15.473442
14.918554 26.044693 25.222969
53.088799 83.188797 9.3214703
62.978474 13.04485 6.2777228
33.677532 164.40274 13.292042
59.882114 58.278309 33.564632
45.240917 127.23994 34.369705
25.762897 72.74926 12.930252
49.901951 149.00722 15.619216
45.818535 145.16168 5.5237808
60.309868 168.66148 10.547812
69.845116 49.099426 20.284451
38.997002 77.585487 10.028023
43.169464 53.286774 4.3050299
39.273987 135.48582 4.4068074
45.532513 134.69107 18.70846
69.770226 93.543381 15.375799
28.721809 66.006721 40.115746
36.837112 47.7048 9.3214703
35.960243 87.211502 24.397091
71.793427 160.51093 13.503666
14.087602 92.690994 15.293979
57.011894 58.837097 35.638565
20.146128 90.34848 28.180632
40.850636 111.88967 31.528019
68.551575 138.46852 22.734991
64.978012 115.69614 19.998474
19.1712 50.129066 14.106298
69.180328 88.452637 15.001385
58.090027 74.266365 9.3040819
61.46994 165.68147 33.167336
58.874161 55.246552 22.013447
68.511536 131.64931 31.957741
77.324692 161.3999 30.016441
7.2667766 129.60001 20.949139
35.967884 50.305866 4.3063054
38.803349 120.07692 15.797105
21.911203 118.38931 4.3050299
65.563065 88.839447 21.489433
56.070076 51.091736 31.994389
73.862846 26.679071 17.887323
14.803284 107.99191 19.420109
40.8256 96.738808 28.545176
70.826935 86.067566 4.3050299
9.9140453 141.59048 24.861095
11.582387 155.98985 9.3176527
16.655352 159.41418 12.27377
14.234779 43.16053 1.2619631
55.754593 168.24695 14.771763
14.278244 137.82153 22.087814
9.0236044 105.52843 4.5322995
57.759064 164.82384 9.5962639
40.312122 136.56252 30.277464
31.978283 71.370132 13.357214
54.57584 91.113647 4.3050299
74.866302 162.79843 30.478724
70.967316 158.99631 19.244293
24.147785 100.50793 29.823137
63.140305 65.918312 9.3214703
52.475891 51.266026 4.3050299
68.574821 23.7199 11.410826
45.548203 137.8717 4.6822453
20.048157 114.57068 16.458916
20.756901 156.45508 12.961901
45.226398 92.105278 15.97542
54.508236 49.418495 24.993809
11.109337 143.33661 0.72259676
26.409216 119.06534 4.3050299
51.118477 118.95119 26.603798
10.286136 24.7803 4.6803384
65.0522 29.67469 14.736973
59.698921 60.272598 33.00367
15.723359 164.48984 33.011639
15.693639 148.11136 0.093253605
24.95451 81.880692 9.3349781
22.039007 74.143776 11.281116
69.626968 44.376583 1.8401339
34.101269 130.11592 22.233316
61.922249 96.256462 16.261076
6.3523121 131.50237 6.6588764
57.123268 30.934772 4.4507337
75.174217 46.743389 21.3981
76.273102 141.7899 24.943714
38.997002 89.84874 10.498932
27.28233 67.865807 4.3050299
38.478554 134.13556 15.474041
66.737915 108.46306 24.489616
64.357147 119.668 25.520439
61.796402 170.28091 33.999508
69.877327 139.18033 23.281202
53.363441 49.937004 24.713324
67.390793 84.256828 14.762827
23.390335 45.749897 12.9141
32.664257 131.25882 31.554075
39.456219 14.175339 5.5570202
67.72406 97.509171 9.7390652
74.509254 129.47021 4.3033552
58.588928 9.0809965 4.4966202
21.204626 132.39462 27.630852
45.226398 94.94278 26.176323
65.0522 49.058117 17.325119
63.21384 128.45496 26.892954
42.237625 114.66293 4.3050299
33.894077 128.64786 20.26432
24.462601 52.311462 26.134178
36.361034 126.51056 23.825218
54.666786 160.47736 19.213833
64.422073 82.239922 28.597317
6.6057839 134.34787 13.897214
23.05722 69.347626 14.349878
65.0522 43.752174 12.976562
47.077915 141.37421 28.480885
16.676739 172.64742 15.583716
42.45578 99.46888 29.03833
68.241699 168.29636 13.005415
54.508305 69.56797 4.3050299
23.323746 27.427629 4.476882
28.414049 53.770576 33.579578
10.8322 38.881718 19.279259
9.4014416 116.51747 12.361486
68.51976 51.35545 8.2116785
52.134998 115.06334 35.449799
32.129833 88.52327 30.546286
20.686689 40.616764 4.3785458
39.564461 142.73032 32.737213
11.62187 120.98553 4.3050299
33.338829 130.28156 31.448833
74.99086 114.93741 18.82901
71.175964 24.7803 4.8837166
42.541744 115.473 16.324596
58.309998 127.88861 26.679974
55.041473 55.080849 22.371531
66.884773 132.01501 21.030107
72.358238 82.816338 4.3050299
10.266062 52.209724 12.930002
36.445881 71.621384 9.3574905
59.516979 101.61449 30.746523
15.332447 171.224 9.5306644
57.533249 92.356102 9.3214703
34.433704 117.28629 19.805058
52.654076 74.987457 9.3021441
14.287493 153.40729 24.782064
7.3686047 46.932766 20.4846
21.000044 157.42847 11.270431
22.366205 138.87083 5.6279583
36.850529 84.216888 16.356499
60.704819 70.280952 14.206558
6.8007202 35.644695 2.8833022
77.392586 48.29261 15.007312
20.581694 124.78331 18.890347
25.486378 105.04719 32.126316
17.626228 132.0182 20.977674
61.063309 54.900047 30.684959
5.7143898 127.06195 27.392067
31.239502 138.41646 28.26553
63.747475 122.89307 4.3050294
19.1712 43.189659 8.4219913
76.816704 145.38657 27.389128
24.753618 140.52901 5.9174767
7.7188263 49.649174 16.494301
77.612885 146.41605 0.12994932
73.35675 172.66721 17.575741
19.1712 38.757801 23.775969
20.659067 15.975669 20.611923
62.887966 149.23608 31.199739
68.234901 171.3187 12.977782
49.228767 83.720169 16.586193
27.330864 125.09509 30.834949
7.9591198 115.48439 14.778688
65.08252 78.650108 22.434601
67.939171 134.69646 13.200113
26.802197 11.025803 16.62882
8.2864513 124.85611 15.468319
21.073017 129.60083 26.991755
54.188774 55.6423 20.943195
23.428082 169.76407 15.59362
26.75399 49.681591 30.548487
17.794054 132.64368 4.300056
54.175354 88.891884 4.3050299
53.328377 168.6599 33.471981
56.318169 39.53466 26.096676
25.114729 17.612633 5.5570207
67.590256 157.88962 19.412291
15.406906 140.02063 33.48143
73.391296 44.4702 14.117914
57.616699 48.25975 22.314259
70.693947 126.00426 4.3050299
48.468788 144.60907 15.24
12.439399 98.299698 13.083169
75.30835 151.70966 0.82172137
10.112634 109.97778 26.204437
20.756901 159.2088 13.634978
47.150002 84.851715 19.104465
58.834568 82.60331 4.3050299
18.5513 94.684204 20.830151
19.1712 44.485641 13.975999
34.108047 8.7142839 8.6839705
20.112259 84.873772 9.3214703
8.3327332 159.56464 8.4348955
6.7659211 134.37045 19.219395
72.558189 142.75659 33.617783
73.688393 132.46201 20.277054
47.397793 124.82618 21.870052
68.669403 46.728416 16.205799
26.495319 89.336517 4.3050299
66.162155 111.40907 15.009571
52.338242 83.681458 4.3050299
67.047249 155.58157 25.01704
23.208752 125.24584 4.3050299
65.357376 55.781494 18.207699
70.9496 143.22626 0.76831567
64.070374 126.09738 12.18462
10.1618 159.30203 21.12141
69.86232 160.52745 12.928978
10.022896 135.8606 6.9422731
30.347111 76.787727 4.3050299
75.054214 118.0707 20.657465
10.289322 86.105247 22.070213
74.884476 103.15356 20.320684
22.847242 152.33363 9.7060108
36.075195 76.621735 4.3050299
9.5742807 51.8592 11.507948
33.469425 47.642437 31.834373
71.516296 43.204586 10.247207
65.815231 77.489532 12.578326
19.769791 75.306374 24.527916
10.265523 86.930466 21.747011
6.7398243 162.28503 15.842566
52.102695 110.24559 34.291283
69.653168 132.05289 15.247968
55.934662 99.683037 32.289551
65.301605 82.616165 4.3050299
19.1712 44.495071 9.7313633
70.297401 152.17752 14.004766
19.090147 12.795166 5.5570202
77.048752 159.29996 18.511162
19.857822 123.23367 13.17936
4.730926 135.77287 26.96101
51.511864 61.260517 4.3050299
38.380928 130.95938 23.228729
37.526253 44.704617 20.884584
35.08963 24.71228 24.188393
77.380981 159.15793 30.704544
11.6842 65.799019 5.5570202
37.902645 118.0915 15.990106
66.063652 101.40866 6.1066046
33.814812 100.63322 34.64653
27.423853 107.85513 33.30545
37.701225 50.483353 19.704395
65.463943 70.509041 20.089508
20.252396 111.90862 15.846151
50.651711 50.374535 26.722866
48.595039 138.12357 4.7113194
65.415344 112.89843 25.808945
42.349953 124.16478 28.030725
42.586899 62.323326 4.3050299
48.773888 119.44745 17.944141
72.197609 36.841259 21.463833
65.081703 24.7803 5.3905821
72.972191 93.845154 5.634861
10.570054 48.854904 6.5144587
5.4965115 135.32541 18.058529
75.620522 122.21508 22.964506
47.92939 32.020107 23.742363
38.075253 35.703678 25.98045
48.707489 65.33387 41.308048
42.30426 122.71721 25.959055
25.549921 163.4218 12.93795
73.552757 66.808067 23.34528
8.1759071 29.293486 14.816038
72.642853 148.62039 7.2629914
22.6717 43.679413 19.540648
38.997002 42.444942 10.031533
50.444859 164.73322 20.453293
45.127525 67.013931 37.385773
15.471414 171.8902 7.7757092
50.854477 143.28543 5.3071961
50.717873 159.65649 15.171728
21.774597 96.140503 11.205917
19.831678 94.734245 22.089331
49.51722 151.40137 26.059834
26.868595 164.43532 9.4999304
31.247499 152.03143 25.82572
18.172609 111.96145 15.807352
45.226398 49.829243 15.130465
73.127022 137.73755 4.3286953
36.612679 169.41541 11.019268
43.708775 127.07518 34.386986
56.805408 173.35602 11.986756
10.267272 107.50592 19.076967
50.403675 155.43022 6.7091742
20.717724 125.95034 22.672325
78.240891 151.81897 4.8522077
68.161224 49.071968 26.959484
65.154037 47.467422 27.279667
66.639122 77.146278 4.3050299
48.615917 70.413498 13.958852
67.980942 166.02254 12.052038
41.853119 48.180336 16.796055
51.716812 99.741264 4.3050299
72.049927 132.08481 13.717257
75.173325 116.28815 22.681326
78.043396 122.87608 22.887234
32.017239 161.33475 19.125797
10.910445 64.179718 5.431459
72.651482 115.43182 5.9107027
62.715046 122.84776 20.237572
42.866352 169.05624 20.983978
62.875317 134.83649 30.984861
20.169086 121.60526 21.121136
70.673119 133.04248 32.129883
57.439751 91.568001 9.3214703
44.554417 131.86151 4.300869
29.048634 114.94514 4.3050299
30.992037 161.9126 8.9943848
35.7342 46.516903 22.153902
74.955498 155.96365 32.226776
20.424616 63.17297 4.3050299
53.246067 50.692188 26.309637
41.936226 125.64012 26.647995
69.722252 67.562302 4.3050299
69.644577 40.589428 0.35379022
16.268806 164.81667 12.297843
47.170853 164.62305 8.2779922
67.424057 24.35198 4.4966202
69.154869 144.78741 0.34438616
64.528267 63.84446 20.329954
16.804779 123.97012 4.3050299
55.69725 166.39688 33.060425
15.946259 169.01288 25.478924
79.723785 157.84473 16.851929
76.058403 130.77786 28.031784
71.979759 15.407143 5.5570202
36.830166 82.420761 4.3050299
57.658482 41.911644 26.720984
15.575095 106.52351 5.7920074
64.458191 122.44356 22.298115
16.337482 141.81682 26.403925
10.735976 17.07472 5.5570202
11.696307 92.167587 4.3050299
56.756638 40.639702 4.3783746
34.391556 52.84613 34.906296
48.075119 125.96806 22.256237
44.967422 41.546722 16.550211
23.258562 170.97481 11.121404
60.796684 19.023558 4.4966202
73.414719 49.922764 15.961667
66.768951 132.05272 17.476234
77.063187 160.17113 16.085827
71.180717 26.497858 7.6045132
12.5667 151.30727 17.147301
37.441658 84.56813 4.3050299
44.800968 158.13824 7.0217957
19.622503 86.701195 24.297977
59.098473 39.932678 24.841431
14.645709 37.346657 21.470369
9.0939703 35.786888 21.255774
8.5156641 138.19864 14.673615
32.278404 64.521294 40.466839
10.709175 81.867584 4.3050299
19.482506 17.3403 21.283558
53.672421 141.40634 5.0902724
7.8162127 22.836178 5.3567448
72.977226 144.44891 4.3298974
45.348843 169.70369 33.919884
66.606934 92.331238 18.125885
19.510946 124.3792 4.3050299
42.879494 115.59494 25.957569
74.911469 117.02597 20.841621
9.7962151 26.858187 18.319756
67.701721 140.04889 19.061554
4.616642 152.48358 28.691494
31.747814 90.699799 33.831688
65.0522 41.254105 12.422151
54.040009 51.640182 21.582737
72.660828 43.570499 5.6314111
5.197506 153.78687 30.019409
57.837696 51.395348 4.3050299
69.322952 134.20355 18.688059
20.353956 127.94088 21.812397
7.1988831 143.5972 25.692444
58.366302 147.63696 31.602818
73.288002 146.27893 16.541876
73.349335 141.64516 33.438545
37.540409 108.6658 30.839581
30.663418 39.534866 13.748571
37.18882 114.19909 32.828873
40.714043 156.04639 6.7803059
69.214859 68.764709 8.5402517
20.756903 135.76468 18.713287
65.0522 28.569893 12.407095
48.496197 130.56567 22.136345
49.479439 39.512161 23.968235
15.274801 100.35046 4.3050299
71.060684 50.560257 5.8089046
60.815811 56.886456 9.3214703
13.596354 147.87384 3.7771921
35.665993 123.90297 28.598202
24.580412 55.963181 32.584995
40.177956 56.526329 17.577801
44.580132 60.234882 17.702801
16.154999 132.46201 26.440971
62.904198 13.477739 5.5570202
43.919346 52.498425 22.2854
11.848957 170.54572 22.749802
5.6911364 159.7372 8.8515205
31.436256 93.286064 4.3050299
36.987431 173.96655 12.147936
72.250687 43.767799 1.5135045
70.483688 87.114647 14.92532
45.613388 72.748825 13.888998
37.155106 128.21939 21.383326
48.904411 160.48499 11.415623
76.327118 35.547386 16.845234
63.123222 130.17865 19.353954
56.61306 99.411209 4.3050299
14.078013 65.846252 4.3050299
75.674026 146.62537 11.934306
14.46795 63.232544 13.567294
70.603889 132.03711 16.004751
64.614365 91.325577 26.3053
54.671082 148.13437 7.3578119
63.466499 154.71518 10.491043
68.411034 149.85291 4.1405134
46.402653 73.235909 4.3050299
41.635773 48.746887 4.3179283
40.263378 58.255745 18.390301
11.123698 135.93051 19.533596
66.36618 61.377872 13.270684
29.275961 151.03938 25.749819
4.7273126 143.97298 1.4351094
37.157261 95.424164 28.307686
11.316005 139.17114 3.0329173
69.720306 87.638504 5.5744696
21.677681 149.70221 8.8519249
70.622002 94.834457 26.383633
7.0944004 151.18483 14.294196
64.063744 169.24054 22.354105
52.396767 120.30341 17.73978
10.204734 99.474319 5.5841045
73.853844 132.12029 12.016193
49.769226 171.97908 11.631268
58.668819 50.501915 24.340834
67.616745 137.77007 20.732983
64.454468 60.350147 23.726444
28.320349 42.396099 9.5577164
29.539856 51.092785 9.3214703
10.085304 107.44962 16.683643
50.715084 125.96758 23.68874
25.652571 69.8591 9.3159304
76.202667 38.861565 8.6991024
72.103447 25.512959 13.575708
60.40358 74.416702 4.3050299
68.053787 165.18405 33.117111
19.816448 78.863083 24.149927
4.6689472 138.72211 21.3269
70.555389 87.113327 25.815302
13.206074 63.136013 9.0714378
39.072472 41.050014 28.906181
61.558601 111.75005 4.3050299
60.685532 132.19455 13.083557
63.94894 123.69839 27.714098
17.109415 128.57986 10.762714
17.369484 61.966492 4.3050299
47.1586 162.32202 22.307922
19.739672 77.788048 24.900503
15.009737 143.33409 21.704813
55.78933 95.161362 27.132229
18.899887 116.78773 14.900192
41.909958 48.800812 24.858402
11.242052 140.64723 6.6855011
16.931858 158.95964 21.743683
29.933628 96.140503 12.998544
32.43364 86.413094 4.3050299
64.308258 165.15259 13.562828
17.76712 93.047783 5.625196
13.168986 25.6089 10.749973
7.3545589 167.60229 23.440163
17.216503 97.522797 8.1358156
22.837446 164.65273 13.382358
48.16584 147.556 16.66835
59.326702 163.21194 12.879158
30.556063 166.47543 10.005775
59.491364 81.240799 9.3214703
31.714281 120.39979 4.3050299
33.396706 47.470848 18.014782
60.367374 100.19875 28.998875
70.329666 112.91818 4.3050299
20.756901 158.61357 13.047576
72.210686 131.98218 19.469995
54.943352 128.47173 31.416853
45.321548 57.779568 4.3050299
48.516773 120.33465 14.954037
45.824585 111.16615 4.3050299
25.11713 162.79922 9.3739462
11.804086 165.20993 30.144516
75.713432 168.086 28.107159
59.527199 59.69371 34.548946
16.8666 146.80078 2.7891784
23.832739 70.222755 4.3050299
36.372208 21.239943 5.5570202
47.41589 170.90164 11.353103
12.406199 41.514782 33.849255
46.538502 40.381454 18.930504
74.603188 42.642563 34.27697
72.328789 149.01715 26.094627
40.701134 96.347336 28.474476
7.6304164 151.74991 19.722015
52.962132 60.513805 4.3050299
72.544281 135.70859 18.997774
19.1712 34.855869 6.2371349
10.282808 45.643234 22.242264
74.911491 117.0262 21.073172
72.975357 32.043015 19.249197
73.731407 41.300003 24.563047
74.39975 43.197617 28.158459
17.45595 161.44299 13.679663
27.218803 132.47275 31.636684
76.201813 128.71532 29.854723
27.948389 96.568146 4.3050299
25.441364 96.140503 11.607612
14.217026 86.826431 5.5686398
72.876846 36.227814 12.791603
32.802341 154.38873 10.619418
72.206604 39.568161 24.834988
45.788898 62.940971 15.023395
58.702591 74.336395 4.3050299
6.8007202 40.397049 22.560192
68.709618 110.95052 5.8473706
25.127132 100.37164 31.35984
17.167875 96.695129 8.2088976
6.309885 121.94852 24.076765
26.372227 43.599854 27.437479
12.001394 91.032135 4.3050299
51.239498 117.38255 4.3050299
11.032482 107.959 18.099539
72.59259 171.41896 34.13406
69.183884 13.981004 7.4173098
18.399994 132.46201 22.466295
29.880173 9.4637337 4.4966202
13.512955 152.12102 0.99213076
38.315342 67.896675 41.60627
63.440887 46.110989 26.974642
63.886383 50.085972 13.380333
26.313938 81.99015 9.3214703
48.63829 25.318844 24.362453
42.63044 138.492 23.45085
56.841377 107.08342 33.201385
65.908478 90.666573 26.118294
48.759773 129.88853 28.5982
73.731194 90.157028 24.392506
40.218849 58.813347 38.822659
9.7206259 115.94453 12.385539
38.873909 124.22539 14.9333
14.961926 161.13882 16.952242
71.343544 148.06691 11.848289
72.360214 154.62619 32.800262
62.02626 101.90843 26.133856
14.224077 132.09348 13.302294
65.332657 83.661873 10.148816
66.491943 65.902168 25.530964
5.0750632 145.26434 0.72689801
20.131952 133.20358 13.669624
21.876364 164.20023 13.218993
44.53223 150.45216 6.1345139
70.928131 152.33377 25.226799
19.700653 118.60859 20.313574
35.809166 43.37923 9.3214703
41.227844 166.2282 19.505692
14.817419 95.209869 19.412596
74.645325 156.82709 12.986993
14.735117 161.30005 16.256651
42.286514 43.984589 26.187916
9.7796011 172.46701 17.354782
65.0522 46.394276 5.0589967
16.649815 116.06442 6.2713366
19.694443 70.728989 24.953455
34.651409 45.50769 24.378241
35.086979 84.642502 19.129793
75.532364 18.449671 15.50823
72.562599 78.288025 5.5570202
22.173157 168.20041 24.252245
73.947578 66.578072 5.0618358
50.795628 61.434654 4.3050299
15.287918 48.87162 8.4338722
66.52681 93.217354 17.684652
22.085346 163.98488 13.141242
71.473328 148.26985 14.427435
70.678253 46.396442 21.66432
33.038399 162.29764 26.612202
16.39674 57.390114 13.341887
60.785652 68.330208 4.3050299
29.158012 42.132523 27.7668
12.825835 95.420433 5.6542239
47.599072 167.46829 26.036892
10.548188 108.31891 18.850967
43.351475 74.117935 4.3050299
48.508362 69.214516 13.350198
48.501556 160.16913 7.404191
16.764805 78.13829 6.7999506
12.900355 14.626623 5.5570202
24.587833 138.47096 24.662998
74.6474 150.98303 10.28126
11.094128 64.094696 11.678928
20.486542 127.72076 28.163725
14.103055 47.871624 5.1175666
41.396469 159.59311 21.040751
33.216736 49.052742 24.993668
69.079407 11.009518 4.4966202
4.7094393 146.32265 1.1371027
20.810768 127.47017 28.135719
35.442886 63.646675 4.3050299
35.615955 75.540565 9.3214703
36.37484 140.35432 4.9688497
13.537735 43.577576 9.0929289
37.47995 87.248085 4.3050299
67.50209 136.9435 7.8191662
52.880913 19.347294 4.4966202
18.678131 112.06726 25.93017
13.082201 39.370598 11.043823
34.333992 47.084499 22.804298
45.6036 119.21292 14.506564
30.200901 72.11441 9.3214703
7.0334673 37.828999 0.852548
11.299142 64.361649 4.3050299
18.409496 94.612686 20.526524
9.2230597 37.34502 25.861292
68.669403 28.020027 9.4444199
16.526476 138.31264 15.28019
74.184052 37.371601 14.191578
78.135902 160.80508 18.389542
10.404104 57.839985 5.2007813
6.996666 166.32401 20.795109
71.052414 92.469025 12.371887
23.906755 139.57852 5.8939724
10.905462 107.292 17.137346
53.754082 88.734314 9.3214703
76.442825 129.13994 14.924813
79.735397 149.93735 2.7675414
38.794163 150.86972 13.965933
74.345749 51.786278 10.809144
65.477531 86.35659 4.3050299
19.195841 170.99278 19.645565
44.183044 115.03307 25.630493
15.425735 173.26654 9.5480661
66.099678 148.98473 34.004723
12.018398 30.112698 26.253187
13.526737 149.325 22.405029
57.306091 49.321278 25.006611
45.66988 158.86249 7.1478357
62.469563 103.73714 4.3050299
42.280113 135.03267 26.094303
24.853554 121.63689 4.3050299
14.464433 27.581558 19.479221
71.345322 36.999001 11.120106
48.355145 39.071198 19.514296
8.5602016 119.91486 24.078659
22.748369 96.88868 28.678047
15.929541 109.68683 28.332499
63.268166 64.526482 9.3214703
7.7570801 38.936024 10.878116
57.888103 51.188095 4.3050299
47.881207 133.31241 4.2993603
13.111287 40.190041 28.259962
64.79361 145.88649 34.184628
76.427376 33.642159 18.721424
53.136585 50.142235 4.3075252
34.716671 57.872429 4.3050299
35.557907 86.061058 24.808674
49.592384 156.77083 6.8639364
65.962425 146.04567 27.475777
10.285963 82.359489 19.535511
60.385414 79.307549 9.3214703
28.325016 41.968735 27.448761
19.243504 52.179726 12.928238
56.286392 143.59982 28.765314
60.00034 39.071201 19.230135
37.805546 41.831097 26.026134
52.590202 132.03406 28.5982
19.575243 150.33461 33.952866
68.341934 94.61747 26.527012
68.041595 131.967 26.935663
61.695877 110.10452 19.460594
66.393257 129.31036 4.3035207
16.819275 133.08209 11.955883
29.87612 139.30382 4.8475747
47.683113 135.85443 22.03273
48.027546 140.30411 4.9630394
69.715385 15.275196 17.222847
20.304522 89.473618 4.3050299
36.812462 143.66656 28.42367
37.430561 40.550041 21.856237
13.222562 103.5208 12.292265
31.726254 24.241407 23.977629
79.603676 156.33221 20.622032
33.965694 137.78946 13.200388
67.473289 152.936 23.381626
56.420815 88.191833 29.541714
22.192348 60.076347 30.604546
50.791664 111.42531 31.446323
53.986103 168.72369 10.823558
65.586792 71.326279 10.911633
76.735962 159.4312 22.354454
76.5569 147.41919 14.268957
36.610878 130.29547 28.5982
43.940746 121.25214 4.3050299
18.173435 90.452637 26.103065
8.2797546 153.65312 6.1387501
79.735397 153.57326 4.382153
10.662308 104.02374 19.755856
66.922806 88.843369 18.09375
16.734913 86.774422 8.3373289
63.404167 108.41827 26.74435
16.245411 151.65799 1.2285928
32.649017 92.568275 9.3214703
69.60083 18.915028 22.055084
9.1001644 108.61127 11.299418
65.0522 24.815742 9.160737
43.007233 40.969074 28.94063
18.78586 132.46201 25.99707
72.867188 36.843338 3.6717367
75.107208 118.45851 18.61937
35.155582 173.73367 12.090189
7.5245996 127.06229 18.818527
6.2568688 138.198 22.527411
70.296318 134.51199 19.651276
71.898682 155.79733 23.150232
53.883804 141.7928 27.551281
11.808246 13.629698 7.9682894
68.045326 49.641586 19.602978
15.453385 115.87255 6.943759
9.711236 25.487329 13.381067
57.681534 100.67575 29.256298
64.114525 68.286995 25.366802
68.633881 173.10162 16.515541
39.445496 135.09863 23.667004
38.032784 120.12135 16.252354
13.9261 152.14346 14.310383
35.469318 131.21738 28.5982
64.957321 89.451485 4.3050299
19.456558 61.367966 22.710136
23.876335 62.96397 4.3050299
15.360903 40.392887 23.709652
48.14632 168.06923 14.673759
74.213547 57.387764 4.8209987
21.804638 17.3403 21.10022
74.46785 51.596001 24.669367
44.539936 151.48615 14.127325
11.441404 114.35661 9.7572412
76.372177 36.068726 27.011911
59.794151 35.179405 4.419086
60.320599 22.103783 5.5570202
55.622345 82.698219 9.3214703
75.690186 122.72495 26.035891
21.365231 86.532997 4.3050299
49.052692 143.26501 15.085635
65.57534 87.911362 12.657392
43.181591 133.38522 14.9333
25.30732 75.692055 9.3214703
45.226398 94.442314 21.123032
15.515406 107.68114 5.8064842
10.94164 132.07878 28.650812
74.25528 53.348232 12.716389
30.424559 97.23613 28.634993
14.207983 46.157425 3.206609
56.350052 49.314102 25.007555
6.9454508 124.47891 11.022872
54.845825 163.10603 9.4594631
69.889099 132.46126 32.056694
7.2346792 23.885506 4.7131286
71.261597 45.020073 10.476128
75.063675 138.40662 15.780376
46.066135 164.43184 32.993652
27.410263 6.1106358 4.5813694
51.709362 153.60419 9.7993469
35.798866 51.27623 34.339676
6.8191166 155.07361 2.6014669
76.307709 124.70997 18.754078
25.334297 62.118935 36.134552
30.525591 121.06931 19.281422
50.915993 34.192966 4.4264407
75.635307 122.32803 18.092945
73.57637 82.103241 13.313832
74.194382 142.78265 25.354992
58.950195 11.986193 6.3715038
60.36208 46.908207 4.3316374
29.525272 10.119764 5.5570202
55.359852 157.09204 11.350885
13.246645 88.957565 5.58394
9.6896601 30.547626 2.5154018
19.13961 145.29396 34.166344
73.329628 103.36903 4.3050299
26.4245 46.216358 20.042685
38.778809 30.924129 23.379553
33.216251 124.02766 26.6038
54.39196 133.92651 4.2987218
52.351479 166.26019 28.7136
14.531634 67.924896 5.5570202
15.442795 173.58968 9.9580145
18.747705 18.04776 21.877686
10.32226 94.34639 5.2960124
20.427406 132.12837 12.785789
70.85112 40.530605 0.34604666
32.635426 36.041279 4.4126596
70.949081 61.698318 5.5570202
68.755669 48.407074 9.4110508
76.30349 26.063633 19.447704
48.470551 155.85344 15.238708
16.695911 158.76566 16.630604
7.1406422 151.39771 0.69248873
29.505875 162.59326 12.748674
9.7843914 100.68271 15.183893
6.9597025 125.3931 8.0722446
54.741966 34.301842 24.037815
73.383865 132.46201 24.496037
74.262894 112.40823 23.632793
23.863586 10.78761 9.860919
25.640547 72.122734 4.3050299
65.0522 28.726681 4.5964646
17.772968 15.726549 17.026375
76.170372 31.607977 8.4887028
69.051834 31.234213 22.313686
44.55175 169.24472 11.02302
17.637848 155.02226 32.969967
19.783075 78.041542 24.576376
76.675865 134.62663 16.015522
17.498455 51.838154 11.30627
12.355519 138.25081 10.976974
67.11869 91.532112 17.103754
30.127625 163.31505 12.900902
67.474838 95.084244 20.549652
31.677753 101.43904 4.3050299
72.776482 36.533596 28.031334
41.928944 149.11235 30.686035
20.022284 124.76398 18.975777
9.0271511 107.962 13.157889
60.207439 60.842773 34.321129
63.466499 137.40433 8.0284147
39.522385 74.072655 4.3050299
63.897209 20.863953 5.5570202
55.539848 28.495073 4.4689236
66.863541 37.456997 28.458509
7.6840997 116.06244 5.4986162
72.887024 83.586342 24.846611
73.914291 79.569824 17.528913
48.358727 120.91483 16.448442
52.390133 25.750105 4.4893894
41.741623 130.3633 14.9333
75.026047 115.88317 5.9171019
68.771408 104.76169 10.750746
69.523193 132.07613 14.134363
78.468979 147.61253 0.027584217
75.329292 112.97413 5.8758454
66.656105 62.809616 24.410755
63.919567 52.497978 12.086788
63.466499 143.64613 24.050686
6.8007202 27.49651 13.355882
72.377686 29.18429 10.461763
64.149086 75.3489 23.818363
17.947937 78.449463 4.3050299
6.8863668 143.10837 13.011814
59.403519 73.916153 4.3050299
6.7464266 122.15099 4.5898609
10.448789 105.93768 23.420666
45.226402 96.330215 23.282776
61.419334 100.61807 28.628651
66.581047 100.75887 27.190502
17.230581 125.93835 11.101986
63.466499 139.44418 9.3941689
79.93779 143.44722 28.369694
77.060654 151.08365 4.9763775
12.014602 69.338371 11.636903
74.611328 138.46329 24.426197
27.502338 85.463791 4.3050299
76.757454 128.09883 26.339756
26.524994 39.410782 25.328781
53.324142 126.39791 28.279406
20.914829 162.31593 9.2592916
73.779984 49.162434 20.206482
20.310448 160.23042 19.434025
43.661057 132.95503 4.2997322
68.169197 173.48354 11.743443
49.091713 166.12843 33.038284
12.986383 84.175095 5.5570202
73.085495 34.278389 18.517006
36.366535 113.84621 4.3050299
64.181961 53.208412 4.3050299
35.250359 76.66787 12.606373
77.444481 162.46198 15.851887
38.629108 38.062675 4.3975887
31.009857 56.728367 36.302597
22.936815 163.80328 9.3432178
54.764832 36.747673 24.978073
53.307102 50.868446 4.3050299
36.096676 112.34601 23.935387
20.926575 16.613808 4.4966202
57.994202 96.140503 12.419466
20.441965 55.840969 24.418819
45.451397 63.680588 9.3214703
32.307465 40.753098 11.122112
31.60561 137.87413 28.5051
36.265018 161.6898 26.204557
20.756901 153.52481 15.102838
38.700073 55.938129 4.3050299
56.443211 50.421883 31.449295
10.8322 32.109444 13.853969
62.609329 67.709747 4.3050299
45.440639 97.721092 24.776165
15.446964 98.815216 26.975342
48.660786 120.17197 4.3050299
51.120697 86.283943 24.584267
15.315722 70.592407 8.583622
71.285492 104.35931 25.44919
71.408699 125.5994 30.029171
23.994865 98.67038 29.422085
30.691736 159.29071 11.950836
25.408028 140.61847 31.713924
9.9993391 154.07123 6.4557633
43.775871 88.583023 24.373268
51.31284 110.89334 31.284882
49.594757 14.443459 20.02372
10.610308 77.037926 4.3050299
17.820019 11.275162 4.4966202
54.654572 171.81844 11.302481
9.9758196 38.122696 0.029042089
68.486618 164.99542 12.004255
6.9883385 22.859394 13.75931
39.906105 102.88206 4.3050299
17.212658 132.06752 15.825357
9.3607597 152.92105 1.3235544
77.068268 41.935699 23.615488
39.1133 117.50595 16.042877
45.316471 122.52533 18.940205
39.918198 163.67989 11.278107
68.795227 46.000534 20.187407
6.2488503 129.51122 14.139645
66.45285 110.80547 13.068413
41.525085 35.829391 25.667561
58.475639 52.117149 23.57448
69.038429 18.753969 19.611177
34.857258 140.017 26.631897
11.579346 57.138878 24.179268
8.3551683 35.126354 27.033142
65.0522 37.002998 13.377748
76.472153 39.852379 12.214393
56.878105 71.011948 9.3128319
18.754286 134.36218 4.2982693
70.14299 128.97951 4.303865
71.777039 168.58865 14.045671
64.874886 110.9323 28.322453
68.575401 168.8627 11.56094
73.919334 114.36219 12.588811
20.822369 126.84814 19.660366
67.918503 18.951429 20.81764
4.9385815 156.65047 21.567387
8.1535244 26.126566 16.553455
43.239902 61.215607 40.061123
4.931138 144.19167 30.938644
79.517273 141.87773 23.895489
68.218445 13.365849 8.3284578
69.299797 23.961666 8.7093239
13.645227 29.164286 14.127665
12.816614 30.774094 2.3416212
64.610474 121.53447 12.561911
49.432579 96.140503 10.498594
63.466499 134.48424 10.553126
72.634872 106.82726 5.7958059
44.155128 71.947334 4.3050299
34.717991 115.76178 28.598198
73.746773 51.815067 13.855158
6.8007202 31.83061 19.655121
74.322304 112.77924 24.292959
76.435059 143.26959 0.75036335
15.815584 59.57246 4.3050299
23.764349 77.306526 4.3050299
75.346947 107.26549 23.364849
19.229834 56.266098 4.3050299
60.936298 52.733635 27.129599
33.670242 121.90154 34.934059
61.313759 161.23331 30.648727
12.7072 36.419899 9.0415688
68.566277 161.16354 16.845522
48.798496 112.43135 33.094772
43.338112 52.688286 35.564312
34.394653 102.49876 4.3050299
47.739502 143.666 27.360281
4.48805 150.34073 3.2029514
19.086718 117.98645 18.691675
71.330498 146.00346 15.054064
46.011341 68.189667 41.094021
6.8372803 27.167395 12.626054
78.406197 153.52568 31.158451
11.101594 24.308712 7.1961017
30.492327 88.928558 27.650145
15.575773 25.192146 17.843193
66.456367 107.56058 18.856331
7.8488126 125.21416 21.928619
12.089217 145.46898 22.406919
73.923233 46.892746 11.960649
61.689796 133.3647 31.130905
8.1990089 122.58858 24.664415
63.466503 160.2478 15.178656
49.861877 98.47789 34.506027
43.468594 13.992485 20.035276
34.226395 55.648422 4.3050299
79.735397 138.78639 19.506649
15.999795 153.13409 26.349873
44.101669 110.63603 4.3050299
9.0747566 153.94247 24.560347
44.888603 6.2304926 10.725746
70.58667 43.337349 27.225998
18.484758 91.661591 4.3050299
54.32766 145.43726 28.217937
63.402023 140.40955 17.687801
55.838894 84.01487 16.85581
73.969635 64.092781 5.0489936
72.500549 148.55072 3.8340895
67.822952 101.84926 4.3050299
23.636351 173.10374 11.649273
76.325653 124.84518 27.374617
35.077171 155.33162 17.103285
39.193844 58.326302 17.702801
14.108856 133.61678 8.6307125
65.919357 80.64167 13.357572
63.840477 166.37062 10.2676
30.156658 136.91489 29.045179
52.244972 82.344765 4.3050299
12.195686 159.46228 8.1878147
16.367771 123.76448 11.381194
78.493317 160.29146 11.135647
7.3996696 144.57848 12.734522
41.631462 143.666 24.289793
38.921661 112.68643 33.028008
26.463863 16.444515 4.4966202
13.267925 28.45858 25.84585
40.905872 58.31995 17.702801
8.5190315 110.95958 4.3050299
47.1586 162.63368 23.481789
6.3141356 148.35373 0.12516274
51.42765 143.666 27.507437
25.171505 6.5976491 5.5570202
37.598106 166.22833 28.7136
74.635872 42.242352 7.7222118
16.275566 89.913635 5.5908031
47.109859 168.397 10.420155
72.897842 83.817757 14.737859
28.747972 114.99567 31.895214
73.728622 76.820938 23.118029
17.67762 132.12735 11.677985
60.974426 42.335037 12.9141
73.9245 29.198154 25.269217
74.795319 133.5976 31.831291
20.806099 126.70856 22.416607
57.037556 143.13849 5.2902617
64.247932 167.90038 14.58065
16.275665 156.36812 22.17358
27.352251 156.12885 11.010955
30.826782 124.27718 18.039997
15.578288 144.09882 21.983608
45.279236 103.02493 4.3050299
71.540108 28.65007 4.1826377
19.1712 44.552685 15.24365
57.07439 6.8706865 12.618051
48.062691 143.60599 15.730187
69.016159 158.23575 22.688442
16.914682 84.556114 17.591379
66.548264 95.07 21.216763
41.578846 170.03816 13.615428
71.495911 51.839756 11.321654
34.426449 121.38245 16.144217
21.216095 129.15932 4.303678
33.178829 34.145206 24.458481
20.79336 37.519466 4.4016385
47.527832 100.43345 4.3050299
32.903099 162.37863 12.703426
8.4003906 114.72989 17.439943
16.786606 145.81003 22.512291
34.859417 45.181107 17.617718
11.104469 98.725296 15.854275
64.849907 118.52596 4.3050299
21.043594 56.235306 26.863729
76.858864 133.28456 10.579525
5.6458812 160.84155 25.269361
75.42749 118.30227 27.110817
20.095833 121.13663 18.525867
63.357922 136.69887 31.34487
11.008794 39.807461 24.803488
10.940245 25.50123 11.56772
17.838655 96.859886 4.3050299
67.095238 108.79828 4.3050299
19.098209 114.02998 4.3050299
9.7536783 113.83598 15.857035
78.035202 133.14326 6.572547
43.616402 132.40639 24.42499
71.266365 15.384234 5.5570202
17.261789 73.30349 25.159004
9.9343491 109.84667 23.491117
68.165298 121.1509 29.651325
75.877426 114.01194 10.419643
54.623146 138.25417 13.647069
8.7138233 121.43661 16.802275
30.709911 140.21605 4.9528861
65.080612 158.6342 22.170116
53.270603 81.855431 4.3050299
16.134392 71.996979 7.2169404
67.796272 169.95061 12.413456
62.402203 137.1187 5.0934792
74.025032 17.610851 16.924141
39.817116 148.38605 5.8959975
14.394779 64.733154 24.485926
37.672825 40.313 28.406317
44.70451 121.82791 4.3050299
47.23996 126.41315 26.012304
16.651812 141.70885 23.826445
10.230103 88.827835 19.372297
28.437052 157.51195 11.473305
64.020546 126.42937 26.788675
74.188599 118.62705 7.615119
19.1712 30.958271 22.61034
34.547028 171.14323 18.083515
14.002071 63.036053 7.196228
51.520622 45.517868 30.491428
25.087685 153.39015 10.092694
10.793588 150.58501 10.418891
66.357986 122.9558 11.485077
55.973881 81.412155 4.3050299
46.972279 132.61639 24.191795
12.66603 146.01227 3.8691256
67.183487 172.40714 14.773765
72.536171 131.99319 29.323753
35.600639 165.73193 13.771886
14.191972 37.292419 21.470966
9.678072 155.61896 23.287117
77.390854 142.68909 11.005715
52.230537 55.801537 9.3214703
9.1829844 128.60846 29.166557
6.3873854 128.35413 13.643471
11.833797 151.03923 0.54399002
19.1712 27.221428 5.8395829
12.740712 131.967 26.555847
15.434853 28.914244 12.615661
30.86063 55.232979 9.3214703
69.901978 128.89008 10.722874
12.7072 36.898052 17.375715
60.127811 62.828888 9.3214703
36.268646 5.9827418 5.5570202
11.85233 31.873543 24.480207
52.845306 115.25993 28.399574
70.695969 77.420341 25.105841
68.091003 134.67363 12.056284
34.555878 115.38402 4.3050299
52.883129 114.63478 30.405153
75.190773 119.07004 18.729382
65.0522 39.498901 16.396889
22.930344 140.8287 6.2234898
15.555115 154.37701 24.240145
76.37056 138.5632 10.077666
19.1712 32.890171 21.70554
20.756901 139.31998 13.560264
67.615143 96.470947 23.980742
30.493904 64.921906 4.3050299
68.693466 27.399611 11.102883
16.759487 107.292 18.923677
23.915043 100.57134 4.3050299
9.4889288 113.03996 18.676268
75.278786 143.00623 4.9146471
38.997002 95.31958 10.079092
60.114426 96.140503 12.122309
15.5541 29.132162 17.731995
26.278732 93.933937 9.3214703
5.4753017 130.71765 20.645851
77.08596 139.26836 17.103485
37.588192 91.664963 4.3050299
48.62146 150.86418 26.688957
38.664474 171.13333 11.445309
22.753138 89.094376 4.3050299
65.0522 37.326096 23.778656
35.677231 126.27596 19.349766
7.1291957 136.6593 5.7334518
29.665794 162.63805 26.256395
74.960396 114.71186 18.006973
50.812508 18.129648 5.5570202
8.102232 143.65759 25.717464
15.41248 29.566376 9.3923187
52.849213 119.71063 26.924793
45.461754 126.27165 15.578442
12.851445 37.830135 21.465065
76.947464 164.51686 16.059069
74.379494 113.13634 19.307585
50.411922 86.157196 4.3050299
20.756599 153.11261 22.473598
42.761196 58.744099 38.82629
71.232651 41.596546 4.4220667
38.434502 70.564674 15.817988
20.19327 98.49099 4.3050299
23.368999 105.20937 26.811481
42.155334 136.75304 4.5531001
72.66143 147.41963 3.799623
64.693771 90.846268 23.233116
38.997002 78.698921 9.7981472
48.515217 139.41449 26.130226
24.525724 159.99814 12.064125
12.985554 160.13031 16.395866
22.703257 84.309998 22.935692
8.2818108 134.41104 19.639994
74.481094 117.44653 28.643709
76.103142 45.942272 16.268328
30.290596 38.270233 4.3960414
61.583504 54.83987 30.097197
49.870636 166.89282 33.137749
29.766254 54.826015 9.3214703
75.38298 120.49377 17.371897
9.1008358 46.753479 13.723824
68.239029 136.65085 5.9435134
19.150534 133.16185 19.500404
55.730728 166.50731 28.7136
20.756903 134.7374 17.912058
73.953476 53.902809 6.1740551
22.875959 57.455559 31.692112
42.110001 129.35837 14.9333
18.099697 98.132126 6.0822668
27.846142 108.11518 30.730515
28.047764 140.74644 5.0141172
31.009554 86.518372 21.224298
11.183487 84.411446 5.5570202
73.563087 14.474924 9.2551165
32.02702 87.324036 23.374062
33.413555 47.153553 22.811016
60.190243 97.938431 4.3050299
38.997002 43.931763 9.7413378
73.152702 26.727236 18.003607
64.085617 167.01163 30.143351
67.460167 118.21393 29.634438
69.017143 32.613075 19.716982
66.508636 102.73634 7.1238165
59.090008 117.36752 4.3050299
55.919006 114.07887 31.664288
15.124207 71.760361 9.2359629
30.930172 151.77509 20.574007
71.216194 156.46255 15.795509
17.369102 85.180267 18.777697
65.596916 69.55291 4.3050299
35.564587 70.006615 9.3155346
47.849384 56.257835 37.201607
54.3797 124.24258 31.056911
77.392548 27.453094 10.490042
76.265457 36.129913 27.074345
51.330383 164.894 9.891881
46.200775 40.063156 25.935682
10.719438 80.850372 13.2087
53.026402 120.72157 26.905146
75.593994 131.98662 23.766012
34.820637 73.138031 4.3050299
9.0134678 51.02354 5.100184
43.4482 115.64288 4.3050299
14.738653 27.733315 21.614832
16.60475 159.5881 14.577488
71.962593 124.1443 4.3050299
59.874596 70.652962 9.3214703
9.6052389 102.78432 15.041052
65.082527 115.02755 19.935898
15.983341 85.458969 15.106637
41.479034 163.27255 30.216328
9.7017469 55.152531 16.531603
75.994644 33.313553 10.975382
22.357155 62.481003 4.3050299
8.9701424 49.140152 7.2031326
15.5541 31.683372 20.63142
40.257614 168.35945 33.581726
51.282276 152.1243 6.327528
63.037006 156.75458 11.062127
48.198849 139.63649 15.455206
30.912918 136.22729 26.603798
65.0522 30.564259 12.227791
22.987015 139.7211 31.360657
63.6838 130.28319 27.438843
11.551259 162.96582 32.904064
20.473454 129.28922 24.640701
41.769562 130.0647 27.149357
59.372803 85.491119 21.883951
29.532207 88.703285 27.038864
44.967319 167.62003 25.331232
35.482269 3.790308 5.4403944
64.046188 105.22111 27.742647
9.9467525 112.49466 17.563971
17.918951 99.869255 5.7091408
7.9559674 38.886749 10.976564
65.098503 112.20375 16.27548
6.9292927 163.44554 22.52907
30.055475 34.606506 4.423357
79.735397 140.00899 5.5104718
51.332382 123.31807 19.015781
65.0522 34.048519 8.6130447
7.4223371 128.4278 27.177185
65.0522 42.257149 20.968969
68.518059 156.84677 32.485481
71.015312 42.946457 5.1582098
29.362511 41.30225 19.5653
32.481533 72.358994 13.051074
10.331818 147.50925 33.709358
72.279251 119.61525 5.9700332
36.165619 166.46457 10.003083
49.662159 101.49625 32.918591
8.4001369 123.8298 23.169563
7.0583816 122.39887 14.291268
70.121338 116.26395 7.3458705
76.7873 152.31767 13.066322
39.47184 125.98392 4.3050299
77.030487 118.07268 17.870708
60.201164 158.39297 20.865356
25.071877 39.651974 13.281908
24.975464 168.30721 10.734702
6.4390755 129.46754 9.6102734
39.335846 115.14976 35.287506
72.112976 81.114075 12.36891
30.516775 149.74263 8.8657379
38.654709 96.140503 12.073654
70.319107 75.548828 10.919621
14.104824 138.35095 15.484096
70.482475 52.574501 12.951462
54.538456 49.870022 9.3214703
13.101214 154.42618 24.202412
36.36219 72.185913 4.3050299
5.7790108 134.56157 10.785894
19.576473 169.34012 33.809555
53.023144 13.724081 4.4966202
14.547706 155.33714 8.2103672
71.469131 79.097031 14.469419
45.478588 144.96115 30.686302
13.574947 85.445381 11.765352
65.0522 24.387438 7.50635
45.435047 123.58253 14.933299
38.026207 104.68565 30.171183
36.165318 120.68252 24.202511
14.268965 22.930677 24.042088
52.788124 54.729202 35.308926
63.466499 137.6666 12.420729
74.6474 151.8652 14.657213
35.717396 115.49402 22.132151
63.243244 154.89227 21.862127
62.571796 118.38702 4.3050299
35.732414 72.18821 14.077039
39.107777 134.53947 14.9333
26.757265 172.94533 11.89468
10.46844 100.79085 26.057243
37.074242 41.828156 29.149351
69.291862 155.27301 2.754477
68.709488 148.47318 26.166231
77.121315 151.69344 17.521666
15.253862 40.482189 21.182777
26.230976 134.07214 31.67498
41.069649 9.9822721 17.931526
46.080997 137.78264 24.808479
69.262505 58.019226 13.270876
63.222881 92.533279 29.224413
72.8022 153.20583 10.354001
74.626404 132.80765 28.873619
71.136589 133.38911 19.525799
37.669895 132.7485 22.936003
47.021984 73.828094 4.3050299
30.057165 99.110184 33.684883
58.581741 72.898682 9.3077583
57.56403 67.153755 9.3214703
70.626953 143.14574 25.505407
62.801231 144.55464 7.2587976
35.849693 45.759983 22.675505
37.120728 120.88248 20.967033
8.2309456 121.11893 4.3050299
62.383987 170.05414 15.725817
28.099072 15.81437 20.257021
72.076965 161.30087 16.25312
51.268513 55.060753 24.454418
34.488014 40.486866 4.3795142
20.16346 62.34256 9.3214703
4.6922507 136.43108 8.3559036
22.645033 78.761253 10.008158
74.161301 37.234863 10.507848
67.865166 87.018768 5.5700202
40.306396 103.20541 4.3050299
70.346039 143.50937 4.683671
57.406212 135.88586 28.649277
51.328564 114.94888 4.3050299
71.516296 40.589172 17.617584
8.0877495 46.282154 11.208641
19.534512 120.96588 17.375782
6.8847408 28.426975 22.906586
44.157192 141.0645 5.0508251
73.367996 59.410408 23.084925
59.127354 36.356094 4.4103127
10.028306 156.15221 9.6246357
9.8354492 37.594975 27.98494
19.202805 57.811451 20.965019
38.014172 86.017761 4.3050299
46.115349 119.47581 23.116503
20.756901 159.32957 16.640732
70.555878 110.00362 28.095459
46.084667 39.330654 25.888765
77.222649 138.42227 3.6075685
22.416727 110.81944 20.201893
42.87035 75.807785 4.3050299
23.06778 96.140503 10.695276
45.667969 136.38916 25.355047
13.994497 133.17987 13.335312
29.429502 60.476295 37.699451
72.238037 24.28323 7.284658
61.551697 41.247063 17.125198
78.237701 128.31635 5.4992971
68.306908 100.61635 5.7183628
25.050438 24.429304 5.5570202
64.972946 119.01141 24.531641
66.575455 133.19801 13.591152
42.384167 74.166534 4.3050299
