# .PCD v0.7 - Point Cloud Data file format
VERSION 0.7
FIELDS x y z
SIZE 4 4 4
TYPE F F F
COUNT 1 1 1
WIDTH 1620
HEIGHT 1
VIEWPOINT 0 0 0 1 0 0 0
POINTS 1620
DATA ascii
297.35699 634.32227 289.25052
207.19272 533.90735 315.05542
315.82184 642.69397 244.48566
242.78268 43.829025 140.12904
26.17848 801.77167 150.81604
75.187386 782.62878 93.996078
274.86725 233.05969 53.776222
193.04233 628.28625 53.109859
174.20001 795.50684 70.183174
28.5574 724.47388 107.06386
45.812592 250.00018 68.143448
37.995972 113.60667 114.02533
310.49854 925.40039 217.12581
157.90556 652.70422 54.559521
233.67535 930.19446 217.83191
76.010803 797.16272 86.956306
147.31708 38.847382 68.834839
22.37661 327.88422 240.66261
50.777592 227.89104 55.227959
329.98975 558.30005 197.2793
326.01907 124.74483 138.77736
242.81259 224.17223 221.63875
74.657501 769.30188 75.770058
280.7583 737.06592 57.667191
336.37683 319.82251 70.383911
327.84045 193.3172 58.422539
167.73862 648.42596 304.2851
108.19846 764.5033 66.791161
228.1805 935.43701 188.82272
290.69919 354.64096 51.6595
29.557415 538.47595 121.71143
48.887772 620.91272 241.53389
256.53445 497.46106 51.6595
46.372913 191.8811 21.912388
92.667091 93.665558 51.757393
34.281052 234.6734 174.2236
265.98624 588.54504 311.43253
122.0046 710.75043 218.51434
336.86853 761.13208 87.541702
71.055634 404.01599 51.6595
317.66528 746.89697 127.19876
78.670799 134.89978 112.39104
290.22101 772.85663 113.38686
330.17999 195.59235 45.203072
337.88385 859.87482 93.516495
78.670799 175.89705 139.58496
159.76787 610.66113 51.752392
159.08464 935.43701 176.15277
310.6824 790.51984 77.598862
224.08508 735.1109 57.6301
332.646 902.58563 87.326462
334.582 182.47528 76.498871
78.670807 116.02129 65.827408
32.316666 151.76505 92.859192
118.33942 666.05896 56.02063
42.162689 917.98145 150.82657
320.44131 730.50769 21.470741
87.848526 596.23566 309.73825
43.368145 341.32214 51.6595
332.28217 330.20435 172.92656
54.284195 433.87805 250.86572
280.10773 905.22205 220.55118
163.09766 190.87494 218.19733
289.17499 227.47586 61.043846
31.235262 280.26193 119.93537
37.279305 151.07083 9.5369501
54.528759 728.72906 218.60191
300.12314 637.45251 53.262794
97.397942 61.893463 162.67944
128.99518 194.87143 218.38121
46.633698 206.93658 60.542336
152.70549 284.99963 51.652279
158.6669 262.7323 51.976501
64.236954 713.0733 218.5387
203.98792 772.14246 67.626938
160.14755 439.61044 312.23895
308.94214 518.12579 261.77414
249.29269 399.52145 306.10193
314.92657 926.62317 210.61232
77.281937 162.23865 6.5776067
186.80232 333.89893 278.784
52.032082 195.10023 102.47792
337.56085 323.85297 93.539795
227.97214 490.41669 51.6595
250.46269 246.73509 222.06812
330.99298 148.89461 89.498398
335.75397 240.4977 85.794411
238.28003 361.48297 51.6595
316.54105 739.55542 28.258764
296.16458 622.0788 96.785469
39.579636 687.02832 50.414341
185.1311 614.69116 52.062778
38.028023 853.41797 197.27808
44.2337 713.2478 79.77243
213.19598 941.82104 81.921432
84.762939 47.316795 84.500717
329.86545 756.07318 195.46326
337.08542 303.85089 90.10537
204.599 59.409813 162.49268
21.360962 314.50681 217.09479
292.13165 736.58521 156.22301
192.43802 576.19342 314.86493
77.664398 210.21606 105.6348
33.605846 234.78143 23.192347
294.5347 547.97424 302.59784
98.951149 532.9585 311.2597
58.95401 202.04868 99.74202
324.29404 209.92857 63.221413
328.60925 459.86072 199.60548
296.60651 267.72482 54.424938
331.34161 273.14554 183.02011
59.758568 517.44287 51.6595
33.1063 731.62085 65.081406
158.30312 191.8371 77.152298
320.96439 528.90692 223.6937
294.65808 206.56104 27.137325
30.4776 218.31003 104.16872
26.195318 664.36713 139.39493
54.957466 699.82092 154.91794
275.17538 889.06287 73.865326
37.712299 787.60498 90.516396
75.264397 722.7276 5.0790129
334.2099 156.28937 39.504402
75.264389 679.58594 37.203899
310.3945 292.4726 234.69681
32.855286 108.48364 131.6219
317.69193 573.5639 234.17749
77.418152 258.19168 222.47867
73.535629 741.51343 2.1616917
104.25835 130.98346 208.82887
58.244236 671.39075 32.996643
290.96799 741.78571 121.17189
288.56799 202.83434 111.62288
76.010803 651.25482 92.532021
224.31294 884.85083 73.813454
303.71725 742.09387 69.902161
80.862823 459.76508 51.6595
302.88959 424.50037 275.92963
313.58948 201.9158 29.974434
208.4086 247.09055 223.01154
284.42905 742.98364 218.85196
48.553421 739.1012 129.05632
202.58884 935.43701 143.87411
75.264397 782.69043 69.219147
308.93018 197.29462 1.2103697
276.93954 435.61118 305.70471
318.32751 694.26233 92.457909
230.60359 935.84106 92.854988
295.17859 135.88379 107.42883
251.94331 146.28996 211.74507
339.52319 603.67694 82.711884
226.759 33.390015 132.54987
60.207317 722.28925 156.22301
42.524849 555.46417 216.33739
336.39856 866.53711 114.42229
86.526352 68.163094 163.46436
128.16385 627.66284 312.86786
274.11084 189.35808 217.24008
46.446686 765.39587 11.794338
271.75171 935.43701 161.12816
344.53177 796.39423 126.09531
29.498959 576.13647 62.460876
115.74019 39.915424 108.7681
172.02438 574.28931 314.853
190.91199 52.646 172.77663
75.264397 706.12976 18.260725
306.02914 751.90582 28.497318
331.34131 120.92417 131.95287
334.09583 152.42235 120.35168
298.2182 717.21191 74.901688
41.929024 794.34985 130.7372
63.724186 721.96063 26.889969
45.329288 929.36237 119.59979
296.08795 224.34389 13.097443
41.714725 695.33075 85.770309
143.13348 652.56885 274.9989
153.33261 35.90921 120.09669
344.38214 822.72479 99.171326
288.56799 160.13776 101.32401
45.576008 159.17398 29.798843
187.32883 739.51514 84.004433
298.22662 637.50549 157.77655
39.449139 179.24767 52.513046
327.65866 742.12531 60.415897
287.561 179.92039 120.76552
320.87708 625.008 106.92812
267.2713 244.54565 53.079571
255.79135 628.29846 118.32127
214.06819 653.36017 222.63808
322.50018 202.65747 47.806122
174.51706 619.59412 88.181572
278.90753 813.83087 72.205368
198.58011 642.04126 311.84506
291.62122 687.6463 75.559769
68.492867 742.76733 66.82811
292.62329 130.40549 30.026197
334.582 173.85997 60.416767
319.08133 192.08583 52.031097
339.30832 576.88599 77.537201
29.425953 702.26324 95.468079
194.48198 535.44495 51.6595
297.48407 404.83585 51.6595
339.4502 600.95947 80.954071
338.04099 685.91467 74.027969
168.80914 921.64691 76.008209
314.84131 182.0015 21.619102
245.77293 856.50989 73.464432
332.74957 505.23041 167.09915
235.42093 653.29871 261.56442
140.52457 238.5744 222.81432
308.79886 935.92749 99.693008
319.80725 732.49268 129.89545
217.57892 170.84418 57.549744
307.5722 150.93987 118.80017
293.80698 121.78169 50.430599
74.657501 749.1922 101.96483
245.22061 265.25974 231.21713
269.54602 95.724075 199.91444
70.844398 693.78815 91.90274
237.6395 618.74963 85.257584
95.13031 649.3844 214.94846
46.595055 743.75464 216.8248
118.48214 240.14851 220.80663
321.79828 690.37659 56.96209
175.79816 44.76738 148.1201
60.066162 926.92206 75.92849
172.23132 931.68201 118.45014
329.75638 604.49042 201.56615
25.397888 653.8446 150.92542
303.9881 635.00305 272.97116
72.662468 410.93469 51.6595
28.354908 396.42859 75.170982
229.96805 935.43701 186.49341
319.82489 744.95471 24.723154
178.07642 55.687626 64.297234
290.22101 786.32123 94.008636
322.98425 99.611404 164.69791
303.38739 213.69299 32.098198
59.695316 245.85162 88.358475
37.165222 671.2514 33.2705
86.610443 297.99664 51.6595
339.75397 604.86438 88.26326
253.75754 175.24063 66.059967
37.028675 443.34113 183.37128
183.09721 632.16699 131.71823
100.8308 185.99791 217.04524
290.22101 715.25818 126.53111
28.266579 207.99846 151.386
48.239059 809.19501 83.555748
77.838425 196.17072 217.71938
161.95837 614.20898 78.676384
236.66296 39.475677 69.788208
232.32214 635.46472 152.19597
237.62875 336.76767 279.46704
313.46902 381.06271 244.1138
124.02157 952.33057 93.679489
239.54111 34.675579 116.17
300.53922 207.68622 151.386
30.4776 128.73875 82.82515
35.814133 645.90088 76.29689
173.47652 681.15759 218.20442
151.46666 553.61157 51.6595
97.873268 875.89252 220.24399
37.885185 745.26312 200.47792
145.01981 648.50677 197.72719
336.92575 239.15764 157.59386
337.19333 789.22412 82.270805
32.34639 767.65515 83.137306
42.581131 135.07515 184.25586
76.930748 626.57861 118.61519
77.639755 245.30267 77.856758
290.96799 736.94348 119.77356
262.66888 896.87683 74.859993
322.19745 199.22269 1.5794311
99.458313 897.45148 220.46977
341.14041 634.41571 53.475803
258.42291 665.83923 218.04399
290.96799 712.69556 121.39916
284.23215 78.235229 61.689659
138.65549 621.22327 93.822922
243.39172 501.02875 51.6595
280.92792 342.7944 51.659496
72.832413 222.75932 220.2326
58.101501 653.39453 227.71735
164.86157 925.10706 81.859894
49.890297 801.24274 112.06808
255.74019 39.091755 118.18907
161.18018 612.64587 64.073029
57.871124 849.27051 219.96518
136.8273 246.40451 222.47665
231.84631 632.40417 140.62172
252.22552 159.88898 213.66034
108.46086 120.96175 206.75714
328.24133 897.28015 139.76582
292.50772 247.19206 45.828041
101.93762 92.772385 56.7672
27.983133 430.44647 70.298935
100.33138 393.13867 302.23294
314.80826 534.38135 51.6595
174.57762 533.91852 51.6595
286.68161 613.22974 73.11924
32.218266 390.13324 151.59373
236.37489 256.5986 52.348534
60.009331 723.09106 129.94032
31.032623 205.59546 64.9674
30.957397 214.77942 34.328232
290.22101 694.30096 92.52462
205.05339 112.28679 205.99463
254.62039 316.16522 51.6595
215.17697 920.26172 90.913666
288.56799 182.80312 17.233124
144.5549 934.72321 132.09489
178.32201 45.42907 146.72047
287.56097 201.34946 133.48068
335.0946 154.89888 96.528374
154.1557 718.79938 61.790817
335.37607 144.00455 17.584389
139.26601 923.45996 89.353592
172.27544 98.346542 61.6894
30.356968 409.92636 127.02773
287.561 140.43657 98.850067
225.34367 153.93256 58.57547
147.6234 56.562607 186.58014
310.35498 766.604 64.602295
58.226929 106.26545 84.384308
183.04649 941.94897 75.890694
160.3298 33.04689 117.41751
26.345955 839.19879 82.288864
328.39294 713.66772 63.098209
328.38135 689.28571 61.829506
213.58415 456.09863 51.6595
123.97425 937.2337 75.893517
336.07135 453.16208 126.82282
28.272957 855.5498 105.91991
326.53714 207.58582 27.693741
331.51947 768.77356 14.363184
297.54489 609.65875 294.68344
223.5049 109.87722 61.247532
290.22101 687.07275 141.95978
61.698566 166.18352 127.25829
55.412125 223.19403 58.297699
88.17598 917.45947 76.07148
142.96504 31.369217 75.028885
141.56639 603.92114 313.55737
61.086475 666.05505 85.285591
322.05124 149.02054 51.619686
30.927795 371.71011 133.39946
296.25201 191.37723 103.33966
28.247152 733.7157 127.01569
227.36533 68.334534 62.233578
338.15399 773.63324 65.969559
323.26291 87.716446 83.399429
68.07222 535.99988 292.70132
293.06015 759.38055 8.6298313
98.106613 935.43701 147.03036
323.96173 940.90021 105.70763
269.83466 934.53204 131.44992
35.351448 345.59274 188.27486
29.09343 728.49036 83.010986
322.15884 726.85187 50.502396
51.701679 738.20978 107.59106
240.39716 905.20422 220.55095
219.54291 577.88135 51.6595
338.39584 648.71558 90.61364
39.326767 198.70772 61.709366
192.98317 789.10669 69.482971
32.668125 689.41846 68.649437
155.37627 738.07581 63.899803
215.78181 931.68201 118.26086
279.92206 938.39368 95.246613
59.076721 738.17651 218.80164
277.69037 315.11893 51.6595
215.30429 33.23185 117.86386
337.83295 702.71313 155.21652
285.65579 533.16498 307.00662
121.16102 647.28296 307.146
172.01595 704.27661 60.20192
303.41077 782.9483 219.27055
281.26471 339.52359 51.6595
43.140591 236.62906 25.340147
325.05136 87.065224 109.40347
66.70462 636.63818 147.83759
266.85315 136.77463 59.616142
165.73285 30.364878 136.09425
236.36824 433.88971 51.6595
129.54491 450.77216 51.6595
94.847961 60.156563 164.67349
254.82205 510.73566 51.6595
67.948318 764.08667 10.95655
322.70557 264.43069 75.213295
307.26871 770.28162 75.961922
57.006504 653.35315 227.80983
224.80615 656.42578 217.978
72.006363 233.65074 108.33138
298.81104 178.51958 21.71027
28.077602 753.9765 107.41525
87.275253 717.17957 218.5817
302.43848 810.14441 80.15155
327.04865 188.47397 103.60435
340.77377 737.32227 156.22301
77.664398 178.68909 111.98473
290.22101 760.05969 148.03325
59.673592 637.93134 152.6736
324.15848 120.46394 72.647202
44.233501 722.36023 77.977501
252.93387 606.74506 51.861931
46.375847 697.4129 34.164822
34.552284 792.87732 67.379013
133.32388 516.18695 51.6595
165.35907 56.982658 64.199265
28.722725 159.12042 150.68082
299.14737 611.763 60.63847
52.713924 712.30499 1.9460717
36.052399 149.86136 59.473343
39.310169 211.86513 30.363605
36.052399 203.72711 58.119736
73.218353 223.70866 70.232773
270.98801 59.083008 65.122192
247.77806 571.01495 313.08655
330.76465 145.48347 82.782394
28.729794 172.24051 153.30736
304.04272 95.819641 177.41331
318.63696 664.4834 58.331646
57.398796 234.52316 105.40943
288.56799 135.47122 94.613068
40.853302 91.524239 81.800552
219.02225 882.25311 220.31055
29.47731 471.80408 118.28947
218.74722 297.2019 51.6595
171.40863 855.08185 220.02597
166.45758 855.16608 73.447891
30.123924 399.14337 116.02589
205.70523 706.52087 60.44746
211.20267 344.48654 51.659504
154.85696 609.71851 313.79941
234.91193 628.73718 119.84042
53.826149 147.72528 74.695297
246.27657 609.79712 52.990314
217.23627 627.63562 116.02581
294.15491 143.86655 115.18646
139.59171 630.95813 127.53167
336.79263 678.64453 105.77057
337.73199 774.25568 22.430962
64.816689 203.6902 25.578583
50.577152 125.27357 190.37051
71.466995 710.75354 30.500759
246.46857 473.82587 51.6595
34.451275 404.30856 179.06433
50.680553 141.76875 62.661488
321.95898 103.16462 66.111008
248.77998 313.9574 263.61783
144.62102 935.43701 191.12991
52.675873 158.20778 92.59668
24.958193 633.89624 53.824524
339.63416 443.44843 97.982605
232.64261 491.73682 51.6595
99.768387 252.31812 222.98569
283.1106 811.24359 71.9049
293.96313 199.9144 100.60976
208.91264 45.43158 163.95399
151.86383 386.61212 305.21863
322.77643 321.4931 216.52216
189.79681 521.77472 315.81039
332.45877 652.24622 169.42323
58.195686 269.82886 51.647003
30.4776 169.13824 109.73477
112.40425 631.66772 129.98929
281.71552 190.1962 217.22499
336.40308 433.7739 117.4638
328.31598 655.53815 117.0328
75.264397 685.5528 46.691341
328.83957 788.60193 88.5979
289.17499 194.80106 23.647436
298.97366 689.16266 12.746586
76.176071 598.71985 51.6595
288.46802 555.495 305.83417
44.503456 526.98035 51.6595
51.982979 103.19966 66.381569
317.66028 714.66028 70.77401
287.67612 618.97791 86.048096
282.65457 585.25226 308.72015
71.473015 120.18604 62.087685
287.561 223.89709 63.662476
43.31765 123.89681 43.295044
148.45197 452.60464 312.43683
300.05899 242.98001 94.690811
45.93581 547.15704 225.76271
232.57512 779.98145 68.484581
294.07797 695.03699 120.9724
254.19 496.6066 51.6595
56.207378 185.86354 0.040134531
48.343201 732.44629 129.85678
337.15979 536.94458 63.649837
40.848 244.46869 41.886211
245.59346 738.38892 64.755905
33.56152 551.42572 168.07297
291.22839 186.19308 216.68413
292.1225 206.39609 218.66307
36.868439 220.27931 90.821037
326.11014 691.82104 51.762043
301.3201 614.14343 69.307915
231.39929 749.39526 65.138237
126.27148 327.95419 273.68002
149.78627 376.06686 301.11282
335.75403 219.01675 98.142288
241.08405 952.19464 95.69104
184.31824 922.67444 105.11336
137.5199 31.448973 120.91605
139.92134 272.40485 51.646999
75.264397 696.35254 97.113503
49.92749 765.995 72.817482
325.75464 670.45807 145.88081
109.28069 608.42889 311.96606
128.60602 625.729 52.912903
302.69968 241.90161 33.370869
327.78607 259.42761 194.9491
31.545561 156.41101 65.577423
109.47854 830.61926 73.397453
76.475121 183.0471 106.50111
56.607922 639.09039 157.00795
143.48477 181.83054 74.649467
319.65698 699.19727 32.471539
94.517731 611.84344 60.951317
57.959835 837.7326 73.35334
26.480907 564.65149 88.189209
338.15399 777.06226 38.383953
177.26001 29.268648 117.82153
333.76837 703.17633 35.000549
195.82443 626.49353 112.07154
330.34042 398.69214 51.6595
221.80313 33.700954 122.25337
52.355247 125.32622 39.579182
258.80334 615.03174 72.383919
309.04568 71.60585 92.02829
165.6109 364.84131 296.07944
135.03908 738.05792 67.844139
238.30762 728.93756 75.263611
75.264397 686.0835 46.023346
43.532848 203.57701 48.833256
189.47862 725.47131 62.520782
135.68079 757.04645 65.975327
284.61121 210.54016 219.15979
41.9692 133.60898 25.874271
259.75052 256.32703 223.37549
329.14832 270.48581 190.72421
188.50113 42.589256 145.58563
31.553423 507.64429 143.59132
336.74374 721.69861 49.665024
251.67422 896.33936 220.45811
332.34052 588.24756 172.12965
130.22557 777.07751 219.20901
236.50848 29.058035 88.771988
30.957401 226.17442 73.07074
194.58907 679.29395 218.18491
330.48038 865.93823 147.86104
289.26669 209.28583 99.088951
69.567459 61.100067 76.009857
34.9944 845.13702 172.03455
334.37616 289.81818 137.46733
296.6496 716.00305 156.22301
97.776031 74.527756 192.14667
169.66553 35.072079 135.08331
143.93927 841.05347 73.332741
44.027111 728.75806 40.244572
46.633701 189.73148 47.482578
139.5116 935.43701 154.40317
52.57885 749.66028 218.55774
334.39722 561.01575 146.98132
58.931751 91.2855 57.721397
339.1712 789.34119 140.49673
30.4776 133.36533 87.457451
293.12589 264.93793 72.01236
294.46713 647.16357 82.7192
33.621109 325.81082 55.35862
325.30344 783.79675 208.82237
202.1398 677.21893 218.16318
76.39064 155.96069 94.262016
44.233501 725.16034 74.43515
301.19788 144.66638 48.800209
73.174774 760.62494 41.586189
290.22101 767.64252 85.641609
335.754 209.66275 120.76541
323.0119 787.81647 39.740414
263.50821 647.61969 209.19809
49.352322 157.99622 7.2298164
288.13257 55.346649 106.45803
96.658989 634.40613 139.49052
206.00505 594.86212 51.6595
72.768707 246.37143 43.399467
60.386024 645.22107 72.83873
278.33893 309.89417 51.6595
332.57999 740.67261 66.669884
338.15399 766.02612 31.495777
112.141 720.36755 61.962383
28.0776 723.48639 8.2764225
310.52917 741.42615 101.14978
338.44159 551.56348 67.457878
122.10127 470.08398 51.6595
76.010803 694.44556 75.610863
32.331036 903.1441 97.568764
287.561 241.53485 125.70024
328.29065 347.22473 202.19147
32.441593 556.5097 154.29691
336.18185 717.50134 65.309189
56.690113 76.873161 64.215942
203.04547 874.80145 73.689697
256.1395 155.95587 58.452751
291.47156 665.24622 58.67588
255.2392 267.29102 231.08167
173.16891 419.84888 51.6595
160.42867 58.343426 159.82503
39.569199 774.18005 110.47192
328.89145 191.22414 26.922792
328.65042 192.72701 181.03998
36.052399 149.71451 59.209103
300.06827 216.64439 95.558014
47.151672 767.06946 14.58978
91.933228 554.72559 51.6595
40.568398 573.57025 214.68668
280.92001 46.86058 96.072174
339.69666 655.13318 155.2252
292.20496 695.00745 93.330383
41.802242 707.41504 52.247654
179.37708 165.71315 57.86095
338.15399 774.17938 85.655334
199.66389 689.07996 218.28738
326.30969 495.89609 208.34038
329.01712 640.35724 209.27359
293.65646 765.58411 219.08867
44.604382 243.88455 37.298164
332.25259 773.8916 110.96062
223.84656 256.54834 52.351578
175.85078 450.98694 51.659504
269.35889 401.38147 51.6595
335.39191 700.74054 76.276031
342.10236 659.7843 130.39862
68.708847 198.74052 1.4513997
297.88977 558.74426 293.53629
248.90784 681.20081 218.2049
320.28876 178.77359 26.925339
272.80371 192.98206 217.60782
157.68376 373.64807 300.5163
334.75836 534.67908 142.6357
214.78336 51.499729 141.67105
297.81064 222.66501 55.809109
316.95447 719.37231 27.153778
156.76178 739.89752 67.434814
39.015545 903.10107 198.0152
311.80667 640.23431 166.8279
75.112892 52.690166 137.82932
69.741653 121.76241 80.057182
78.670799 137.30667 66.471092
57.225166 267.82983 53.762192
151.94186 53.62606 148.25612
163.2063 633.41046 144.42725
251.91165 813.70508 219.59264
95.629944 293.85745 246.06685
335.62198 213.55583 120.14279
312.16101 693.43018 38.308044
73.086136 774.7796 153.32077
32.215809 226.59485 15.78138
305.06311 304.03198 51.6595
291.72034 768.4574 75.667114
213.073 610.05426 64.479019
287.561 165.97992 144.19786
34.318047 281.18594 177.92679
302.16046 937.10986 106.89963
129.48991 353.67572 288.39279
76.010803 744.68707 131.08806
30.635845 243.46915 43.745552
325.84741 150.80093 11.201013
307.30518 386.38928 261.26846
54.311783 415.7988 250.25522
100.98672 729.90839 55.10651
57.067059 684.45996 68.342728
87.440132 952.84692 82.685242
262.84937 113.46407 204.89955
26.071491 577.21796 98.043732
188.60132 514.94458 51.6595
211.25301 888.74652 73.861427
73.023338 190.93529 21.685329
47.576515 260.87897 88.659912
309.69122 412.83685 256.48975
333.86993 183.07208 21.591068
267.03836 653.76086 258.74918
50.517586 764.96643 53.895058
102.24863 596.62042 51.6595
35.249172 814.92389 179.9476
281.19882 280.18417 234.35779
105.52825 214.02307 54.93084
295.96695 104.13716 72.119064
272.4303 849.07727 73.37291
344.56296 657.96423 135.57939
62.581619 205.14948 98.055031
308.51807 694.87134 45.56673
301.61343 710.02832 126.25021
36.949135 827.51971 191.81828
294.08264 706.30719 33.011215
310.67426 239.12625 141.94827
326.66299 759.61725 120.93732
116.37012 935.43701 165.60822
57.891499 792.69696 71.089188
112.36534 901.25226 75.953888
129.15514 948.03003 88.157593
42.65992 236.00186 24.554976
66.63916 234.63052 105.17772
300.20941 515.74274 286.36633
214.71924 447.34091 312.29956
36.192425 870.21875 177.70166
164.91643 743.33557 64.475266
288.56799 230.80997 81.864624
320.18002 692.96228 81.412598
301.5383 728.17694 79.913857
329.3967 724.17145 78.013329
230.60637 186.42902 56.604485
33.632259 487.21741 53.221451
304.28082 623.96313 108.81384
182.99405 925.34058 97.686569
228.54053 648.71985 213.03297
336.83817 780.53772 101.53781
302.92941 771.83746 16.862003
30.575607 281.05408 55.66716
50.940395 615.89569 247.01527
44.739906 368.90326 222.1891
302.6731 651.42438 213.61687
310.09659 670.94952 36.597347
36.052399 198.70471 37.383709
27.93943 323.17651 239.58481
271.811 624.89404 113.69778
78.670799 240.18344 134.80261
333.23566 740.80042 72.273117
319.59799 162.45859 60.145184
70.173157 444.13046 296.2973
302.39368 729.89233 1.344107
49.291805 611.71399 60.447704
168.00107 65.428207 192.52791
161.63834 711.88831 71.821526
217.91113 60.188515 189.19855
104.99249 736.44482 63.721359
280.1116 93.905579 196.42627
312.97202 91.407036 58.7882
335.754 163.88696 26.849728
191.17288 365.61932 51.6595
298.69913 774.81885 219.18539
173.06714 27.188999 87.036369
312.39996 218.94141 119.76817
39.7533 189.86591 68.252426
28.077602 691.4494 101.34985
290.96799 751.52881 106.27275
252.57507 585.25677 51.6595
324.94458 568.13159 215.3347
239.66696 52.510925 149.73599
169.27463 923.8136 75.975464
171.46825 919.54419 97.977112
55.171097 163.42511 27.388807
28.379261 246.88016 146.66301
321.76691 493.60489 51.6595
235.02003 654.17065 242.06934
160.55571 296.21017 254.55212
64.144691 475.71945 280.4238
47.729996 685.49664 55.585369
79.661041 284.70999 51.651993
63.7728 776.47559 21.862432
227.25708 612.4574 51.890736
65.618233 788.16022 86.244019
169.68576 376.43304 51.6595
102.26144 653.38037 265.46887
40.575619 447.37891 209.43541
28.077602 755.66864 101.77451
290.22101 685.7655 122.31694
311.22742 247.27748 128.71275
30.639654 377.65378 64.514755
335.99335 651.89856 105.5482
331.58447 388.95584 181.48763
287.4725 935.43701 178.51169
113.68224 624.98877 114.40228
301.16995 259.3949 93.733986
313.99289 792.68347 59.341492
230.66568 952.20947 80.905243
76.010803 659.77478 111.56129
319.87506 210.34151 63.092781
51.246574 91.149513 61.6894
301.92593 148.88603 78.086609
57.816109 530.06897 263.42236
296.89755 590.20374 51.6595
327.28293 685.23547 112.38953
174.01883 560.74146 315.12842
43.733284 202.36003 82.699997
327.6756 532.22913 207.14328
186.29482 768.48383 219.119
326.93054 188.98116 51.881046
298.202 171.72089 1.7414486
213.57422 751.28192 218.93886
59.169998 126.85729 36.781586
77.658577 182.52437 3.9579995
338.15399 709.68787 119.81718
250.95537 54.523849 65.289001
286.67877 715.20544 62.32497
332.57999 707.83466 49.557693
137.11888 926.4433 89.565582
68.857086 792.81519 61.750141
77.016594 146.57474 14.859518
74.875427 200.60477 127.93638
297.05789 61.10025 120.94867
210.4369 792.41534 69.844948
330.39444 170.10472 70.066978
32.123798 596.54565 184.10521
52.470413 344.22046 241.7868
36.231544 202.98367 25.194965
51.343105 698.88965 90.13871
38.841087 775.9436 107.04418
222.27876 678.66913 57.400276
300.8602 146.85916 44.397213
32.269154 215.24008 38.773247
211.79727 45.395439 162.87283
34.257805 208.99959 81.691208
311.233 790.72852 49.405231
337.85156 322.92517 99.628868
31.311743 295.42606 121.58125
104.94759 473.88226 310.22925
189.28511 940.49738 75.891563
34.136669 188.87149 103.52467
46.572102 698.75464 8.2269297
30.84819 513.3689 135.10225
74.192398 764.15015 40.758057
131.52878 37.521873 110.66861
50.144337 731.00055 21.457832
330.74182 614.64905 188.83241
272.05145 107.39553 61.398052
335.754 141.07704 100.37128
290.96799 777.69165 89.084946
50.206886 568.45465 239.56116
36.313812 567.22064 197.85767
77.053627 135.29216 206.20387
66.172791 249.47205 62.398258
67.218155 709.26514 31.114349
232.19019 766.51221 219.09836
326.25156 763.78137 80.21347
46.205109 236.01984 24.577459
33.051575 762.54742 72.952347
322.86127 537.40894 217.82025
26.195316 440.091 107.76138
210.76904 659.80896 217.98082
312.64453 180.50803 103.56075
109.71307 175.21552 64.373154
41.188263 648.09399 204.18234
189.87589 651.53772 286.57166
282.48553 242.77266 217.42404
40.219547 602.91638 215.2764
290.96799 775.70154 29.19125
327.74298 740.82245 202.53546
292.52289 55.748505 93.561699
188.98782 54.438431 171.98627
223.21648 57.948593 163.95399
234.91763 855.10095 73.44709
92.618942 913.38715 76.094597
322.71564 435.43115 218.55792
142.60765 591.01099 313.77753
168.59735 844.48724 73.316383
38.523674 902.39819 167.79929
76.278732 638.75739 53.262802
67.991287 222.86136 13.500255
319.59799 172.0843 78.136246
44.166531 292.46356 217.22757
289.63391 233.41547 106.62115
52.792866 120.20328 68.979904
53.040855 160.10808 4.9642954
73.209595 593.80444 51.6595
29.035042 735.23132 83.501068
166.37946 396.237 51.6595
151.56648 589.8952 51.6595
310.90082 219.08321 46.219009
292.54446 161.62552 101.61801
232.79048 77.990273 196.6369
115.0511 652.86548 217.48328
217.67737 873.84485 73.677917
34.74765 898.05933 124.22647
73.807175 401.21555 295.78519
230.62979 936.15216 98.319565
94.928177 582.74335 51.6595
42.58971 159.28241 36.304405
43.827679 378.87634 220.12775
47.156506 556.69818 51.6595
273.20724 611.74207 60.557102
187.42856 203.74503 53.158203
271.57675 195.1646 62.269459
43.532066 744.17755 29.639391
30.896469 423.95624 135.68279
224.21121 42.978447 140.07126
333.07208 454.24966 163.14719
32.96841 451.87299 55.44598
328.64105 764.44055 199.62366
334.35263 171.90179 2.2985344
142.55479 925.37079 97.389824
78.670799 259.78339 77.616997
335.754 146.08084 30.589117
298.07266 698.75269 89.976288
170.45067 258.18323 52.252419
290.96799 771.90216 105.81529
328.91772 393.73856 199.07487
42.91201 640.94214 163.77036
53.416546 612.14478 62.123734
145.14886 911.19122 220.61365
333.85318 440.81934 57.410675
68.029701 201.3506 127.78944
71.094978 122.02278 80.998146
300.60199 724.28162 1.1297802
308.80173 649.88452 214.96344
78.670799 142.10258 124.37192
41.312099 204.60815 55.557274
108.03122 770.75513 67.475159
33.652401 706.79858 73.579369
78.670799 227.81767 70.109886
240.05786 799.83606 219.44737
189.22314 562.5639 315.17194
304.4429 790.45447 83.029572
38.912102 713.26953 67.496506
301.36307 631.14911 128.19328
341.56595 729.30383 163.99817
320.84409 187.18199 103.62443
64.85424 255.75388 106.18268
285.34067 953.96582 101.17047
141.20261 636.07874 154.51801
49.530563 143.21889 53.686977
39.653736 125.99718 92.190193
257.78711 238.2045 222.84303
55.888161 148.43726 118.64609
198.35594 199.51231 219.22418
33.652401 731.39502 73.933029
232.64789 35.43346 101.16158
34.610046 295.40369 181.07851
28.042858 710.96777 156.06877
312.06332 249.29147 62.72773
124.20676 77.432999 61.927971
195.37563 606.10284 314.29309
309.94995 690.4342 13.321221
36.161514 777.86377 23.330479
184.5555 672.05188 218.10907
61.538593 227.41187 15.540195
325.99487 394.13794 209.10881
69.073807 650.20404 208.22433
66.889145 93.490845 62.213333
194.63564 29.144642 133.60812
282.89713 306.82404 252.08623
309.46201 731.41724 1.3288279
289.45294 382.65207 51.6595
138.1602 29.821945 77.431221
307.75739 255.27933 107.80525
32.977173 768.35779 115.87582
336.10309 867.40356 117.57899
44.363571 622.37292 97.803734
274.5462 656.07703 217.978
26.416756 595.47095 89.733322
287.561 209.64166 150.28343
59.694218 792.78448 61.188599
56.860676 950.66052 86.109192
67.442909 691.52295 52.834869
290.96802 762.4986 23.209291
319.59799 178.23819 87.236862
73.45668 753.34778 33.081898
179.43411 810.63281 219.56042
107.74984 597.03192 51.6595
70.584526 91.023422 55.421158
38.755058 248.23148 49.702599
337.55887 248.53696 147.44046
126.74867 98.999329 202.43524
48.556946 149.91519 39.409618
70.759575 721.46985 0.32675964
309.0152 633.12183 135.0249
331.12012 636.0304 187.14009
270.85501 733.66492 218.75433
334.09875 592.25116 150.5723
94.082695 390.31241 51.6595
66.529068 224.24944 14.605684
78.670799 126.65244 110.45779
249.61479 910.92554 76.094597
155.08783 782.59509 68.770538
32.672997 173.31953 106.98384
319.66003 695.56091 120.21294
280.00464 822.40106 219.68375
320.32111 629.61121 232.88985
320.61209 639.05743 156.88486
250.15552 36.319084 103.55766
306.11359 291.34698 235.93051
39.774296 722.48828 26.836191
221.94101 157.37032 213.67081
331.82684 752.47516 28.806442
56.806122 784.56738 33.025925
278.32788 325.73224 265.37164
105.64814 662.21222 218.006
49.726456 222.86287 43.017044
280.93448 496.70865 51.6595
33.00312 463.01526 161.21182
322.91199 625.85004 109.8437
25.98885 614.4823 100.03278
290.22101 788.03333 94.541924
35.008976 347.43481 185.96274
324.08539 736.552 156.22301
70.493698 748.34375 3.2837062
318.24747 783.65112 96.257881
256.7359 120.20766 206.62793
69.068527 748.13861 31.981724
20.2048 647.58087 109.41347
247.96039 795.55731 219.40256
182.94469 53.869411 148.62404
47.131573 693.13611 81.804634
312.03323 741.46082 128.66985
165.62901 34.544342 120.461
31.93664 645.00592 71.744469
71.863235 702.56366 100.31078
301.88873 694.70459 45.835045
324.35675 580.29175 216.42639
71.080681 226.11899 220.53598
290.82938 953.97437 91.161407
174.8335 234.44279 53.692333
308.83301 125.14264 90.141708
288.56799 232.23267 57.424427
335.754 134.61469 56.714279
49.189606 126.64389 141.35638
33.332115 603.12518 165.25108
251.4529 682.88196 57.861183
45.415508 221.3302 40.787109
255.34828 287.17062 51.654392
282.56519 730.52734 77.002762
41.331615 693.09204 91.087715
242.40515 653.63672 253.81821
149.06509 95.501389 61.6894
31.82225 182.7254 46.23951
32.172073 291.3526 148.22586
278.14929 533.6394 51.6595
222.64795 96.383835 61.6894
340.48199 557.85376 105.77637
113.05602 607.70654 55.161423
195.03763 238.54147 221.63449
328.94653 228.73137 63.452343
290.96796 770.89148 25.029234
34.772942 689.09222 45.38784
31.505259 612.85071 185.80872
260.05322 536.70074 312.22455
264.90732 226.4724 54.175755
152.47198 652.89044 271.31799
184.86707 671.49646 56.615524
83.178513 635.01068 149.75897
319.59799 186.34003 74.316429
22.341984 817.35107 114.67189
68.410858 165.52274 98.152878
32.942005 493.63107 160.45256
45.014725 115.93853 120.75451
132.5481 875.75555 220.24252
293.315 182.336 50.72332
98.346329 954.03687 96.687454
95.77774 933.81512 129.03113
293.6347 767.11157 61.423878
155.28105 116.96365 60.817722
111.67529 48.188354 66.544075
269.73727 712.49335 61.100891
78.670799 253.22151 56.617096
316.42361 245.3269 86.22612
330.63126 647.30267 180.19164
291.79382 196.78522 101.86361
32.117058 888.58093 116.78497
346.57465 314.34921 226.79547
30.4776 201.97787 14.38724
100.87273 285.91779 241.79395
296.93268 148.68333 11.115532
319.66 664.06982 66.608391
106.74524 730.00806 55.119637
201.49918 935.43701 192.32727
57.629662 763.78888 80.189163
69.320801 409.00363 292.89368
270.29568 839.27924 73.34375
229.38382 50.599728 163.95399
242.74475 653.14978 264.64249
53.690929 650.92578 101.85611
335.754 197.27777 20.673332
337.44855 613.6427 117.89957
78.670799 140.81509 71.705582
327.68542 246.01614 191.71272
188.3716 122.82532 60.4622
264.24063 757.62805 219.00533
69.987358 446.37094 295.87985
77.664398 155.06897 21.245604
331.52029 604.41809 188.58698
202.30476 32.572777 72.92878
319.55301 610.39374 55.311729
53.832001 249.77618 59.700012
289.15161 371.43604 51.6595
335.754 178.10626 117.78435
208.84888 554.62341 314.69141
276.83994 94.423264 62.107109
287.561 120.47345 117.56059
106.3475 451.0416 309.37494
316.40033 170.87407 62.742489
302.16138 238.56577 221.38736
290.22101 773.21442 68.71682
31.269703 622.28625 140.1763
336.56171 390.15918 111.77644
227.38971 494.42947 314.108
246.47919 34.818573 97.147377
76.010803 679.16229 146.21524
149.92952 718.64343 61.77375
287.561 179.0397 68.336273
282.77707 175.01808 57.833672
327.85992 862.68073 198.03905
57.761002 744.01581 127.98188
229.97368 155.34023 58.490093
201.14116 243.33862 221.63965
321.36829 709.48663 31.023033
287.56097 206.10059 149.09134
234.09724 43.001835 148.246
339.41483 514.89374 80.101837
159.41669 610.73303 67.007553
335.754 152.15259 35.559521
285.78165 148.48126 211.2534
56.763115 154.6059 122.38962
32.751842 807.74652 161.8504
338.15399 688.88477 30.151884
44.099197 555.6944 220.0748
184.33197 775.26208 67.968246
245.50699 935.43701 157.14813
74.457687 742.31335 69.372131
76.868668 178.95123 151.386
303.2829 750.01636 3.9186306
27.958923 743.03436 38.066017
33.004135 724.92969 30.217018
160.47905 814.29883 219.59882
315.62396 699.35474 123.37136
37.712299 678.84711 107.45412
322.97589 663.08673 69.931992
339.00824 437.92499 85.332336
44.185211 769.23035 215.41408
335.03888 108.71377 101.828
32.715565 490.35052 157.66711
28.0776 714.18445 19.925694
331.01428 927.9137 99.780289
28.077599 731.1427 18.597473
163.42691 540.28754 51.6595
64.746048 885.52045 73.821701
58.399452 149.51498 79.924194
259.47345 130.92462 208.90851
49.796593 142.10327 71.792274
194.73569 355.62939 51.6595
28.068066 410.35406 76.376862
55.500736 265.71072 222.87451
318.79199 706.53088 69.179832
36.760151 789.41412 195.81592
181.48503 115.21278 60.92392
324.13257 696.39673 94.956993
121.65059 676.44531 57.156975
52.008461 689.27386 45.091351
287.86917 317.23416 257.49301
305.48978 173.30844 101.81886
75.264404 713.17126 15.089073
277.29684 916.21936 220.66653
311.66318 780.57623 150.29395
151.14062 28.093126 123.76888
332.59607 584.06653 168.98764
307.06201 234.37416 23.370291
74.425095 67.703369 145.2908
37.401199 710.20599 71.062515
325.46893 442.02249 51.6595
52.453072 212.6449 92.286118
58.640682 195.74736 22.840563
236.25711 858.29938 73.486473
290.22101 670.7019 99.073654
128.79239 319.18011 51.6595
46.633705 199.23837 57.065899
226.54863 671.69171 56.636887
302.98322 205.34538 26.477276
36.141724 170.3895 128.41606
210.1376 785.20203 219.29411
108.52041 70.044075 177.3392
317.60721 149.98361 90.773445
182.34348 338.43109 281.18155
203.30371 50.932129 180.88008
44.816761 624.89697 52.848824
321.31699 246.54086 43.843914
42.963257 268.02942 52.502541
205.17946 219.43289 221.57681
328.72717 683.38269 200.84544
337.70926 789.52026 78.14534
243.88594 106.10361 203.89362
64.005043 239.89166 30.061361
217.19592 630.54663 126.10674
187.44235 795.37994 219.4007
332.1842 619.95825 174.05428
324.41962 660.4895 132.07361
292.26559 670.0592 218.08818
332.59894 374.60349 55.309544
125.78391 246.15453 222.37508
99.837799 180.13858 73.913689
332.71005 338.76843 167.64293
102.14294 647.43201 208.0029
336.94962 562.42767 63.075287
326.06073 188.99458 188.49976
340.97943 632.70862 53.262798
246.97229 583.28351 313.00735
122.46177 183.44705 56.785347
34.878231 438.61154 183.97115
41.529247 209.89592 63.98222
300.24695 687.28198 49.557514
317.24509 625.0625 111.48566
109.80569 147.93785 211.90532
296.50342 459.18689 51.6595
333.45416 364.42889 158.45343
307.23895 183.29092 128.83441
308.83301 123.41574 82.600235
284.56775 649.89624 294.34119
39.95303 121.00729 54.507133
277.62619 775.78674 68.025658
66.218918 715.24268 1.2590239
338.15399 768.87683 97.173424
31.256289 277.88278 124.13777
149.59445 64.137039 172.52097
76.010803 741.89001 98.746819
56.600559 350.59161 253.03976
175.13483 926.94043 81.859894
209.31305 251.26845 223.24458
224.7076 834.22205 73.375114
290.22101 667.83026 94.861473
41.546658 685.05969 16.114765
30.800879 159.93396 37.459221
43.617573 584.44598 218.58292
257.21027 95.310768 200.5748
140.70261 28.484226 90.330627
78.670799 128.59099 98.517288
162.33838 922.50494 106.62813
227.79463 609.00018 60.397465
74.546753 178.68088 78.233353
310.66254 786.604 90.399948
334.37442 147.74097 59.471008
228.41301 633.47992 136.26508
51.857849 155.74097 6.9708529
65.984955 122.97418 84.436363
157.51289 51.837467 143.26913
43.462456 621.84766 100.40685
243.09605 864.61169 73.564209
313.41574 783.67072 31.524139
164.56923 286.79868 51.65403
118.70045 926.60571 219.23309
155.37859 815.6441 72.425964
37.401199 707.21619 71.352821
69.298378 414.08957 292.82794
287.25696 932.39648 124.24543
57.878662 413.91849 260.07187
290.60086 75.636604 173.56857
290.96799 677.25012 39.83696
159.17427 696.32159 59.331581
118.1413 54.345276 65.252518
164.97392 197.16391 55.953384
225.33116 406.4317 308.22388
99.129303 80.062019 194.84599
49.16605 734.0144 51.653511
163.09134 649.63623 204.81268
334.91876 357.49985 140.69894
31.633507 170.90404 87.537514
30.4776 158.75372 110.32014
160.82251 697.73981 59.486748
73.692749 426.31854 51.6595
183.74536 266.81207 233.10617
311.38187 450.2605 253.25212
335.754 233.98038 60.0215
306.21283 738.89435 75.276306
290.22101 693.62909 153.54523
173.15959 33.869499 123.83051
258.65173 208.54637 55.263012
31.729311 358.83997 145.70801
332.09399 385.4455 175.22223
221.60861 194.59169 69.35585
206.27774 721.85345 218.63065
228.24457 61.044456 163.95399
49.616638 717.17932 107.34492
143.66962 649.80444 216.15929
34.400059 644.64746 69.921234
246.43901 94.466446 58.78648
129.19519 678.44507 57.375763
63.316628 226.29907 50.731842
144.38159 403.99792 308.11896
332.57999 756.89703 86.846321
160.09735 43.369854 148.246
33.050667 774.93207 20.007904
64.467201 243.81161 93.17202
321.57541 631.42285 132.89554
167.74979 198.47079 219.10034
181.35875 727.69897 218.69186
274.80194 448.53558 307.20734
336.28961 599.74316 127.45586
57.064976 645.39734 189.64658
30.450928 513.27112 130.32007
38.912102 741.97253 71.054077
280.43326 912.78107 220.63057
69.824234 663.28851 57.954254
287.561 203.84572 78.229485
235.36934 36.007488 116.17
309.55957 220.82341 40.049782
334.582 174.10931 62.275284
332.20593 474.1412 173.78511
275.83658 684.71985 58.062267
335.75397 172.1001 10.695824
178.61011 275.32648 239.30402
72.496887 811.28033 76.079163
57.742344 544.10602 263.1915
46.464577 733.57428 129.83148
276.44016 836.14056 219.82762
74.107544 164.17856 26.927071
30.4776 137.95071 39.098919
30.798794 688.06049 116.00537
127.08739 627.81073 116.63224
118.2957 879.12891 73.742981
121.02277 629.02887 120.85066
46.115891 163.46907 27.361755
41.399311 763.16687 49.077091
63.825031 687.05237 113.87068
181.26897 93.14695 62.252514
116.53948 591.48132 312.7095
305.58594 498.98178 51.6595
321.92819 697.67365 41.166866
75.264397 682.14893 27.165348
336.76907 484.12195 63.390884
178.06966 672.06171 218.10916
206.03934 34.048107 100.2184
96.701065 935.43701 191.61435
96.48053 628.00043 124.38334
288.49725 173.83517 73.565254
54.018127 134.74283 145.96814
288.40765 74.130623 164.42453
287.561 182.4411 64.476685
168.99393 670.69086 218.0948
166.20322 709.91919 55.932289
70.264977 128.9801 32.232014
30.957397 220.57458 47.844841
74.657501 710.18066 104.72902
327.52548 746.61902 31.054089
335.754 132.85674 67.314713
304.4978 196.49127 74.706863
195.66365 707.64728 72.155121
78.670799 168.94597 143.62927
29.396461 542.38696 62.703018
291.50119 222.81302 220.26186
87.818573 258.46481 222.70636
240.58655 917.15808 76.076042
143.414 248.61679 222.34938
314.79999 744.12408 2.6065431
25.204346 312.71515 219.55215
335.87927 615.30713 131.68036
140.08676 245.79453 223.62604
114.55427 186.49278 217.23503
76.093384 593.22949 305.51291
254.47266 663.45331 218.01898
70.70192 682.23114 18.838942
232.32173 75.219864 61.89225
31.791655 477.02551 146.45885
57.974548 464.0553 51.6595
36.170666 221.06175 51.045284
103.66839 61.580608 178.172
29.311205 343.85046 73.629646
61.993065 83.143562 153.96048
331.3609 228.17302 16.146229
250.52637 248.58511 52.834568
158.44481 31.447983 95.806747
73.062233 770.00549 53.178802
219.4146 46.487686 148.25055
311.88452 684.54242 65.195427
167.49109 457.61981 313.367
41.312096 207.74924 73.099281
264.05731 402.94025 304.13657
326.12 243.49399 37.607964
306.23184 222.05177 11.471745
272.40302 842.94214 219.89888
247.98953 356.31195 289.06284
298.64783 755.55096 31.166269
330.72601 183.21512 67.357529
312.86536 77.595604 106.42714
295.43472 122.78108 83.738548
36.052399 159.74739 78.327209
53.938168 639.25336 163.08517
324.14398 440.26389 214.24942
29.162109 789.59351 48.993809
291.25009 665.37317 65.672462
325.05954 88.21312 131.39719
307.1998 585.93781 266.73447
332.69348 164.15228 73.100998
320.18506 645.99524 182.54922
68.039085 71.908188 150.21391
166.54208 720.33618 84.056
212.33902 734.97278 63.560307
330.45407 104.35003 141.34543
27.516918 432.60315 80.510529
334.65445 283.72498 130.26382
35.368126 411.20782 51.6595
335.00693 725.94812 73.352905
326.431 163.43106 59.996563
240.94733 610.38104 51.730824
78.670799 223.73793 68.940186
134.56386 423.33426 309.69736
333.20691 644.95795 71.500122
331.58014 796.76935 177.84367
338.02399 700.61548 76.339462
129.58861 723.43225 218.64719
325.80762 791.02966 49.543316
319.32312 673.06165 32.593124
259.35657 121.96103 60.514622
77.664398 192.89883 112.3004
266.43716 164.7724 214.11069
149.42494 36.177677 113.73608
35.193707 702.09229 93.537216
335.754 196.74536 116.4908
201.69551 610.14325 54.336967
70.99511 670.3988 218.09174
302.61679 707.84631 97.810791
245.78607 391.91702 304.80789
29.221085 121.32068 132.66154
98.383904 274.35492 51.646996
294.01617 952.39667 78.804436
68.299652 242.08572 33.735554
29.08094 732.40381 108.35541
49.890366 117.93773 126.5237
287.561 190.77206 68.059868
282.60956 348.59418 51.6595
261.7616 638.30969 162.95529
27.57291 440.38483 110.82342
201.21346 35.577202 105.78461
128.6797 30.177189 129.8481
292.28653 180.71112 0.240987
332.57999 719.99396 41.441273
128.7814 511.04346 51.6595
195.49519 263.5506 51.926876
97.683228 166.81874 57.793892
308.43674 619.27014 92.935165
299.95468 229.92258 110.33579
46.572102 694.35138 119.18433
168.40453 748.75751 60.063232
168.13136 921.92072 104.23797
36.052399 187.14917 87.206612
105.44952 235.67343 53.617691
35.647694 165.32124 174.27069
326.66043 337.98312 207.56725
324.92001 178.72862 79.493744
121.17723 187.73224 75.048378
267.22662 40.378048 105.06562
304.79401 471.21002 51.6595
56.989365 176.38342 22.299414
46.679054 565.2005 228.16388
227.02994 648.11169 305.9808
310.23083 787.30591 88.525589
335.46698 334.56808 116.28236
67.197464 91.18354 56.826435
326.66299 663.36218 66.652313
44.950653 674.34283 101.74409
145.79233 29.702013 77.058586
180.78691 767.28717 219.10648
307.75314 371.88699 259.24628
40.935867 173.2128 106.94606
34.820305 602.40839 189.50537
199.55185 384.53406 51.6595
324.85989 755.8634 123.68858
61.98101 651.76483 105.12594
119.18953 55.644661 178.87003
101.34 762.17334 66.536247
337.43152 698.88623 97.783142
318.45517 707.08557 217.1179
42.797226 631.14038 128.16298
337.08087 696.70361 174.98645
261.33063 865.54578 73.575714
75.264397 768.27747 94.143112
33.497929 288.17285 167.3446
141.93925 42.473488 148.246
332.66309 771.45831 62.016434
72.833672 171.14662 101.23346
296.73917 65.6912 107.19147
151.76447 919.03076 103.03228
332.57996 724.98883 53.792675
330.60812 177.73749 67.114143
77.057503 151.99025 93.003983
331.27417 493.75443 185.24501
285.3136 215.81392 219.66196
231.8994 179.76987 216.68968
331.97629 693.32861 176.98401
290.96799 751.51758 25.635649
239.62167 738.646 63.962181
82.129059 762.65912 219.05803
33.736752 623.74518 170.22827
251.7626 40.106865 112.08212
337.17688 354.15637 75.562706
277.12701 746.72229 64.845787
120.80286 949.12219 76.055908
201.79755 141.78632 59.312168
239.44254 635.49634 152.31555
39.04858 349.96579 205.87154
305.8049 228.5918 61.679234
236.83023 60.046646 162.45799
337.67499 731.79785 106.83643
59.523556 751.27795 102.06839
41.312099 169.48627 47.277969
228.48639 612.17285 51.868824
53.727432 745.05212 127.70021
78.23848 247.33994 222.87189
62.705631 945.77405 117.91336
49.081825 204.89558 98.201622
295.15701 703.32788 94.649788
65.931671 676.19165 104.3167
327.79572 907.95416 131.3412
130.54103 946.59265 75.983978
216.00125 51.178921 140.86897
335.79233 363.84784 115.03711
109.83252 935.43701 188.487
332.44464 612.44141 68.479713
234.49821 32.174782 74.737
61.240063 716.18542 101.82782
302.69635 331.35861 261.70337
158.95598 673.46838 56.83128
287.561 173.67 74.831345
314.94846 706.51953 96.931999
318.9563 352.14301 228.01404
294.45859 792.06653 54.936836
50.169289 614.85236 243.74144
33.751762 684.50439 66.646797
302.57974 766.82391 117.11211
67.803772 168.7635 3.4112484
43.939087 199.20377 23.67034
335.75403 135.8103 44.509895
64.363602 608.77045 281.23965
189.24612 419.9259 310.79199
218.24863 337.34949 281.10846
333.69067 294.73627 155.53212
144.59509 340.65784 282.59946
326.30945 269.50339 51.646996
324.01425 734.03662 129.80414
62.581833 727.84015 26.54892
34.686852 239.87558 177.34367
223.44341 728.26941 54.890732
299.68353 181.29041 108.40957
145.32738 653.23193 263.51376
326.82379 790.80908 75.707863
290.22101 679.146 91.453979
243.62402 187.24113 75.113037
318.46048 410.95276 231.46487
77.664398 152.13055 101.16924
334.59286 175.46744 83.393921
309.14032 665.16907 48.406109
78.670799 180.873 130.10556
292.63379 791.24445 54.299065
282.46997 654.34949 225.38513
304.74402 625.61743 114.26624
333.21466 903.51758 86.419151
36.477238 318.89993 194.06447
51.660065 636.56329 152.78828
48.999901 904.88629 76.094597
306.37573 678.37347 23.017672
275.6727 806.78583 71.417183
89.839317 74.961205 189.72496
68.89006 401.6488 291.62228
56.118439 164.18036 97.263756
73.59977 612.50494 51.894405
70.197792 57.604183 140.08379
112.15948 195.44948 64.00074
40.663498 697.01813 95.684532
132.31073 248.13817 52.861679
234.68121 942.66626 81.931961
106.96098 689.96564 58.636192
102.76721 86.59761 61.6894
110.11919 97.99662 201.4277
288.56799 182.65988 112.75091
222.32585 804.30438 219.49417
320.80731 385.80609 224.56056
329.12109 152.30711 8.7195396
33.941059 777.18109 22.475857
321.23526 523.49304 51.6595
332.2977 180.49486 83.337357
29.11503 854.63385 119.27856
253.44043 851.78162 219.99142
132.81998 588.26343 51.6595
57.207932 308.24802 244.24069
321.2207 765.38922 74.987663
47.359741 791.34424 72.210052
312.39999 154.79727 7.9335823
324.44727 204.81044 31.651735
44.614777 179.07689 108.20252
326.08444 666.01691 85.169289
293.9744 694.06244 84.423332
90.881577 60.038227 148.789
330.5058 709.15967 127.29578
85.105209 817.46088 72.646973
329.14899 774.86847 197.54089
302.34271 423.32532 277.73663
335.94907 610.85205 65.738289
292.81439 739.51147 26.254444
39.801201 166.59477 71.320511
205.75925 169.63205 70.199005
186.10809 624.55029 112.94884
264.60004 488.48962 310.45575
39.146595 141.80516 61.272373
78.670792 191.96025 98.742126
288.33536 640.0556 301.89172
39.363064 324.03506 213.9938
43.365536 170.80414 66.964035
77.664398 229.22023 55.621986
38.185768 226.10318 14.498203
307.96866 735.42413 103.21466
271.52173 647.02936 205.43913
103.57993 933.98932 109.493
41.9692 151.57391 9.4299431
75.264397 767.23163 33.529545
246.20599 35.493336 137.46608
298.52014 60.730659 93.415947
331.70422 890.41528 126.89061
323.87494 714.51459 213.87837
115.05515 738.42365 65.019615
339.09018 416.95538 95.72953
156.04662 931.68201 110.82711
334.7655 230.39951 147.69014
35.114632 787.99451 90.219994
282.40576 353.03583 281.39993
192.96291 367.55011 51.6595
290.96799 740.68481 8.3047047
298.59753 122.19217 54.940754
60.67865 190.69684 0.29701465
284.03018 347.20087 51.6595
37.987106 133.42966 104.41254
59.078373 743.92639 105.56465
