# .PCD v0.7 - Point Cloud Data file format
VERSION 0.7
FIELDS x y z
SIZE 4 4 4
TYPE F F F
COUNT 1 1 1
WIDTH 1531
HEIGHT 1
VIEWPOINT 0 0 0 1 0 0 0
POINTS 1531
DATA ascii
-1173.9325 682.74042 1672.5945
-792.13892 -3131.4199 581.35065
-1389.79 -315.84973 1735.9387
-1688.7693 341.11124 989.28833
-590.53918 -308.57468 1638.1862
-13.667274 322.20294 480.2215
-1221.6768 -1335.5861 1034.7778
-268.26801 1018.308 1359.604
-1768.4808 -2300.7034 604.88452
-192.36719 -1053.4658 830.83398
-762.80255 1414.2256 1064.4644
-920.52106 -502.78931 419.03937
-564.42712 -2071.7253 1122.8419
-1389.7738 -588.08704 915.73822
-1234.1685 -671.21014 279.66611
-1209.245 -2552.4294 939.08051
-1296.6238 -263.04889 1593.1648
-434.31256 -2289.2297 1084.7218
-646.21643 -47.207443 407.53967
-294.20255 -1614.0751 1203.6158
-88.236549 -1249.2682 383.04346
-1595.9746 53.065784 277.69653
-328.03412 -803.99933 658.0553
-6.320559 -883.41193 522.26282
-1346.6936 -2266.9312 1007.3976
-1135.821 357.10284 887.70447
-215.3288 -1579.8378 279.91147
-1102.631 244.91512 1592.3761
-449.55685 -1530.3795 280.117
-304.99777 -882.92456 1527.4966
-1137.4167 1293.1538 746.55511
-1785.8818 -528.24469 720.07776
-713.17059 341.67017 849.09174
-1622.3911 774.42932 1361.4122
-1561.2881 -546.9118 1519.0892
15.607778 -1870.699 790.69342
-680.56085 207.74979 1593.4111
-613.45862 1077.9917 315.92398
-1140.5273 -1013.2849 1515.4125
-701.26648 -813.46991 712.53632
-202.70618 -499.45578 904.14795
-1070.6672 -647.11169 478.18774
-18.721863 -10.678291 944.91718
-1489.8226 838.27777 1462.5889
-1269.9167 863.24609 301.62479
-516.96246 -2716.4067 1006.9833
-721.80231 1425.4594 604.50031
-1071.2211 327.51233 673.04102
-1742.0552 -1417.0975 1087.1324
-623.18933 -2651.0415 315.20789
-721.90961 -1776.1257 898.82922
-614.22778 -34.558861 406.49924
-1824.5688 216.29654 762.96899
-1784.2842 -2632.8394 763.34839
-1184.2532 1177.6832 1159.9519
-386.79892 -2965.7229 798.46985
-257.06311 487.37708 612.15546
-119.21599 1184.9695 442.96851
-756.71863 -1214.5815 559.93842
-286.46201 -1596.1073 279.6554
-748.4436 -351.56281 1687.165
-1192.2185 -2210.4028 291.68564
-1512.3439 -380.54639 1566.8625
-1572.9791 1359.4072 835.19019
-1474.1787 -2489.5803 544.50684
-1225.8347 -258.27734 411.16104
-912.96619 -2879.2432 754.26276
-1580.6992 1367.5543 938.64771
-1740.7244 -2757.7708 701.66589
-1371.7878 -2345.6333 987.81653
-217.40085 597.87317 742.69287
-1576.3383 789.7699 409.97992
-49.861908 -1426.6577 350.12741
-995.38745 545.2522 1144.9725
-191.38127 948.39465 247.70808
-86.275055 -78.658661 378.02725
-1193.8445 441.95358 1101.6941
-1697.7062 -569.04407 543.79626
-1556.6364 -340.16562 1508.3093
-1339.4395 394.40457 656.71631
-1397.9943 -2446.575 348.35275
-809.57611 353.22672 673.04102
-404.05234 -1511.4144 280.117
-614.80951 -1910.5664 1171.5823
-277.80005 827.41681 1500.7863
-1038.8214 543.04852 1005.6906
-1368.8867 -368.30222 278.55798
-293.50262 -2605.7019 1025.569
-1519.38 -2125.5793 722.05255
-1231.0331 838.01862 674.85144
-720.59888 389.43567 650.56732
-23.795492 974.56293 984.94708
2.5062234 732.03943 707.61542
-647.02405 47.711922 673.04102
-411.7515 1390.7566 1045.2404
-816.82367 -245.28012 691.93982
-1746.2457 961.39038 346.42084
-538.48047 95.767204 673.04102
-237.08691 -563.55591 1403.7168
-225.78368 -1989.4297 1111.1238
-1660.1942 -744.21411 580.65637
-1104.8645 212.94229 1593.0818
-1038.5828 -1775.824 857.45892
-1031.6982 -1470.9122 401.76147
-481.12311 934.81519 1623.8611
-1424.5863 640.08917 671.36029
-1616.3224 -2638.5298 1036.5776
-966.18384 1423.0873 441.71338
-256.30228 -1401.507 1231.5703
-1579.3298 -2229.5432 763.83215
-101.56966 -1997.9385 149.43195
-1603.8453 -653.86792 279.60995
-1414.917 -943.52576 402.78952
-1673.3538 323.80292 708.55273
-318.07022 -1773.9753 713.28442
-1668.2073 -998.60522 1124.0532
-463.64832 -617.76196 586.97095
-578.80969 -693.08563 1663.6423
-659.68823 1460.3822 393.57809
-1069.3282 -1235.3365 653.8576
-186.84169 -1710.0859 1180.4813
-1510.5264 -1343.625 1433.4255
-475.85858 417.84918 621.27399
-1057.5529 572.49524 1083.6974
-171.10712 -1531.0352 1148.4578
-1755.4731 -213.23392 1071.5347
-494.06271 1508.75 527.01843
-373.64407 -490.81488 1516.5618
-258.20825 1000.1876 940.68408
-836.01642 -597.63635 760.93018
-270.4075 -1827.8524 592.85693
-925.34723 -262.29871 278.12274
3.2709968 511.42526 631.15186
-1190.6279 415.28745 590.11938
-95.039955 710.91113 718.63654
-523.44348 -543.25507 279.25174
-1595.6512 -514.94946 1461.6859
-448.0155 -3090.228 670.28589
-1504.5803 -1345.7433 401.18686
-1674.2972 -2319.3699 738.56531
-1711.2521 1312.2825 435.74393
-424.81091 -2107.9634 286.81796
-1761.0834 -1124.7076 1060.2363
-576.58936 377.03995 648.08984
-483.04602 -513.34125 1589.9496
-1859.29 -2065.6355 228.26773
-1465.5416 -2172.1924 1021.4625
-1132.4889 -938.33557 1639.2887
-1774.8339 -1536.4769 360.26797
-1453.2686 -468.76505 1559.4088
-1558.1768 -626.91064 1305.8964
-987.52997 -1566.2368 401.52185
-1699.7206 -2547.3472 1049.4731
-1545.0498 283.25961 1447.6316
-861.54895 845.5246 1638.2688
-1519.38 -1914.8552 501.64633
-1265.6362 -2877.6982 480.0174
-1296.5526 -1016.0828 1514.5642
-1807.8948 822.00134 977.03955
-1751.8032 -45.73756 386.13324
-1208.9352 1163.7196 1404.4175
-1551.3661 -1695.4775 400.89148
-467.86343 -2239.6523 291.65405
-1103.0138 296.45447 1687.3687
-492.99216 -2096.2803 286.44104
-1025.0295 -1843.4978 277.60287
-1130.4712 1292.8728 712.07343
-311.36011 -1129.9309 1479.4519
-243.53406 -502.38007 1163.3579
-315.21371 295.34436 1424.7017
-1465.3898 1210.9226 1306.2108
-906.61523 -567.08856 1684.9087
-304.80972 -1783.2852 1178.1064
-462.49023 1214.562 341.75616
-1659.739 -710.14551 517.26215
-746.78418 -2709.2434 327.52374
1.2132292 496.74268 923.02649
-363.05319 844.98334 675.03571
-1792.9744 357.73077 698.66644
-434.62048 -2656.458 916.17499
-1581.1133 -2017.9023 1048.769
-1532.3363 269.62961 1504.2815
-1519.3799 -2482.8831 582.86658
-1635.3207 1380.4127 630.93921
-450.47583 1404.1255 694.62799
-710.03729 -1786.6323 1185.7921
-1410.0601 178.81529 1738.4495
-543.68689 -1693.6628 401.08441
-1507.2996 -1013.0574 710.28387
-675.94043 412.15836 647.71716
-1525.6451 -2933.0234 732.5365
-1187.3916 -1397.9142 401.68372
-1291.3513 -191.87894 1593.7992
-627.07806 -2982.793 947.43854
-1698.155 -566.03259 1062.38
-1204.3719 -1138.8497 641.31458
-327.76944 -2529.3442 302.12259
-744.05347 -820.1051 659.06653
-214.89917 -1112.1677 1036.0264
-211.31154 -675.48969 995.81189
-116.64115 -1445.0942 1220.2719
-1475.895 1293.4197 747.71509
-1555.2476 1157.8119 1121.3016
-664.69189 -2557.7153 1059.0448
-1628.334 -899.30316 849.62585
-1006.0729 1341.121 657.86743
-165.87444 180.78966 215.8351
-1732.931 -572.60864 425.68622
-1803.4777 374.79706 199.63303
-1500.5005 -1126.5426 1481.938
-1467.6771 441.6452 1050.2939
-911.18433 197.45811 1592.3323
-1815.5663 862.36688 454.72171
3.1602204 402.93832 53.72974
-1677.9126 -2970.4197 472.32977
-255.81805 935.21167 1023.3232
-1788.3416 1239.9622 533.65222
-1508.7781 908.43823 1560.4875
-1815.5549 323.89026 184.11972
-423.06915 -703.13684 1581.6433
-378.42444 1174.9258 1170.875
-1546.9861 828.92535 1500.2716
-1134.8795 -755.74805 714.97949
-250.13969 964.00977 721.00372
-457.38287 1154.2164 1393.6793
-1645.9763 -937.55188 692.52844
-1618.7576 -1264.9449 400.91226
-712.7868 431.61206 1588.3763
-52.613247 -2533.7256 96.604019
-1644.6133 533.08142 582.92737
-1510.6016 -1351.0283 1105.9663
-1088.3759 -1988.0835 1128.28
-1539.9534 -1371.5126 1322.9071
-1676.8662 -693.94098 1131.7081
-52.068619 -574.98395 914.06787
-856.07935 1336.7954 360.26373
-1069.5399 -532.17371 657.33527
-368.22128 -126.67426 1595.6372
3.2543783 685.35297 811.25085
-1594.9098 -425.38834 1079.7513
-36.962318 1142.3281 839.81946
-954.28918 562.10577 292.1076
-764.7074 -939.13721 495.88147
-1854.0424 -2176.8755 621.62927
-1149.0129 1292.8842 713.23859
-861.97717 -984.4599 1525.3298
-23.006838 -2588.678 494.02927
-256.97516 259.38638 497.84241
-434.00742 408.23923 489.76367
-1369.3324 -1075.2292 280.117
-1570.6533 -930.20764 402.50238
-1031.1841 232.96724 673.04102
-1057.2667 -1186.9675 280.117
-1799.1123 -1241.082 700.74554
-1644.7666 -520.31299 698.37939
-531.13391 451.73529 1676.2034
9.0577831 -1719.8862 769.19305
-439.69775 -544.97498 409.62939
21.288239 -2196.5974 424.69012
-330.56555 1365.298 636.69318
-312.93127 193.6001 1603.3883
-1066.1024 207.13033 280.67795
-322.79315 -655.41089 894.77667
-345.43958 395.69656 728.62158
-649.83447 -995.84644 701.20697
-1519.38 -2060.4119 734.15802
-387.89236 -595.72156 1189.327
4.9761863 608.67841 876.58429
-1112.9835 -1503.5085 280.117
-355.01233 -139.51079 449.50876
-1151.4441 1402.8605 723.78766
-1812.6799 -251.79941 617.30505
-1713.3872 374.37421 494.22803
-1069.5643 -1585.9563 471.64755
-1581.5449 -1775.7445 954.37128
-323.1369 373.44962 812.14917
-316.22418 -100.7054 1610.9695
-1531.6812 -2947.8276 796.04028
-1540.1241 -1075.1476 1519.5662
-1823.3942 480.31085 197.05716
-1523.03 291.75574 336.27686
-308.284 -2299.1536 638.50787
-1324.2571 1054.4819 433.37292
-275.84766 1091.9557 1417.015
-292.17386 -2599.6772 398.21332
-1011.1786 -779.44312 760.52063
-935.81604 -1302.3353 761.78107
-1631.3087 -400.19379 809.1236
-1224.9435 -640.80328 1068.7415
-1466.4717 302.25436 677.92969
-1697.915 -1927.2191 42.90797
-1647.2922 -1511.272 1067.9232
-1523.03 312.41284 342.25122
-1200.2656 -3080.2969 394.16742
-352.33871 -2589.1768 1005.7638
-211.90413 -471.86084 967.90625
-1022.6597 -1908.178 279.96112
-142.28856 -2448.4971 528.95276
-1512.6006 1377.3669 695.479
-1815.7472 323.16937 565.29272
-34.517052 1134.3829 906.03259
-336.57233 -2335.5161 1038.9608
-47.133476 695.5661 1063.1826
-489.18152 -935.44623 280.117
-258.72998 -73.562164 640.30243
-774.28101 -1710.6532 1275.4137
-1685.5159 -2321.7212 1077.8757
-403.2851 271.65454 673.20135
-639.836 -2880.0205 617.11871
-1490.3645 -896.26794 1532.5942
-407.05676 -2779.4736 933.60547
-934.38226 -1771.2988 437.75626
-1546.9427 953.16669 676.26727
-1487.5825 378.18243 703.3183
-425.38937 1340.0546 1148.4225
-1741.9313 1198.0995 627.61786
-1655.8628 -507.95245 628.31219
-499.03513 403.72479 1588.8916
-652.11615 -947.63232 404.17178
-18.148237 -1544.4235 995.8468
-308.284 -2458.2356 380.51309
-211.12723 -34.89212 977.75122
-376.17865 -1296.1263 401.48291
-757.39038 -1091.0588 727.82434
-575.66449 -3041.3916 800.50879
-80.4104 -706.12561 362.14932
-1141.1714 542.24902 1019.6819
-685.01001 -571.10376 1010.2782
-1737.9663 731.72473 183.24498
-886.84802 -240.4064 555.32349
-1038.1471 1293.597 801.98535
-1184.2462 400.23413 673.22253
-470.13828 -2177.3716 1103.5591
-1068.8883 -784.93884 755.71008
-734.7359 -89.714905 277.41418
-1807.2666 597.98706 602.92249
-666.46832 1200.418 677.30469
-790.7196 -361.42545 411.02441
-236.93941 -2627.6223 313.24307
-1256.9158 -623.63739 1352.4695
-1757.8798 750.7041 702.15381
-1256.7191 1487.7594 607.88293
-1699.6857 522.48846 1200.7858
-130.44397 869.20166 1199.6892
-1477.1804 -2420.7773 300.80621
-1055.5818 1281.7131 1261.5376
-1649.4119 -1627.3779 798.3656
-535.54932 103.76885 278.3266
-649.64624 1270.042 1265.1156
-1807.1516 -1314.9821 768.56567
-1088.9414 -1613.5955 1203.5548
-707.85492 278.21979 1591.7294
-308.284 -2269.5115 379.50562
-1519.3801 -1910.5322 644.39905
-1717.3627 -2778.4016 422.02295
-1396.4495 -66.214355 1595.8345
-147.02588 -565.02771 790.81879
-1663.978 -1985.9761 693.15344
-1352.3882 -2272.5405 1005.7529
-842.97363 -2713.5039 328.6084
-636.67267 -2878.9675 765.30261
-556.42743 1444.8405 792.46381
-1049.6365 -893.5011 760.81152
-109.24123 -1304.8575 387.10403
-52.327785 -72.913689 306.6601
-1940.1187 -1995.4214 602.99451
-267.86749 1300.1833 886.88397
-1114.6183 202.55841 673.04102
-1277.8972 874.65527 1591.5062
-555.19305 -370.00348 278.565
-613.19269 152.73657 1593.8748
-1588.1936 159.13007 379.42224
-685.36646 64.718628 1692.4355
-815.46191 -339.44919 1689.8379
3.442791 478.1391 88.312981
-50.947815 -379.4939 1012.5565
-464.27179 -1221.8733 1526.9238
-1633.9258 -1792.4028 336.41293
-1473.7023 -197.94205 1612.1238
-1228.5077 -477.25583 1678.3892
-83.803383 -2339.7554 148.55054
-1117.7174 561.09015 1053.7072
-425.10687 159.51392 1593.2054
-695.93341 1340.1841 1153.7317
-1552.3562 -110.48677 411.12534
-1353.4426 -221.28754 695.96008
-811.96033 455.54398 1137.3381
-497.83411 -706.16919 783.54706
-1473.3202 434.82333 721.69647
-1746.5627 17.159817 1091.8585
-1223.7604 -2250.3633 1103.3281
-479.3688 -2190.553 1025.0469
-860.93713 -3077.6299 616.64441
-118.76302 199.62994 527.65155
-657.04358 -3077.6299 605.0108
-213.77428 -2973.5642 651.24628
-530.00671 788.55438 299.85132
-883.39368 749.68188 298.26532
-598.54736 439.66592 1700.4653
-1742.5464 -1334.7878 368.01492
-877.11035 -783.14288 761.50378
-230.69934 -1413.1375 1137.8943
-171.36137 1387.1316 516.86377
-1512.2468 1460.5428 429.62729
-1770.3168 -310.4964 1022.7681
-446.1918 -1343.7592 1284.92
-853.95325 1521.1506 571.92041
1.4677765 -1621.5458 467.09424
-415.36594 -295.77759 278.26019
-1101.6272 1524.2273 529.14978
-581.93152 567.34448 1695.8898
-259.99017 1160.4642 1186.9927
-1623.2629 -2374.4451 192.93309
-1829.8971 -2576.9314 712.78333
-38.148289 -1263.1121 1004.6033
-1555.4227 191.05687 361.64545
-1806.6683 210.72345 145.30855
-408.1319 -1762.1276 400.73932
-338.00397 -1773.9332 711.51678
-166.15338 805.06989 1290.8535
-1189.0994 418.32553 627.79303
-123.20493 -1021.9209 402.70563
-1078.0266 -721.94519 279.83041
-1831.7954 -1155.2146 543.18878
-1506.7997 -268.93356 410.75571
-392.00613 430.05298 1654.1344
-1052.4437 203.18866 1709.4663
-10.216353 -131.24657 625.99988
-524.34802 -1199.7437 1064.4907
-1762.2825 -2881.2251 709.52661
8.8932886 -1632.5201 488.90408
-1605.9296 -2722.8511 982.75439
-1795.7389 1056.1106 953.20056
-579.28192 667.68481 295.86218
-499.75272 -68.29097 1595.578
-73.582458 -574.61249 550.1759
-70.505569 -1627.2767 545.48035
-1600.8352 395.06735 1059.5377
-1572.1445 208.92433 147.91174
-671.54785 770.44568 673.57507
-415.24365 1472.1761 423.35333
-1552.2375 -539.13129 1211.7349
-798.9093 1435.8369 657.92633
-256.92102 892.29407 515.96332
-1563.1875 -1854.0245 1132.3149
-875.16882 -2571.7246 1064.2855
-780.93555 -1348.1989 1102.4349
-1648.6326 -2012.2366 115.85453
-311.65875 -69.751999 408.77756
-1700.1471 -2711.0962 317.79959
-1808.6927 -1572.6823 988.67004
-323.45477 352.4939 860.42609
-266.05579 -898.48547 1481.0168
-1754.1042 -156.62076 369.59296
-1457.932 -1496.8253 1360.802
-60.115257 164.9874 274.0878
-906.29578 -494.76974 279.07721
-265.44293 -2889.0208 882.70068
-940.9469 -1647.0342 1199.8779
-254.0426 599.05231 1002.0065
-132.23354 -2243.1372 -51.818893
-1704.9807 157.01311 334.659
-910.5921 -1217.1163 280.117
-1783.0579 35.251583 1020.2014
-1515.1875 1293.4795 762.59888
-91.648476 -620.19592 545.40814
-1551.8977 -1245.7625 280.117
15.522626 -2002.8046 867.12042
-1556.3265 123.74479 277.96811
-819.00165 -2299.9734 1105.7592
-344.12234 -322.17569 1636.9996
-1316.1425 -565.06403 1233.7849
-654.45599 848.62476 1635.9409
-29.587395 162.88062 407.9118
-700.578 -140.35086 679.48016
-41.570827 526.14441 113.91547
-1425.6603 -1012.015 280.117
-761.93945 -914.75781 548.43268
-342.06824 -533.8877 1551.5872
-247.28621 926.41882 722.7533
-1818.0009 -2631.0391 584.91351
-529.50525 -234.9556 278.0105
-1572.8143 -1443.9873 1357.3785
-1630.5507 -2099.7825 117.35231
-877.19421 -288.96652 1691.7743
-745.01166 497.24063 1186.5781
-546.07721 -1492.0254 401.1601
-1151.9011 -672.96533 1024.9685
-1727.0265 -1457.5667 381.52573
-210.35559 -968.48059 991.44617
-1659.8862 324.01807 331.14255
-389.14877 960.44678 1483.9943
-1247.6833 -1080.0841 1501.5637
-770.88232 995.82324 676.06189
-672.96918 -1680.1552 401.15176
-1199.3365 -1610.3115 1201.3137
-151.10455 -665.86237 837.13843
-1146.4161 -1775.5338 854.40942
-554.82684 482.59259 672.68762
-1828.9875 -2376.2424 882.07227
-234.73868 534.76007 749.18799
-1548.533 -1222.7833 401.52383
-1092.5791 -888.47943 641.39551
-387.65564 1252.9946 1171.0598
-1789.0815 -1086.9409 663.07202
-867.37811 -2783.769 1016.4365
-1589.8452 1024.7654 1328.9777
-752.49329 -1702.1635 1199.1692
0.059442878 709.59277 561.7146
-1785.1245 750.10437 1049.7651
-513.76038 -2493.9587 301.04129
-211.39365 1316.4562 407.01196
-483.70593 -1619.1978 1306.2778
-1700.2542 -622.75885 1192.0188
-170.44754 -1444.6201 1166.9844
-365.90646 22.616039 1597.1637
-446.55362 -1472.1631 1383.5906
-1791.601 -619.51147 430.04703
-1363.5034 -2896.658 704.73206
-1268.1427 907.85211 1551.8123
-1217.7457 299.78513 673.04102
-308.07452 964.37469 449.10715
-66.55793 -494.80573 1058.8108
-81.997658 -2762.0271 790.91455
-1309.3523 68.784103 277.77353
-308.284 -2202.3198 560.74927
-1072.6653 -1057.7891 280.117
-1737.4246 624.14673 743.65137
-563.59436 1344.5325 1152.9639
-1388.5693 -273.37146 1593.1255
-1828.9388 -1646.5686 494.69312
-532.51697 1441.0068 816.49963
-1236.9438 1434.0532 713.93817
-1645.9412 -1490.3629 1208.9698
-593.11377 -434.25262 410.52454
-1582.2284 -2628.429 312.30252
-615.20667 -2744.3745 1012.3448
-176.18559 1335.6331 1018.0131
-1489.5856 -1758.9595 277.50525
-803.5766 820.73242 1575.4341
-1213.0148 1337.6049 1180.694
-479.95303 1019.0709 307.41971
-766.24664 -2709.3069 327.57776
-721.65277 267.40543 662.44629
-653.44482 -385.53061 410.69394
-1754.4396 -272.20886 300.01953
-751.42657 822.77722 674.5144
-413.85309 -2919.5317 610.06189
-1608.1976 -507.76685 510.83813
-1659.2791 716.58301 1290.0591
-1056.2927 -170.54152 686.20477
-143.20885 -680.24103 430.71701
-1358.1277 1321.5271 346.37543
-113.18625 -1955.2511 1096.8013
-726.38306 -219.17102 439.86328
-559.12842 1017.2148 1568.8745
-727.94763 -711.99976 450.73837
-572.80042 -584.60583 1405.192
-1270.7081 -2763.438 340.06192
-1107.7347 -2675.7852 907.09229
-656.65356 -487.79358 1680.4269
-1073.1646 -1436.9917 401.79153
-278.9801 970.84985 446.39474
1.8114965 -2710.0469 701.26166
-1355.1149 1414.6896 720.95349
-810.64014 -1816.1958 1217.1985
-1826.0889 753.68152 818.28223
-1282.6117 1395.0645 756.04529
-1388.5175 -540.24469 1287.1809
-1440.488 915.43835 1523.8491
-133.61055 -2463.2241 655.57642
-593.6712 -1438.304 869.79663
-323.27045 -2250.9204 1009.1147
-1550.129 -999.81891 707.75238
-1147.7736 1259.124 1166.7886
-672.52057 421.00931 1588.8335
-795.13141 204.1037 673.04102
-1178.6387 -1030.3398 280.117
-1696.5853 -1625.8633 1103.1771
-585.95905 -1043.6276 703.52765
108.69457 -2362.3794 548.04083
-1035.4772 -2121.2153 287.74344
-681.49518 378.68347 1589.7003
-27.286249 -534.33722 884.29224
-1628.3345 409.73175 944.41669
-825.18243 1425.3898 1101.6885
-164.42421 -830.05035 590.51831
-1565.592 32.007893 1461.9214
-162.75507 -589.91571 1176.6045
-1036.5856 61.698929 1595.4163
-1796.9052 -751.25562 883.39038
-253.49121 573.39819 966.59717
-784.07257 768.75317 1573.1895
-255.19994 -927.80219 280.117
-202.00731 -792.07617 1364.1165
-1794.5686 -1472.2965 1010.3429
-216.2359 899.07483 136.11333
-1512.5703 -613.44305 747.15778
-1324.5847 -2901.0947 790.2356
-594.14227 -224.85349 696.93164
-11.048061 -1199.8204 451.42419
-43.920002 1130.2833 800.40332
-1542.5031 -1076.5739 1465.4481
-1409.9355 29.188869 1725.8054
-951.08234 -1993.9835 1131.207
-1568.3428 -673.1076 1479.4373
3.4646482 447.55606 88.736603
-203.20068 -714.97589 1121.2694
-1795.5331 -549.74243 873.15649
-226.27449 38.644623 1390.6688
-127.056 -2405.8579 714.54016
-169.71964 -1451.7189 1025.8259
-1450.0735 -1008.4637 1603.7219
-1372.2991 -620.03418 1304.3625
-252.32164 336.83472 1361.595
-38.532356 -130.9902 1004.3112
-1281.5557 1302.9554 324.05219
-1582.3793 -491.27643 965.14502
-61.147839 -1123.2869 326.03128
-1523.03 432.73233 704.93549
-257.03305 853.94165 353.83932
-1006.4258 430.35623 1681.9863
-1076.8208 -2405.8677 1086.8982
-1749.4995 861.17944 611.27533
-1664.2734 -1197.9258 539.69775
-785.20685 -1918.3054 1168.8245
-765.38165 -960.896 598.97095
21.002874 -2211.4419 686.03064
-1588.9427 -713.31873 279.80249
-15.795637 -1396.8265 417.29938
-725.96539 1071.1733 677.2594
-1644.9691 -1233.1211 400.78751
-27.174728 -307.83832 668.61731
-4.8275819 -624.92407 535.85071
-1295.0648 -563.49268 1051.8484
-1555.0961 -2939.2437 789.04456
-1199.2032 139.68625 514.85217
-939.4613 -515.6145 410.00452
-967.75354 1293.9773 902.34113
-1208.8429 -1807.819 1184.6444
-1373.3304 -2266.6035 1005.7737
-1566.5146 -2144.0667 1079.7493
-952.66394 404.95868 287.07159
-1638.8911 327.7334 392.63263
-257.06891 827.29956 363.06787
-1648.0483 -1535.1605 888.70935
-1701.9365 -1607.155 552.98444
-257.03122 349.87689 558.15582
-1810.0912 -1467.8048 623.5517
-595.43701 -1518.1021 1222.1497
-1280.7495 602.25891 1317.4771
-102.01189 -1357.6753 1228.2742
-1410.0601 -392.48254 1726.3984
-1695.1609 -2804.238 359.66422
-479.60309 -563.16522 1405.6772
-571.05981 -2313.0503 1092.9769
-1300.2024 -367.61526 278.55518
-1107.7321 1192.7854 336.05283
-118.93391 -451.89014 278.90115
-710.15833 -709.9834 912.04016
-1618.2791 289.93283 949.27979
-756.09509 -688.0495 530.4425
-127.27638 1284.0774 656.12909
-1026.8474 854.38293 301.55371
-1476.0389 478.7981 1583.0361
154.73627 -2443.7188 180.28854
-764.89197 -2499.6362 1073.4006
-1322.5593 -1773.3044 657.45026
-42.215199 -2102.1938 49.388931
-965.66119 -2542.3582 1069.2273
-677.99554 -75.854904 277.35727
-636.12213 -1425.3469 1188.572
1.9243147 657.22449 593.28455
-304.53549 777.01526 1564.1993
-269.39554 864.69373 734.83069
-39.735367 -2525.1938 95.365791
-859.86633 -2881.4033 563.96588
-829.6405 1211.1361 1173.4268
-1754.5166 385.13803 967.91217
2.8122411 575.64905 704.823
-720.41705 -1760.54 1246.093
-255.25211 902.71204 978.28082
-344.40765 769.72223 733.7121
-1789.708 1071.4717 803.64453
-170.43668 -1592.8584 848.32721
-1813.72 -1410.0347 900.62891
-394.65237 -1912.9323 386.90567
-1565.3812 905.05823 676.28729
-207.39258 -639.59656 959.82074
-338.65405 341.45529 595.65332
-201.6485 -317.47681 904.81104
-389.76868 873.83765 1626.7931
-166.99886 -1825.5178 633.96301
-530.02551 1253.0958 1017.7082
-125.33601 -1645.8386 548.448
-437.4787 -226.3147 623.96289
-31.546505 -680.5412 816.73676
-1839.9666 -2083.5381 828.80884
-1154.0829 -618.99048 543.79932
-575.53601 568.59021 1377.9641
-375.15161 -467.8111 1577.696
-203.30057 -2906.123 767.66254
-1179.0106 41.533504 673.04102
-77.101494 -1131.4515 1080.1467
-287.63757 -1353.0726 1230.1591
-10.988448 -340.586 613.16833
-1079.2103 -1775.2981 819.68396
-787.73425 -801.05005 1659.5969
-256.93927 704.14258 677.75067
-762.06909 1282.2258 1162.6263
-239.34084 -2465.9722 674.40088
-955.2959 -63.908524 1594.8047
-399.04846 -643.36115 1172.7399
-1563.5591 272.20602 687.86755
-933.44922 956.30701 1521.9891
-8.7811728 228.58403 1005.3862
-378.11862 -1945.4343 520.17126
-3.3691897 706.73676 964.26788
-638.31989 -823.79724 701.20697
-815.80457 -742.3125 279.89636
-1804.3932 -1277.068 918.1864
-746.93756 40.965576 1596.1936
-690.46326 -1621.5398 1202.9594
-1500.5955 -2520.4751 511.79651
-1028.7185 -551.50598 760.34033
-1574.4072 956.72522 720.47424
-328.82388 -2242.5405 1057.1943
-146.63727 -675.51758 460.07208
-1829.7617 465.19623 801.82135
-115.38294 166.08269 265.76822
-278.75342 -303.28021 410.6394
-216.75302 346.45453 245.84573
2.1211195 556.69501 58.698616
-1389.2437 1144.974 1409.7546
-1015.0896 -2878.5706 763.98413
-1059.6907 192.1104 673.04102
-83.221161 -1048.8658 289.95123
2.6905406 226.43382 257.44028
-1686.0203 -2010.9106 777.43628
-893.12402 -1312.4513 403.27908
-247.91217 -670.84125 1470.387
-1814.7311 259.50272 429.49026
-948.96082 -230.15353 412.25244
-992.20215 -30.702389 407.07294
-1806.1605 -1467.412 407.38623
-1579.3114 -2491.4749 986.60449
-44.781342 -105.87006 334.03369
-1425.626 -2398.6514 490.56586
-766.89111 -737.0603 406.62042
-170.07733 -873.48401 631.0058
-811.39276 493.17377 1586.4851
-822.76123 -289.97812 1592.2639
-12.940397 164.08887 676.23981
-1286.4469 -335.77792 410.73993
16.690954 -2156.0735 891.43713
-476.62866 -1796.4534 1208.1168
-1490.1672 -517.45227 1628.2823
-1567.1912 503.66006 732.38416
-1595.1233 1347.0969 1011.2814
-1813.8582 -532.36047 565.32355
-1601.502 190.66374 191.99683
-542.05591 -616.01617 1250.7094
-682.39587 -1726.5088 1192.1302
-1703.6943 -2282.9448 1080.2329
-46.634872 -1640.4115 387.65253
-1815.2073 572.72321 700.23492
-1390.5734 -1441.9547 1399.7581
-390.66306 -2420.1519 967.31421
-1555.2288 -2174.0554 62.207024
-1285.7527 1291.5732 935.12469
-1666.168 -572.45142 1275.495
-10.009775 -2681.0742 641.28607
-196.83492 -2475.2102 679.87299
-11.189967 324.5174 251.60767
-1287.3682 -2070.6182 1121.6295
-171.25546 -1538.5205 1187.428
-1522.0564 -2965.5 657.22076
-1474.0883 -177.93314 1604.3289
-1371.0562 1395.3423 558.81622
-465.51703 -226.35315 1593.7726
-477.76868 -1271.9772 1499.4811
-1795.1023 653.09814 1030.1156
-383.49594 -2030.4095 580.72388
-583.18335 -616.09802 645.7193
-177.96542 -1459.7764 399.98856
-1555.4183 658.09485 700.90338
-197.34409 706.23193 720.57471
-1580.5822 443.3606 879.81342
-1331.4851 1404.4152 895.64294
-1273.1228 -112.09982 412.07739
-22.149218 -242.91252 924.90735
-568.24066 -1336.4429 924.39844
-220.4299 -2312.9707 675.85577
-818.48999 564.37482 1060.2793
-631.14746 -2181.4868 1113.5011
-51.565617 -1632.5078 499.26794
-1189.8812 -2978.344 948.95923
-195.27547 -1585.6771 1180.0503
-1243.3038 -2347.8396 297.27063
-636.37134 -1091.5027 403.1535
-703.91095 -754.97852 405.72006
-47.546791 -2595.2021 616.81818
-1030.7349 -2310.2354 295.19348
-1807.4551 661.91669 738.67847
-1613.3132 -686.67682 811.35547
-826.39355 -2867.6199 829.33887
-1815.0476 575.46564 718.99011
-667.7298 -1298.3545 1501.0879
-1014.3849 275.33511 1687.7379
-1270.0997 1437.7234 809.58862
-1772.7469 -764.51868 381.02832
-1784.429 -578.96918 516.1308
-149.01178 -1917.061 563.75372
-79.069771 -18.521122 536.76184
-445.36353 -600.8396 1661.7119
-1696.155 -1619.3577 861.16711
-414.5621 -395.42328 278.66934
-240.52979 -2994.8838 760.29248
-1301.788 231.40117 673.04102
-1187.5857 1452.4152 624.59888
-101.42748 -2332.1584 763.30444
-131.43135 -479.42255 1175.0209
-267.4082 1092.7797 769.21924
-1328.8665 -2330.4775 994.01636
-675.99463 -1919.9731 1174.776
-92.850555 473.52228 568.33673
-508.26782 100.66373 445.01086
-1574.1969 -608.03607 1488.0985
-1480.8903 412.85754 687.11322
-1186.4639 -1849.1674 1195.0201
-593.42773 -642.20813 1130.1152
-1815.8186 833.04224 405.39722
-1561.5354 322.92322 25.706261
-746.83423 -1149.4944 280.117
-1881.1897 -2128.9299 678.81555
-204.35745 -1178.0652 940.08276
-250.24843 -626.14673 552.31177
-102.96229 -2457.2886 262.92551
-520.03217 -1414.0946 883.45288
-534.36816 -337.51019 1647.9692
-1554.1298 -1399.5701 1277.6942
-308.284 883.74133 318.30237
-912.25165 -2418.4438 973.37317
-1755.801 500.41415 1084.3837
-19.409435 -513.79333 520.24084
-464.80435 401.55652 404.02347
-1627.0811 -2569.4834 279.11844
-1812.3025 86.729286 410.7179
-756.57129 -1362.1375 470.4761
-1114.2029 546.82629 291.54318
-1646.2473 -354.81705 681.32629
-232.813 -108.99242 1119.0586
-522.63867 -599.34552 1657.1241
-423.94016 -180.14967 1594.3987
-160.54034 -957.2713 1123.8572
-629.73706 -1407.4546 1206.8938
-758.69208 -520.21753 409.94464
-33.830383 -482.40344 425.94138
-1584.022 -2267.813 1018.0724
-1070.7644 -794.43274 419.97583
-931.5871 -3077.6299 635.41174
-474.3999 -580.90759 954.45203
-1141.8434 578.9823 1170.6227
-1519.38 -2469.6636 478.67807
-145.29793 -1608.7286 543.20282
-1475.2244 350.21133 527.61377
-1647.5828 -238.98973 1289.2495
98.740097 -2534.9382 238.57649
-519.88116 -1080.3525 280.117
-721.85394 1435.5081 708.11938
-587.11096 329.68591 818.98926
-84.363434 1252.8293 715.52161
-267.19098 -1427.634 1376.6321
-308.284 406.87732 529.13177
-252.84512 -1765.2456 277.04065
-88.470779 1219.6121 401.2348
-288.32776 -1487.4658 1231.4097
-84.315765 -1620.7462 821.72266
-1693.7196 -948.3974 280.117
-1790.3762 -189.06157 980.97827
-183.98839 -1774.822 806.52405
-710.86523 -2880.5762 632.33441
-1523.369 -750.36938 524.28784
-1520.7686 384.28455 1328.3395
-781.47485 1369.788 650.76263
-1324.7648 1007.8079 677.03735
-751.57043 1088.7842 317.79077
-1482.9321 -3053.7534 745.2832
-1536.5801 -631.81995 1264.6306
-758.35461 520.92712 1142.6946
-104.17346 -2765.9966 327.74893
-1.2633164 151.45091 626.59839
-1288.5227 -621.8974 1329.2402
-300.12921 508.25403 727.23163
-1573.5171 -633.11273 434.47852
-563.54456 -1425.8507 1191.5144
-387.52884 606.70825 1573.1841
-1492.0576 -2549.5654 284.62372
-12.30391 -1382.3638 1304.2136
-1223.0828 -2747.0789 889.94165
-1817.5518 4.6734047 840.89233
-1791.7026 -533.44208 908.99207
-1387.5409 952.32422 1605.7109
-617.50464 1342.4745 652.31238
-1626.1727 -1573.6907 877.67993
-324.81082 -3065.0696 704.61047
-1747.2279 -2172.968 -46.547852
33.844563 -2472.1265 614.58142
-1661.1066 -1314.475 560.14899
-1671.129 165.88998 1218.6287
-328.20709 1098.1454 1418.566
-1168.3851 454.3287 1129.5475
-253.94315 1353.6377 593.49359
-316.62109 1079.0195 1456.8766
-1555.4504 281.71463 75.754898
-1248.1586 1154.8898 676.90417
-158.08261 -1356.0928 1246.4597
-1523.03 292.91553 489.08124
-12.258242 18.354027 920.58441
-795.02045 -712.32568 1669.9338
-531.40729 226.4622 673.04102
-1566.3665 179.03394 528.25055
-460.69711 -1309.4492 280.117
-848.94025 -2947.269 965.61768
-1197.5411 -2827.2327 991.12787
-117.68469 -1981.2388 408.85614
-773.78253 501.32083 1586.521
-1465.7332 -632.34656 1584.7029
-622.34351 1293.6398 811.40167
-1280.5416 -256.14731 616.32031
-1069.3079 -954.6507 280.117
-423.54163 -1840.7847 1177.059
119.41064 -2381.6331 214.6889
-1757.8234 -1633.6261 551.19208
-274.5481 -1294.736 401.26996
-1488.8003 811.09631 1500.9766
-1737.1716 -1859.0793 236.78006
-1674.9454 27.328619 491.01031
-324.45132 387.95667 768.5791
-333.48801 -2193.8152 1018.4686
-1633.3184 352.10703 1352.8723
-1243.4307 1402.9229 822.23364
-314.22733 1380.6333 762.28204
-631.99097 219.30542 281.27106
-559.42108 -2411.6448 974.60345
-1598.9939 133.21533 1401.6306
-311.56473 123.45188 441.6925
-661.05487 -1339.1604 1063.3687
-1649.1553 -1775.03 836.18506
-840.00476 1327.4475 661.2887
-1592.3716 -314.28394 1099.4514
-507.43329 -536.81305 1241.3579
-157.32285 -2482.3408 1025.351
-1744.8484 380.17706 741.76349
-254.76501 874.56995 937.13751
-1389.8522 -2895.2124 904.31555
-124.07382 -1206.3361 1125.4631
-1614.4844 -1468.9427 982.59473
-1768.2688 172.46909 741.86047
-365.69702 -580.5993 952.58459
-1691.9727 -596.4942 611.32434
-1817.717 -1034.9802 507.06467
-926.74469 -2387.0469 297.94836
-1519.3518 -1522.6979 280.117
-98.690773 -1787.3489 568.72693
-564.50446 -3077.6299 583.02161
-722.35034 1409.9994 640.61023
-1555.2697 430.6431 574.6521
-754.19196 -3084.5579 398.35452
-1611.5139 -132.45961 1368.4147
-1815.5332 303.02551 504.04419
-316.4205 -1258.5339 1469.8882
-1973.5667 -1968.9119 214.92763
-790.98663 -537.35138 409.73129
-1605.6477 601.9259 1188.0144
-517.23187 978.5127 1507.0931
-678.18536 1457.6871 389.29236
-308.284 -2218.2671 598.26941
-764.48596 1520.879 569.13647
-1516.205 -1553.5299 803.78033
-591.49408 -2352.2063 1088.4908
-256.96176 782.38483 86.814865
-227.97318 -1894.4084 710.06104
-1738.8667 58.345757 538.31213
-1216.8392 838.1712 1633.1909
-1814.8463 381.26114 706.69733
-239.78781 -1898.4261 1114.4575
-1215.8409 -1877.028 278.96432
-90.391037 -649.18384 1100.981
-1830.8265 -2368.6748 795.21594
-421.38776 544.10583 1578.0153
-274.92615 -1044.2842 402.14902
-1324.9518 1409.1638 450.522
-1662.0367 -1988.9144 180.67998
-1047.334 -1018.51 404.46466
-645.41345 725.68927 297.69592
-1491.2496 -620.98157 570.40942
107.38228 -2381.8047 342.75479
-123.4014 -536.57013 279.23007
-1551.522 -2886.9927 887.89807
-836.81262 -240.29291 557.86072
-1565.0773 -680.76843 820.75397
-1102.788 728.19592 1573.0151
-426.48633 -585.0965 927.70483
-655.7843 -2431.8682 969.8761
-1698.6274 -2834.4443 815.82422
6.7080889 -1336.9214 489.91809
-1640.9149 -277.08688 1309.51
-895.2406 642.13239 671.17761
-1550.459 669.34521 909.1239
-779.33362 -1810.3862 1183.1382
-542.37909 -1175.2449 402.263
-1593.6117 547.45868 585.61914
-1420.0923 -2917.8538 696.65631
-1402.6554 -1877.1277 1155.3806
-1523.03 742.42157 450.64557
-538.8418 -1238.8276 280.117
-238.75658 -1478.6855 1338.691
-1537.3347 1197.4895 676.33044
-361.22803 -588.0907 1473.2905
-145.65723 -878.95935 447.84073
-1070.0275 -853.39612 575.4505
-21.164392 -147.11813 436.51089
-480.27496 -2070.811 1053.5616
-214.64113 351.42261 3.837781
-577.37256 -1556.1635 401.00226
-382.36444 1198.813 674.20624
-1645.4519 640.32251 124.83603
-1761.9065 -1630.6013 551.73218
-430.53821 598.21277 1574.7949
-1638.058 158.20039 758.48535
-1395.3513 1053.6653 311.41068
-472.78253 -116.58013 674.03613
-190.73796 993.66919 431.49478
-286.36957 313.42276 715.51184
-179.6655 -1774.0732 697.30597
-818.64423 -925.28094 405.31671
-1021.7511 324.50568 1685.9143
-1247.8302 1367.8268 860.01764
-1234.6239 -295.46405 1592.3591
-240.97476 -1007.9357 1432.3369
-1704.2036 1116.7345 1140.6965
-731.03162 -1313.6385 1497.884
-635.4436 -2717.3523 328.96936
-1304.9017 -393.46082 1673.8931
-720.48279 -2207.4128 1113.9888
-1461.7378 711.67944 679.61267
-1618.24 21.648769 1340.629
-1675.6461 -433.25403 410.57034
-1563.7646 -615.64105 852.38184
-687.86475 1386.0505 644.87756
-214.1814 -490.32147 1220.4988
-367.25055 -2629.5945 992.1637
-1523.03 583.29376 610.40863
-168.00333 -2839.1057 383.51334
-1562.8242 705.36169 911.78394
-571.99463 -545.37805 1146.688
-1445.8175 -451.98694 1661.6332
-283.43375 -1500.556 1227.6633
-1233.3064 -47.839996 277.24225
-301.84247 -2755.3752 967.89087
-763.07758 -2273.425 1107.3567
-824.58997 1139.5623 677.93298
-1604.2294 -2290.7124 556.51306
-524.05408 -702.61359 1646.8774
-1454.6741 1273.8387 969.83124
-1032.2147 40.18586 673.04102
-37.122757 776.40393 443.44519
-1743.3582 -1848.5055 139.92033
-1572.1938 487.94458 1084.4785
-480.47253 -451.02094 1590.7499
-149.29958 -2436.0808 664.19098
-298.28516 -610.91272 1410.0028
-1325.3291 1293.7512 818.01538
-1208.8867 -656.77014 279.61935
-1554.667 -390.99603 278.65115
-71.609718 -1626.6689 899.80212
-1362.9781 -709.69519 774.93634
-1378.002 -1363.8264 905.83136
-596.3606 -983.72009 280.117
-256.93872 -635.71948 405.95551
-954.82672 1293.1028 742.11926
-1332.6982 230.30502 281.29611
-3.5504153 369.60959 533.21887
-192.19479 -2102.1184 -28.606693
-1807.6237 -1649.6537 584.20642
-1343.4521 1397.8511 873.62769
-114.27567 -736.95447 392.30865
-59.909855 335.66998 272.07141
-63.212639 1120.55 592.76746
-800.28009 -528.07092 1683.9402
-422.08682 -270.06958 1722.0686
-893.83984 516.04132 972.23767
-371.86108 -900.62366 402.86057
-19.739603 -2553.3042 872.9903
-492.61737 1280.4189 667.6037
-1148.62 -2143.1174 1042.7246
-623.02734 1501.2867 605.17688
-286.91998 451.38446 728.01776
-1312.1423 -2324.0366 1086.0095
-619.66187 -1777.103 1005.9625
-147.46216 -2847.0034 693.84155
-1352.5276 1210.0217 345.62241
-211.8241 -1239.6627 1390.5068
-607.27435 1417.9927 906.05872
-907.08667 -1592.4318 1346.5885
-926.8042 395.12201 923.36456
-992.53802 -1047.9572 404.60513
-1626.1287 1166.3018 1215.9279
-614.85498 698.94775 1689.8123
-1817.5297 722.19098 380.51526
-1787.65 1188.6729 486.5752
-1090.8633 -38.639881 1693.7671
-214.09073 -1156.7471 1029.109
-985.64618 -3037.3618 800.54138
-1324.1931 -1092.6158 711.32568
-1796.9705 -1959.5748 51.082161
-1427.0414 1398.4756 766.2085
-1795.7198 -436.89563 806.40063
-1069.2329 -1007.8707 697.88922
-1758.162 -2568.4333 640.49719
-626.35767 459.15201 1315.7628
-1575.9685 1240.0059 1071.2046
-1755.1683 -1014.538 1066.0094
-1145.6375 -619.1886 536.68982
-1765.233 -2874.9839 668.34631
-1079.4772 -1588.0676 1344.0664
-646.32294 -1986.3708 282.54175
-1741.235 -2371.9231 22.403736
-1739.437 1259.5127 923.88
-1554.9862 974.06903 1180.1456
-134.70703 -1717.375 693.19641
-1082.7589 -1193.6597 1569.2715
-115.34848 -1619.259 663.45441
-982.38794 456.57025 1134.7891
-412.89102 -1443.0127 1255.3519
-466.65137 1362.4182 643.10138
-158.04015 -1605.0752 544.42889
-344.69989 -469.90674 410.25467
-1555.4203 478.879 706.22229
-930.21741 -2137.8799 1125.1506
-136.73248 157.02579 363.43875
-308.284 746.4538 426.68906
-1070.6281 -953.13605 402.45825
-147.71596 -440.36383 445.03204
-175.30313 -1294.1917 677.37909
-1781.2994 544.36639 -52.451023
-1752.0023 -1883.7793 1078.9166
-96.50325 -2757.6641 532.22247
-1682.417 672.3512 557.73315
-172.1209 123.34124 1295.4832
-842.42212 -290.59064 1690.988
-1635.875 -2082.4548 1094.3477
-1410.0601 -41.929108 1728.7478
-1695.7805 -290.00488 1146.5853
-156.04272 -357.15149 510.55801
-1523.1182 -1019.7152 713.17139
-986.7713 -1532.3794 280.117
-1815.1327 194.08235 353.10809
-1523.01 959.66058 1533.7289
-620.15649 -2240.1948 1105.7157
-211.17126 -1230.6046 1104.9834
5.553277 -1073.7422 560.99255
-111.96989 473.17746 741.07996
-1175.8821 -1481.7307 280.117
-1230.198 -2154.9609 289.59464
-516.90155 -539.71985 1280.1658
-1836.5964 -2210.697 335.59656
-1063.9387 -3018.6011 802.15094
-312.36545 -1078.5237 541.3562
-520.00934 257.9173 282.56091
-10.523518 581.08905 982.92078
-757.76025 -1488.4648 697.75598
-1674.2728 -1243.8102 463.6582
-1434.7344 -171.78323 411.1243
-1793.8293 1058.8666 807.18878
-1069.8057 -530.43958 615.56128
-1815.0762 506.46188 716.8963
-746.2619 -1085.9132 539.32727
-744.58478 402.92828 434.34888
-1579.725 -2330.0852 520.92444
-415.82336 -1721.801 1241.3688
-1106.9799 -2521.9058 947.13989
-1215.1429 -2813.5222 993.90808
-1610.7865 -1327.8737 1014.0719
1.9769218 592.97205 320.51257
-465.65784 -1343.9541 921.87549
-430.03821 -2176.2305 1025.1729
-313.5722 284.41217 655.94299
-1646.8405 96.606888 668.5575
-1381.4653 1225.9042 1062.9432
-1142.153 433.15463 1076.6178
-1579.4731 -1770.4994 1177.7006
-1514.1971 -1106.9813 671.75867
-547.73883 -1773.0763 633.24567
-1071.8693 -1775.5916 843.96082
-337.16306 -200.50873 1574.8213
-148.94955 -2389.2607 1040.9425
-1128.7736 1213.3575 1346.6045
-332.36255 -1812.551 276.24844
-1523.03 533.06573 514.17694
-1491.0897 501.70618 909.09644
-846.99445 1277.2438 672.59686
-1363.8784 1002.0076 677.07147
-893.78113 -133.13605 677.07825
-853.52814 1302.3688 667.34753
-204.46565 -2907.2188 771.1015
-1258.7946 1239.182 1039.8882
-832.479 -3051.1357 400.08124
-1433.0554 332.67581 660.22754
-584.65936 492.08575 856.61792
-652.99164 275.56271 658.9353
-1220.5522 396.01981 996.57544
-1147.2714 -2017.6437 284.04538
-603.20532 227.92734 673.04102
-783.26056 -962.97076 1637.0409
-711.02521 326.47031 811.21716
-128.50339 -1681.4655 464.44977
-257.01102 857.19995 434.91812
-1271.3198 564.56921 1168.2277
-353.05438 -1296.0281 1468.3801
-987.11365 -1768.4392 400.70407
-233.26653 1363.5459 1008.8751
-305.31189 232.55411 632.28046
-1784.3347 501.83612 1048.6866
-16.037113 601.64838 584.44714
-1422.601 -2791.4563 347.80023
-544.37305 -542.94086 1323.1727
-201.27022 -1290.9307 280.117
-279.94312 1164.5645 1216.9644
-1631.512 -1472.1348 827.38361
-1732.4729 -606.99365 912.86163
-485.46609 -785.32867 1650.8218
-1593.2976 387.80438 714.9895
-1156.734 412.97827 1037.7562
-101.81896 -1467.6947 385.08261
-42.348938 -727.34497 663.88477
-1396.3859 146.81407 1664.8965
-1212.4038 -580.12714 279.37115
-224.11731 561.91107 -53.843655
-1437.4542 734.46655 1563.2391
-1693.6272 137.72697 779.20752
-124.39994 -1636.6764 845.13269
-1329.5989 -3087.6636 554.2854
-1841.3884 -1362.3121 534.35626
-1384.0999 504.51001 290.06073
-701.26154 1210.301 1082.0491
-767.95801 1376.606 403.04587
-308.284 856.77905 342.827
-193.80278 -2084.6028 769.2583
-132.72208 1282.6621 380.15533
-1321.6995 -1387.1672 1435.9346
-1755.3308 -379.42047 367.09183
-1525.1433 -1255.8867 1478.7961
-0.39742398 600.28418 358.8457
-1827.4481 -1616.8721 675.03656
-1381.3494 -1865.6924 278.67056
-253.12326 298.58179 1469.4995
-174.06609 -2146.3621 1043.5515
-1000.6294 1377.9912 823.6853
-1601.1346 -1498.3206 831.22076
-281.43948 523.4873 1529.5812
-1037.7567 -2130.4495 1123.449
-1118.7568 408.77704 287.11639
-84.690407 -697.80536 367.008
-215.95831 -1957.6191 645.62244
-797.42651 141.31801 278.69412
-714.37036 -1150.874 280.117
-132.18242 -1945.0898 210.21306
-257.03714 772.55072 149.63873
-1281.9258 -976.30103 701.20697
9.9709473 -2173.6489 311.20447
-1029.8071 -1936.7124 1149.9316
-1658.4595 -2322.76 140.40907
-1068.1158 -1609.8569 728.50769
-778.4256 -2324.6934 1101.2318
-1210.8535 1308.4883 357.92975
-1648.0831 -495.14294 279.07877
-326.11877 -1298.8469 401.36606
-500.00992 -1837.6989 1179.9978
-924.56653 336.67227 672.81049
-905.52838 -1422.783 280.117
-1460.0911 -1335.671 1036.4691
-1691.6421 565.1557 754.73779
-504.62067 -731.81226 404.73306
-1377.7388 -1137.1995 652.02246
11.349751 446.72574 392.52054
-603.83405 -592.53607 889.14496
-1547.2842 -1482.3458 1348.6434
-489.61975 -2633.7744 1023.6238
-175.37846 -351.767 670.16272
-329.09204 -2300.6331 1044.8641
-869.21484 -1332.0337 916.07678
-3.2868876 -1763.7991 971.30682
-227.15758 1358.2943 907.72412
-635.02515 -1380.8875 1453.3134
-1410.553 -623.68628 1353.1194
-210.47038 -1094.6995 401.55511
-1662.2906 -255.39304 412.72302
-1617.4443 1249.2482 1085.5432
-1638.0249 -927.77997 280.117
-1629.0283 8.7106171 1315.9465
-69.698425 -570.20251 354.96573
-505.88666 -187.63232 1594.051
-1687.5806 -592.97314 1125.963
-248.21477 166.66348 261.35635
-1363.656 -1333.759 983.6886
-563.65942 144.43076 1593.3234
-1734.5186 -616.65747 459.51675
-26.884617 -1468.2324 1004.9242
-1046.4274 -964.89819 761.02209
-90.791519 -1815.6604 1090.1005
-257.09921 588.9317 102.98439
-1824.3729 -2703.5474 669.48212
-1724.235 -373.53653 278.5795
-1563.0645 878.36322 109.12076
1.3910501 735.81262 412.20239
-1433.8 -619.84888 1585.722
-1145.0839 -16.332409 1595.8568
-63.467896 -2089.5691 109.47429
-1129.5675 -2294.293 294.83527
-1200.7277 -651.35034 987.65637
-926.5094 -2435.603 968.95789
-1487.4666 -244.95784 1615.2297
-1043.6421 362.78357 901.97156
-699.91345 -45.070709 1693.7603
-436.12183 -1891.536 1178.8137
-685.11218 -80.629387 277.37689
-1841.807 -1364.2589 551.99463
-1472.6504 -2840.2852 956.06824
-255.95033 1103.6005 1176.1418
-1523.03 886.10962 392.48315
-1241.9198 1198.7073 1121.115
-1028.7391 485.02112 289.60217
-1819.5415 326.79715 737.00696
-293.55096 -2607.2351 325.79977
-468.24368 -4.4792957 403.81332
-1814.6501 889.4917 883.59302
-1104.1324 -1774.5082 755.39484
-258.59912 -1830.1388 338.99768
-1036.8539 403.1561 453.30121
-948.71832 -3077.6299 685.67169
-1648.5463 161.52994 397.65155
3.5092788 364.3981 587.54346
-338.85895 -499.96567 1544.1345
-1074.7739 -235.24379 513.37531
-1519.38 -2374.074 527.77203
-90.84581 326.33795 899.22522
-1392.0342 1393.0012 567.1217
-211.73479 707.82977 1382.3118
-236.35849 -700.33533 662.96033
-1291.3696 -2804.3499 989.93457
-1555.4072 206.75949 395.08936
-1139.9553 1293.2806 762.09186
-187.35391 -1586.5035 1256.7383
-1598.938 1126.5049 1340.0452
-1195.3313 -621.54022 458.6113
-646.13763 -1103.0682 1503.1609
-70.879539 -628.18408 368.84494
-1035.8186 -402.75101 410.74545
-1738.2008 -2373.5044 118.41467
-1115.3844 1262.9341 1284.1039
-913.92688 -2216.0476 291.13983
-14.725008 -1010.9058 598.79279
-1655.6523 -1846.9468 663.42139
-245.79993 -2068.9644 703.61188
-363.63596 -323.7959 410.64685
-581.16919 407.53033 1589.6414
-1089.5894 1303.9775 1232.307
-436.785 -884.4505 1611.2374
-1777.8438 -533.43695 986.25934
-7.1156445 -30.077892 554.45422
-1482.3771 468.04413 789.32306
-1393.6561 416.30771 612.38794
-580.39941 1417.9838 971.43719
-774.73199 -1314.7761 793.86157
-1767.6804 -2199.489 -48.225147
-753.8161 -2123.8936 287.63733
-176.4007 1366.9012 426.28976
-1205.5173 1409.1201 832.26306
-1366.3015 1207.1965 1333.4082
-1597.2794 37.900433 1074.6841
-1681.356 -2632.1318 1030.9968
-1823.8423 56.232399 500.91962
-989.81543 -263.55368 411.87778
-780.56561 -908.13947 1645.6909
-510.28943 -137.99078 411.75903
-1753.061 -601.81714 942.42889
-463.26767 1042.8663 309.7645
-1648.3381 -236.56372 1286.8789
-757.56329 -1585.6122 603.63525
-955.63513 889.38733 302.7601
-436.62222 413.44034 1040.4177
-132.87936 -1745.939 960.32898
-1392.7927 -1820.9642 1180.7375
-1627.6263 -688.33521 790.5
-666.29987 -3077.6299 652.78656
-35.66296 -2311.2998 1038.7039
-155.8882 -923.28571 525.53845
-993.84949 840.60583 1614.2988
-1422.9897 -2403.1533 310.13806
-395.61584 -1669.2811 401.03204
-112.30469 -808.2876 391.83832
-21.045551 614.45831 1012.1937
-1664.1807 -1733.6298 1139.823
-1476.0057 470.30219 748.90228
-1513.4373 187.58295 585.8811
-1784.2072 -649.45044 409.40579
-1632.7239 378.31216 1291.9922
-125.13554 -176.11313 413.5119
-421.24152 61.968826 1747.5077
-1143.8284 713.20807 672.52606
-89.68927 -2690.8467 329.73947
-1384.0151 40.724041 673.04102
-1800.4136 954.11621 662.12903
-460.57315 514.28564 672.40198
-925.69458 -765.32349 279.97089
-1697.1804 669.54944 735.76898
-432.92331 -1139.9624 575.63458
-15.076601 -2444.1965 659.97217
-1772.1606 -386.73029 369.4895
-1641.5057 -7.0285416 718.19196
-775.78253 -742.03894 760.35016
-1102.8124 -133.56232 277.59421
-151.09036 -488.46161 476.95972
-150.15443 25.836157 614.99146
-1809.2529 69.629128 933.89124
-1135.1735 -3090.9092 421.37445
-175.90533 923.35034 185.13957
-156.02036 306.42059 908.25116
-1810.7548 994.80145 668.18958
-1795.2701 680.94891 -33.04628
-1560.7976 -2696.7993 958.72351
-782.88226 -405.37076 410.73505
-308.284 -2041.6006 342.79688
-1457.2222 890.33472 1545.7419
-1425.5531 -552.59497 409.53348
-1568.6702 783.40356 917.72815
-1821.4668 -2228.0173 453.43286
-1273.4946 -820.35779 1579.1525
-220.1385 -2313.3936 -7.5381546
-1069.4215 -1396.5359 574.16351
-1567.3754 530.79132 931.30542
-724.23102 -775.32635 1660.3967
-402.24005 808.19873 674.32709
-953.10736 -425.11896 410.81516
-373.05643 -2.3388844 678.17383
-1290.2455 -429.45276 1639.2896
-1765.9991 571.71863 767.66132
-1069.7815 -569.26343 618.73798
-53.234848 -1638.9073 633.45886
-127.3792 -1960.472 371.44785
-1117.394 -309.49634 1591.2935
-237.07507 387.29581 1409.2966
-380.29083 536.2832 1577.861
-1801.4855 506.4881 1007.2316
-257.7775 882.13135 1068.4636
-863.11591 -1338.4567 1089.7533
-1554.0034 555.63367 918.31348
-435.565 437.72095 288.48578
-1567.853 -2692.9761 1020.0471
-512.20929 157.85002 541.64948
-1683.1229 -2472.5393 102.36807
-821.07581 1293.0051 731.46533
-1621.2612 802.77136 1362.7581
-1118.1301 -800.58997 668.33942
-1704.9341 -1915.0022 80.387596
-257.43082 604.46289 736.47614
-168.27371 -1350.1208 1234.3064
-1392.0339 972.92725 305.09482
51.775208 -1293.6079 1293.6105
-1187.7363 1243.5046 344.98505
-1808.3684 -169.96317 896.00464
-1497.734 320.50238 694.73895
-1434.22 -201.63518 517.52356
-1132.7939 -2159.9912 1118.1924
-722.26672 110.06827 673.04102
-25.277309 -1422.1919 1248.5859
-1334.2816 132.09013 673.04102
-151.55341 -1796.8162 545.51727
-185.06979 -2812.2603 945.12726
-1126.7787 -2495.3889 1071.4094
-451.25049 489.58521 1660.4406
-64.471909 611.33087 -47.337379
-1817.8313 -10.782803 561.42975
2.8393602 920.40741 348.76047
-1385.9803 -194.49249 403.94846
-628.93921 -294.02637 1683.9376
-1717.2369 -507.2243 1133.3082
-811.52362 -835.0116 760.54272
-0.18716784 -745.4173 571.50806
-367.92853 -180.08028 411.02234
-1658.3661 1396.7166 599.91364
-1631.1321 720.21924 173.1951
-536.51862 -2878.6621 617.9726
-1737.8546 1253.8293 707.06085
-1609.9795 -2991.9841 407.99091
-231.04176 -1336.3301 1058.0212
-741.89972 -1771.3662 428.21777
-459.65784 271.7785 673.59204
-1512.235 -53.487953 406.99487
-1563.6263 -2284.9436 545.64801
-169.17365 952.29541 524.22455
-849.23547 -3112.8845 534.13397
-373.97925 -262.70801 1655.3226
3.9119964 68.898048 488.73853
-169.91208 -1447.1696 1136.6694
-980.94867 -96.097771 411.78226
-1438.7593 -2169.3743 1023.8145
-1299.2998 -469.53729 410.38412
-1112.0154 -1508.2885 401.45825
-380.68127 -2991.5195 535.7514
-740.92596 -1466.334 1413.0081
-477.12363 -2639.7681 312.56567
-3.8294868 54.948074 770.57629
-801.1438 -2295.302 1005.8142
-137.18645 -564.03259 895.41101
-1608.3899 1203.5173 1092.239
-1291.5151 -1890.6083 279.51462
-1439.6575 -1773.6421 680.84351
-1144.472 564.43622 1379.8958
-359.44403 -3030.0994 506.4386
-380.22238 -1399.3854 1149.8066
-1030.1196 515.78265 1681.4797
-399.52283 -2002.687 189.62405
-209.70697 -1812.5538 412.59796
-198.98306 -2350.1421 35.344864
-702.71716 459.15201 1258.0375
-405.8078 -1633.0811 1289.2843
-33.793724 -822.14917 778.82056
-1612.6691 -2748.0208 336.98004
