# .PCD v0.7 - Point Cloud Data file format
VERSION 0.7
FIELDS x y z
SIZE 4 4 4
TYPE F F F
COUNT 1 1 1
WIDTH 1517
HEIGHT 1
VIEWPOINT 0 0 0 1 0 0 0
POINTS 1517
DATA ascii
1.3904682 0.82033193 0.27576065
1.0242724 0.88815916 0.2753177
0.90193778 0.8989988 0.27464989
0.58321524 0.93217862 0.27312726
0.51315218 1.0087178 0.27791232
-0.92201626 1.1832563 0.27933773
-1.2529566 1.3584596 0.27789178
-0.97845602 1.4941692 0.27955109
-0.89851928 1.7095709 0.27919188
-0.99298871 1.7289248 0.27866167
0.62125713 1.7700456 0.27873001
-0.90403265 1.7973448 0.27869916
0.53664958 1.7990428 0.27794546
0.79928654 1.7948402 0.27930513
0.99855357 1.9096909 0.27611825
-0.71540248 1.9331094 0.27972993
1.4878647 1.9314886 0.27973747
1.5372182 2.0461044 0.27515835
1.8056924 2.0668297 0.27675867
1.856689 2.0875058 0.27632645
1.7465349 2.1020696 0.27465534
-0.81720889 2.1277871 0.27870256
2.1512933 2.1230509 0.27751356
2.1859002 2.1239898 0.27776912
2.1403487 2.146421 0.27634823
-0.96839917 2.2124352 0.27703157
-0.69149256 2.212872 0.27929431
1.9572695 2.2222366 0.27129465
2.9422593 2.258055 0.27815115
2.1847098 2.2600298 0.27152494
2.5663857 2.2662978 0.27453065
-0.91709208 2.2813349 0.27639174
2.3316221 2.2810884 0.2718274
-0.18932399 2.3122013 0.27305263
-0.85731077 2.343055 0.27769169
2.7217503 2.3402865 0.27248067
3.0421057 2.3658085 0.27407524
-1.214317 2.3932428 0.27354836
3.1415968 2.4193716 0.27247906
-0.93229318 2.4293728 0.27700338
-0.74970514 2.4298544 0.27987212
-0.87279296 2.5055783 0.27726388
-0.70816851 2.5946765 0.27871794
4.7019587 2.6868 0.27411196
4.2645683 2.7038095 0.27811873
2.6571021 2.7187235 0.27003291
2.987869 2.714931 0.2778497
0.62767982 2.7460225 0.27516913
0.30956188 2.7952852 0.27625367
4.149704 2.8008537 0.27912375
-0.20256741 2.835994 0.27473742
4.3437586 0.142102 0.28904295
0.57427633 0.34905863 0.2845515
-0.62975878 0.58215255 0.28190383
3.2926166 0.64116764 0.28473425
2.5745723 0.72539312 0.28239876
-0.35064942 0.73111176 0.28530672
2.8107502 0.74612427 0.28538626
-0.20375127 0.77918178 0.2852723
-1.1299515 0.82632387 0.28510413
-0.94877177 0.85869551 0.28230593
1.6817905 0.86526984 0.28046262
2.1787281 0.8903892 0.28621668
2.4293406 0.90133059 0.28904268
-0.68014622 0.92666531 0.28024343
1.3558233 0.96085596 0.2816169
1.3500659 1.0149729 0.28394315
0.79918599 1.0596914 0.28075597
0.98992914 1.0669947 0.28286174
0.90423799 1.0820069 0.28272027
-0.55973673 1.1156728 0.2822915
1.1354721 1.1119074 0.28619871
-0.53286678 1.1351464 0.28263405
-0.39976764 1.2226391 0.2842856
-0.38333666 1.2362572 0.2845037
-0.82427967 1.2476408 0.2805512
-0.43769491 1.2788759 0.28422427
-0.82539833 1.285043 0.28072962
-0.38632011 1.2833344 0.28471398
-0.2777186 1.2816606 0.28569317
-0.53314954 1.2930171 0.28342751
-0.1246008 1.3038778 0.28719762
-0.36712134 1.3227279 0.28508717
-0.23976527 1.3460937 0.28636318
-0.78556734 1.3677943 0.28150913
-0.29958114 1.390757 0.28604442
-0.20214617 1.4058304 0.28700653
-0.16343534 1.4789283 0.2870397
-0.12858407 1.521143 0.28714377
-0.50610203 1.5321431 0.28365514
-0.25200075 1.5999219 0.28562418
0.07141757 1.6012188 0.28855878
-0.78333455 1.6121435 0.28073061
-0.46582535 1.6116813 0.28362036
-0.2037001 1.6473656 0.28582421
-0.12630199 1.6424086 0.28655306
0.40939373 1.6500988 0.28759459
0.89250296 1.6856599 0.28497908
-1.1612955 1.7142899 0.28109565
1.3869236 1.7126641 0.28841713
0.40252736 1.7258558 0.28442991
0.79789311 1.7249203 0.28236723
1.1866429 1.7746546 0.28381696
-0.57033527 1.7998708 0.28172103
-0.0035173893 1.8088708 0.28824729
-0.65027601 1.8416848 0.28078321
0.22287989 1.8486701 0.28340256
1.3736682 1.8544085 0.2820591
2.2222881 1.8662663 0.28947711
-0.11451437 1.9066439 0.28741097
2.3837895 1.9253795 0.28838834
1.6231964 1.9405112 0.28060678
0.11927801 1.9612453 0.280974
2.2059569 1.986274 0.28404638
-0.076461092 1.9958715 0.28421703
-0.89283675 2.000576 0.28210923
2.0673525 2.0474586 0.28005871
2.2972023 2.0549436 0.28188002
-1.0398946 2.0706937 0.28221226
2.5030601 2.1185651 0.28075373
3.0020857 2.128289 0.28461355
3.1943312 2.1207891 0.28661585
3.5416629 2.1233916 0.28949311
-0.30664954 2.1667688 0.28230554
3.9167261 2.2074277 0.28887847
3.1520746 2.2486014 0.2803947
-0.68051308 2.2864859 0.2807219
-0.64260113 2.3247199 0.28275427
-0.66419411 2.4451354 0.28120011
4.5996923 0.142102 0.29972875
4.9743805 0.32848299 0.29955471
0.04903879 0.48150668 0.29061329
3.3491273 0.77835947 0.29150832
3.6205015 0.78938997 0.29435512
3.9003165 0.83972502 0.29907572
3.5178633 0.89864147 0.29847574
2.9550133 0.90895504 0.29409233
2.6722407 0.92176276 0.29221386
-1.2910101 1.0984994 0.29408532
2.6695132 1.0950375 0.29980898
2.1075964 1.1686641 0.29778993
1.2924964 1.1879716 0.29101315
0.34272894 1.2011708 0.29052603
1.6059046 1.2404503 0.29625344
1.279806 1.2825992 0.29505622
0.37530407 1.300543 0.29172695
1.086942 1.3099115 0.29445305
0.77205324 1.3701626 0.29415691
0.24810587 1.4204506 0.29107711
1.1993071 1.4625696 0.29766113
1.2309701 1.4841006 0.29701039
0.99821597 1.5030816 0.29399803
0.89986253 1.5117813 0.29269522
1.2504909 1.5121272 0.29596043
1.1597953 1.5775491 0.2922346
1.6752895 1.5749887 0.29717007
1.3086107 1.6135147 0.29204509
1.4801099 1.6952994 0.29005265
2.559118 1.7179253 0.29915258
2.7449527 1.8848697 0.293549
3.3553452 1.8874454 0.29869735
2.4660375 1.8926679 0.29059649
3.8280935 1.9972734 0.29774356
3.7349606 2.1190362 0.29136062
4.0010328 2.1160219 0.29598683
4.1083779 2.1468604 0.29843202
2.0539691 2.7262449 0.29067904
1.3296489 2.7348075 0.29825106
0.4115268 2.8068249 0.29034495
0.082363285 0.142102 0.309825
4.3694334 0.59388798 0.30411893
3.7336888 0.90523636 0.30064008
3.8400826 0.93598884 0.30296719
3.826581 1.0508875 0.30811566
3.1177428 1.1016136 0.30429181
3.39832 1.1408056 0.30854103
2.825475 1.1554499 0.3039251
2.5502636 1.2638147 0.30611628
1.5402235 1.3687632 0.30128223
1.6247401 1.3673352 0.30201018
2.1494353 1.4813821 0.30572295
2.5255096 1.4926897 0.30874413
2.5462029 1.5379305 0.30694804
2.3098202 1.6121004 0.30147445
2.7827039 1.6154977 0.30574924
2.4332907 1.632524 0.30173135
3.249846 1.7151335 0.30568299
3.3093579 1.7255442 0.30571935
3.7268937 1.734163 0.30892664
3.3639913 1.769286 0.30418634
3.4606471 1.8339747 0.30205604
-1.2720878 1.9573605 0.30204555
-1.0897474 2.4836724 0.30615053
4.2541356 2.6851101 0.30480355
4.677825 2.7109201 0.30217785
4.1575589 2.7286041 0.30440992
0.89076948 0.081372544 0.31400275
2.8079586 0.103727 0.31033984
4.709547 0.11060999 0.31680971
-0.063062891 0.142102 0.31696561
4.5600743 0.142102 0.31039894
4.6072769 0.58740222 0.31231242
4.6925936 0.61084229 0.31640798
4.5334759 0.73372668 0.31624722
4.4664526 0.85165131 0.31914914
3.9302125 1.1769052 0.31478414
3.5718756 1.2068297 0.31306377
3.9654176 1.2631509 0.31974509
2.6961989 1.369516 0.31213045
2.64189 1.3898031 0.3125146
3.0850286 1.3874393 0.31655657
2.9564724 1.4191458 0.31601065
3.4582753 1.5321112 0.31573713
3.8626053 1.5650456 0.31784695
3.4167728 1.574733 0.31347436
3.6800704 1.5886067 0.31519252
4.3015924 1.9005744 0.31637847
4.6787777 2.207967 0.31603718
4.6781349 2.2184596 0.31554332
-0.16490352 2.7109203 0.31150284
0.077000871 2.7109201 0.31146884
0.11855204 2.7109201 0.31259134
2.227993 2.7246096 0.31905276
1.414356 2.7340939 0.31521726
4.1020818 2.7786012 0.31181654
1.1172192 0.084008932 0.32283229
2.831866 0.1037408 0.32332104
4.5668049 0.142102 0.32904258
5.4461918 0.34062779 0.32737392
5.9151087 0.51078105 0.32669473
5.1876731 0.52873546 0.32942256
5.8075094 0.54408062 0.32766813
5.2654214 0.57828039 0.32972687
5.5240693 0.57083786 0.32912391
5.5447111 0.60417545 0.32935378
4.915205 0.65275252 0.32623023
5.7379737 0.7034837 0.32909852
4.8277178 0.75167239 0.32754913
5.9513216 0.84892493 0.32830232
4.6991539 0.97469425 0.3289704
4.4785647 0.98653674 0.32563525
4.2986417 1.0052667 0.32005751
4.4619532 1.037535 0.32733163
4.2857556 1.0400221 0.32115781
4.7422113 1.041913 0.32988232
4.5366292 1.1248878 0.32869011
4.0932784 1.2094591 0.32189646
4.5613527 1.2114139 0.32958892
4.1983809 1.5542855 0.32677421
4.2408657 1.5732483 0.32700634
4.6146674 1.6283113 0.32992405
4.6943827 1.7476997 0.32970366
5.8023086 1.889982 0.32977501
5.9891405 1.9446205 0.32851607
4.8217583 1.9927295 0.32892671
4.5763783 2.0364437 0.32008272
5.8609724 2.2201667 0.32760993
5.4547515 2.2796865 0.32905313
5.323699 2.3193297 0.32897645
5.8055878 2.3307667 0.32735485
5.5688548 2.517338 0.32675731
4.0419769 2.6050293 0.32734352
-0.30646887 2.67943 0.32705134
-0.28144222 2.67943 0.32086974
-0.091653585 2.67943 0.32526937
4.9348431 2.8215301 0.32431561
-0.18700239 0.016757432 0.33704412
3.1014838 0.10284863 0.33107597
4.3876543 0.11061 0.33992186
4.7682495 0.116292 0.33458698
5.1298723 0.70475763 0.33071598
5.5495043 0.80432469 0.33095661
5.297637 0.88314623 0.33231017
5.2171798 0.91186452 0.33268654
5.4956875 0.91158617 0.3320002
5.258553 0.92108971 0.33270031
5.1625638 0.93387771 0.33280236
5.0034165 0.94303524 0.33144835
5.7681112 0.97766167 0.33033824
6.0379572 0.98360205 0.33057362
5.3267398 1.0055283 0.33329469
5.6226487 1.0429852 0.33181632
5.7344394 1.0457252 0.33122844
5.9182768 1.041651 0.33140481
5.8725834 1.1351552 0.33354375
5.8815899 1.1765695 0.33508298
5.5591021 1.1920729 0.33344576
4.6282806 1.3632545 0.33137709
4.5663886 1.5516757 0.33009142
-1.3384615 1.5824758 0.33206031
5.7353716 1.5893384 0.33569187
5.6765995 1.5914714 0.3349008
4.7981844 1.6135638 0.33168355
5.4319258 1.6591277 0.33397025
5.2108221 1.6839195 0.33464751
5.7827349 1.7350819 0.33181116
5.7119751 1.8192449 0.33087194
5.4431305 1.8878317 0.33239466
6.0236659 2.0244074 0.3326076
5.4045281 2.0691907 0.33095878
5.4824591 2.1282663 0.33026341
3.9967484 2.7137423 0.33853322
5.0050707 2.8109775 0.33160812
5.6693525 0.21003008 0.34892875
5.8819709 0.34965634 0.34355327
5.9680552 0.69702917 0.34829879
4.9738803 2.5606933 0.34842891
4.620647 2.7109201 0.34387401
6.0419321 0.83968556 0.35258329
-1.2371523 1.9625186 0.35464972
4.4511404 2.3272016 0.35383952
0.14840335 2.3407454 0.35553262
0.25857022 2.6845915 0.35379899
4.285645 2.7109201 0.35357171
3.5451405 2.7215133 0.35063732
3.6402459 0.096749716 0.36723012
0.020934483 0.10972223 0.36333984
4.7436943 0.11060999 0.36430275
4.5425472 0.50075185 0.36357147
4.223774 2.3431826 0.36163694
4.9305248 2.7505765 0.36910143
1.7243942 0.090263605 0.37964684
3.727797 0.096268982 0.37678182
0.34957963 0.10440737 0.3775233
2.6886992 0.10105874 0.37134877
-0.32869524 0.1341823 0.37823617
5.4016304 0.13111332 0.3708874
5.6620388 0.20264049 0.37247193
0.22823685 2.3412697 0.37972477
0.34985086 2.6105049 0.37827659
-0.18221208 2.67943 0.37184003
4.6092539 2.67943 0.37864482
4.8042703 2.67943 0.37299776
5.423192 2.6855941 0.37310505
4.2099895 2.704278 0.37424174
4.0750008 2.722481 0.37466812
4.4541292 2.7290673 0.37380365
0.44741285 2.7657399 0.37890497
4.5248289 2.8129971 0.37943798
0.78292525 0.067846596 0.38880345
4.4356446 0.142102 0.38418511
-1.1772966 0.59662306 0.38401249
6.0397921 0.60890782 0.3834534
0.39290771 2.3422668 0.3876394
4.6623793 2.67943 0.38849887
0.26111037 2.6851101 0.38893679
3.3330972 2.7224865 0.38171348
0.36528224 2.8290393 0.38221225
-0.77409852 0.09857595 0.39522982
0.18385601 0.11060999 0.39339215
0.27082595 0.13642099 0.39292097
5.6417856 0.19164725 0.39489752
-1.1523268 0.41527489 0.3911685
6.0196319 0.65317744 0.39967436
5.9933214 0.6708833 0.39385855
5.940372 2.2098951 0.39003706
6.0093365 2.3016353 0.39255765
3.9934635 2.3593698 0.39167634
4.0122423 2.4930501 0.39167184
-0.6376282 2.5701227 0.39034608
4.6572156 2.7109203 0.39682198
0.82345688 2.7513466 0.39561734
0.086833373 2.7932343 0.39411044
-0.059166119 0.054340817 0.400453
0.40640169 0.056892157 0.40903854
-0.065482505 0.11061 0.40688494
-0.47063553 0.26280463 0.40399539
5.1234255 0.29880652 0.40736738
-1.0716004 0.30047181 0.40308267
5.1288228 0.36242464 0.40072867
-1.1221755 2.3210287 0.40078077
0.43732926 2.3425567 0.40023986
-0.22644508 2.67943 0.40427727
-0.35843951 2.6852298 0.40458274
-0.077724531 2.8081982 0.40400863
4.4496088 0.015910342 0.41260451
0.7687645 0.062390391 0.41091737
1.0014458 0.081780404 0.41673452
4.0623798 0.081681967 0.41852838
5.1177483 0.20369056 0.41477394
0.57589996 0.3040621 0.41132915
0.40758237 0.31172174 0.41426337
6.0879717 1.1672382 0.41043517
-1.327776 1.5231009 0.41417888
6.0310831 2.0750759 0.41657931
6.0270844 2.284802 0.41641527
4.4877205 2.3246291 0.41869867
3.9118052 2.3651085 0.41874027
4.9939647 2.566669 0.41785145
0.021546796 2.7109201 0.41061911
1.9641769 2.7291274 0.41204005
-0.42938715 2.808903 0.41767907
4.4781656 2.8044467 0.41273013
3.1238308 0.093830198 0.42862448
5.3579369 0.11018994 0.42734522
-0.36891317 0.13750893 0.42970419
-0.3176026 0.142102 0.42911577
4.6713805 0.142102 0.42202371
4.7590551 0.51596969 0.42856127
6.0162177 2.2974594 0.42363063
4.1063166 2.6678884 0.42627555
-0.17757615 2.67943 0.4237774
-0.0010056058 2.67943 0.42905208
0.19544162 2.67943 0.42419231
0.11294402 2.7109203 0.42032841
0.49779546 2.7749255 0.4255822
0.25839534 0.11061 0.4388175
5.3977485 0.11774086 0.43877184
-0.12113494 0.142102 0.4334985
4.7360277 0.142102 0.43120769
5.9564328 0.5503208 0.43349797
-1.2433984 0.9088366 0.43523049
6.0912786 1.6781465 0.43088794
6.0609961 2.2700992 0.43434536
5.0161223 2.2874913 0.43646502
-0.43940744 2.5272169 0.43893969
4.6136217 2.67943 0.43583339
3.2755768 2.7296221 0.43599394
1.3985593 2.7356081 0.43823683
4.5405712 2.8046153 0.43114817
4.5626464 0.11060999 0.44046426
4.6426129 0.11060999 0.44861946
5.1195579 0.24466041 0.44608235
5.8361726 0.24546406 0.4488979
-1.1872419 2.0580621 0.44130263
-0.98856246 2.4987097 0.44887885
-0.47274476 2.4937685 0.44021901
5.2748966 2.7343576 0.44322282
0.15150905 2.8068085 0.44598401
4.2322364 0.011043493 0.45070773
-0.18594405 0.021776255 0.45023406
1.293359 0.083731726 0.45835763
1.7049899 0.088056594 0.45844239
2.7206419 0.098873943 0.45981157
4.0552258 0.20071359 0.45609808
5.0385666 0.25634938 0.45179996
5.9853077 2.1130726 0.45555258
4.512444 2.3228917 0.45258108
-0.52763438 2.4930501 0.45468187
-0.8828274 2.654963 0.45571488
-0.26383969 0.142102 0.46062389
0.4654476 0.15812677 0.46850887
-1.1458557 0.53960836 0.46321255
6.1043129 1.6184173 0.4614194
-0.98557693 2.4748421 0.46206906
-0.89361322 2.6504016 0.4623647
4.0983338 2.6569376 0.4687866
4.8222399 2.6868391 0.46629497
-0.11694309 0.021000031 0.47239023
4.9549084 0.04754087 0.47743958
5.262188 0.07802099 0.47635728
3.5521147 0.080572359 0.47237483
-0.20796306 0.11061001 0.4776797
-0.11671575 0.142102 0.47249898
0.160088 0.142102 0.47262108
0.068926603 0.48103291 0.47051588
4.8188143 2.7109201 0.47302562
1.8439016 2.7339189 0.47054908
4.9451232 2.8135004 0.47655699
5.0039883 0.022687579 0.48883167
2.1455102 0.089098252 0.48161456
2.5763555 0.094802663 0.4824605
3.9050694 0.12608562 0.4898515
-1.3464286 1.4510174 0.48413858
0.21785071 2.3414207 0.48783934
0.0048848428 2.67943 0.48677295
4.2782626 2.67943 0.48313791
0.57977903 2.700428 0.48393556
4.6695962 2.7109203 0.48937145
4.7401981 2.7109201 0.48474744
2.4391646 2.728586 0.48615652
0.46668732 2.7543361 0.48161954
-0.46670097 0.016235959 0.49452424
4.9114075 0.08667621 0.4908182
4.1701779 0.11802573 0.49856406
-0.19142184 0.142102 0.4964605
6.017828 0.46752197 0.49638954
6.0277925 0.52159989 0.49987972
-1.2189021 0.57510245 0.49010411
5.1200657 2.5518711 0.49797809
2.2550447 2.7334745 0.49572343
4.0509477 2.7579496 0.49867427
1.6981504 0.081221834 0.50123221
-0.36895952 0.13642099 0.5045085
-0.84585744 0.14951539 0.50482833
4.4078035 0.142102 0.50647128
-0.35225859 0.48347718 0.50442827
-1.2693372 1.0085832 0.5064047
4.8912163 2.2962708 0.50026578
0.020937402 2.67943 0.50193512
4.468503 2.7109199 0.50060785
3.9834049 -1e-06 0.51897091
5.6514559 0.16897187 0.5102995
6.031239 0.50538218 0.5128026
0.46818015 2.500617 0.51120615
4.0026174 2.7062695 0.51511204
2.4042928 2.7323883 0.51397568
5.043046 2.746192 0.51614255
0.063773215 0.062666357 0.52977723
4.3951769 0.11061 0.52412653
4.7272749 0.11060999 0.52176583
4.7096453 0.142102 0.5242309
6.1106405 1.0686263 0.52880931
-1.3071791 1.1794529 0.522542
4.987628 2.2894952 0.52004743
4.1683283 2.6925678 0.52959085
4.328517 2.7232873 0.52494812
1.2501662 2.7492051 0.52767617
4.4034376 2.80007 0.52941817
2.0959282 0.080542415 0.53313619
3.9145088 0.10163682 0.53832245
4.8224821 0.142102 0.53366506
-1.027686 0.37525523 0.53511775
6.0715275 0.62782693 0.53477371
4.4053307 2.67943 0.53894216
1.3996081 2.7485123 0.53325671
1.6838551 2.7460079 0.53636128
0.50590438 0.037242144 0.54462606
1.5577435 0.072717883 0.54567641
1.6788566 0.073612489 0.54809248
2.6057315 0.088481337 0.54134089
3.1320317 0.080270521 0.54829651
4.4807291 0.11061001 0.5481928
4.2122588 0.142102 0.54326236
3.9650679 0.21103318 0.54633844
5.9100771 0.25966766 0.54413331
0.085127927 2.67943 0.54213542
4.0954199 2.7121868 0.54191172
1.8168199 2.7461431 0.54607868
3.5109539 2.7490706 0.54325688
3.5261021 2.7496252 0.54533404
3.6685543 2.7518256 0.54054928
4.0510468 2.7716689 0.54850596
-0.02124542 0.48139787 0.55788529
-0.11901508 2.3395338 0.55114216
5.1059003 2.453764 0.5599786
3.9247193 2.5779595 0.55665219
-0.32212579 2.67943 0.5534668
4.9116845 2.7117963 0.55029702
4.4125986 2.7357001 0.55316943
4.6477065 2.7433915 0.55982459
-0.1729652 2.7580106 0.55890948
3.5084314 2.7504582 0.55485189
4.6319346 2.7615185 0.55074167
0.37416553 2.7798405 0.55985159
2.0467145 0.07511171 0.56412446
4.3873596 0.072209321 0.56346047
0.016596349 0.11061 0.56667978
4.6985707 0.142102 0.56465536
1.8721496 2.7479038 0.5609048
4.4752178 2.79234 0.56990325
1.2044231 0.061652593 0.57944846
1.3611714 0.065843217 0.57606608
3.0105801 0.079831094 0.57919848
-0.094140768 0.11061 0.57254374
6.0985303 0.81863308 0.57430738
6.1614213 1.2461871 0.57824177
6.1654015 1.4795775 0.57926941
4.082201 2.5167618 0.57723927
3.9668796 2.6820598 0.57186455
4.2870049 2.7109203 0.57808805
4.6044793 2.7109201 0.57442206
0.41713071 2.7211766 0.57886124
5.0401163 2.7803607 0.57761985
1.5320358 0.06559363 0.5890395
2.3763881 0.077146813 0.58391434
4.3207297 0.11061 0.58794767
0.008717401 0.142102 0.58059049
4.0061941 0.1779159 0.58320922
-1.3268105 1.7324309 0.58477449
-1.3030665 1.9875885 0.5802905
0.46450987 2.3430853 0.58809566
5.0192761 2.4930501 0.58810306
4.7848463 2.6518092 0.58884913
4.6687541 2.7109201 0.58610344
0.15550633 0.0076572234 0.59667754
3.8161778 0.056365833 0.59044015
4.6997643 0.11060999 0.59295499
4.2919202 0.142102 0.59244132
5.9747667 0.30043373 0.59468764
4.4578924 0.49480173 0.59591007
6.0654192 2.2567127 0.59223878
4.0081463 2.4930501 0.59246683
4.8071804 2.67943 0.59151983
3.7464128 2.76037 0.5944702
0.15186858 2.8156583 0.59487766
0.44439858 -1e-06 0.60256356
4.4823732 0.018280245 0.60905093
0.71312535 0.067817122 0.60066324
5.2989445 0.068754733 0.6089713
-0.61494291 0.10533819 0.60159659
-0.19827223 0.10440426 0.60583347
4.6617541 0.11061 0.60440755
-0.19339611 0.48233697 0.60216713
4.6942511 0.511415 0.60024816
-0.6057207 2.5332808 0.60815161
4.742816 2.6543539 0.60203558
-0.039033182 2.6794298 0.60386485
4.1628733 2.68523 0.60245681
4.7726097 2.7117867 0.6040442
4.7826219 2.7202225 0.60691392
-0.005272686 0.033534318 0.61949086
2.0382392 0.06765835 0.61067009
4.1060944 0.067187458 0.61677957
-0.35132906 0.11061 0.61187363
0.063794397 0.142102 0.61379474
4.1066151 0.18639342 0.61910629
5.9604092 0.27229813 0.61850077
6.0835743 2.1940777 0.61042178
4.1116681 2.3510637 0.61230993
0.11990049 2.7109201 0.61528766
1.660213 2.7586477 0.614748
3.5920997 2.7596943 0.61614007
-0.637685 0.030973135 0.62066168
2.1164019 0.066284873 0.62514228
-0.8584643 0.14978333 0.62757325
4.1068888 0.21852681 0.62032849
-0.36677727 2.6852303 0.62015986
4.1741405 2.7109199 0.62299228
-0.051542848 0.026669377 0.63662517
1.2364693 0.052014459 0.63457769
1.8285756 0.062162597 0.63052368
-0.35305277 0.12019186 0.63421792
0.2469231 0.16115557 0.6313256
4.5302219 0.49988592 0.63715565
6.0776863 0.54455823 0.63342953
1.1530504 2.7728059 0.63925362
4.8543291 -0.013492346 0.64810109
2.3123238 0.06607607 0.64053875
-0.12705249 0.075609714 0.64690292
-0.49121684 0.32848299 0.64697516
-0.46986341 2.5664587 0.64270955
0.32350764 2.6763899 0.6497708
4.1138449 2.7768857 0.64507693
4.4676042 0.010007676 0.6558708
3.3499973 0.061591756 0.65638685
2.7689803 0.076274544 0.65533483
4.8898268 0.082325831 0.65644199
0.33095407 0.15672758 0.65261912
4.9815807 0.32848299 0.65108418
6.0702543 0.45091432 0.65397871
-0.54245359 0.48431203 0.65608954
0.20479296 2.3416708 0.65602255
0.068363942 2.7271259 0.65944725
5.4564743 2.7215023 0.65851653
2.3055995 0.061546449 0.66912097
4.7959151 0.143462 0.66947448
6.1870842 1.4739153 0.66851109
4.7467051 2.3064251 0.66256738
-0.11540495 2.3397863 0.66756856
0.51213801 2.3610115 0.66925782
4.9338217 2.5234599 0.66578639
0.52853799 2.6357906 0.66817641
4.2965002 2.67943 0.66529489
-0.1649646 2.7109199 0.66066921
2.4285319 2.754952 0.66624635
0.92048901 0.049945593 0.67529237
4.1255178 0.063947245 0.6771943
2.8170416 0.073093526 0.67416805
5.0695271 0.38928059 0.67046708
6.1900778 1.3745818 0.67748833
0.12433165 2.3412368 0.67868876
3.957675 2.6789408 0.67247069
0.38889837 0.004821898 0.6888712
4.0312772 0.027523907 0.68901253
2.5196025 0.067339033 0.68589365
-0.048526466 0.086750284 0.68801939
4.6870947 0.11061001 0.68331003
4.9763765 0.11554855 0.68868679
4.2719007 2.3398008 0.68929762
4.7202497 2.6405449 0.68424165
-0.06736505 2.67943 0.68136382
4.4024725 2.7109201 0.68244267
0.31393376 2.7292986 0.68116683
3.2875919 0.058631554 0.69210809
5.2181759 0.050536063 0.69300312
0.70051408 0.064374305 0.69762933
4.4539628 0.142102 0.69064891
4.6654701 0.142102 0.69591731
-0.54504144 0.19793388 0.69114244
0.38440949 0.22146304 0.69926387
-1.2101389 0.52379388 0.69581002
-1.2490059 2.2106874 0.69248986
-0.20807904 2.3392813 0.69109643
4.73564 2.6230798 0.69052958
4.0346084 2.6301525 0.69827306
0.016566033 2.725029 0.69086391
3.3586698 2.7643416 0.69447184
0.99746078 0.037911173 0.70484543
4.4726944 0.10196882 0.7041235
4.5310135 0.10385554 0.70538443
-0.15078193 0.142102 0.70049429
4.271472 0.142102 0.7058875
4.9692612 0.16445997 0.70813572
0.5018574 0.2661643 0.70866835
6.052803 0.33149114 0.70091605
6.1071882 0.50963473 0.70788616
-0.57579112 2.5538867 0.70116282
3.996506 2.6152108 0.70483994
4.5475135 2.67943 0.70172203
4.2966461 2.7109201 0.7074219
4.483222 2.720053 0.70487225
-0.39693758 2.7731714 0.70785058
0.51824582 0.019998338 0.71514565
0.54902953 0.016400587 0.71040541
0.25630951 0.143462 0.71494985
4.1456299 0.14360964 0.71946824
0.43172497 0.28286141 0.71025735
5.0333962 2.4862027 0.71932107
4.9479899 2.4930501 0.71714067
4.9668894 2.5842431 0.71361655
4.4795122 2.67943 0.71129036
3.2837877 2.7627532 0.71690708
0.95065796 0.038831543 0.7225216
2.8101351 0.066484384 0.72971618
-0.56922114 0.18052474 0.72887856
6.1698933 1.0274804 0.72705197
6.1924443 1.6089473 0.72759509
-0.023048073 2.3404572 0.72776955
-1.1671845 2.4038103 0.72219348
0.4863466 2.4708362 0.72821808
-0.015921215 2.7115099 0.72755319
4.762579 2.7109201 0.72116262
-0.49221212 2.7360749 0.72230095
2.1048656 2.768733 0.7211346
2.4018891 2.7606897 0.72203726
2.0293727 2.77021 0.72637385
-0.17281263 0.0037226656 0.73528767
-0.39546874 0.01794151 0.7365905
2.6181548 0.064650096 0.73903692
4.2337379 0.11060999 0.73026788
-0.26296309 0.142102 0.73652565
4.7948294 0.143462 0.73227507
4.8555708 0.27160496 0.73016995
6.0617809 0.32240456 0.73580581
0.12395863 0.48017573 0.73850346
4.0119281 2.4605961 0.73522413
0.00092114147 2.64222 0.73168933
5.547081 2.7057447 0.73685449
4.0088902 2.7315762 0.73611993
-0.40965587 0.014526053 0.74236381
3.3945398 0.056577269 0.74333704
2.505317 0.062375724 0.74157846
0.022726234 0.11060999 0.74575675
0.22591075 0.116292 0.74585253
-0.098768212 0.142102 0.74803501
4.5977373 0.14875895 0.74628425
-0.44726905 0.32848299 0.74297118
4.0206056 0.36253703 0.74916005
4.754962 2.7046857 0.74291718
3.5758109 2.7686493 0.7457062
3.840553 2.7767289 0.74170077
2.5194054 0.062333964 0.7542091
-1.1534631 0.38285592 0.75023687
-0.0052915961 0.48092216 0.75081897
0.042102698 2.3409045 0.75743127
4.8417907 2.5566077 0.75187314
5.9227524 2.5978506 0.75881612
4.9487696 2.6075578 0.75247306
-0.047774684 2.6651506 0.75778842
4.584857 2.67943 0.7556752
0.52744544 2.8143358 0.75275272
5.0039124 -0.01314623 0.767452
1.4276462 0.039081745 0.76401901
1.9575639 0.045851879 0.76503074
0.038362745 0.11060999 0.76170135
-0.41575137 0.29428682 0.76512259
-0.52593428 2.4047458 0.76946485
4.0292253 2.4858205 0.76881856
0.052881904 2.67943 0.76927114
-0.76363373 2.724956 0.76270312
0.13045922 0.077179998 0.77305818
-0.04157915 0.100429 0.77203155
-0.045028083 0.11061 0.7784667
4.2726521 0.12175503 0.77546418
0.39945573 0.13013391 0.77547824
4.7240515 0.14210202 0.77099705
0.15993825 0.19845 0.77227223
0.31712615 0.31261149 0.77666712
4.2537909 0.48045602 0.77985018
3.463582 2.7662735 0.77763057
1.4272448 2.7840507 0.77742147
-0.40126944 0.021706389 0.78643131
1.1125287 0.033848017 0.78420079
0.07986246 0.142102 0.78089863
0.19782761 0.142102 0.78509754
4.993228 0.16884379 0.78059602
-1.043776 0.26753888 0.78564215
0.43974701 2.5708554 0.78214967
-0.074644983 2.6732256 0.78329158
0.094131708 2.6780701 0.78846705
0.17532487 2.67943 0.7827825
4.6909981 -0.011845084 0.79804111
0.38709059 0.054328088 0.79564506
4.8677726 0.10314589 0.79239166
4.0372977 0.12433163 0.7925123
4.1769733 0.30611259 0.79600179
-0.3982473 2.5325239 0.79059815
0.1788152 2.68523 0.79877675
4.3728609 2.7109201 0.79166901
0.62391341 2.7673044 0.79402184
1.917382 2.7798421 0.79578429
-0.36222786 2.8176811 0.79518694
4.8281527 0.003816928 0.80068922
-0.44330186 0.036988325 0.80960548
1.0888942 0.034168515 0.80018896
2.0990245 0.042352192 0.80889022
-0.38481683 0.089466915 0.80791324
-0.46308824 2.3379931 0.80760002
-0.32901022 2.5293541 0.8096807
-0.44662446 2.5848246 0.80471653
-0.23111898 2.6951489 0.80259383
2.4778275 2.7612298 0.80267799
3.2057846 2.760932 0.80549783
1.8784871 2.7814522 0.80560708
3.4953518 0.055776004 0.81887519
3.6284735 0.055189684 0.81883538
-0.11328954 0.0930297 0.81133884
-0.315983 2.7526772 0.81697595
2.1207647 2.7795718 0.81442225
1.4529412 2.7882974 0.8199625
1.4276063 0.031640787 0.82670832
0.3075417 0.073169671 0.82143044
-0.10308111 0.110015 0.82289469
0.43178251 0.42712754 0.82134438
4.165391 0.47424245 0.82598233
6.1475692 2.12696 0.82631463
0.42011333 2.361557 0.8296259
0.23790894 2.6192598 0.82826155
-0.51588422 2.6262369 0.82868671
5.6010752 2.6938577 0.82451969
3.9174781 2.7703059 0.82765174
4.3344173 0.116292 0.83990675
0.11193823 0.13630199 0.83663642
4.2456074 0.17103709 0.83910054
4.7681718 0.19989569 0.83386022
2.3755364 2.7735071 0.83341134
1.9023969 2.7848945 0.83657312
1.1553605 0.032294296 0.84752589
1.5972307 0.032569539 0.84365815
3.5390797 0.056810416 0.84918356
3.1314263 0.061712898 0.84881967
4.6081295 0.077179998 0.84633613
4.944273 0.24207148 0.84224975
-0.32958108 0.31877935 0.84510458
-0.45547408 0.02167201 0.85657972
2.2024987 0.037785232 0.85778606
0.70285511 0.043022983 0.85872173
3.7750549 0.056211054 0.85998523
5.1729751 0.055711407 0.85371864
-0.11117093 0.110015 0.85650289
4.093503 0.23335534 0.85034174
-1.1311123 0.38396871 0.85185254
0.39195973 2.5623543 0.85410154
4.1917367 2.5932946 0.85109872
0.34015524 2.6019616 0.85670167
0.41908365 2.6081316 0.8592695
0.011229231 2.67943 0.85224438
-0.45957565 2.7030637 0.85163033
4.570044 2.74435 0.85376871
2.5602918 2.7610271 0.85885787
4.8735676 0.14228505 0.8603363
-1.219923 2.1753302 0.86724395
-0.33309299 2.5994174 0.86167717
4.4858351 2.6230798 0.86483264
4.5795355 2.6851101 0.86534232
2.4058905 2.7739086 0.86435455
1.7729326 2.7892485 0.86157829
1.5052296 2.7922053 0.86272001
2.1147473 0.034269106 0.87822169
4.1485286 0.047240935 0.87547928
-0.087473355 0.11321704 0.87811327
-0.43891788 0.27630687 0.87677556
4.1072316 0.32462141 0.87595445
0.38564569 0.37387311 0.87530923
-0.010834232 0.48070806 0.87611794
0.061126232 0.48028886 0.87110615
6.1533751 0.73014933 0.87612611
-1.2705636 2.0119951 0.87313819
5.5558929 2.700738 0.87129527
4.5619912 2.74435 0.87034535
3.2437389 2.7615252 0.87686652
1.3820819 2.7941988 0.87347478
-0.4282923 2.8192923 0.87416631
2.2356222 0.035386719 0.88128424
2.6053262 0.060740523 0.88445884
2.6912074 0.062524334 0.88042665
-1.3041695 1.5888433 0.88565314
-0.37981105 2.5412772 0.88375503
4.1595016 2.5504029 0.88644797
4.2328176 2.662807 0.88558125
4.6861305 2.6604142 0.88787681
2.8890438 2.7589552 0.88535607
2.526114 2.7636931 0.8837958
1.4380677 2.7954581 0.88301849
2.551635 0.059183225 0.89509773
4.8910389 0.088650435 0.89178896
4.2458506 0.16999663 0.89485657
-0.92140985 0.17096981 0.89402866
-0.99742782 0.40817437 0.89783353
-0.92260182 0.42985776 0.8983252
4.3437834 0.48678118 0.89493251
3.2147007 2.7608962 0.89072353
4.8943062 2.7696636 0.89090085
-0.5973286 2.7718487 0.8906436
1.9080641 2.7919247 0.89605391
4.8793302 0.032028481 0.9042871
5.3382683 0.074862503 0.90491658
4.1436806 0.15637869 0.90852708
4.8575263 0.43671557 0.90239108
-1.1747308 0.65737355 0.90373135
6.1238303 2.3563666 0.90876651
4.824441 2.6407795 0.90737307
5.7221031 2.6515365 0.90601993
4.4390326 2.6737523 0.90445352
-0.17424025 2.6877127 0.90557218
-0.41658211 2.6940939 0.90083188
1.7644204 2.7932673 0.90835512
-0.3835454 0.00074460474 0.91484439
2.7190716 0.062198937 0.91442889
2.7708311 0.061948135 0.91930586
2.7941468 0.062087014 0.91201383
4.5978565 0.20417452 0.91984713
4.726088 0.28582036 0.91721964
-1.2748444 1.7183499 0.9178459
-0.19102928 2.3398256 0.91741335
4.1316013 2.5787826 0.91239786
4.3902512 2.6903203 0.91471398
5.2370033 2.7601011 0.91736418
1.733397 2.7934122 0.91688204
4.6355023 0.026054675 0.92431694
1.0656818 0.03332654 0.925632
0.50277382 0.043631658 0.92172313
5.2865043 0.067578442 0.92139632
4.5423651 0.19163746 0.92896569
-0.98586708 2.1901734 0.92180014
4.788394 2.3034968 0.92379081
4.7986712 2.5321622 0.92747635
4.8363142 2.5617719 0.92866528
4.2003794 2.6123271 0.92089909
4.4344606 2.6108475 0.92491078
4.5834618 2.6410873 0.92306548
5.2471924 2.7590194 0.92176306
3.1311367 2.7606683 0.92861104
-0.43989775 2.7880585 0.92067498
1.9033906 2.7914405 0.92545497
3.4962633 0.061445251 0.93886912
5.5707784 0.12797855 0.93370193
4.8495493 0.13550361 0.93599564
-0.21008748 0.14420716 0.93928361
-1.0215815 0.55915761 0.93950278
-1.2068639 2.1008244 0.93419313
4.7648792 2.3051498 0.93152153
4.7842541 2.5918095 0.93729454
-0.015878024 2.6492527 0.93046063
4.3108377 2.6526375 0.93249428
4.7335453 2.8215301 0.93190908
0.50781143 0.042244732 0.94112456
0.3293826 0.28789109 0.94089139
-0.83162987 0.54629409 0.94054407
-1.1951782 0.70379937 0.94150162
6.2105484 1.5464222 0.94657779
0.30409724 2.6932445 0.94305623
3.8136337 2.7602837 0.94407028
4.9117813 2.8056531 0.94066209
-0.17674446 2.8129504 0.94146627
4.1956658 -0.0016613686 0.95543528
1.4556441 0.026577212 0.95513904
1.5785642 0.027231049 0.95178008
4.2337236 0.16432287 0.95670605
4.6482563 0.1857166 0.95181984
-0.38076431 0.23602085 0.95596683
0.090858966 0.27240688 0.95815933
6.1354675 0.53237641 0.95591366
-1.2560968 1.0325563 0.95608312
-0.84608042 2.3088236 0.95604247
0.21125907 2.5734277 0.95985591
4.3775482 2.6206331 0.9574306
4.7999387 2.7164714 0.95579147
4.6386828 2.7425251 0.95490265
3.403528 2.7581868 0.95909202
0.032271743 2.8055651 0.95195818
-0.274977 0.05768691 0.96102744
3.8601937 0.063001364 0.96209121
4.2453218 0.12288713 0.96776783
5.8406081 0.20607969 0.96350461
0.27237719 0.41708416 0.9699623
0.030431002 0.48029381 0.96147096
6.2139363 1.3516777 0.96728873
4.749609 2.463439 0.96007776
0.051566981 2.5404572 0.96763641
4.7509618 2.6129255 0.96896768
4.4103179 2.7401743 0.96565455
5.0109191 2.7716413 0.96933895
2.1699333 2.7879701 0.96107352
4.747508 2.7840903 0.96007115
4.7983303 0.21659188 0.97377002
4.2888689 0.22739394 0.97715604
-1.1392891 2.1956139 0.97907174
0.15471429 2.3420084 0.97918928
4.7221489 2.5321705 0.97317457
4.9420862 2.7820234 0.97102916
1.2678167 0.029662076 0.98214418
-0.35208941 0.049532995 0.98553586
3.2112222 0.066262342 0.98758328
-0.11695608 0.32848296 0.98591709
-0.96674275 0.66712892 0.98989153
-1.2661085 1.3497031 0.98972332
-1.2703769 1.4825431 0.98643625
-1.0823793 2.3198936 0.98399723
-0.69627047 2.3793592 0.98112506
4.3379831 2.4930501 0.98362142
-0.32326162 2.5011199 0.98448849
6.017314 2.568059 0.98529685
0.24128571 2.6671047 0.98633468
-0.30665421 2.7271404 0.98653018
4.7795181 2.7331653 0.98538077
1.7169373 0.02971147 0.99962974
2.7294817 0.060027175 0.99533141
4.2372561 0.17782354 0.99084234
0.020437406 0.32848299 0.99583536
4.4587536 0.41887426 0.99744469
6.1197233 0.44144315 0.99247837
6.1243939 0.87174821 0.99339098
-1.2379694 1.7679434 0.99994344
4.4157228 2.5035024 0.9996379
-0.55743086 2.7523136 0.99196702
3.2436228 2.7549322 0.99386483
1.8029257 2.7910421 0.99349892
4.0134902 0.067863099 1.0076272
4.3546529 0.16179094 1.0032737
4.3544827 0.26287067 1.0004957
-0.97208595 0.48937503 1.0090901
-0.88068879 0.49148211 1.0066154
-1.2557862 1.6564517 1.0041375
6.0646386 2.5172589 1.0058352
0.23454556 2.5661099 1.0020769
3.4105074 2.7544651 1.0095986
4.6325693 2.8047698 1.0064435
4.5753083 0.25136966 1.0180612
-0.22782992 2.498091 1.0178822
4.2872305 2.5099385 1.0148108
4.4228683 2.6241643 1.0165778
3.5117774 2.7542717 1.0179335
1.2201853 2.7904782 1.018427
1.7855886 2.7906957 1.018268
4.3143563 0.052611709 1.0269042
3.3496547 0.068149045 1.0208189
5.4878268 0.11363534 1.0256696
-0.78839648 0.1637052 1.0286088
5.9278712 0.22948457 1.0270079
-0.061214384 0.25471911 1.022498
-0.94273144 2.5095134 1.0260161
4.5427361 2.5248542 1.0216935
-0.022485932 2.6133866 1.0230641
5.1394734 2.7533417 1.0254159
2.7577302 2.7624621 1.0290669
1.5983019 2.7925501 1.0238304
4.4998407 0.010981771 1.0384823
2.3261139 0.038138635 1.0315413
4.8704672 0.041930463 1.0344861
2.445302 0.050518326 1.0309047
4.4721169 0.052508511 1.0373707
4.9417925 0.05221064 1.0398418
2.9204905 0.063165836 1.0331087
3.1577992 0.068757713 1.0333363
-0.18855691 0.14740732 1.0382764
-0.21342745 0.2767261 1.0300848
-0.22065523 0.4049181 1.0306611
-0.85876936 0.61831993 1.0331379
6.1166687 1.4794371 1.0366716
-1.2484429 1.6776891 1.0362272
-1.0385786 2.1530147 1.0354826
6.1472635 2.1836295 1.037065
3.3200605 2.7519264 1.0386657
4.4320931 2.7975392 1.0324237
2.3863695 0.04477625 1.0467378
-0.72682714 0.26909864 1.0495303
-0.15095988 0.29646444 1.048126
6.1138134 2.3579559 1.0468566
0.13259491 2.4293718 1.0411166
0.66839123 2.7800124 1.0494578
0.032782868 0.037424922 1.0574172
4.5611243 0.039260916 1.0581996
-0.67914939 0.13377157 1.0511694
0.0067620054 0.20928231 1.0598775
-0.074162617 0.21163148 1.0597166
-0.17538774 0.26429141 1.0516549
-0.086018167 0.30998904 1.0579764
6.1232986 0.55755031 1.0517713
0.1037067 2.5644531 1.0522984
5.8049474 2.6195204 1.0544298
-0.12219948 2.7420974 1.0537881
1.3499866 0.030259524 1.0653526
3.0595574 0.068584844 1.0620794
0.026498914 0.15450899 1.0688907
-0.85077143 0.2326432 1.0688938
4.4987268 0.26128066 1.0613308
6.0908804 1.3663895 1.0639112
-0.10948311 2.7348299 1.0677449
2.5166762 2.7628524 1.0611124
2.2417521 2.7850807 1.0633302
3.2294865 0.072946556 1.0786021
-0.75727034 0.28612363 1.0769739
-0.026540056 0.30360889 1.071955
6.093976 0.56581235 1.0740469
6.099442 2.2479324 1.0709596
-0.82090402 2.2740333 1.0703528
-0.89016688 2.3359654 1.0738068
3.5611916 2.7490711 1.0717604
4.6872516 2.8014383 1.0741144
-0.85662025 0.28867066 1.0827129
-1.0117085 0.59682709 1.0829917
3.771874 2.7468569 1.0864692
2.347425 0.041941222 1.0964826
2.9290214 0.068244815 1.0923991
3.9482946 2.7455075 1.0964338
2.1115139 0.035995565 1.1039348
-0.90744883 0.51050508 1.107936
-1.0391887 0.58152837 1.1004486
3.251426 0.075605609 1.1156412
-0.96805489 0.49184221 1.1152835
-1.0182751 0.72038645 1.1177573
-1.1820098 1.7949017 1.1144425
6.0311012 2.0448494 1.113977
-0.95288187 2.4018259 1.1148612
2.8301826 0.073746204 1.1295991
3.7389512 0.078370288 1.1265912
-0.89963663 0.44643086 1.1246973
6.0581379 1.1413374 1.1232096
5.8761492 2.1202104 1.1298864
6.0280433 2.1518741 1.1290908
-0.67153466 2.6309552 1.1216997
2.9711461 2.7476835 1.1256278
0.79749328 2.7674396 1.1281292
1.2858605 2.7814722 1.1259737
1.5819643 2.789887 1.1214212
1.727921 0.0379177 1.1378789
-1.0493 0.85932815 1.1363556
1.8884014 2.7835388 1.1322538
2.0182178 0.041421533 1.1417836
6.0225563 1.8576682 1.1498464
-1.0629022 1.9234505 1.1415254
2.628931 2.7492337 1.1407576
1.3099743 2.7790139 1.1489258
1.0201993 0.057124279 1.1514456
5.8423767 0.60290891 1.1582263
6.0205021 0.87666661 1.1598138
6.0093822 0.90868556 1.158978
-1.1943809 1.3644359 1.1533532
-0.97784805 2.0328488 1.1530119
-0.64654213 2.6586344 1.1504649
4.9048915 2.7441905 1.1528459
2.2226338 2.7753499 1.1550888
1.3823586 0.041919947 1.1624891
2.2864609 0.048974056 1.1636957
0.58568656 0.060826212 1.1608158
-0.44809508 0.097775616 1.1685714
-0.78786081 0.28015164 1.1660272
-0.92712349 2.0927114 1.1676093
-0.90460068 2.2423403 1.1611315
6.0014648 2.2469559 1.1651812
0.61950266 2.7560513 1.1617682
1.507764 0.04718975 1.177305
-1.1373961 1.587018 1.1717099
-0.91030419 2.0834455 1.1787387
-0.82812613 2.4136248 1.1705239
-0.80341774 2.4332573 1.1764363
5.3806195 2.7153654 1.1789963
-0.10057269 2.7644405 1.1783285
2.3307495 2.7699015 1.1718736
1.6209466 2.7741632 1.1745989
1.9515071 0.054814823 1.1890585
5.8177071 0.50942659 1.1814134
-0.84130222 0.51662278 1.1818706
-1.0275459 1.8685269 1.1837626
-1.0005172 1.9077837 1.1816645
1.2437539 0.053006262 1.1945926
2.2354217 0.058915533 1.1982281
0.86422992 0.071012162 1.1909754
5.5885468 0.14861348 1.1962967
-0.75991982 0.39612827 1.1918538
5.8237901 0.57755804 1.1914921
5.9608059 0.69060296 1.1912968
-1.119024 1.4562483 1.1974969
-0.68347412 2.6014504 1.1919926
-0.65296334 2.6252384 1.1982293
-0.64367223 2.6340139 1.1947979
3.3808906 2.7348502 1.1931735
1.5445719 2.7690032 1.1945438
1.6685395 0.056560166 1.2047927
4.0760517 0.089521751 1.2073885
4.2974463 0.086989373 1.2081282
3.6641102 0.090691671 1.2099835
-0.66330862 0.34371623 1.2093675
-0.6963048 0.40704474 1.2087666
-1.0738823 1.5896801 1.2093803
5.9668455 2.3137774 1.2077503
0.58247459 2.7188017 1.2073926
0.28323025 2.7626328 1.2036309
1.1296084 0.061910532 1.2154316
0.65721172 0.071789399 1.218371
-0.20204443 0.082909018 1.2190402
3.1545506 0.089091472 1.214887
-0.63343763 0.35176384 1.2191731
-0.74890691 0.54852068 1.2143788
-0.67448503 2.3860674 1.2177801
-0.59037316 2.6077895 1.2122632
-0.76674455 0.65347159 1.2248735
-0.9865523 0.99374694 1.2273606
-1.0592825 1.2715895 1.222427
-1.0711865 1.3442628 1.223214
-0.99494463 1.8174034 1.2259277
-0.89717388 1.9579952 1.2202368
-0.54850572 2.5715156 1.2270348
4.1125412 2.7302988 1.2202954
5.7140694 0.17645282 1.2305568
5.7606001 0.19112322 1.2398428
5.8131609 0.60306334 1.2395506
-0.63581324 2.3571696 1.2309604
-0.427421 2.5933607 1.2384865
5.8159056 2.594192 1.2347074
0.63637191 2.7150819 1.2303345
0.86549282 2.7123785 1.2361796
2.556401 2.7174389 1.2319717
3.3590019 2.728905 1.2313526
1.0736343 2.7532773 1.2380846
0.55804551 0.09649694 1.2452948
5.8729587 0.29976392 1.2486279
-1.0020564 1.1778363 1.2456493
0.58948255 0.071915723 1.2558678
4.2288475 0.097729303 1.253461
-0.45606011 0.32376489 1.2579535
-0.67125964 0.68828899 1.254197
6.0328245 1.2366717 1.2520876
-1.0050704 1.3761652 1.2594202
5.7087402 2.3300571 1.258224
4.0648088 2.6838386 1.2591195
0.97675925 2.7468777 1.2564043
2.2498689 2.7450783 1.2576743
1.6729665 2.7509294 1.2528477
1.4697572 0.073814869 1.2688298
2.1994467 0.079731911 1.269537
3.2353382 0.098053873 1.2693703
2.6189833 0.12508892 1.2698634
-0.9660722 1.5012393 1.2677758
-0.95267534 1.6230732 1.2636409
-0.34670866 2.5519974 1.2632163
2.5854914 0.075816125 1.2762569
3.8761425 0.1008736 1.2707498
-0.25112468 0.21446167 1.2703284
5.8463569 2.1537859 1.2750995
5.8565168 2.5206709 1.2799263
3.9895434 2.6810136 1.2719884
2.4005535 2.7275777 1.2745568
-0.25426015 0.26301783 1.2800574
-0.40897477 0.42156699 1.2818333
5.9263277 0.46599936 1.280365
-0.48466569 0.58547837 1.2854095
-0.61220151 0.78263772 1.2887561
-0.64553463 0.79896235 1.2835679
6.0188847 1.8134009 1.2873219
-0.36814395 2.4321425 1.2861487
5.7929821 2.5957758 1.2832913
2.683131 2.7293382 1.2807254
1.392621 2.7433994 1.2854313
1.6246448 0.083425634 1.2976848
4.128593 0.11445165 1.295922
-0.80272883 1.0443916 1.2979513
-0.5747633 2.0721653 1.2902678
5.7087402 2.2646222 1.2995763
-0.24121563 2.4768851 1.2993709
3.3126063 2.7197945 1.2902496
0.66836357 0.080345094 1.3043377
1.2082782 0.081863552 1.3027039
-0.19912112 0.35680029 1.3093653
-0.84134889 1.3394802 1.308253
-0.82473838 1.5786604 1.3076919
5.8414955 2.3355169 1.3080652
4.8942614 2.706686 1.3007767
1.2688634 2.7382715 1.3059475
1.2722626 0.085845195 1.3146613
3.3904669 0.10615398 1.3160369
5.6904612 0.19575045 1.3111981
-0.33508658 0.51408589 1.3120456
-0.547369 0.79456443 1.3114655
-0.62599599 0.8784954 1.3123504
-0.75355631 1.0592228 1.3154216
-0.8290475 1.4182863 1.3165445
-0.81836402 1.5708103 1.3102109
-0.36988905 2.2136817 1.3177269
5.8328333 2.2268064 1.3105611
5.786262 2.3388948 1.3126283
4.1342087 2.6908913 1.3189905
4.1504173 2.7139726 1.3154932
2.5373826 2.7252398 1.3141041
2.9593832 0.10572288 1.3241764
2.5737288 0.14025643 1.3283491
-0.13018036 0.36505741 1.3233218
5.7406564 2.4321728 1.3204492
5.7591462 2.5939727 1.3235517
1.3098493 0.097095683 1.3380066
2.0681751 0.096658573 1.3314023
-0.63217139 1.8589659 1.3336689
-0.3756395 2.1211493 1.3333653
-0.33683574 2.1410244 1.3366914
3.1629612 2.7134438 1.334516
1.2831919 2.7266548 1.3343096
2.3243604 2.7208104 1.339156
2.0291207 0.098846599 1.3400162
0.2819888 0.11743388 1.3445754
5.800859 0.63517261 1.3409543
-0.44800523 0.85394168 1.3469505
-0.511711 0.90422934 1.3445123
-0.61979198 1.7534424 1.3480408
-0.080344975 2.3439107 1.3499629
4.6089392 2.6958046 1.344708
3.6000185 2.7100313 1.3456587
1.6800473 2.7236724 1.3402019
1.2666399 0.1055558 1.3517821
1.4798005 0.1087402 1.3581805
5.805357 0.52263272 1.3526276
5.7294264 0.54960841 1.3581959
-0.39442545 1.9498631 1.3591802
5.782536 2.2433031 1.3520283
5.7862139 2.2517822 1.3549303
-0.007180959 2.3728724 1.3590639
2.159704 2.714406 1.3568425
2.7604222 2.7125645 1.3507941
2.4505897 0.11105823 1.3643774
3.1172566 0.1122181 1.3616244
3.6438158 0.11427713 1.3625767
-0.38655508 0.88193554 1.3622766
-0.5150103 1.060509 1.3661253
-0.39976841 1.9254489 1.362401
-0.23752907 2.0587838 1.367879
0.18991399 2.5228868 1.3676651
0.24104029 2.5590649 1.3699483
3.4280391 2.7068939 1.3698646
1.1661296 0.11724217 1.3707213
3.1093733 0.1163817 1.3744142
0.32513654 0.20531775 1.3742983
-0.52001041 1.6167293 1.3740125
-0.50097013 1.6433961 1.3755831
-0.32602713 1.9415094 1.3724003
-0.21067122 2.0534089 1.3734536
-0.20097603 2.0573781 1.3744638
-0.10418227 2.1552093 1.3769488
5.5900545 2.6224372 1.3772786
5.4456086 2.6395314 1.3743975
3.6851959 0.12266469 1.3850242
0.33255175 0.2308374 1.380004
0.26451182 0.30422691 1.3815126
0.25785404 0.31287542 1.3819246
-0.19794412 0.82050943 1.3845469
-0.37539431 0.97598183 1.3801473
6.0586109 1.1327801 1.3850898
-0.48207968 1.2591596 1.3828892
-0.50495446 1.4188958 1.384558
-0.38409007 1.803695 1.3857484
-0.26039404 1.9173499 1.3878924
-0.18922676 2.0236955 1.3822154
-0.050130062 2.1614294 1.3863558
0.19301042 2.4532597 1.3826475
0.30608484 2.5638306 1.3802863
5.1747003 2.6701014 1.3897958
1.4695625 0.13206349 1.3972201
1.5587635 0.13072741 1.3952708
3.4693301 0.13152358 1.3980916
4.6689339 0.14655392 1.393805
-0.34655401 1.1074439 1.3984412
-0.38880751 1.2504736 1.3987085
-0.24111931 1.9175193 1.3912101
5.8624511 2.4129007 1.3910389
0.35389805 2.5196142 1.3964828
5.5236349 2.6042333 1.3931019
0.90117049 2.7065637 1.391471
0.75832736 0.1214629 1.4059711
0.88212311 0.12099186 1.4062347
0.18323514 0.45826375 1.4012091
0.069410145 0.66518748 1.4090807
-0.097578354 0.85207808 1.407326
-0.089636236 0.85086411 1.4084991
-0.36161527 1.2628688 1.4036331
-0.37258217 1.3258394 1.4042181
-0.38450345 1.3652256 1.4036257
-0.20076591 1.9020644 1.4008372
-0.0050290897 2.0598016 1.4080735
0.28708744 2.4314022 1.4059769
5.7793446 2.5402837 1.4023829
5.6001816 2.5682418 1.4093177
2.1203146 2.6863813 1.4056751
2.6774344 2.6879101 1.406006
0.8518945 2.701231 1.4053967
2.134197 0.13864392 1.4117765
3.0364189 0.1394712 1.4171197
3.9849992 0.13976511 1.4124819
1.5882556 0.14087893 1.4123844
0.13577536 0.59480625 1.4142303
-0.056091771 0.82651412 1.4101942
5.5181341 2.6214797 1.4125631
2.0872424 2.6825814 1.4122784
2.8209867 2.6803837 1.4199041
5.7923064 0.32070047 1.426162
0.14678907 0.65959805 1.4228851
-0.26804304 1.4395273 1.4204729
0.20439097 2.2133856 1.4283372
0.23423015 2.2771151 1.4273784
5.8415556 2.3672547 1.4228303
0.40754741 2.4281745 1.4294667
0.66027069 2.6720731 1.4282598
5.0867372 0.18283424 1.4317292
0.6040296 0.24213028 1.4326628
0.15261979 0.7450484 1.4326804
-0.021462291 0.9993149 1.4377973
-0.12268104 1.3313053 1.4387925
-0.14273717 1.6020951 1.4328496
-0.1480571 1.6268071 1.4308145
-0.058756322 1.7429969 1.4379222
0.01626014 1.8618114 1.4395527
0.06219691 1.9990699 1.4300439
0.20544747 2.1252103 1.4375253
5.8335428 2.4154773 1.4374297
0.53632945 2.4860234 1.4398813
1.3553226 2.6675622 1.4324098
4.3886418 2.6632166 1.4354715
2.8920002 2.6746292 1.4306804
1.0574855 0.15529841 1.4483358
2.4644976 0.15612462 1.4460797
0.49501926 0.39789513 1.4481945
-0.10238598 1.3286659 1.4414978
-0.10873255 1.4277736 1.4427888
0.39488289 2.3608496 1.4445388
0.50353265 2.4273992 1.4489279
0.61143219 2.5123827 1.4485722
4.1079001 2.6635289 1.441139
1.9667894 0.16586146 1.4589039
2.1329603 0.16169836 1.4524437
2.8515849 0.16095567 1.4566829
4.2556133 0.17266107 1.4572322
0.5679484 0.37891603 1.4580545
0.4055106 0.54918879 1.4593313
0.36055198 0.59456182 1.4558452
0.34094191 0.61121672 1.4540105
-0.04557775 1.3721825 1.4507632
5.6771202 2.4983087 1.4537477
0.73578209 2.6114979 1.4549202
1.3243793 2.6541967 1.4543521
2.0671856 2.6567488 1.4573008
2.6748497 0.16793334 1.4694474
3.7750201 0.17271575 1.4629349
0.4727096 0.50534946 1.4668502
0.26151475 0.85127473 1.4645358
0.28270468 0.8724969 1.4696584
0.21221614 0.9152748 1.4633577
0.33843923 2.0531433 1.4693364
3.3461375 2.6481612 1.4696435
1.5958136 2.8033109 1.4609346
2.2300129 0.17457229 1.4764867
2.6647472 0.17220694 1.4769704
5.0225101 0.21356648 1.4763621
5.121624 0.21355221 1.4724038
0.83132946 0.22485547 1.477771
5.4280844 0.23197526 1.4732981
0.78575712 0.26316303 1.475486
0.42707759 0.67632163 1.4759994
0.17662229 1.2058308 1.4770601
0.13139179 1.2232629 1.4714667
0.15687793 1.6514304 1.4727666
0.28114551 1.8981225 1.4743111
0.41241997 2.1347489 1.474419
2.5339005 0.17492221 1.4804027
3.9735644 0.18506092 1.4827011
0.50791782 0.58853477 1.4815775
6.0276556 0.90537429 1.4821427
6.0603518 1.0881581 1.4898412
0.18265046 1.2859248 1.4804111
0.21606736 1.6785586 1.4802232
0.33615279 1.9022969 1.4828938
0.4850933 2.1430159 1.4866273
5.8424282 2.3843198 1.4858246
0.66565734 2.4270761 1.4822901
5.7397351 2.5065334 1.486997
3.6499405 2.6326423 1.4895375
0.63190693 0.53940409 1.4986707
0.36679679 1.0676239 1.4983562
6.081326 1.3585427 1.4975338
0.29094478 1.606218 1.4933665
0.42815059 1.9330546 1.494956
0.58174121 2.2627683 1.4917859
0.6060378 2.272079 1.4951946
0.83482212 2.502707 1.4995179
4.3352404 2.6217494 1.4917355
3.0074039 2.6395578 1.4922861
2.0043554 0.18687253 1.5024651
3.2962153 0.19439919 1.5071738
4.2276101 0.20588554 1.504855
0.93896794 0.23457918 1.5022842
5.4847517 0.25401485 1.5077268
0.90898579 0.27243724 1.5045336
0.75188577 0.42044237 1.5061071
5.8456097 0.45747375 1.509716
0.34181309 1.2164116 1.5003567
0.38813958 1.2582552 1.5078515
0.38216966 1.2904969 1.5075456
0.3567228 1.4084756 1.5068047
0.37671423 1.5649341 1.5062586
6.0428214 1.8413792 1.5053593
0.78831995 2.0471501 1.5059681
0.76079267 2.0637887 1.5080504
0.7783727 2.2430892 1.5038517
3.4231596 2.6293721 1.5003889
3.461087 2.6244614 1.5080168
3.253094 0.20051721 1.518746
0.83031595 0.36848518 1.5104514
0.71844697 0.77444446 1.5178909
0.54180145 0.89016229 1.5136833
