# .PCD v0.7 - Point Cloud Data file format
VERSION 0.7
FIELDS x y z
SIZE 4 4 4
TYPE F F F
COUNT 1 1 1
WIDTH 1434
HEIGHT 1
VIEWPOINT 0 0 0 1 0 0 0
POINTS 1434
DATA ascii
-0.80746949 -2.0304549 0.25066131
0.11439482 -2.0369327 0.25422293
-1.0045232 -2.0034556 0.25206277
-1.0257422 -1.9793227 0.25212902
-0.92287636 -1.9601805 0.25126404
-0.27993602 -1.9673389 0.25090587
0.039624482 -1.9066148 0.25268167
-0.24796453 -1.8917334 0.25091711
-0.193152 -1.8531096 0.25117692
0.1367913 -1.8022491 0.25347668
-1.3117268 -1.7998021 0.2536906
-1.1055489 -1.7682414 0.25198084
-1.2819326 -1.7140983 0.25320682
0.1121842 -1.7068794 0.25301537
-1.4489231 -1.6997554 0.25506133
-1.3505856 -1.6634825 0.25362
-1.3309417 -1.6199089 0.25333759
-0.12472588 -1.6070491 0.25097829
-1.4212713 -1.5068864 0.25462508
-0.80714083 -1.4857411 0.25518331
-0.97972655 -1.4416788 0.25071207
-0.27641743 -1.4499326 0.2537148
0.17613411 -1.4377223 0.25317237
-1.1803876 -1.3985385 0.25149164
-0.8007921 -1.3412964 0.25735238
-0.1526124 -1.3246018 0.25184947
-1.2256416 -1.2988893 0.25157654
-0.28334635 -1.2886033 0.25612944
-0.32367289 -1.2764949 0.25746343
0.12858272 -1.2477214 0.25242686
-0.32556567 -1.1092341 0.25981361
-0.99014688 -1.020744 0.25560629
-0.20393915 -0.96390259 0.25696719
0.0075786784 -0.96570981 0.25093937
-0.9424336 -0.92909586 0.25709915
0.30690455 -0.92512578 0.25525251
-1.3804455 -0.9170295 0.25396726
-1.1234062 -0.91460407 0.25131112
0.087026998 -0.91904962 0.25476176
0.25137043 -0.79772496 0.25718117
-1.2334908 -0.68421721 0.25216997
-1.2143952 -0.58613491 0.25666666
-1.4653071 -0.50288635 0.25494632
-0.60137343 -0.14874315 0.25895756
-0.45996141 0.31229126 0.25434625
-1.252699 0.40038037 0.25890139
-0.062265687 0.42814311 0.2579188
-1.6054082 -2.9145119 0.26113099
0.31989452 -1.7028593 0.26452228
-0.69562626 -1.2734784 0.26137614
-0.70260584 -1.2449404 0.26156253
-0.44511324 -1.2014532 0.2620101
-0.97807592 -1.1083294 0.26369679
-0.40259701 -0.97939402 0.26326263
-0.82711536 -0.93468082 0.26078612
-0.99692112 -0.66495275 0.26244608
-0.25434303 -0.66658157 0.26604617
-0.9143672 -0.65649271 0.26530513
-0.88469428 -0.63011885 0.26888376
-1.4717593 -0.53477764 0.26071271
-1.0167339 -0.52086192 0.26711133
-0.98098671 -0.52440631 0.26933122
-1.0158731 -0.50678891 0.26183209
0.10366444 -0.43978468 0.26493064
-0.96831501 -0.39207381 0.26305118
0.30082253 -0.33655709 0.26452288
-1.1371469 -0.022806425 0.2689814
-1.5791497 -0.0088439807 0.26347759
-1.2564548 -3.6108418 0.27642491
-1.2677861 -3.560235 0.27923337
-0.51831943 -2.6819191 0.27211449
0.41663307 -2.625107 0.27232397
-0.81217706 -0.65249038 0.27336338
-0.83630013 -0.59559453 0.27430314
-0.93917179 -0.49620488 0.27390528
-1.1732464 -0.40691361 0.27633107
0.31498867 -0.25858027 0.27842867
-1.3124628 0.36790112 0.27668038
-0.62290716 0.50343651 0.27173379
-0.38703445 0.54231441 0.27993453
-1.0866497 -3.0738068 0.28413963
-0.46315026 -0.9951911 0.28883407
-0.70168048 -0.94762844 0.28105417
-0.60943818 -0.27816844 0.28174955
-0.046957962 0.067222841 0.28949413
-1.1136286 0.28677779 0.28509939
-0.10533851 0.49625748 0.28232163
-0.92223537 1.2642609 0.28723294
-0.77406585 1.2695109 0.28588894
-0.16674292 1.2683928 0.28255463
-0.111164 1.2715956 0.2862013
-0.77165455 1.2839646 0.28495198
-0.59003121 1.2802178 0.28119308
-0.54604769 1.2865793 0.28872192
-0.40574732 1.282787 0.28161883
-0.34034184 -3.2530856 0.29992127
-1.0739379 -3.1986663 0.29197815
0.49151522 -2.9723392 0.29943502
-0.9134773 -2.5413821 0.29908663
-0.67972547 -1.7874894 0.29980949
-1.5033898 -0.49975777 0.29032862
0.22823109 -0.39626467 0.29015547
0.33209413 -0.31993237 0.29394066
-0.7247498 0.078042842 0.29569104
-0.1652129 0.1097386 0.29497108
0.10642392 0.1835907 0.29313633
-1.2329159 -3.502739 0.30661616
-0.5939045 -3.4493845 0.30851638
-0.69148558 -3.2516074 0.30080879
-1.2106665 -3.2479353 0.30488992
-0.11107878 -3.2393696 0.30244628
-0.10145627 -3.2291923 0.30749309
-0.11033978 -3.1232519 0.30014813
-0.47081524 -1.5672413 0.30122361
-0.54078007 -0.3162114 0.30053926
0.02454827 -0.29780233 0.30328789
0.16802765 0.19492355 0.30269486
-1.0993164 0.29721767 0.30592674
-0.91096491 0.32945257 0.30089629
-0.90137571 0.42419061 0.30095914
-1.6420407 0.55456913 0.3061026
0.14285101 1.2242328 0.30477384
-0.42945549 1.2423576 0.30976588
-0.3998751 1.2474414 0.30498645
0.02543531 1.2525866 0.30416957
-0.3292141 1.2667588 0.30506259
-0.18367907 -3.0303764 0.31039876
-0.023108389 -2.7653866 0.3130497
0.37202087 -1.8767011 0.31497666
0.36971346 -1.803987 0.31376514
0.37091458 -1.3390975 0.3151826
0.027774274 -0.23483816 0.31298536
-0.26690522 -0.16901328 0.31887859
-0.98002756 -0.11557727 0.31826153
-0.05836907 0.059261713 0.31746492
-1.6412985 0.10730146 0.31374973
-1.1089792 0.14403832 0.31213161
-1.3317474 0.18634033 0.31279859
-0.99294305 0.27815291 0.31750455
-1.3518229 0.33136249 0.31173065
-1.5860033 0.3424691 0.3136273
-0.077601463 0.37742919 0.31571409
-0.97222865 0.51378393 0.31758863
-1.1887449 1.2161379 0.31169167
-0.18431382 1.2214375 0.3169511
-0.45911658 1.2341495 0.31712657
-0.68537855 1.265736 0.3128283
-0.22053206 -3.5199416 0.32541546
0.44079939 -2.7727542 0.32817349
-0.2643117 -2.5711095 0.3295449
-0.47372347 -1.1800913 0.32169893
-1.1994348 -0.25395522 0.32235235
-1.1050184 0.067652181 0.32991752
-1.4718418 0.14489922 0.32162061
-1.0948112 0.28650308 0.32244843
-1.1470034 0.29998469 0.32121629
-0.3936041 0.29327279 0.32333255
-0.93594134 0.42254671 0.32433319
-1.3928741 0.66123873 0.32218304
-0.96804392 0.94784778 0.32949385
-0.4981178 1.1911762 0.3242802
-0.077998899 1.2109091 0.32159007
0.088934675 -3.539999 0.33477643
-0.16135003 -3.2508488 0.33485729
-0.49918562 -2.6222885 0.33832055
-1.1043566 -2.4182563 0.33295947
-0.76091081 -2.3596702 0.33406574
-1.5375926 -2.1910946 0.33184922
-0.49266315 -1.9184777 0.33787701
-1.5221665 -1.6314756 0.3325308
-1.522452 -1.5098574 0.33306003
-1.5424343 -0.84860057 0.33753693
0.3513636 -0.70251381 0.33631086
-0.61379874 -0.67832452 0.33913743
-0.77324313 -0.54442132 0.33020112
-0.22136229 -0.32522851 0.33976981
-1.1233815 0.27999049 0.33658701
-1.1695666 0.30245045 0.3313812
-1.5934132 0.36383951 0.33119446
-0.73881984 0.39676946 0.33279836
-0.57474536 0.67901999 0.33929151
-0.28991699 0.68361068 0.33398849
-1.2741052 1.1758074 0.3337636
-0.6358518 1.2111497 0.33537275
-0.74166226 -3.6160107 0.34924796
-0.46513656 -3.2616136 0.34868613
-0.43880343 -3.2515168 0.34761056
-0.97978437 -3.2124419 0.34498736
-0.51862693 -3.2129438 0.34181586
-0.45298907 -3.1882529 0.34091187
-0.96105528 -3.1659286 0.34285179
-0.064830877 -3.1659474 0.34709188
-1.2131715 -2.7536578 0.34130007
0.12762524 -2.7199326 0.34303933
-1.1633711 -2.3773975 0.34743872
-0.79011714 -2.3723011 0.34846705
-0.48783746 -1.5092137 0.34711885
0.34777972 -0.89300895 0.34753495
-1.3536525 -0.59787554 0.34519041
-1.4956686 -0.58101428 0.3442468
0.18149441 -0.44272029 0.34495753
-1.3162887 -0.39328858 0.34504682
0.3481611 -0.36396062 0.34782302
-1.5970405 0.53400564 0.34654737
-1.2038875 0.71661735 0.34766015
-0.45866337 1.1864409 0.34816203
-0.58556086 1.2022371 0.34580386
0.43163803 -2.5438352 0.3571071
-1.0418565 -1.8188736 0.35814095
-1.4116905 -1.741905 0.35527271
0.32464856 -1.5961111 0.35307109
-1.4824871 -1.5808141 0.35185999
0.27163345 -1.5840509 0.3552213
-1.409657 -1.5607028 0.35583964
0.16018499 -1.5511525 0.35963613
0.26438361 -1.5558379 0.35558653
-1.3164488 -1.5377171 0.35964802
-1.4164834 -1.3481956 0.35511065
0.30144313 -1.3384753 0.35468876
0.31261042 -1.3221021 0.35965466
-0.58417952 -1.3078943 0.35216072
-1.3461145 -1.2767977 0.35824054
-1.469238 -1.1787593 0.35448337
-1.3940049 -1.1708465 0.35616204
-1.3299062 -1.1494712 0.35923147
-0.58595538 -0.96167976 0.35653758
-1.436307 -0.95397156 0.35798544
-0.68474168 -0.94340116 0.35872936
-0.71326035 -0.81127888 0.35210013
-1.1944984 -0.73617613 0.35922328
-1.2300109 -0.37449318 0.35359725
0.38314578 -0.30929619 0.35325032
-1.03486 0.048343878 0.35169092
-0.74574298 0.39108962 0.35085294
-0.96804392 0.61101484 0.35084176
-0.49766493 0.65954965 0.35532179
-1.2156861 0.73268795 0.35157385
-1.185613 1.144274 0.35967696
-0.91386509 1.2167194 0.35783845
-0.78603601 -3.3704133 0.36385435
-0.964742 -2.983464 0.3602294
-1.2369026 -2.2571623 0.36943212
0.042068228 -2.2500315 0.36919501
-0.4866367 -2.1400266 0.36638096
0.062500589 -2.1063216 0.36551055
-1.0376503 -2.0848122 0.3649818
-0.59424359 -2.0320013 0.36190015
-1.3116829 -2.0189428 0.3627893
-0.68917102 -1.9989188 0.36275697
-1.1773313 -1.9817486 0.36233172
0.060377672 -1.9692137 0.36199534
-0.4331094 -1.9539278 0.36160347
-1.2403351 -1.9312501 0.36103299
-0.12720497 -1.9385389 0.36120892
-0.76025057 -1.91164 0.36051929
0.20923118 -1.6880234 0.36286271
0.25369868 -1.5472198 0.36146978
0.097605914 -1.5267959 0.36262512
-1.5562053 -1.458221 0.36266124
0.20158669 -1.4086851 0.36366099
0.24598028 -1.4092618 0.36214668
-1.2961378 -1.3397264 0.36092141
0.30502784 -1.3061417 0.36334372
0.30960643 -1.2858603 0.36161324
-1.3679788 -1.2616963 0.36156267
-1.3139876 -1.2239162 0.36004063
-0.65945232 -1.1182208 0.36892143
-1.471848 -1.0961051 0.36011064
0.24996427 -1.0771649 0.36021107
0.20015025 -1.0115751 0.36668932
-1.4767451 -0.88574344 0.36139429
0.26058325 -0.8872292 0.36256814
-1.3522623 -0.77271891 0.36985707
0.3198247 -0.70988405 0.36656868
0.24903145 -0.68621576 0.36553472
-1.457948 -0.65060049 0.36423218
0.22525428 -0.62343132 0.36215627
-0.11970232 -0.58063447 0.36266389
-0.9644382 -0.20941052 0.36964688
-0.76949143 -0.165071 0.36059844
-0.22247882 -0.13005859 0.36928648
-0.37377965 0.082109123 0.36889517
0.46506453 0.28562528 0.36341545
-1.3278971 0.3502076 0.36937761
0.10033641 0.86135626 0.36652392
0.10844004 0.9050439 0.36579514
-1.2220943 1.1333169 0.36469799
-0.31777573 -3.4181983 0.37055874
-0.40974018 -3.1660659 0.37356937
-0.025147257 -3.1527455 0.37074026
-0.53453994 -2.4366426 0.37531078
-0.55205005 -2.42839 0.37511861
-0.54256773 -2.0133057 0.37913585
-0.21657868 -1.8039327 0.37654451
-0.51329499 -1.5844439 0.37570316
-0.97853673 -1.5767493 0.37772408
-0.2018684 -1.4549412 0.37673372
0.33328515 -1.4490844 0.37501588
-1.0925648 -1.4064345 0.37199771
-0.61092269 -1.3995155 0.37361962
-0.09894143 -1.2201806 0.37217498
-0.65877748 -1.099655 0.37046045
-0.70055699 -0.84723651 0.37156218
-1.4589664 -0.83848459 0.37606561
-0.35788858 -0.70337939 0.37657964
-1.3669558 -0.68483716 0.37814513
-0.82593393 -0.59463269 0.37683985
-0.84479475 -0.47009924 0.37335399
-0.8189311 -0.38602936 0.37305009
-0.93108249 -0.14478126 0.37392002
0.39642382 -0.11804874 0.37685031
-0.96825135 -0.081403911 0.37538421
-1.1503494 -0.027091444 0.3733575
-1.0816463 0.28699762 0.37323284
-1.3443034 0.35373175 0.37853533
-0.64926249 0.6617887 0.374832
-0.025711706 0.66223502 0.37173826
-0.37329447 0.80856949 0.37647009
-0.019268699 1.1200935 0.37810799
-0.0718375 1.1367335 0.37049472
-1.0548209 1.1904457 0.37615168
-0.93247092 -3.5354373 0.38665071
-1.0114517 -3.5101633 0.38357508
-1.2353048 -3.4959064 0.38235617
-0.91654336 -3.4914784 0.38092023
-0.19817819 -3.4925776 0.38133892
-0.026309868 -2.8040466 0.38868546
-1.219579 -2.7863703 0.38580021
-1.1984897 -2.7858961 0.38993725
0.32913712 -1.6362056 0.38150913
-0.8300612 -1.5891029 0.38545871
-0.26468858 -1.2756722 0.38000712
-0.37925106 -1.1719284 0.38549066
0.20146218 -0.6380859 0.38941658
-0.74906886 -0.58843732 0.38483942
-0.49165976 -0.165071 0.3881287
-0.16732061 -0.0043263584 0.38281912
-0.95320392 0.051648676 0.38718238
-1.6407905 0.073733509 0.38295344
-1.1120934 0.36629331 0.3824389
-0.96804398 0.50744534 0.38684678
0.28469956 0.96450412 0.38843322
-1.03486 0.99136019 0.38055319
-1.1076019 1.0580997 0.38101536
-0.0056211594 1.0991287 0.38114601
-0.8900708 1.1341896 0.38338903
0.063915752 1.1646398 0.38492233
-0.7703824 1.1964697 0.38769773
-0.61860985 1.2056113 0.38684985
-0.14461778 -3.6218801 0.39756459
0.022392759 -3.591145 0.3941415
-0.38287574 -3.227948 0.3907662
0.27453154 -3.0967803 0.39866775
-1.2090055 -2.7054305 0.39889961
-0.26512346 -2.7034061 0.39829087
-0.53995246 -2.5736959 0.39770287
-0.54358506 -2.4873061 0.395477
-0.62608892 -2.3929334 0.39703688
-1.0395408 -1.81148 0.39251328
-0.088374905 -1.81148 0.39737874
-0.7191155 -1.506155 0.39149946
-0.3701272 -1.2005974 0.39980191
-0.62456834 -1.1619626 0.3976523
-0.73813272 -1.0862578 0.39133072
-0.66948313 -0.60356176 0.39738128
-1.2429407 -0.19158663 0.3986057
-1.484944 0.13890606 0.39517757
-1.0798926 1.064025 0.39437506
0.15750018 1.1443594 0.39594367
-1.4118667 -3.5680485 0.40892184
-0.53636873 -2.2200246 0.40015393
-0.22676805 -1.8114835 0.40102696
-0.80107045 -0.69969553 0.40389127
-1.5820172 -0.50335395 0.40252876
-0.26506335 -0.26194131 0.4059605
-0.28962377 -0.098522738 0.40235153
-0.26627153 -0.033846382 0.40964988
-0.14971203 0.097379401 0.4077034
-0.26467469 0.26252875 0.40975562
-0.97408938 0.3412444 0.40978369
-0.23006468 0.669195 0.40990067
-0.26451707 0.69863522 0.40991119
-1.2446932 0.73385435 0.40972254
-0.28991699 1.070593 0.40616727
-1.2051892 1.1724088 0.40016371
0.17556939 -2.0279188 0.41009435
0.1901657 -1.6176945 0.41250595
-1.3660516 -1.1536057 0.41856104
-0.56115544 -1.148101 0.41856927
0.12371108 -1.0620642 0.41133195
-1.1190381 -0.46797803 0.41388226
-0.45158559 -0.46633244 0.41086683
-1.2552164 -0.10181494 0.41838452
-1.1516016 -0.019368593 0.41442236
-0.21657623 0.16967739 0.4138056
-0.21605462 0.23293543 0.41287565
-0.054963235 0.35960886 0.41718578
-1.3849189 0.63233501 0.4190104
0.46680689 0.65354031 0.41269296
-1.5103012 0.88368124 0.41459185
-0.94205403 1.1611183 0.414114
-1.3106111 1.1730061 0.4175154
-1.1726501 1.1885891 0.41976711
0.33360726 -3.3320873 0.42828208
-0.92446792 -2.8361502 0.42585129
0.20208804 -2.4689844 0.42199588
-1.3209493 -1.9326103 0.42744857
0.27992707 -1.8502125 0.42119801
-0.57211614 -1.4389248 0.42620578
-1.0202401 -1.3157667 0.42954892
-0.19129479 -1.2386611 0.42920056
-0.19399396 -1.1884412 0.42869893
-0.75879705 -1.1046224 0.4295949
-0.29010871 -1.0514601 0.42386371
-1.5877696 -1.0125422 0.42244428
-1.3636558 -0.58250803 0.4203366
-1.4229463 -0.33512118 0.42707938
0.29788142 -0.33337694 0.42908478
0.18737601 1.1714363 0.42883763
-1.2289447 1.1873803 0.42694801
-1.1715831 1.1924291 0.42552835
-0.35650745 -3.5893462 0.4358632
0.21755444 -3.5803461 0.4384982
-1.4356118 -2.9231732 0.43855691
-0.91522014 -2.7520714 0.43657529
-0.93501031 -2.7426472 0.43630028
0.42485571 -2.7135479 0.4368954
-0.86230755 -2.6499896 0.43974334
-1.0847929 -2.5038702 0.43323344
-0.088850215 -1.445076 0.43136591
-0.89645422 -1.4162813 0.43095195
-0.046264019 -1.4060137 0.43081316
-1.0286772 -1.3880517 0.43056464
-0.35164699 -1.2579836 0.43182629
0.047806181 -1.2298415 0.43087453
-0.44216973 -1.1918174 0.43148986
-0.77490401 -1.1605886 0.4393428
-0.43528098 -1.0633316 0.43825591
-0.74935329 -0.51076835 0.43982863
-0.0030184779 0.054441065 0.43646225
-1.5745277 0.32509047 0.43092275
-0.092160754 0.34269857 0.43406636
-0.45774424 0.64378798 0.43255562
-0.70375067 0.88634521 0.43258989
-0.83224511 0.92681056 0.4388628
-1.1888435 1.0403997 0.43655384
-0.74238443 -3.5282698 0.4482736
-1.1661388 -3.0280929 0.44772014
0.37246612 -2.9195008 0.44831049
-0.1999992 -2.9012523 0.44420946
-1.5820942 -2.7879179 0.44471619
-1.4726535 -2.3959818 0.44491237
0.19729815 -1.8940541 0.44465888
-0.82374972 -1.8141129 0.44363776
0.20511989 -0.94517756 0.4490945
-1.3772932 -0.7089451 0.44791865
0.43231648 -0.40523094 0.4487797
-0.34372228 -0.10435823 0.44014931
0.065444335 0.69889385 0.44939631
-1.2072039 1.1964802 0.44663808
-0.033426013 -3.4960907 0.45446742
-0.90067077 -2.6345692 0.4554764
-0.20645249 -2.4667292 0.45167047
-1.3298072 -2.3490059 0.45637792
0.18107344 -2.349791 0.45956147
-0.84687942 -1.5204902 0.45451218
-1.1708962 -0.038053919 0.45066649
-1.3945048 0.0012016296 0.45444563
-1.447481 0.5048604 0.45231393
-0.50322217 0.56786853 0.45612001
-0.027742017 0.63804662 0.45839036
-0.48101848 0.65648419 0.45518425
-0.059323557 1.0582762 0.45936534
-0.93889147 -3.46257 0.46162343
0.34341609 -3.3818326 0.46090317
-0.9475528 -3.0228748 0.46901074
-1.1529769 -2.5030687 0.4618898
-0.41712314 -0.71448004 0.4652873
-0.31029513 -0.34703285 0.46006507
-1.2657712 -0.12579542 0.46718949
-0.78912389 0.095657095 0.46515331
-1.3471638 0.36297736 0.46208972
-0.049105279 1.1183233 0.4605611
-0.14203703 1.2077739 0.46944708
0.076746985 1.2143731 0.46133614
-0.088793747 -3.7248354 0.47871155
-0.024053819 -3.3988278 0.47361511
0.028584003 -3.0743535 0.4710128
0.20303948 -2.9607935 0.47209603
-0.90878987 -2.70824 0.47844666
-1.4216053 -2.4018433 0.47248405
0.43389827 -1.2826756 0.47024053
0.21437019 -0.78713894 0.47909397
-0.61076295 -0.75031191 0.47597784
-0.59275496 -0.75309455 0.47589022
-0.75105882 -0.29094937 0.4732343
-1.2197825 -0.095773652 0.47623676
-0.11834195 0.26981652 0.47644502
-1.0100501 0.28318295 0.47761005
-0.13934675 0.28014001 0.47098777
-0.20368817 0.35534993 0.47643787
-0.10098813 0.35629797 0.47179437
-0.11920734 0.3834973 0.47052196
-1.4764135 1.0895476 0.47875953
-1.4481528 -3.6613653 0.48544109
0.11242083 -3.3484583 0.4843446
-1.0025258 -3.3367269 0.48719406
0.36051348 -3.1432915 0.480088
-0.91292417 -2.8917768 0.48210818
-0.61908251 -2.8463299 0.48261756
-0.014134778 -2.5321248 0.48242056
-1.4822648 -2.4036584 0.48102409
-0.47183114 -1.5435684 0.48082986
0.080047973 -1.5256726 0.48160911
-0.75250089 -1.3771694 0.48216972
-0.35640115 -0.73741758 0.48522958
-1.6124059 -0.66553968 0.48635262
-0.34958529 -0.60780299 0.48480287
-0.47054267 -0.44515789 0.48496222
0.15543476 -0.31183901 0.48185813
0.2342331 -0.30887467 0.48693871
-1.6287785 0.019140616 0.48687196
-0.19919479 0.22039351 0.48721331
-1.0176536 0.28910887 0.483091
-1.1138506 0.53648472 0.48421639
-0.66893697 0.88638681 0.48395133
0.16102296 1.1255754 0.48468527
-1.09627 -3.731823 0.49188432
-0.78236318 -3.6566648 0.49851036
-0.14208193 -3.6541646 0.49010831
0.24139743 -3.1371312 0.49729738
-0.044903021 -2.9764977 0.49992043
-0.47277686 -2.9674802 0.49977872
-1.4236997 -2.887816 0.49859211
0.42695218 -2.8139157 0.49574935
-1.1369095 -2.7964139 0.49927849
0.21601392 -2.566638 0.49799839
0.43226928 -1.8587381 0.49402058
-0.45784509 -1.3271283 0.49597806
0.14984739 -1.1048018 0.49818447
-1.6131483 -0.81853896 0.49518305
-0.68208045 -0.55204988 0.49426109
-0.79876775 0.080175005 0.49145377
-0.89626026 0.097100884 0.49289817
-1.0118628 0.40197337 0.49019891
-0.60959661 0.41557819 0.49814382
-0.51821041 0.50307441 0.49996859
0.30945587 1.1031195 0.49644238
-0.6982916 -3.6576281 0.50174773
-1.5005813 -3.4866326 0.505283
-0.010800827 -2.8842497 0.50348115
-0.53086531 -2.4696791 0.50484461
-1.3744056 -2.4575329 0.50282979
-1.4629288 -2.4136057 0.50339574
-0.54799944 -1.6412706 0.5050993
-1.2862482 -1.0546405 0.50120926
0.44525242 -0.99912941 0.50635934
-1.6145158 -0.88009644 0.50323731
0.4477663 -0.8302018 0.50499678
-0.42052642 -0.73428893 0.50139695
-1.6166698 -0.63870764 0.5026961
0.43835646 -0.5501048 0.50979125
-0.6849001 -0.34238824 0.50763363
0.0034645444 -0.016796798 0.50284022
-1.0101423 0.28946921 0.50080657
-1.2364895 0.32860678 0.50950193
-0.12205137 0.34052917 0.50874001
-0.11986563 0.38181072 0.50670755
-1.5404778 0.93315107 0.50883728
-1.3347661 1.1924865 0.5025329
-0.88425207 -3.7660236 0.5161168
0.026049767 -3.2171199 0.51120996
-0.1825064 -3.2067432 0.51278472
-0.92530453 -3.1948011 0.5160327
-1.1671165 -3.1862404 0.51672512
-0.10346174 -3.1804259 0.51737994
-1.3767922 -2.9081857 0.51623333
0.42160365 -2.76947 0.51836997
-1.380747 -2.5779903 0.51081514
-1.3265768 -2.366271 0.51719999
0.015514969 -1.7941048 0.51469892
-0.50456017 -1.7644196 0.51740193
-1.2688371 -1.578992 0.51974797
-0.44214496 -1.5380445 0.5190599
-0.35078722 -1.4955873 0.51464891
-0.73198652 -1.3867544 0.5117076
-1.6126342 -1.1392099 0.51528418
-1.6136292 -1.1130773 0.519081
-0.51750648 -0.59072578 0.5178104
0.27639642 -0.5819214 0.51244164
-1.2494694 -0.29597729 0.51781178
0.10801184 -0.16219018 0.51370794
0.058031972 -0.088775173 0.51168144
-0.054235786 0.11229593 0.51619101
0.1413189 1.1583834 0.51117998
-1.243539 1.2157798 0.51493901
-0.55573064 1.3216388 0.51255661
0.075958304 -3.1251314 0.52696711
-0.013789367 -2.74823 0.52807045
-1.07494 -2.7163551 0.52069259
-0.88162887 -2.5679657 0.52276224
0.29894486 -2.3646178 0.52269363
0.19165863 -1.939291 0.52594507
-0.47837931 -1.6250863 0.52527893
-0.74527478 -1.3306082 0.52056056
0.019274516 0.078470059 0.52098322
-0.015853981 0.26917696 0.52924716
-1.0537471 0.42458615 0.52961522
0.12129091 0.86394703 0.52974635
0.40232795 1.1098369 0.52518094
-1.5344188 1.1902966 0.5269289
-1.3773493 1.2014961 0.52947587
-1.4537475 1.2467515 0.52635062
-1.3938572 1.2586761 0.52158773
-0.87027854 1.3290305 0.52701324
-1.15713 -3.8018119 0.53239846
-0.93012673 -3.8016996 0.53193253
-0.92891347 -3.6663265 0.53097808
-0.91889626 -3.0888751 0.53717464
0.49411213 -2.9307628 0.53568769
0.49216634 -2.5350351 0.53701103
-1.4496331 -1.9242275 0.53714788
-0.63321179 -1.7929884 0.53667164
0.11237132 -1.5495256 0.53572679
-1.2763381 -1.4478942 0.5351119
-1.6254652 -0.32970369 0.53042984
-0.8099702 -0.16713941 0.53418404
-0.028229773 0.27781856 0.53366745
-1.4691367 0.42736191 0.53796279
-1.5585833 0.89726239 0.53675956
-1.5378754 0.97353864 0.5333783
-0.44548178 1.357161 0.53842282
-0.64042735 1.3609982 0.53059912
-0.53188038 -3.8269813 0.54205316
-0.34629965 -3.8243573 0.54076552
-0.33263993 -3.8241625 0.54066956
-1.4686768 -3.7256639 0.54974318
-0.65976 -3.6708291 0.54610878
-1.3608515 -3.1456172 0.54793477
-0.10548928 -3.0599506 0.54135245
-1.6067783 -2.8485935 0.54836994
-0.61938095 -2.772476 0.54831237
-1.5504808 -2.6662765 0.54847884
-1.0989821 -2.2582977 0.54273725
-0.028292781 -2.257792 0.54281068
-1.3247756 -2.0458269 0.54431927
-1.1967559 -1.4849184 0.54811001
-1.0083042 -1.4016829 0.54523289
-1.2963734 -1.0589288 0.54592597
-0.39840296 -0.93849862 0.54579782
0.45586306 -0.87673652 0.54823196
-0.37580243 -0.65256238 0.54216695
-0.77359796 -0.60142559 0.54398221
-1.626948 -0.53163928 0.54092842
-0.64035469 -0.4804647 0.54726177
0.46195245 -0.45793602 0.54979235
-1.2419975 0.63936675 0.54299641
-0.61184275 0.71785599 0.54598284
-1.5977304 0.72721708 0.54270101
0.098215304 0.74144995 0.54402399
-0.12863833 0.90822709 0.54817873
0.25513849 -3.8310442 0.55686933
0.40195367 -3.7521791 0.55870032
-0.41538462 -3.0027933 0.5548687
-0.29654112 -2.9798512 0.55849236
-1.14305 -2.741231 0.55191928
-0.013789153 -2.710376 0.55814868
-0.1958483 -2.1823163 0.55410415
-0.054888107 -2.1884615 0.55298042
-0.5134269 -1.615145 0.55417138
-0.40780848 -1.2632942 0.55668068
0.45319778 -1.1533432 0.55936497
-1.5663927 -0.3988803 0.55487818
-0.32995453 -0.27843109 0.55862093
-0.4214929 -0.165071 0.55028057
0.11641712 -0.10806841 0.55212897
-1.2153016 0.07049191 0.55344099
-0.89132965 0.14173447 0.55391812
0.21972948 0.20166382 0.55668163
0.063048489 0.61212188 0.55860788
0.41579977 0.80654848 0.55778706
0.16561602 1.135924 0.55824065
-1.0645511 1.2108446 0.55110317
-0.59669435 1.2838144 0.55361319
-0.87015462 -3.8718295 0.5692358
-1.5162269 -3.5481393 0.56732184
-0.4846727 -2.963932 0.56294399
-0.053691093 -2.8513002 0.56344235
-0.078947395 -2.844069 0.56399596
0.41481555 -2.7327461 0.56397516
-0.33840853 -2.6883252 0.56580001
-0.65247059 -2.6685951 0.56184912
0.47654 -2.3131897 0.5635854
-0.77153522 -1.5951476 0.56216365
-0.3997255 -1.305666 0.56801164
-0.89354688 -1.2980998 0.56417346
-1.1035888 -1.2741742 0.56854832
-1.6199497 -1.2289556 0.56977642
-0.44474196 -1.0204207 0.56242758
-1.2287782 -1.0031701 0.56960642
-0.75739187 -0.65161145 0.56999749
-1.2883341 -0.12103159 0.56828356
-0.92137867 0.23258269 0.56315368
-1.4137053 0.33377859 0.56912452
0.39096117 0.34776413 0.56147641
-0.034575865 0.56342268 0.56804323
-1.5098991 0.6288439 0.5631485
-1.3132527 0.99760842 0.56956494
0.36851358 1.2117395 0.56362414
-1.157397 -3.7654235 0.57637429
-1.4532881 -3.7546957 0.57270467
-0.093543611 -3.6782548 0.57106167
-1.2080802 -3.1345162 0.57567531
-0.090915531 -2.9328194 0.5703615
-0.68538183 -2.8069942 0.57074571
-0.12963066 -2.7406454 0.57487971
-1.2434007 -2.389931 0.57075489
-1.1865717 -2.0299799 0.57909852
0.43953285 -1.9297676 0.57563043
0.092885546 -1.3109697 0.57215804
-0.79406422 -1.3004696 0.57348335
-0.97126698 -1.2496705 0.57302886
-1.6212882 -1.1837419 0.57305223
-0.8510384 -0.99981475 0.57513285
-0.73248756 -0.64473796 0.57131767
0.2377947 -0.40146691 0.5794431
-1.2896727 -0.160919 0.5776574
0.11872592 -0.093513384 0.57562089
-0.28337407 0.046471059 0.57358217
-0.93663347 0.1020633 0.57085508
-0.82741678 0.14880586 0.5706442
-1.2226995 0.69464123 0.57569313
-1.1378572 0.90822697 0.57060272
0.33230442 1.2310678 0.57586879
-0.5046767 -3.6827679 0.58622813
-1.3751614 -3.3105648 0.58120787
0.45470685 -2.7568645 0.58217835
0.46390602 -2.7090051 0.58528942
-1.6304812 -2.4696927 0.58184612
-0.96105707 -2.4116495 0.58800375
-0.69540477 -2.2020402 0.58385837
0.19054492 -1.9737964 0.58214641
0.1842356 -1.5984613 0.58348769
-0.39796543 -1.0474508 0.58482105
0.35262099 -0.57279932 0.58895552
0.41830248 -0.36380413 0.58520985
-1.3958817 -0.27651399 0.58189511
0.12209377 -0.20981294 0.5864327
-1.640264 -0.14968865 0.58746141
0.22416861 0.27884713 0.58661455
-1.1338267 0.32941654 0.58894598
-1.1165085 0.49350923 0.58152604
0.21810527 0.53284144 0.58557397
-0.40859467 0.56814498 0.58937311
-1.5740843 0.88258618 0.58519626
-1.3743391 1.2109323 0.58417094
0.0064384043 1.2113761 0.58534384
-0.13214964 1.2230951 0.58314073
-0.056136139 1.2372923 0.58754379
-0.79676747 1.2597371 0.58727205
-0.24231936 1.2651514 0.58868843
-0.095047548 1.2936492 0.58572662
-0.75738919 1.3381557 0.58128673
-1.5671448 -3.3336203 0.59381622
-0.57153922 -2.8018858 0.59320003
-0.66973728 -2.7773123 0.59319961
-0.54577059 -2.704684 0.59320009
-0.66847497 -2.6659758 0.59319967
-0.12140522 -2.6019685 0.59320176
-0.61582762 -2.5487356 0.59319985
-0.81623286 -2.4539893 0.59189516
-1.0588261 -2.2989807 0.59066695
-0.31955594 -1.9411712 0.59724903
0.44553432 -1.8351828 0.59759009
-0.74593574 -1.1160432 0.59757745
-0.99850106 -1.1037853 0.59358424
-1.2514147 -1.0795263 0.59921211
0.15065494 -1.0742579 0.59003329
-1.3169672 -1.0217221 0.59754735
-0.31634608 -1.0078255 0.59535241
-0.47461176 -0.4892987 0.5988636
-0.45480192 -0.34890246 0.59681857
-0.024565198 0.24668269 0.59402752
0.46427834 0.29455861 0.59158856
-0.28845403 0.41283178 0.59554905
-0.32287911 0.56814528 0.59478688
0.24012074 1.2287145 0.59135383
0.019656423 1.2519578 0.59246802
-0.46032116 1.3001611 0.59456861
-0.36585158 1.3099751 0.59125394
0.17394404 -3.7964888 0.60823303
-1.0802127 -3.6889672 0.60706073
-1.6555388 -2.5764623 0.60963285
-1.4441551 -2.4746788 0.60515523
0.052830584 -2.4039726 0.60244936
-1.1158998 -2.3043582 0.6088953
-0.48236877 -2.0290408 0.60742021
-0.83091021 -1.9028198 0.60095817
0.089708298 -1.8671155 0.60611457
-0.15776476 -1.8561746 0.60389423
-1.2069291 -1.8242774 0.60867876
-0.31318808 -1.8007255 0.60405803
0.07861384 -1.6084001 0.60880458
-0.80605394 -1.0442206 0.60136646
-1.3416864 -0.9823764 0.60932332
-0.45263982 -0.96184945 0.60325336
0.46504533 -0.87560636 0.60418087
-0.64247537 -0.68730998 0.6096586
0.24209312 -0.36577076 0.60749269
-1.2173277 0.12753054 0.60698891
-1.5929886 0.59793758 0.60568863
-1.3318313 1.0478132 0.60458046
0.26256675 -3.0771613 0.61799622
-1.1756411 -2.8942106 0.6153897
-1.3667306 -2.6714818 0.61006987
-1.0858128 -2.4149821 0.61335731
-0.53715688 -1.992728 0.61610776
-1.3451301 -1.9792454 0.61166233
-0.46486038 -1.9541171 0.6150158
-0.74206769 -1.8983854 0.61698753
-0.34159604 -1.8273396 0.61068428
-1.312443 -1.6699572 0.61786819
-0.56570446 -0.55007404 0.61702782
0.42217234 -0.36565799 0.61576831
-0.15224251 -0.27658182 0.61814392
0.4801344 -0.08947973 0.61905044
0.0064462796 0.03485994 0.61742646
-1.6315598 0.12039067 0.61460203
-0.039935052 0.14803702 0.61630285
-0.057946123 0.28468505 0.61198533
-0.87631059 0.29325151 0.61272246
-0.28205365 0.3077985 0.61426818
-1.6430675 0.34526175 0.61895472
-0.26953354 0.51182246 0.61824191
-0.81656355 0.56811088 0.61411464
-0.064235315 1.2656251 0.61303717
-0.12317538 1.2739329 0.6135878
-0.063620098 -3.7867217 0.62750691
0.49099594 -2.3719976 0.62457055
-0.68834686 -1.8421525 0.62425351
0.3443526 -0.57901627 0.62990028
0.16278641 -0.27678493 0.62248147
-1.6452687 -0.20954895 0.62190437
0.21619283 0.24443465 0.62102097
-0.27960545 0.32248649 0.62147737
-0.79392463 0.56803781 0.6287424
-0.4911114 0.56806141 0.62420452
0.45291528 0.68678701 0.62879807
-1.2906716 0.69685972 0.6248188
-0.88432324 -3.6961112 0.63106751
0.21641459 -3.2558801 0.63046831
-1.2126732 -3.1166608 0.63435936
0.070142366 -2.4190066 0.6399107
-0.022020485 -2.3119471 0.634619
-1.2379791 -2.3052192 0.63335246
-0.47540155 -2.3040438 0.63486224
0.27820373 -1.8987912 0.63997531
-1.3300265 -1.7947274 0.6346066
0.14605136 -1.7465158 0.63229311
-0.77102804 -1.5029398 0.63627201
-1.3849714 -0.88081145 0.63990951
0.47100365 -0.7727443 0.63122833
-1.5298142 -0.51514876 0.63222474
0.064410254 -0.025642077 0.6380136
-0.85129374 0.048415359 0.6378966
0.010291891 0.2829982 0.63067812
-0.047655344 0.41067266 0.63517761
-1.1237663 0.43669122 0.630422
0.21627612 0.43863308 0.63900554
-0.6234414 0.47939491 0.63697535
0.35304958 0.56762946 0.63425016
0.037174832 0.62756234 0.6368227
-1.4406416 1.2118552 0.63842279
-0.74380463 -2.3828793 0.64528209
0.14544904 -1.725933 0.64284158
0.20468101 -0.96418685 0.64397001
0.47821891 -0.5335412 0.64836162
-0.64136422 -0.42717704 0.64569455
-1.0264928 -0.32629436 0.64286113
-1.294201 -0.21734133 0.64367479
-0.6404466 -0.1674659 0.64441669
0.025301985 0.30430478 0.64626932
-1.1372252 0.49437201 0.6410867
-1.1998956 0.61297905 0.64058614
-1.2202243 0.63724363 0.6482209
0.12992834 0.65800774 0.64483237
-0.83675569 0.88626224 0.64968354
-1.3571293 1.1861999 0.64882052
0.15803908 1.1986412 0.64849848
0.29538488 1.1950409 0.64595264
-1.1557163 1.222688 0.64900291
-0.6535486 1.3158299 0.64739728
0.14321829 -3.8033578 0.65427965
-0.076195471 -3.7019467 0.65067714
-1.3700738 -2.8367553 0.65578955
0.20456827 -2.6602261 0.65431553
0.4912639 -2.6687865 0.65284383
-1.3813308 -2.5611138 0.6545372
0.4553737 -1.9723653 0.65127891
0.46337867 -1.2197001 0.65980452
-1.50455 -0.55366218 0.65240461
-1.2069807 -0.31867397 0.65591806
0.18378882 -0.31582797 0.65287519
-0.4201206 -0.16764647 0.65762824
-0.47351676 0.56790161 0.65591371
-1.2296376 0.64108032 0.65614021
-1.284143 0.91732216 0.65871274
-1.4391935 1.047815 0.65274173
0.093397446 1.2153776 0.65501714
-0.81950152 -3.7071166 0.66805011
-0.45044604 -3.707382 0.66894269
-1.1918062 -2.4266729 0.66161799
-1.2995635 -2.2010553 0.66471422
-1.6159829 -2.0241594 0.66946375
0.45704979 -1.9498479 0.66607976
-1.111256 -1.5175476 0.66456324
-0.75590169 -1.5128564 0.6661036
0.25037035 -0.42856094 0.66604936
0.051179145 0.25713426 0.66537929
-1.2280103 0.40031701 0.66953659
-0.02841422 0.45829195 0.66660261
-0.84924418 0.56787235 0.6619342
-1.2336015 0.63886404 0.66231686
-0.41112155 0.88634843 0.66047132
0.18907878 1.1955919 0.66190302
-1.03953 1.2436547 0.6620993
-0.095804811 1.2451836 0.66517997
-0.30342647 1.2830467 0.66029501
-1.1221514 -3.7090578 0.67457306
-1.6250372 -2.9114304 0.67474741
-1.507269 -2.9180822 0.678716
-1.6454957 -2.6499147 0.67950833
-0.24839604 -2.423665 0.67941558
0.11576368 -1.6274412 0.67405683
-1.3862337 -0.92263067 0.67361104
0.05387757 0.31734735 0.67347383
-1.6347911 0.63551605 0.67567146
-0.96309865 0.90822703 0.67063719
0.15950607 0.96895623 0.67956507
0.24694552 1.1559774 0.67990798
0.024374928 1.1805699 0.6760053
0.36473492 -3.7988815 0.68106401
-1.251277 -3.7133188 0.68889225
0.3825317 -2.9105246 0.68307978
-1.3813868 -2.6265075 0.68704623
0.17464194 -2.0975668 0.68142688
-1.6309731 -2.0840428 0.68876851
0.42154583 -0.55643356 0.68546396
-1.5357029 -0.51497793 0.68154621
-0.18412234 -0.31987906 0.68104696
-1.6530907 -0.30494922 0.68628979
0.137302 -0.117748 0.68535632
0.1257098 0.10507019 0.68405586
0.3398641 0.49014804 0.6879372
-0.249479 0.91663492 0.68266487
-1.18629 1.2118437 0.68564796
-0.079596996 1.2268399 0.68263328
-0.63397968 1.3036894 0.68472672
-1.4289632 -3.8179598 0.69184351
-1.330783 -1.6858299 0.69574845
0.23562278 -1.1529785 0.69681633
-1.4025153 -1.1108353 0.69836426
0.47148061 -0.94916451 0.69286519
-0.68024504 -0.16782418 0.69697362
0.49156117 -0.025560074 0.69653553
-0.57357448 0.71785593 0.69571501
-1.6086845 0.75073969 0.69506603
-1.1945738 0.90822703 0.6961751
-1.5217836 1.1389799 0.69194877
-1.1843618 1.1952672 0.69360864
-1.0257849 1.2515051 0.69399488
-0.82618338 1.278893 0.69040149
-1.432502 -3.8115368 0.70699483
-0.037860908 -3.8151851 0.70115507
-1.5250065 -2.6126308 0.70133245
-1.596266 -2.5079966 0.70877624
-1.2241008 -2.442683 0.70454848
0.23709145 -1.8696241 0.70028466
-1.3544228 -1.3346698 0.70837432
-0.61018157 -0.29971957 0.70896763
-0.59472835 -0.28869027 0.70703679
0.49237072 0.0040116711 0.70715922
-1.4186976 0.22074184 0.70738029
-0.79609966 0.71785498 0.70422703
-0.9141044 0.91663504 0.7052297
0.16051732 0.95157319 0.70123756
0.37686998 1.0619688 0.70859087
0.31412208 1.0780134 0.70069188
-1.3768675 1.1492983 0.70375299
0.33339551 1.1838478 0.70143157
-0.056547269 1.2293077 0.70082438
-0.067347214 1.2478763 0.70964301
-0.56755191 1.2884437 0.70130759
0.098406985 -2.9146683 0.71860492
0.46874186 -2.788548 0.71151173
-1.6464018 -0.47868699 0.71190989
-0.62052965 -0.35761565 0.71910328
-0.76178557 -0.29100618 0.71723276
-0.84362638 -0.2767745 0.7192409
-1.6520129 -0.20623641 0.71668291
-1.3064263 0.10718204 0.71845919
-0.24006598 0.24876341 0.71971285
-0.78535104 0.71785498 0.7110244
-1.2101243 0.90822703 0.711272
-0.93574917 0.91663498 0.71140933
-0.12533434 1.2431008 0.71037436
-0.12258027 1.2548499 0.71491981
-0.54740775 1.2952332 0.71089917
-1.2865934 -3.778996 0.72140318
0.33786106 -2.7141509 0.72426337
-1.6598554 -2.5292368 0.7268849
0.21746084 -0.97557336 0.72389019
-1.3489302 -0.88389921 0.72364163
-1.6393081 -0.74028885 0.72005057
-1.5876445 -0.48485914 0.7227143
-0.48504758 -0.41241258 0.72869635
-0.23832116 -0.16866708 0.72899282
-1.2798212 0.0072514731 0.72683465
-0.23483947 0.29921132 0.72790581
-1.5876527 0.32950601 0.7271356
-1.334779 1.0900253 0.72321081
-1.2832283 1.1721386 0.72316909
0.034954481 1.1785045 0.72511411
0.10715191 1.1803606 0.72339255
-0.93020856 1.2691741 0.72077167
-0.49566483 1.2949961 0.72648406
-1.2865559 -3.727144 0.73535055
0.36919099 -2.5620878 0.73875517
0.36349672 -1.9133351 0.73355865
0.47516006 -0.66041774 0.73044765
-0.41217124 -0.46614563 0.73810321
-0.40612835 -0.43993843 0.73351526
0.43726 -0.40977448 0.73491377
-0.72063422 -0.27687481 0.7344026
-1.3058292 -0.26826477 0.73857409
0.14084293 -0.090843178 0.73231232
0.14025053 -0.081594616 0.73418331
-1.6536889 -0.058219943 0.73824584
-0.8981204 0.035626858 0.73542494
0.12415838 0.25044045 0.73091471
-0.57542431 0.56780064 0.7334702
-0.47603017 0.64635921 0.73140287
-0.77467591 0.71785516 0.73001182
-0.93445766 0.86464918 0.73560166
-0.84828061 0.91662806 0.73433554
0.31682616 1.0517215 0.73801124
-1.33543 1.1115847 0.73494023
-1.2848096 1.1835432 0.73051476
0.0070263147 1.2248619 0.73184961
-0.83244824 1.2751364 0.7334168
-1.2539228 -3.7569799 0.7479139
0.31182188 -2.5822077 0.74639511
-1.6746753 -2.5406172 0.7431581
0.50606036 -2.4600501 0.74274194
-1.4519446 -1.9128773 0.74835128
0.41730672 -1.9130337 0.7483353
-0.56350142 -0.5126493 0.74624443
0.065971717 -0.27679643 0.74831688
-1.0645148 -0.2603761 0.74585783
-0.93773502 -0.26269206 0.74577761
-1.1361952 -0.15977043 0.74583662
0.14306928 -0.10855314 0.74348271
-0.87736791 0.48274463 0.74892122
-0.22478825 0.51811957 0.74657279
0.14774565 0.74738002 0.74770576
-1.3173484 0.82612354 0.7495808
-1.319566 0.84445739 0.74829507
0.28668666 -3.8198357 0.7509383
-0.51808822 -3.8098886 0.75475585
-1.3756491 -3.5690243 0.75617874
-1.2853796 -2.3111422 0.75451624
-1.2942843 -1.5928606 0.75800872
0.22625397 -1.3948339 0.75669718
0.46868765 -0.54235554 0.75724387
-0.28192556 -0.16850315 0.75034255
-1.5097871 -0.13865364 0.75668609
-1.0225762 -0.045637693 0.75862354
-1.1784005 0.34305239 0.75405574
-0.25757661 0.90822697 0.75903344
0.27619332 0.95071131 0.75332975
-1.3784763 1.1465102 0.75684398
-0.2278347 1.2601548 0.75422823
-0.47462019 1.291404 0.75639772
-0.55185139 1.3010471 0.75062227
-0.52312881 1.3039931 0.75063324
-0.62893772 -3.8135853 0.76897812
-1.2235482 -3.7689633 0.76374924
-0.61210883 -3.7351148 0.76213586
-1.6333741 -2.8887463 0.76365131
-1.5145552 -2.6664293 0.76995897
-0.53305238 -2.3397148 0.76046282
0.43085292 -1.9195845 0.76277721
-1.2958252 -1.5886651 0.76758766
-1.3937801 -1.2914212 0.76392883
-1.384969 -1.0037533 0.76192963
-0.40249431 -0.5835638 0.76144576
0.29332113 -0.58147538 0.76487482
-1.6443692 -0.35728863 0.76009107
-1.3115118 0.022005711 0.76326966
-1.2518182 0.12498626 0.76614058
-0.89530593 0.19134322 0.76606202
0.030296026 0.4117493 0.76913404
-1.3188572 0.43561509 0.76157248
0.42800897 0.83788317 0.76789701
-0.23226331 1.2612782 0.76358366
-0.61492008 1.301038 0.76752496
-1.4644973 -3.8179634 0.77177143
0.40239787 -3.5394979 0.77629393
0.21807347 -3.4410253 0.77611357
-1.58002 -3.3739378 0.77905285
0.42260593 -2.6841226 0.77785957
-1.6361401 -0.55639517 0.77545744
-1.4188471 -0.43639833 0.77338535
-0.75270385 -0.30422261 0.77579528
-0.34691197 -0.19540423 0.77390039
-0.57443088 -0.14032575 0.77972198
-1.1980517 -0.11325134 0.77605325
-1.2704909 0.11299424 0.77861601
-1.3231122 0.32006478 0.770145
-1.3200927 0.50270325 0.77819955
-0.29058003 0.50834191 0.77491534
-1.6185316 0.65542561 0.77006865
-0.15342973 0.67282283 0.77270031
-0.50075418 1.2862458 0.77885509
-1.2900681 -3.7825198 0.78907824
-0.79723215 -3.7428901 0.78826475
-0.7591455 -3.7419932 0.78525019
-0.45119932 -3.7421141 0.78565776
-0.11943536 -3.7417481 0.7844274
0.18319206 -3.7410653 0.78213215
-1.3756785 -3.5710559 0.78761727
0.21850827 -3.5106597 0.78039944
-1.6499548 -2.8242977 0.78222495
-1.2337724 -2.4361906 0.78884596
-1.6131961 -1.6760912 0.78685606
-1.2956911 -1.596029 0.78303993
-0.86603701 -0.23625401 0.78915167
-0.90862173 -0.10541715 0.78878838
-0.90507656 -0.083319776 0.78273779
0.14824808 0.038601097 0.78920126
0.49271247 0.12598726 0.78443986
-0.41997334 0.71785557 0.78582859
-0.9179098 0.78270477 0.78987217
-1.05773 0.85201627 0.78156161
0.22296689 1.1661389 0.78539765
-1.3654077 1.1708058 0.78185022
-0.99497461 1.2411926 0.78733271
-0.28531319 1.2561489 0.78952777
-0.92882693 1.2608244 0.78168952
-1.3624218 -3.1043229 0.79814917
0.052436601 -2.4390044 0.79611087
-0.082300074 -2.3516247 0.79049659
0.28945795 -1.9030946 0.79111558
-1.3976252 -1.5845009 0.79773891
-1.1437688 -0.96421015 0.79574007
0.25667477 -0.66349673 0.79001117
-0.72010732 -0.27719587 0.79040813
0.48456737 0.0040755104 0.79271013
-0.44355881 0.031505771 0.79890549
-0.62642032 0.066142067 0.79890347
-1.2648602 0.15833764 0.7927984
-0.60410523 0.16009191 0.7989049
-0.58078229 0.19398272 0.79890537
-0.52729261 0.31208837 0.79890716
-0.91382515 0.3382068 0.79766917
-0.61465871 0.43217313 0.79890895
-0.55241299 0.49033374 0.79890978
-0.6798811 0.54012996 0.79891056
0.45219937 0.64637041 0.79468179
0.28541687 1.1572897 0.79725635
0.010212186 1.217958 0.79300499
-0.7292015 1.2731026 0.79246902
-0.54078615 1.2889055 0.79446507
-0.3505359 1.281733 0.79861224
-0.49693286 1.3177975 0.79540151
0.13602823 -3.7844861 0.80073643
0.37112266 -3.7079525 0.80668187
-1.1129282 -2.5591111 0.80976874
-1.2707388 -2.5256536 0.8066591
0.2095575 -2.4450502 0.80894542
-0.83367443 -2.3547466 0.80221796
-0.4861052 -2.3530474 0.80684704
0.10830621 -1.664837 0.80189508
-1.6122139 -1.6357231 0.80396789
-0.47791076 -0.62499297 0.8080076
-1.1515642 -0.593512 0.80699444
-0.46032467 -0.59147519 0.80385602
-1.50455 -0.55477953 0.80990106
-0.57092655 -0.49561206 0.80385602
-0.44817239 -0.46605596 0.80385602
-1.1032923 -0.44809443 0.8064124
-0.49708062 -0.42178604 0.80385602
-1.0286424 -0.41865018 0.80588925
-0.56862527 -0.38515344 0.80385602
-0.38793629 -0.31787395 0.8039515
-0.029069915 -0.30637997 0.80406535
-0.1361284 -0.23602942 0.80664659
-1.3056953 -0.10885618 0.80167639
-0.33250999 0.19620486 0.80236769
0.15716557 0.50371253 0.80706543
-0.54237932 0.56483591 0.80786538
-0.89539349 0.59389877 0.80502152
-0.97311866 0.86937267 0.8064636
-1.0059091 0.90822703 0.8091256
-0.97290868 0.91663498 0.80852318
-1.3546895 1.1706262 0.80635005
0.28965682 1.1741503 0.80692869
-0.65537 1.2812735 0.80558652
-1.3969624 -3.819828 0.81599694
-1.0953543 -2.5876324 0.81336832
-0.69011289 -2.4420049 0.81893712
0.23279698 -1.2358344 0.8145541
-0.83365548 -0.27694777 0.81320465
-0.70240003 -0.27731669 0.81959891
-1.321341 -0.21477959 0.81592208
-0.3889249 -0.20315477 0.81564504
-0.72641504 -0.15473261 0.81008476
0.49397445 0.24153939 0.81797379
0.10486253 0.46567389 0.81284285
0.0043917671 0.90822703 0.81908298
-1.5729787 0.91857773 0.81944704
-0.33421263 0.91283375 0.81866777
-1.4574077 1.1734613 0.81257665
-1.5037935 1.1817776 0.8158474
-0.47387171 1.26457 0.81347924
-0.97693664 -3.7548311 0.82839167
-1.1619869 -2.3662887 0.82461238
-0.73758894 -1.5896587 0.82014906
-1.4135255 -0.87679088 0.82182556
-1.3803838 -0.87982738 0.82284534
0.068191119 -0.61907637 0.82274139
-1.0462015 -0.60239887 0.82344568
-1.5493877 -0.51521581 0.82310939
-0.93268859 0.034710027 0.82986379
-0.76094139 0.049998108 0.82418883
-0.3673842 0.23044813 0.8245514
-0.6895268 0.41288131 0.82387376
-0.9500978 0.53625381 0.82176185
0.44853866 0.65531647 0.82876951
0.38881454 1.0125718 0.82389617
-1.3223919 1.1657689 0.82848823
-1.12315 1.2272666 0.82319391
-1.2888091 -2.8973033 0.83578897
-1.5420632 -1.9112035 0.83956158
0.24915412 -0.86063671 0.83032292
-1.3776758 -0.61648369 0.83157206
0.42346388 -0.55471158 0.83439815
-1.6318388 -0.40151998 0.83140749
0.47130418 -0.27133036 0.83470511
0.10276857 0.30744976 0.83353579
-0.66786134 0.37862402 0.83345336
-1.328554 0.78480011 0.83689064
-0.16109805 0.91663504 0.83775038
-0.018493567 0.91663498 0.83557427
0.17213172 1.0216126 0.83463615
0.25161201 1.1413349 0.83741605
-1.5594511 -3.4400785 0.84578669
0.12374378 -2.828784 0.84839618
-1.0593021 -2.4457448 0.8473897
-0.12474499 -2.3672452 0.8492099
-0.74298358 -1.6232464 0.84613591
-0.27920136 -1.5663407 0.8467595
0.45050564 -1.0482175 0.84452742
0.25512016 -0.82521552 0.84792423
-0.31566441 -0.64042723 0.84573793
-1.3321586 0.34725067 0.84680068
-0.53188366 0.51517904 0.84484094
-1.5868332 0.82591897 0.84265423
-1.3301722 0.83427465 0.84403265
-0.89103758 0.88612109 0.84103912
0.19946155 1.1621916 0.84961379
-1.420409 1.2131835 0.84972513
-0.13559361 1.2569792 0.84484321
-0.44572842 1.2942743 0.84334511
-0.27621901 -2.3716867 0.85644543
-0.459216 -2.3681905 0.85953194
0.11675497 -2.3684165 0.85878068
0.1319184 -2.3629365 0.85327506
0.2192838 -1.9573549 0.85521317
0.15831071 -0.26037249 0.85074538
-0.35725307 0.15326867 0.85334367
-0.91200221 0.91663504 0.85239172
-1.5060633 1.1536002 0.8586123
0.035164699 1.2251163 0.85114759
-1.2287687 1.2560494 0.85928839
-0.89480358 1.2504481 0.85612226
-0.28799 1.2587686 0.85493648
-0.75862992 1.2690208 0.85888368
-0.73290908 1.2836549 0.85554439
-0.045904022 -2.3738186 0.86902809
-1.3481746 -2.0620635 0.86521399
-0.50555474 -0.66489637 0.86738616
0.13954212 -0.6522038 0.86870635
0.15667716 0.049886301 0.86538434
-0.35289943 0.22783713 0.86048853
0.47568157 0.29270768 0.86068076
0.47382742 0.30883211 0.86912233
-0.57188129 0.44434723 0.86152101
-1.1162918 0.88404405 0.86136627
-0.00029309839 1.2474622 0.86052215
-0.81322151 1.2825024 0.86991632
-0.45371714 1.2845378 0.86291444
-0.76204622 1.2968262 0.8618865
-0.26863754 -3.8255544 0.87018883
0.21689925 -3.3629537 0.87483311
0.21434213 -3.2791779 0.87238133
-1.3636461 -3.0575538 0.87243736
-1.4307138 -0.77832788 0.87269878
0.16549133 -0.27679867 0.87931156
-1.2466445 -0.25567701 0.87353772
-1.5677065 -0.24365845 0.87592733
-1.27522 0.77940667 0.87851125
-1.05773 0.84164625 0.87833548
-1.3591874 1.211699 0.87033832
-1.1616062 1.2723695 0.87891883
-0.86100793 -3.8239155 0.8838765
-0.76092434 -3.82197 0.8858794
-1.2550422 -3.8105266 0.8885082
-0.44232312 -3.8192873 0.88792968
0.15603022 -3.8185275 0.88308764
-0.92457426 -2.4330151 0.88695467
0.18196413 -0.65622407 0.88486314
-1.2032648 -0.44986519 0.8849268
-1.6317961 -0.13650794 0.88429922
-0.01632596 -0.013290207 0.88318866
0.47158733 0.033483438 0.88607436
0.16977479 0.36594975 0.88525283
-1.3378493 0.61127549 0.88718557
0.38538319 0.97143543 0.88080418
0.18422478 1.2040963 0.88678265
0.024586294 1.2645373 0.88003445
-0.27132988 1.302743 0.88508821
-1.1208148 -3.8268695 0.8982296
0.047544144 -3.8035483 0.89282966
-0.043856576 -3.7833962 0.89553046
0.34571999 -3.7664189 0.89816517
0.23073378 -1.0509746 0.89146614
-1.1110171 -0.68206418 0.89422554
-1.6133842 -0.49208382 0.89792717
-0.29388398 -0.142488 0.89442998
-0.46568209 0.24153414 0.89879233
0.171855 0.33358577 0.89911455
-1.6240783 0.40402204 0.89635706
-0.21654722 0.40451777 0.89964652
-0.57209021 0.5294041 0.89190376
-0.7597754 0.55857015 0.89022219
-0.19916177 0.78919727 0.89496243
-0.26417306 0.88606572 0.89040691
0.17150661 0.92437613 0.89063525
-1.3309128 1.2003931 0.89660788
-1.3739872 -3.8226278 0.90984017
-1.2501569 -2.4539697 0.90996218
-1.5927559 -1.4623148 0.90736628
-1.0140035 -0.86473906 0.90369964
0.46125901 -0.16100745 0.9044621
-0.055756904 0.17757323 0.90324926
0.0015369647 0.17754015 0.90498978
0.1706856 0.50784475 0.90850776
-0.0070596077 -3.7546933 0.9124372
-1.3770672 -3.7199011 0.91309619
0.38413686 -1.9129739 0.91241777
0.43698207 -0.85636497 0.91554296
0.43662313 -0.47225606 0.9124065
-0.84984934 -0.24537034 0.91846836
-0.96812332 -0.22237894 0.91897231
-0.77977109 -0.19777504 0.91466081
-1.0003991 -0.077137806 0.91509211
-1.6244879 -0.035927612 0.91899443
-0.4897061 -0.014705729 0.91007698
-0.91937053 0.82164419 0.91431588
-0.084953949 0.92851806 0.91591966
-1.060816 -3.7615917 0.92468107
-0.60783899 -3.7415438 0.92157567
-0.3445611 -3.7309194 0.92293942
-1.4329436 -1.8566304 0.92980146
-1.4107091 -1.2076972 0.92493832
0.24044585 -1.0590134 0.9256494
-1.4812149 -0.60378897 0.92597103
-0.13076495 -0.27715313 0.92932642
-1.3367563 -0.2336321 0.9268406
-0.84314197 -0.23436311 0.92706895
-0.29750279 0.080158912 0.92990303
0.17599756 0.73501784 0.92520624
-0.82626551 0.90822703 0.92633027
0.089424804 0.9207505 0.92870033
-0.54601419 1.2903327 0.92201298
-0.85496497 -3.7022641 0.93046796
-0.63509983 -3.6916499 0.93532586
-0.31568706 -3.6760235 0.93786061
0.24329813 -3.6646504 0.93168205
-0.018119052 -3.6559558 0.93879104
0.41144711 -3.2688289 0.93744874
-1.1359605 -2.4427116 0.93369609
-0.42376181 -2.4424143 0.9322629
-1.1961734 -2.3935103 0.93699932
-1.579751 -1.4800522 0.93973768
0.43058255 -0.90684527 0.93417478
0.43338811 -0.7630896 0.93462527
-0.66099221 -0.67971587 0.93100327
-0.055169668 -0.6750108 0.93282539
-0.62610096 -0.22353891 0.93402183
0.45364964 0.28367677 0.93374658
-1.1188529 0.72379303 0.93097603
-1.5447237 0.90832549 0.93452501
-0.2422075 0.90982145 0.93773556
-0.22120136 0.91411453 0.93182313
-0.98011976 0.92759621 0.93915331
-1.3473892 1.0179138 0.93325168
-0.94281232 1.0182613 0.93529117
-1.1991327 1.129383 0.93909836
-0.71859676 1.2450469 0.93804389
-1.2426546 -3.7765574 0.94928157
-0.11160141 -3.7498262 0.94956702
-0.32507116 -3.6973135 0.94500589
-1.025884 -3.6771967 0.94802606
0.32944819 -3.6450787 0.94353926
0.41051602 -1.9263794 0.94266814
-0.9050951 -0.69237131 0.94589311
-0.54374141 -0.69411242 0.94663966
-0.59419018 -0.68884861 0.94995362
-1.2458671 -0.67496431 0.94441068
-1.6037028 -0.43321502 0.94367826
-0.62151635 -0.1618702 0.94855547
-1.6149087 0.097090125 0.94939929
-0.84047377 0.90748113 0.94348431
-0.21476686 0.91103929 0.9437139
-0.095853984 0.91617906 0.94115299
-1.2264611 1.0342038 0.94698298
-0.73245454 1.0473778 0.94639623
-0.69530374 1.0488732 0.94702739
0.15973657 1.0653043 0.94060594
-0.010806569 1.1162771 0.94660074
-0.088072374 -3.7949195 0.95581532
-0.47408497 -3.6268516 0.95266747
