# .PCD v0.7 - Point Cloud Data file format
VERSION 0.7
FIELDS x y z
SIZE 4 4 4
TYPE F F F
COUNT 1 1 1
WIDTH 1448
HEIGHT 1
VIEWPOINT 0 0 0 1 0 0 0
POINTS 1448
DATA ascii
-0.064538769 0.38297719 0.43697533
0.2927554 0.595411 0.43902969
-1.6759129 0.82232177 0.43776459
-1.6921723 1.1337891 0.43326443
-1.3370842 1.1591383 0.4384591
0.13920552 1.4204509 0.43054375
-1.45508 -2.679028 0.44440672
-1.7131839 -2.5828576 0.44528452
-0.29265678 -2.1930511 0.4447259
0.27176681 -1.8515379 0.4439117
-0.71909446 -1.7932751 0.44126585
-1.673352 -1.35892 0.44523457
-0.56080747 -1.3133895 0.44000971
-1.5914419 -0.97705162 0.44431651
-1.1228321 -0.93937147 0.44862208
-0.030030938 -0.30974102 0.44531375
-1.5598831 -0.10266374 0.4412677
0.29104179 0.38432536 0.44692779
0.14155583 0.54101992 0.4460687
-1.71339 0.73257327 0.44429734
-1.541706 1.1315596 0.44697258
0.14740799 1.2259915 0.44418621
-0.012887508 1.5005572 0.44420022
-1.7551835 -2.7282369 0.45589298
0.25547177 -1.9316113 0.45302424
0.055968896 -1.9285201 0.45382017
-1.114886 -1.809832 0.45775688
0.10823309 -1.6954567 0.45477888
-1.6645285 -1.3462763 0.45577675
-0.14640537 -0.93971539 0.45494878
-0.2243627 0.30295169 0.4573006
-1.6574302 0.83734012 0.45151037
0.27514324 1.169706 0.45853692
-1.3097606 1.6530311 0.45448998
-0.5459584 1.6845627 0.45087978
-0.37639219 1.742485 0.45151639
0.27384305 -2.7879786 0.46847409
-1.66626 -2.4312992 0.46919936
0.19936809 -2.2933977 0.46200335
-1.2629516 -1.8160269 0.4650901
-1.1116579 -1.8151615 0.46306515
0.093027815 -1.7700233 0.46117389
-0.4669109 -1.3005443 0.46931547
-1.6314325 -0.77112031 0.46644354
-1.7818815 -0.30506229 0.46210155
-0.97845221 -0.23905265 0.46796566
-0.51876462 0.072782196 0.46963549
-1.3062042 0.62754482 0.46088725
-1.7347544 1.290504 0.46616319
-0.82052112 -3.1947138 0.47506285
-0.24298206 -3.1070223 0.47465748
-1.7426627 -2.9149415 0.47774202
-1.8000194 -2.7774973 0.47634238
-1.4002786 -2.7672093 0.47029799
-1.671468 -2.7242329 0.47097996
-0.29188535 -2.6685679 0.47435004
-0.29249161 -2.356606 0.47749859
-1.2227347 -1.2993981 0.47479424
-0.41646826 -0.9398163 0.47180903
-1.4661696 -0.86410093 0.47038284
-1.6269701 -0.82201129 0.47389227
0.10275421 -0.74784362 0.47965997
-1.0835207 -0.53684783 0.47771791
-1.7843894 -0.41577375 0.47487208
-1.4866424 -0.32737103 0.47069758
-1.4736624 -0.32812947 0.47088176
-1.305521 0.19364896 0.47009116
-1.8359462 0.25270075 0.47879335
-1.306448 0.71700066 0.47850123
-0.21525152 1.1525829 0.47645044
-0.67895365 1.2031034 0.47207001
-1.5879934 1.4707417 0.47948816
-1.5011275 1.5208106 0.47280648
-0.20169765 1.6403377 0.47231376
0.055092789 -3.0738592 0.48188186
-1.3936344 -1.8293619 0.48070723
0.053808354 -1.3047423 0.48726618
-1.5282575 -0.75147247 0.48387712
-0.41397941 -0.74455404 0.48344657
-1.4648373 -0.56197006 0.48906475
-0.97502971 -0.37118861 0.48462248
-1.6355541 0.41133252 0.48399314
-0.38234189 1.7446823 0.48554865
-0.72327554 1.7511631 0.48612058
0.28510523 -2.2572184 0.49509782
-1.419715 -1.8415672 0.49368334
0.18038861 -1.4311874 0.49853227
-0.9922995 0.076931939 0.49448621
-0.22693023 0.40905255 0.49659407
-1.8202223 0.45143479 0.49868745
-1.6574301 0.78858429 0.49301025
-0.024810797 0.96073252 0.49863553
0.26583126 0.96861207 0.4955005
-1.6725147 1.4041991 0.49177843
-1.1348764 1.743183 0.49728903
-0.64672983 1.7499263 0.49751282
-1.5948751 -3.0610843 0.50309974
-1.4968383 -2.75741 0.50618911
-1.45508 -2.6687057 0.5018577
-1.5693595 -2.6331182 0.50156057
0.10242619 -2.0962043 0.50993025
-1.0352436 -1.853911 0.5016607
-0.25384164 -1.8509367 0.50125188
0.21558064 -1.7008052 0.50902778
-0.05631578 -0.50076836 0.50701535
-1.03336 -0.45907247 0.50702608
-1.5403862 -0.40063304 0.50913537
-1.5453203 -0.21273309 0.50848848
-0.97839683 -0.19351843 0.50240278
-1.7966945 -0.066453308 0.50824213
-0.97107637 0.086424924 0.50940335
-0.96641576 0.23163441 0.50767326
-0.031432904 0.46914908 0.50810075
-0.54093093 0.88349158 0.50202268
-0.94057423 -3.2003884 0.51967371
-0.060449153 -2.7035916 0.51943088
0.13814726 -2.4661977 0.51528198
0.28039759 -1.8550732 0.5186823
-1.7440155 -1.7313857 0.51527423
-0.96253341 -1.564808 0.51553959
-0.61678588 -1.2849841 0.51179951
-0.24417812 -0.92954761 0.51010811
-0.78324533 -0.74172145 0.51883221
-0.054990981 -0.73781067 0.512631
-0.90040451 -0.66753787 0.51817161
-0.82100439 -0.6304667 0.51759511
-0.81263304 -0.63947058 0.51768601
-0.79514444 -0.54303437 0.51652229
-1.0284046 -0.48908371 0.51254648
-1.3421164 -0.43391481 0.51687801
-0.86362493 -0.3075189 0.51387811
-0.79365075 -0.23710047 0.51292676
0.0082597379 -0.20261359 0.51066399
-0.93731749 -0.043524589 0.51089352
-0.57392967 -0.025578296 0.51009846
-0.73582119 0.0026244866 0.51002723
-1.4508245 0.37259227 0.51382339
0.25529942 0.97019589 0.51957613
0.30398098 1.0251091 0.51386845
-0.13729285 1.6517636 0.5184207
-1.3182182 -3.1526177 0.52959991
0.023818277 -2.7504175 0.52709013
-1.8154509 -2.6953371 0.52989513
-1.3031552 -1.9076147 0.52379316
-0.32333562 -1.870693 0.52068198
-0.20387907 -1.7551606 0.5284096
-0.78471321 -1.6939846 0.52997804
-0.15015078 -1.6402761 0.52881384
-1.6924341 -1.6267025 0.52741861
-0.7595464 -1.5757262 0.52854413
-0.94360691 -1.5674758 0.52880204
-0.28103545 -1.5657263 0.52826351
-0.68075448 -1.4835873 0.52731353
-0.64628053 -1.4593364 0.5269646
-1.3130922 -1.2939587 0.52712852
-0.74427295 -1.2439029 0.52463055
-0.94619757 -1.1469746 0.52388054
-0.71966118 -1.1445374 0.52342165
-0.66904551 -1.0571021 0.52230328
-0.7167446 -0.98907137 0.52159816
-0.93294883 -0.95742732 0.52163404
-0.39868051 -0.86793947 0.52627772
-0.0097899027 -0.86678338 0.52399236
-0.077192187 -0.85207963 0.52825963
-0.92998654 -0.83965391 0.52024561
-0.24989685 -0.80724597 0.52077329
-0.34018701 -0.49628001 0.52200675
-1.6154571 -0.47659943 0.52220172
-0.22686587 0.31645811 0.52264333
-0.026779413 0.31281704 0.526366
0.15199418 0.94658482 0.52492613
-0.2735799 -3.1662831 0.53629667
0.2739222 -2.2099941 0.53307211
-0.77776647 -1.9948452 0.53348947
-0.66130102 -1.9972311 0.53329301
-0.63641495 -1.9282008 0.53243637
-1.4708141 -1.7472885 0.5395261
-1.015354 -1.626672 0.53207791
-1.0180248 -1.6031818 0.53309095
-1.3267801 -1.589672 0.53248465
-1.2375721 -1.5609553 0.53286737
-0.28211817 -1.5213003 0.53951168
-1.769217 -1.3541158 0.53059483
-0.41186509 -0.79778969 0.53560245
-0.25115484 -0.69052458 0.53330815
-0.21370733 -0.28839934 0.53422415
-0.53231734 0.31591338 0.53043455
-1.7069746 1.2174808 0.53822708
-0.13261907 -3.1341281 0.54763341
0.2973651 -2.7043252 0.54873204
-1.2294309 -2.5515523 0.54864979
0.29657355 -2.476527 0.54849589
-1.806022 -2.1568556 0.54690415
-1.4784533 -1.656453 0.54886144
-0.046708938 -1.6244245 0.5491007
-1.5952357 -1.3091111 0.54402232
-0.18762797 -1.2919543 0.54682654
0.25103909 -1.1135653 0.54918754
0.2552484 -0.89977497 0.54468536
-1.4985099 -0.64187062 0.54520857
-0.94478786 -0.56817228 0.5441426
-0.24940583 -0.55368942 0.54298532
-1.0342857 -0.40447408 0.54337293
-0.11321343 -0.37014475 0.54569501
-1.4153187 -0.34819627 0.54536426
-0.17599261 -0.32169482 0.54436648
-1.5633527 -0.28763562 0.54116821
0.12479118 0.54803139 0.54719955
0.2204219 0.93496466 0.54388893
-0.064273998 -2.6229274 0.55579519
-0.062549666 -1.5287898 0.55515659
0.17018025 -1.5042765 0.55322772
-1.0559243 -1.4576151 0.55392349
-0.2707305 -1.4397726 0.55617684
-1.7908062 -0.91808259 0.55514753
-1.5809793 -0.90119171 0.55567002
-0.45776272 -0.90540051 0.55888784
-0.91955578 -0.49386349 0.55681527
-1.5362196 -0.2976889 0.5599457
0.26319039 1.1822414 0.55081421
-1.7537067 1.2253 0.55407202
-0.029413437 1.5719244 0.55515754
-1.2181032 1.7126485 0.55076528
0.1603571 -2.7090375 0.56560826
-1.8389951 -2.6496406 0.56405795
-0.064273998 -2.6159785 0.56048554
0.31414533 -2.3551536 0.56521678
-1.8347238 -1.9885108 0.56705385
0.25005174 -1.9684802 0.56918138
-0.97727668 -1.6633577 0.56151628
-0.26015088 -1.416065 0.56219333
-1.3813231 -1.4002869 0.56536043
-1.2695478 -1.2907164 0.56048989
-0.55765009 -1.2808064 0.56876582
0.2604903 -0.69959646 0.56963909
0.26027563 -0.59524918 0.56520104
-0.56159157 -0.026669361 0.56025469
-1.0211225 0.31922385 0.5610044
-1.5802504 0.45141032 0.56176466
-1.6839285 0.58015525 0.56544304
-1.6232303 0.90805447 0.56719065
0.095553912 1.0846398 0.56996179
-1.093486 1.1984727 0.56014925
-1.7487512 1.2342331 0.56952494
-1.1310863 1.5222108 0.56734455
-0.064273998 -2.6103299 0.57627589
0.23583503 -1.7149887 0.57489735
-1.0556952 -1.3056943 0.57448578
-1.1140395 -0.57244647 0.57142836
-1.5287986 -0.56902456 0.57935351
-1.797982 -0.51532251 0.57825905
-0.49920261 -0.43589568 0.57061362
-1.5613005 -0.32674167 0.57642835
0.26366207 -0.32306924 0.57776952
-0.9763875 0.78719449 0.57492375
-0.46311218 0.98324716 0.5727821
-1.4889181 1.0760489 0.57704693
-1.5772572 1.2082428 0.57023102
-1.4793403 1.5982221 0.57139784
-1.1712567 -1.7858143 0.58318353
-0.40753576 -1.7874081 0.58382452
-0.7657066 -1.6420912 0.58965236
-0.75145626 -1.6467445 0.58937448
-0.78632277 -1.6225241 0.58877105
0.076288342 -1.5961461 0.58990967
-1.777846 -1.4723408 0.58723474
-1.7805305 -1.4180393 0.58793604
-1.4591234 -1.3429241 0.58940744
-1.6063416 -1.3122613 0.58289784
-0.32774454 -0.93590981 0.58887476
-0.0059937816 -0.61916643 0.58825594
-0.42595208 -0.5346635 0.58599532
-0.58895749 -0.24711928 0.58071685
-0.6132251 -0.17658117 0.58292395
-0.77995241 -0.15720069 0.58269775
-0.85506904 -0.10917059 0.5856775
-1.3067925 0.66353333 0.58203411
0.13644412 -2.7209809 0.59403181
-0.059611067 -2.6711154 0.59203464
-0.29329395 -2.2019138 0.59862834
0.23522919 -2.1449082 0.59966832
-1.7692363 -1.7670746 0.59790099
-1.5839784 -1.5471103 0.5976516
-0.84305143 -1.4920737 0.59353769
-0.67622757 -1.4663877 0.59527421
-0.54881561 -1.4030204 0.59387362
0.25605989 -1.359199 0.59331244
0.0020170566 -0.87249243 0.59721106
0.019564252 0.0020166016 0.59026927
-0.98511994 0.099542551 0.59424484
-1.6958866 0.25210023 0.59204131
-1.6323305 0.57904005 0.59514344
0.18161058 1.1102338 0.59293431
-0.99386191 1.1895251 0.59258026
-1.4247578 1.6254025 0.59616429
-1.7336957 -2.4576197 0.6028254
-0.61778051 -1.9601059 0.60890162
-1.0261269 -1.9591806 0.60525179
-0.073156655 -1.8004947 0.60847503
-0.56327856 -1.7544764 0.60513419
-0.72562796 -1.7437407 0.60313416
-0.79099321 -1.4259832 0.60084349
-1.1064932 -0.9414292 0.608585
-0.77591091 -0.1837294 0.60088497
0.02130881 -0.12526762 0.60734451
-1.7344902 0.96325141 0.60575759
-0.22860093 1.0286727 0.60747313
-1.807539 1.1545908 0.60965395
0.21960425 1.2048351 0.60612464
-0.33104303 1.7258809 0.60479933
-0.43947428 1.7403318 0.60945922
-1.730407 -2.9075963 0.61539376
-0.29273745 -2.5304332 0.6169284
-0.75480556 -1.9638529 0.61990035
-0.35645509 -1.9667729 0.61947095
-0.17414665 -1.9447075 0.61969489
0.2611587 -1.8461773 0.61922371
0.11062999 -1.613314 0.61445713
0.16031328 -1.3470159 0.61480606
-1.423221 -0.93568575 0.61905533
-0.94828707 -0.73168194 0.61929035
-0.91120738 -0.71374118 0.61172128
-0.85607064 -0.57238382 0.61465394
-0.6318472 -0.24129891 0.61850715
0.15124451 0.32134628 0.61403382
-1.5849229 1.4917575 0.61012346
-0.020815048 1.5560949 0.61171693
-1.5761223 -1.3532684 0.62652284
0.079196051 -1.3416198 0.62972403
-0.90013498 -1.0274187 0.62577415
0.0022784879 -0.94308877 0.62075734
-0.62081659 -0.62600094 0.62432456
-0.70748222 -0.35148728 0.62154758
0.26816386 -0.24105772 0.62532097
-0.82021266 0.32761711 0.62769806
-1.0173312 1.0028398 0.62894094
-0.95041156 1.0374604 0.6280123
-0.62665057 1.0569803 0.62776673
-1.3418388 1.191633 0.62008524
-1.81748 -2.6946976 0.63228554
-1.763669 -2.3533626 0.63803458
0.31958503 -2.0736282 0.63813823
0.1025378 -1.7649577 0.63569874
0.26029247 -1.3393648 0.63554049
0.0062547605 -1.1228995 0.63901347
-0.11075715 -0.94096029 0.63677865
-0.62081152 -0.60298169 0.6334548
-1.7673209 0.16858017 0.63785815
-0.55714375 0.32796985 0.63825011
-1.8445374 0.35004929 0.63406652
-1.0022004 0.98051113 0.63367438
-0.075172104 0.99651331 0.63416135
-0.48636246 1.1820595 0.63482231
0.09459386 -2.6621599 0.64269036
0.25840431 -2.4517097 0.64729583
-1.4678514 -2.4429069 0.64294708
0.079087481 -2.4109578 0.64842695
-1.3936139 -1.8172354 0.64574444
-0.75408065 -0.96149516 0.64412344
-0.78292292 -0.95469832 0.6473614
-0.37994516 -0.83571315 0.64361966
-0.49284643 -0.80493832 0.64001781
-0.84180284 -0.7050854 0.64528322
-0.76157898 -0.56680322 0.64152437
-0.55684763 0.047700871 0.64538455
-1.8126719 0.14390568 0.64969182
-0.8689009 0.32893246 0.64202595
0.087971926 0.50240564 0.64879066
0.25769791 0.58046597 0.64692771
-1.7673043 0.63816291 0.64646292
0.24596843 0.75025803 0.64036858
-1.3073756 0.81920803 0.64363289
-1.7948608 0.91183615 0.64761221
0.30449384 0.92768586 0.64686286
-0.75492537 0.98730731 0.64050925
-0.83814907 1.1750593 0.64557225
0.16533639 1.3450115 0.64563668
-1.4357885 1.6178623 0.64628756
0.21264364 -2.9068508 0.65028161
-0.28135431 -2.6753612 0.65898317
0.043170501 -2.3160245 0.65801698
-0.73396653 -1.9744067 0.65718019
0.25921902 -1.3930547 0.6522032
-1.5542839 -1.1856349 0.65326875
0.10236962 -0.85837173 0.65023255
-0.94773656 -0.83876318 0.65739822
-0.84231275 -0.69400394 0.65778577
-0.73335391 -0.59324628 0.65894192
-1.7950395 0.37891906 0.65362835
-1.6552241 0.43198049 0.65865743
-1.450098 0.60996759 0.6522069
-0.22815882 0.7093119 0.65285385
-0.84396994 0.86554027 0.65897435
-0.66670191 0.90617114 0.65272677
0.27239048 1.141844 0.65155047
-1.6953061 -2.6126518 0.66395468
-0.048034783 -2.4431486 0.66141766
-0.88767052 -1.9781407 0.66988969
0.25162631 -1.7967706 0.663221
-1.1259223 -0.95736629 0.66326785
-0.92074227 0.5763768 0.66949755
-1.45645 0.66290689 0.66315436
-1.568879 0.87984079 0.6667285
-0.85708696 1.4720395 0.66394043
0.314583 -2.4731307 0.67175889
0.29771 -1.9824162 0.67277533
-0.66433603 -1.0201675 0.67563415
-1.3348916 -0.86243421 0.67561245
-0.30940998 -0.86256886 0.67817277
-0.0087232981 -0.7365157 0.67686528
-1.8058758 -0.47075713 0.67147338
-0.94708288 -0.091044798 0.6709522
0.044106811 0.124851 0.67332619
-1.3070457 0.58783102 0.67129529
-1.6515579 0.60084987 0.67967635
-0.97116804 0.77757496 0.6754638
-0.87122285 0.78733039 0.67999268
-0.76883322 0.78371167 0.67654824
-0.90776277 0.79714727 0.67220032
-1.4067223 -3.1287987 0.68120533
-0.03803011 -2.8552659 0.68419492
-1.8139975 -2.711395 0.68878067
0.024228666 -2.488482 0.68775582
-1.6098154 -2.428369 0.68707293
-0.77015722 -1.983242 0.68913811
-1.6214199 -1.7889121 0.68514705
-0.89283359 -1.7894642 0.68345171
-1.5910581 -0.54212332 0.68848825
-1.6223521 -0.42540193 0.68417358
-1.5811095 0.06043119 0.68071139
-1.8069377 0.2543287 0.68384218
0.22832818 0.55273837 0.68279362
-1.0805877 0.73091102 0.68909454
-0.73703516 0.78244048 0.68254417
-1.4552562 0.82757533 0.68969244
-1.5397301 0.99060071 0.68704492
-0.95697522 1.6935418 0.68844265
-0.13877855 -3.1321468 0.69339347
-0.013785198 -1.9988945 0.69216776
-0.51655322 -1.985899 0.69378889
0.25445342 -1.7195265 0.69212878
-1.5244279 -0.76218116 0.69072872
-0.69959557 0.029405013 0.69783151
-0.67503905 0.076473758 0.69008768
0.03071001 0.092726618 0.69873786
-0.95635438 0.11490693 0.69737917
-1.8082001 0.23761719 0.69203961
-0.98064244 0.27883679 0.6913296
-1.0469642 0.33436275 0.69148326
-0.74716246 0.73861086 0.69137484
-0.22891268 0.98321289 0.69944018
0.21616088 1.0413224 0.69190353
-0.78664374 1.0726569 0.69397873
0.29041633 1.1027939 0.69368845
-1.5282974 1.4678638 0.69642335
-0.20710699 1.5421922 0.69993246
0.314583 -2.3326941 0.7061913
-1.84244 -2.2191367 0.70776796
-0.72572708 -1.988368 0.706936
-1.0776906 -1.9776748 0.70071912
0.11202285 -1.5382274 0.70766324
-0.62060511 -0.92213476 0.70044267
-0.5888744 -0.85005164 0.70324844
0.088058427 -0.80829924 0.70984095
-1.8123803 -0.16462809 0.70277941
-1.0033256 0.24180353 0.70962131
-0.4158093 0.33602643 0.70659208
-0.2159912 1.0276735 0.70191276
-0.75155616 1.5427593 0.70967853
-1.1603875 1.700892 0.70603752
0.1900685 -2.9728637 0.71182483
-1.45508 -2.3782902 0.71820098
-0.30642909 -1.9551491 0.71201861
-1.0568991 -1.8392752 0.7176944
-0.83604181 -1.0137579 0.7186116
-0.19485268 -0.86779153 0.71851635
0.018462852 -0.11221536 0.71490777
0.08210966 0.1452702 0.71358544
-1.696486 0.26882476 0.71965992
-1.2201197 0.32069349 0.71554512
-1.0613046 0.33730093 0.71371198
-0.016075697 0.77277184 0.71876663
-0.84281826 1.128269 0.71364808
-1.6118429 1.223671 0.71927971
-1.3490084 1.5483704 0.71784043
-1.737227 -2.6040504 0.72958732
-0.29333758 -2.4584532 0.72198558
0.14756292 -2.3008912 0.72235918
-1.383288 -1.9483658 0.72619414
-1.5961235 -1.8380463 0.72577375
-0.73303223 -1.8016293 0.72574395
-0.83882564 -0.9939267 0.72344095
0.27257574 -0.96569347 0.7297262
-0.71049213 -0.67938966 0.72815359
-0.88295412 -0.086048804 0.72723615
0.27675474 0.035448916 0.72589844
-1.4786254 0.22822854 0.72965968
-1.412686 0.22926903 0.72881341
-1.6597133 0.29975101 0.72826362
0.27405322 0.34069979 0.72460014
-1.5443258 0.46300316 0.72978234
0.098368563 0.66979468 0.7214309
0.11402182 0.69006634 0.72398198
-1.8336381 -1.9848453 0.73387438
-0.39414322 -1.9763267 0.73133409
-0.20222971 -1.9451479 0.73224372
-1.2291799 -1.8520752 0.73080015
-1.7906266 -1.3444844 0.7358489
-0.64886039 -1.0134076 0.7314778
-0.75200641 -0.98576933 0.73220164
-1.1592786 -0.85620916 0.73092425
-0.94469798 -0.75740123 0.73226815
-0.03674737 0.14265506 0.73540246
-0.011858741 0.20857474 0.73319578
-0.30778331 0.30461812 0.73108608
0.0059430436 0.48341036 0.7305845
0.17835303 0.48369139 0.73159933
-1.8336101 0.74243486 0.73555952
-0.05235409 0.92837232 0.7303378
-1.5379711 0.97858363 0.73957533
0.25181669 1.109759 0.73728621
0.063123636 -2.063015 0.74815905
0.23121411 -2.0543694 0.74249315
-1.065182 -1.9918654 0.74436235
-0.74016297 -1.9987561 0.74442446
-1.197947 -1.971025 0.74531198
-0.28228766 -1.8470252 0.74110615
-0.62015402 -0.99080503 0.74775249
-1.0900066 -0.82315981 0.74815506
-0.6709249 -0.11196303 0.74095339
-0.89104402 -0.081562541 0.74927962
-1.7809002 0.16754429 0.74248689
-1.0434668 0.34201798 0.74913037
-0.90504652 0.34263888 0.74681079
-1.0271032 0.56881475 0.74658716
-0.22889851 0.8710649 0.74783468
-1.7276156 1.2108197 0.74794835
0.16223405 1.2560892 0.74284834
-1.6422567 1.370203 0.74387968
-1.2305641 -2.4409063 0.75809914
-1.7902656 -2.1799967 0.75076842
-0.2776553 -1.9617682 0.75420016
-1.6404514 -1.5263695 0.75487053
0.082070619 -0.91189724 0.75000864
-0.014086261 -0.5603683 0.75858516
0.028195307 -0.1985869 0.75720668
-0.37467661 0.041415948 0.75619346
-0.13812791 0.054595914 0.75691277
0.033807077 0.51321357 0.75083441
-1.4847887 0.60878956 0.75799626
-0.81844217 0.73486602 0.75289679
0.30780572 0.79580855 0.75770479
0.11188941 1.3451235 0.75478065
-0.22683449 1.5035291 0.75450528
-0.67269862 1.6744373 0.75540674
-1.4869444 -2.223191 0.76051474
-1.4959738 -2.0196679 0.76622295
-0.81854177 -1.8126317 0.76375812
0.11291623 -1.4443722 0.76814121
-0.89396036 -0.9829219 0.76461929
-0.93949199 -0.94402671 0.76157928
-0.28802216 -0.87475836 0.7648685
-0.81507736 -0.8699736 0.76900822
-0.62097502 -0.74847782 0.76761711
-0.011945415 -0.63529378 0.76411271
-1.5276622 -0.31154487 0.76682442
-1.6337808 0.15014428 0.76948631
-0.0027862247 0.53806102 0.76038682
-0.69364959 0.72117895 0.76832765
-1.6576535 0.93535364 0.76263344
-0.58648193 1.2330862 0.7688213
-1.414982 1.3940362 0.76149017
-1.1286874 1.4715517 0.76709831
-0.92492706 1.4892461 0.76667917
-1.6298811 -2.5479767 0.7727775
0.14154471 -2.1816862 0.77159894
-0.1907308 -2.1039684 0.77757496
0.2518937 -2.0916235 0.77152979
-0.48741671 -1.8569639 0.77512753
-1.5258589 -0.76932144 0.7719171
0.2560153 0.54730129 0.77915168
0.077796713 1.1644629 0.77921772
-1.5936136 1.1773878 0.77344853
-0.44620648 1.3758771 0.77316034
-1.3660046 1.4165093 0.77663028
-1.3665237 1.4304566 0.77210909
-0.13425198 1.4335505 0.7793622
-0.80002713 -3.1419463 0.78454566
-1.5945269 -3.0810978 0.78080344
-0.043119222 -2.4009042 0.78728187
-1.6679827 -2.3421879 0.78103906
0.025292059 -2.2215681 0.78494078
0.20863645 -2.1153815 0.78453714
0.20087303 -2.1060054 0.78057945
0.1613588 -1.7786871 0.78859317
0.26832375 -1.5225183 0.78289282
0.27066183 -1.3819373 0.78375036
-1.523412 -1.0015489 0.78404796
-0.50654966 -0.81888521 0.78650093
-0.59955901 -0.79559833 0.78616786
0.2774933 -0.5439235 0.78504419
-0.010431424 -0.399234 0.78005868
-1.479293 -0.022548784 0.78394842
-1.0796545 0.56507844 0.78433496
-1.5361006 0.74604058 0.7813713
-1.5505205 0.88470405 0.7836808
-0.051487692 0.89042377 0.78954589
0.13410778 1.3128759 0.78808171
-0.21468148 1.3856294 0.78731203
-0.63175756 1.4885263 0.78810704
-1.3117201 1.5267065 0.78608918
-1.8408722 -2.5614557 0.79175836
-0.096095845 -2.5019047 0.79737473
-1.386547 -2.4890106 0.7977829
0.23400378 -2.2908535 0.79853129
-0.73096234 -0.99577063 0.79582679
-0.75576484 -0.74532056 0.79289186
-0.76564866 -0.66616946 0.79472494
-1.8169997 -0.23010357 0.79167122
0.28089678 0.11881758 0.79032248
-1.8214083 0.61100048 0.79408008
0.14644507 0.62384892 0.79222643
-1.4194114 0.82955849 0.79819322
-1.3223842 0.84913808 0.79615682
-1.07355 1.0945002 0.7962811
-0.66948229 1.1223916 0.79253119
-1.6883053 1.2908841 0.79558206
-0.15118384 1.37081 0.79020476
-1.0701604 1.4854443 0.79222256
0.18207872 -2.9929976 0.80937463
0.10501748 -2.3273001 0.80198312
-1.2643783 -2.1723759 0.80026364
-0.80592775 -1.8262345 0.80222869
-1.6281937 -1.7507061 0.80036247
-1.0652313 -0.98168546 0.80892634
-0.9367528 0.57523847 0.80875909
0.067703307 0.6776309 0.80022448
-0.85005027 0.68301737 0.80594271
-1.3078531 0.71274698 0.80247974
-1.4491283 0.7250452 0.80769634
-1.3981307 0.72114289 0.80765128
-1.4295982 0.74545485 0.80892259
-0.10253193 0.85782498 0.80099171
-0.067981184 0.85294288 0.80178559
0.28953469 0.86493248 0.8016898
-0.5513044 1.6546798 0.80513209
-0.90379786 -3.0272188 0.81287587
-1.0221424 -3.0090055 0.81716448
-1.8043044 -2.6248622 0.81069624
-0.042014465 -2.6055863 0.81055236
-1.3903494 -2.4492035 0.81401694
-1.69128 -2.4206595 0.81839508
-1.2310636 -2.3006675 0.81417775
-1.3737502 -1.8716619 0.81912684
-0.934582 -0.68431085 0.81600219
-1.8151886 -0.52644169 0.81927133
-1.5404546 -0.20756108 0.8154825
0.28001538 -0.18539898 0.81338358
-0.19743587 0.76903576 0.81190509
-0.47164801 1.0704796 0.81398308
-0.54152989 1.0908128 0.81293708
-0.066842012 -2.4464631 0.82818055
0.1907759 -2.2419062 0.82784629
0.18849754 -2.2187319 0.82464141
-1.5925139 -1.7892061 0.82059872
-0.934582 -0.81082112 0.82503974
-0.0019901993 -0.25286722 0.82647628
-1.3732285 0.50284296 0.82579327
-0.23075306 1.2178019 0.8242681
-0.13674593 1.3669777 0.82634938
-0.51854682 1.4831035 0.82159352
-1.1396195 1.5478989 0.82972157
-0.27499643 1.6323156 0.82609147
-0.40421745 1.6566817 0.82461929
-1.107721 -3.1504529 0.83619446
0.22518706 -2.829556 0.83397317
-0.2183423 -2.5156193 0.83652312
0.15048307 -2.2901559 0.83429867
-0.071074054 -2.2862878 0.83267796
-1.520225 -1.0425637 0.83631039
-1.1898386 -0.88867915 0.83110422
-1.0739626 0.85660362 0.83163714
-0.47886449 1.1882796 0.83207756
-0.44328597 1.274173 0.83475363
-1.4704195 1.3166674 0.83241826
0.075586282 1.3592348 0.83686125
-0.25996283 1.6048043 0.83696079
0.15942204 -3.029108 0.8478871
-1.3184494 -2.9677398 0.84001827
-0.017059948 -2.7640672 0.84686989
-1.7529583 -2.7559452 0.84473962
-0.18054712 -2.6217577 0.84853864
-0.79393721 -2.5678596 0.84283829
-0.31892264 -1.993263 0.84029257
-0.33548969 -1.8778086 0.84249777
-1.7068343 -1.3158799 0.84329969
-1.5911647 -0.65596306 0.84827673
-1.5248055 -0.60084736 0.8486889
-0.6085403 -0.11634227 0.84654242
0.020953918 -0.017772241 0.84819901
-0.32312804 1.0819615 0.84245598
-0.85610396 1.6669533 0.84286445
-1.2069783 -2.7817359 0.85847151
-1.1624113 -2.7895558 0.85976934
-1.3438858 -2.7786613 0.85591012
-1.4546349 -2.3968701 0.8580718
-0.10446127 -1.8822554 0.85421413
0.15843679 -1.3028136 0.85253018
-1.813928 -0.90706533 0.85522377
-1.0548673 -0.071858779 0.85708839
-0.93823636 0.64026636 0.85983932
-1.0741769 0.80987149 0.85097677
0.20917487 1.0799712 0.85983217
-0.74779868 1.2874594 0.85905045
-0.070597038 1.3154008 0.85959882
0.0061745336 1.3350228 0.85018265
-0.16215953 1.3595568 0.85840207
-1.3682356 1.4949729 0.852615
-0.24071151 1.5715802 0.85715711
-0.48557302 1.5841079 0.85609102
-0.4178839 1.6388342 0.85839069
-1.212973 -2.8704987 0.86440957
-1.1786594 -2.8450267 0.86326551
-0.87657338 -2.8190329 0.86668646
-0.47296003 -2.8073206 0.86978745
-0.32397687 -2.7946999 0.86825514
-1.1110573 -2.7878785 0.86053747
-0.19219157 -2.7773559 0.86619854
-0.011359429 -1.9938306 0.86189288
-0.087749161 -1.885294 0.86812472
-1.6706448 -1.8084581 0.86621022
0.069202997 -1.8042281 0.86390495
-1.5969224 1.1617367 0.86823273
0.030278906 1.1669525 0.86166412
-0.7815901 -2.8819711 0.87260181
-1.8292227 -2.2200441 0.87326741
-1.8016803 -1.3750807 0.87066638
-1.5643966 -0.92173791 0.87879586
-1.3772891 -0.89903122 0.87866038
-1.5852841 -0.70048141 0.8701942
0.28242677 -0.24746053 0.87788135
-1.6660271 -0.075335249 0.87429631
-0.67335695 0.68869776 0.87042958
-1.8134654 0.70847011 0.87582874
-1.4112458 0.79292601 0.87176329
0.27242887 0.86559844 0.8723141
-0.43050233 1.2162888 0.8796519
-0.042761501 1.406672 0.87462825
-1.4074464 1.4392149 0.87787849
-0.49880567 -3.1964698 0.88458097
-0.37015909 -3.0160923 0.88879859
-0.57857782 -2.9685385 0.88198137
0.11465339 -1.4557027 0.88279074
0.22457603 -1.3370023 0.88030797
-0.91221154 -0.084588826 0.8856371
-0.12763357 -0.045847435 0.88093579
0.28007674 0.44794053 0.88328195
-0.86793625 0.61206329 0.88662457
-0.4724279 0.77193135 0.88316965
-0.27324653 1.1274719 0.88775945
-0.71756232 1.2188848 0.88663435
0.06723427 1.30047 0.88717061
-0.70270604 1.5960046 0.88255203
-1.5726407 -3.060142 0.89085138
0.27911797 -2.4824445 0.89433908
-0.28710386 -1.8963021 0.89382559
-1.8028337 -1.7238526 0.89463127
0.11481971 -1.4628611 0.89367515
-0.42259407 -1.0251274 0.89241165
-0.055624746 -1.0263072 0.89778358
-1.8190415 -0.54498887 0.89986932
0.28225783 -0.11676544 0.8999666
-0.94463664 0.60492122 0.89771652
-0.37942705 0.85001457 0.8999095
-1.0675607 1.0317602 0.89361072
-1.7058356 1.1355439 0.89957368
-1.6615628 1.2283159 0.89035338
-1.6171433 1.2664657 0.89092803
-1.581894 1.2955302 0.89008355
0.010964263 1.332288 0.89577025
-0.62980378 1.6162422 0.89452934
-1.5423411 -3.0666268 0.90428311
0.00084190466 -0.21915728 0.90985
-1.5842261 0.094397202 0.90935892
-1.5888134 0.10562955 0.90418404
-1.8183287 0.21539089 0.90790868
-1.2126195 0.91423404 0.90303177
0.067188323 1.2021779 0.90015644
-0.88646746 -2.4537082 0.91055268
-1.8033806 -2.2387335 0.91010064
-1.7995034 -2.1087661 0.91216874
-0.28995937 -1.9111238 0.91036201
0.073596865 -0.40802109 0.91608214
-0.62843323 -0.11685772 0.9170621
-1.5028518 -0.068948939 0.91723108
-0.67512065 0.87353396 0.9183473
-0.74019182 1.1499608 0.91374826
-1.5678337 1.2951171 0.91574371
-0.48811316 -3.1881385 0.92408627
-1.3806145 -2.9161 0.92226452
-0.01497818 -2.6733129 0.92099333
-0.07814803 -2.3035252 0.92276537
0.11473602 -1.5270913 0.92066038
0.19518527 -1.3784236 0.92119753
-1.5492733 -1.0548792 0.92615271
-0.23767006 -1.0357524 0.92385018
-1.1775304 -0.91103131 0.92868686
-1.2098143 -0.21341135 0.92449892
-0.6273939 -0.11612177 0.92715442
-1.0365188 -0.066385679 0.92948472
-1.1769327 0.55816221 0.92931688
-0.42085314 0.56288785 0.92597342
-1.2006519 0.97454745 0.92513704
-0.48986667 1.0462682 0.92561042
-1.0505135 1.0695666 0.92708492
-1.0830992 1.1231303 0.9227854
0.017722085 1.3023002 0.92832136
-0.91666645 -3.1196959 0.9391135
-1.0420758 -3.0652814 0.93748206
0.063369572 -3.0278261 0.93943542
-1.2820673 -1.9145384 0.93897253
-1.5882612 -1.8748982 0.9397999
-0.70185143 -1.8754307 0.9328981
0.28478116 -0.51821291 0.93463308
-1.1345375 0.83342099 0.93552446
-0.9809885 0.86432803 0.93640935
-1.7316859 0.99846125 0.93164015
-0.70726764 1.2214323 0.93721771
-0.59305859 1.221792 0.93861175
-1.099218 -3.0977936 0.94536746
-0.63500619 -3.0940752 0.94624436
-0.89559186 -3.0717287 0.94313097
-1.5766134 -3.0297656 0.94192088
-1.4338565 -2.1884475 0.94261098
-1.7930318 -1.9464993 0.94670355
-0.18931508 -1.9175127 0.9456166
-1.6157858 -1.8272272 0.94963431
-0.34855998 -1.045341 0.94962788
0.28521743 -0.52541113 0.94468236
-0.060856394 -0.038544662 0.94801617
-1.8160015 0.44278359 0.94222236
-0.44458425 0.5475418 0.94707513
-1.091807 0.60541648 0.94996881
-1.434428 0.9250291 0.94945383
-0.72775394 1.1361638 0.94753611
-0.041449875 1.3274589 0.94598013
-0.76221865 1.5248189 0.94538653
-0.79658687 1.5330164 0.94110233
-1.4631371 -2.4857554 0.95818853
-0.65921557 -2.4315388 0.95842403
-0.96777523 -1.8935074 0.95526314
-1.3900262 -0.32960802 0.95044672
0.2841343 -0.14368242 0.95851034
-1.2076511 -0.10636614 0.95614743
-0.010309781 -0.027718892 0.95343751
-1.7073565 0.21128564 0.95645911
-0.64354426 1.0829824 0.95314944
-1.2748953 1.2570121 0.95306242
-0.13304694 1.378009 0.95644027
-1.6807106 -2.9732141 0.96212959
-1.7505786 -2.648515 0.96008706
0.25658548 -2.442431 0.96422595
0.27599466 -1.1568835 0.96940809
0.050760981 -0.97780484 0.96350312
-1.8204986 -0.75031418 0.96094698
-1.8228269 -0.24723309 0.96694016
-1.7751489 0.80993211 0.96153373
-0.79397345 1.0324821 0.96172059
0.1250913 1.0992795 0.96966612
-1.5760956 1.1881483 0.96775115
0.19927499 -2.7837057 0.97486949
-0.036249299 -2.5015728 0.97958672
-1.3214737 -2.4223907 0.97609824
0.27889028 -1.7025486 0.97028404
0.30960247 -1.1114473 0.97509849
-1.1879808 -0.33238766 0.9702369
-1.8225102 -0.11140662 0.97128522
-0.48045009 0.60454035 0.97304893
-0.44490591 0.66145861 0.97859132
-1.6783683 1.0036837 0.97984707
-0.58456492 1.4549682 0.97860277
-0.41187239 -3.0478835 0.9808073
0.26756081 -2.1728401 0.98462152
-0.91091692 -2.0660698 0.98262548
-0.029976413 -2.063767 0.98013723
-1.1907701 -0.13128874 0.98239195
-0.92274612 0.8111093 0.98947567
-0.7752378 0.89593881 0.98981225
-1.7163038 0.90740502 0.98902297
-0.49085715 0.92292625 0.98758805
-0.53836536 0.93408543 0.984761
-1.3238565 1.0770541 0.98923874
-1.4703841 -2.4400296 0.99370682
-0.075777151 -2.2225833 0.99434036
-1.4891127 -1.9075854 0.99913198
-1.5885061 -1.8803524 0.99474692
-1.8224716 -0.40098375 0.99895823
0.063348219 -0.36638993 0.9964174
0.019926563 -0.085729562 0.99428022
-1.5975533 -0.059213948 0.99248308
0.043782432 0.021862583 0.99636108
-1.8098143 0.38902313 0.99137545
-1.0180534 0.49299243 0.99553192
-0.22226802 0.5221498 0.99041301
-1.0263997 0.54465955 0.9939782
-0.93805778 0.57514572 0.9986701
-1.6794056 0.93493009 0.99764502
-0.59632874 1.1181288 0.99241102
-0.32463062 1.3619145 0.99987525
-0.88031846 -3.0513794 1.0095108
-0.5820989 -3.0419812 1.0071249
-1.6923692 -2.9388733 1.0031739
-0.083485857 -2.8068109 1.0014149
-1.4718611 -2.1461611 1.0035642
0.26255363 -2.1181424 1.0070034
0.0026703496 -1.9817502 1.0021589
-0.52011949 -1.9252945 1.0060092
0.2380587 -1.1152216 1.0044985
-1.5553856 -1.0625942 1.0079103
-1.2614994 -1.0629156 1.0060586
0.28835788 -0.6908527 1.0074072
-0.83502299 -0.077105954 1.0096854
0.098586328 -0.035661407 1.0002086
-1.5512433 0.44929069 1.0054274
-0.67115587 0.55215144 1.0006661
0.14049141 0.95165932 1.0024582
-1.5915084 1.0618732 1.0018963
-0.65804493 1.1201156 1.0011247
-0.34582469 1.3592846 1.0018752
-1.1423762 -3.0244064 1.0181558
-0.87087077 -1.9059615 1.0154362
-1.463012 -1.0677128 1.0184234
-1.3786341 -1.0670691 1.0192456
-1.8211792 -0.59465748 1.017607
-1.1684824 -0.22849572 1.0159831
-0.7309646 0.58493638 1.0162786
-1.0108851 0.75449461 1.0159678
-0.058811691 -2.5161393 1.0290314
-0.15951443 -2.0535483 1.0238732
-1.8148913 -1.4831679 1.0283287
-0.01543541 -0.92105973 1.0200038
-1.4736022 0.47264749 1.0282072
-1.0870667 0.68594366 1.0245042
-0.83806551 0.74235564 1.0266632
-0.83599448 0.76334441 1.0224015
-1.0634658 0.78488129 1.0216613
-1.6777538 0.7985065 1.0298892
-1.6980315 0.80623448 1.0202978
-0.96586132 0.82279813 1.0234063
-0.86941838 0.82303178 1.0261098
-0.98724854 1.0673068 1.0206454
-0.026168842 1.1454318 1.0208651
-0.25961804 1.2547261 1.0295852
-0.6841318 1.332688 1.0250196
-0.5926733 -3.0282521 1.0339733
-0.20341814 -2.9514375 1.0361751
-0.75396812 -2.3924282 1.0395072
0.28257716 -1.6554341 1.0329695
0.068961404 -0.942779 1.0377991
-1.13518 -0.92713845 1.0368905
-1.3912008 -0.30969292 1.0318636
-1.4838583 -0.25983176 1.0322413
-1.4508176 -0.25604653 1.0365554
-1.4003832 -0.13648731 1.0314991
-0.69464815 -0.044624567 1.0386457
0.26684406 0.17125593 1.0369396
-1.7531937 0.56019783 1.0307852
-0.59867197 0.56438178 1.0368102
-0.59998786 1.0417918 1.0303288
-1.1220942 1.2434646 1.0394056
-1.0234728 1.2915137 1.0302815
-0.093846381 -2.9936414 1.0495846
-1.337384 -2.9325738 1.0431157
-1.4269822 -2.8230779 1.0493611
-1.7384434 -2.6189771 1.0487922
0.03059122 -0.20317432 1.0465636
0.27566919 -0.18451194 1.0488174
-0.09556374 0.022564033 1.0411299
-1.7722336 0.39253879 1.0451324
-0.61615306 0.59723872 1.0453278
0.17191353 0.65352762 1.0471611
-0.89931142 0.68530631 1.0448556
0.093972653 0.86101103 1.0464182
-0.84291244 0.90997809 1.042395
-1.3700058 -3.0523405 1.0542941
-0.055217311 -3.0088539 1.056353
-1.7021675 -2.872252 1.0517182
-1.7531338 -2.5150754 1.0511638
-1.427591 -2.3871999 1.0522085
-1.799862 -1.913574 1.0543423
-1.8168702 -1.0712913 1.0568278
-1.5440601 -0.96151519 1.0516361
0.030114237 -0.2317161 1.0571129
-0.78766692 -0.052210927 1.0590525
-1.7236587 0.51221609 1.0533046
-1.697072 0.55461609 1.0583389
-0.72872549 0.80651861 1.053079
-0.85647035 0.91202772 1.0538589
-0.016883988 1.0517535 1.0561042
-0.82610214 1.2475209 1.053413
-1.4535809 -2.6567998 1.0632205
-0.40692922 -2.0727081 1.0678074
-0.91136169 -1.9505341 1.063455
-1.8105102 -1.6747893 1.0609506
0.046640769 -0.073808327 1.0640717
-0.86444926 -0.067143008 1.0650373
-1.5778894 -0.05875691 1.0650207
0.14207713 -0.027982773 1.0630032
0.14857058 0.14587314 1.0699246
-1.5333259 0.16428515 1.0606176
0.016129062 0.45043409 1.0611382
-0.074527107 1.0623347 1.0654109
0.079975344 -2.9381387 1.0772573
0.12080406 -2.9200501 1.0767872
0.17153968 -2.8476315 1.0799472
-0.1361807 -2.0726228 1.0755482
-1.0626036 -0.056348287 1.0704801
-0.83353138 -0.054811049 1.0748992
-0.88490492 -0.046687506 1.0798796
-0.8142662 -0.03110403 1.0713995
-1.7436416 0.32962352 1.0723529
-1.3618493 1.0361741 1.0722451
-1.1523306 1.0925744 1.0770864
-0.059889682 -2.4586065 1.0803404
-1.1523393 -1.976873 1.0859655
-1.8089638 -1.4608489 1.082926
-1.6506169 -1.3381449 1.0816286
-0.44011909 -0.93344826 1.0816593
-0.4356809 -0.93648481 1.0879247
-1.2764909 -0.11128186 1.0894783
-0.70928037 -0.065620214 1.0879869
-0.48484686 -0.058748394 1.0834258
0.20105484 0.33557129 1.083957
0.11344486 0.58618212 1.0833442
0.12017776 0.58162981 1.0808871
-0.0085255355 0.91442585 1.0884972
-0.030527927 -2.2591014 1.0970867
-1.3869314 -1.983065 1.0984225
-0.51412773 -1.9747787 1.0976295
-1.5136408 -1.0957165 1.0999942
-1.3902833 -1.0910876 1.0936383
-0.66961849 -0.074974969 1.0968056
-1.0668011 -0.049085367 1.0957396
-0.93100572 -0.037390962 1.0906792
-1.7292252 0.26646647 1.0900511
-1.5768406 0.80281329 1.0916524
-0.4918673 1.0683341 1.0928478
-0.67257392 -2.9736373 1.1005237
-0.36173257 -2.3602886 1.1093336
-1.5543993 -2.0971951 1.1002526
0.26976418 -1.5896022 1.1099102
0.27444559 -1.5384092 1.1003596
0.22813678 -0.19319966 1.1043832
-0.12552348 -0.024885401 1.105226
-0.86261648 -0.018953606 1.1040297
-1.1382072 0.6585024 1.1052668
-1.3624384 0.87320644 1.1060896
-1.2715635 0.92776716 1.1036935
-0.16907141 -3.012156 1.1109526
-0.11002746 -2.9925108 1.1151655
-0.06175964 -2.3599446 1.1158046
-1.282962 -2.0914922 1.1197205
0.19215757 -1.394601 1.1180536
0.031264588 -1.0616795 1.1152797
-1.7767757 -0.83170992 1.1157496
-1.7778407 -0.79436624 1.1131512
0.21008226 -0.30572578 1.1192197
-0.039959993 0.71927172 1.1176066
-0.2469101 0.90970671 1.1109343
-0.17523083 -3.0046358 1.1202223
-0.40201616 -2.9761119 1.1252453
-0.64846241 -2.9526818 1.1268041
-1.3856057 -2.8611236 1.1249088
-1.3188174 -1.9956572 1.1255989
0.25040564 -1.0438275 1.1275249
-1.191799 -0.98926318 1.1239928
-0.80055791 -0.040459838 1.1249266
-1.6289365 -0.032234382 1.1218481
-1.0345036 -0.030986402 1.1216997
-0.71196496 -0.013080514 1.1288508
-1.5829668 0.057749685 1.123648
0.17555979 0.092998184 1.1203283
-1.6264783 0.32985419 1.1209384
-1.5527527 0.40544409 1.1237841
-0.031513385 0.44232059 1.1276447
0.045764234 0.44151908 1.1263734
-0.12993184 0.48265356 1.1286654
0.10875681 0.48307264 1.1218371
-1.1865028 0.87918782 1.1206558
-1.7320026 -2.4064336 1.1353246
-0.47743723 -2.3465662 1.1372863
-1.5559998 -2.0264549 1.1376526
-1.6314292 -1.6776266 1.1311562
0.24261931 -1.1723211 1.1394435
-1.1489016 -1.1060593 1.1308492
0.21460445 -0.60560447 1.1319468
-0.60291529 -0.061679609 1.1336484
-0.86050797 -0.024065139 1.1365787
-1.0335244 -0.01548954 1.1304615
-0.83462405 -0.015158475 1.1376324
-0.19326144 -0.011703404 1.1365285
-0.87351823 0.058673445 1.1360847
-0.68923509 0.098036274 1.1337383
0.16595471 0.094324283 1.132926
-1.6408658 0.36601418 1.1337779
-0.067865603 0.45784718 1.1378984
-1.1943203 0.52567542 1.1343768
-0.94044971 0.89973497 1.1353711
-0.85783917 0.89023066 1.1383873
-0.7856319 0.93540472 1.1322559
-1.0648501 -0.98057139 1.1444874
-1.6817985 -0.11418397 1.1421241
-0.74406004 -0.030146345 1.1457003
-0.095942363 0.31892809 1.1459696
0.090455711 0.3804037 1.1455274
-0.89727175 0.50921923 1.1471763
-0.61323202 0.51956433 1.1474216
-0.96063614 0.57136053 1.1432191
-0.94243956 0.82942075 1.1460748
-0.71613955 -2.3366904 1.1591914
-0.81637996 -2.1142521 1.1579088
-1.5905912 -1.8939446 1.1560419
0.026121661 -1.21703 1.1554062
0.040813901 -1.0287213 1.1595079
-1.2412403 -1.0027765 1.1556541
-1.571803 0.03599894 1.1598197
-0.29182369 0.30837423 1.1580759
-1.3260902 0.34161893 1.1538348
-0.26940465 0.34135059 1.152984
-1.0266128 0.3987087 1.1547264
-0.71351182 0.44639608 1.1535228
-1.3331383 0.46317726 1.1528141
-0.87249058 0.47692627 1.1501834
-0.74106097 0.58530676 1.1572682
-1.1461265 0.68222928 1.1552348
-0.65867877 0.7633431 1.1584631
-0.72643036 0.81214303 1.1516296
0.011893402 -2.9044776 1.1681705
-1.4781616 -2.6715171 1.1648412
-0.68104976 -2.3336401 1.1656725
-0.83137912 -2.1176033 1.1699102
-0.61466569 -2.1181231 1.1692128
-1.4925386 -1.9964721 1.1659317
0.10961974 -1.5495592 1.1602452
-1.6055148 -0.90846068 1.1608219
0.15496214 -0.89672637 1.1624192
0.13097154 -0.43910906 1.1644144
0.29489619 -0.12445574 1.1619084
-0.86030346 -0.0033238132 1.1687508
0.055498078 0.15554768 1.166716
-1.5912294 0.17440306 1.1676471
-0.074250922 0.18062454 1.1667533
-0.37787205 0.24271503 1.1694489
-1.0093222 0.27593201 1.1674191
-1.1688958 0.60904014 1.1632514
-0.7717827 0.73954481 1.1632562
-1.5063845 -2.6094522 1.1783626
0.19365028 -2.2278075 1.1776073
-1.7198063 -1.745793 1.1770375
-1.6385536 -1.5764427 1.1745682
-1.711094 -1.5375558 1.176438
0.1501442 -1.2391559 1.1769087
-1.6672924 -0.6435647 1.178969
0.11276451 -0.033413857 1.1721611
-1.0822022 0.018196745 1.172258
-0.30264455 0.030763077 1.1712924
-0.72339332 0.072490603 1.1795022
-0.01877025 0.077274799 1.173576
0.04454343 0.077029705 1.1744276
-0.86882704 0.088620424 1.1796407
0.090949915 0.087430961 1.1703446
-1.466156 0.1142517 1.178555
-0.16554259 0.11564419 1.1735246
-1.0386199 0.13524427 1.1784828
-1.6451446 0.14366813 1.1783015
-1.0079705 0.15889567 1.1774123
-0.061222605 0.15318218 1.1705797
-1.358153 -2.898025 1.1833798
-0.15304156 -2.8621466 1.1878073
-1.4814734 -2.4775436 1.1850722
0.20125853 -1.7492231 1.1824964
-1.3600923 -1.1227314 1.1890872
-0.35557958 -1.011116 1.1834376
-1.8783633 -0.18317083 1.1858885
-1.5101027 -0.058813199 1.1817162
-1.6627715 -0.044703394 1.1845291
-1.6227121 0.13939768 1.1860377
-1.167675 0.1495184 1.1844289
-0.74528915 0.51336563 1.1855187
-0.55979449 -2.9027929 1.1926297
-0.18045901 -2.8856616 1.1925312
-1.4965644 -2.328181 1.1951735
-1.1669019 -2.3211267 1.1939075
-0.61481744 -2.2320869 1.1916652
-0.32066855 -2.239439 1.1925378
-0.86849111 -2.1244531 1.1932451
-0.14349316 -2.0263071 1.1909475
-0.74034995 -1.9904804 1.1935189
0.15208335 -1.8184206 1.1939918
-1.6391023 -1.7800972 1.1939081
0.14340681 -1.5370271 1.1914103
-0.44035539 -1.1196748 1.1958675
-1.5047565 -0.21581158 1.1999439
-1.3253044 0.011045353 1.1978507
-1.3510514 0.37426168 1.1916469
-0.42463538 0.43953472 1.1991864
-1.4774418 -2.5515354 1.2055867
-1.0238334 -2.3144655 1.2078881
-1.6162819 -2.2380323 1.2064734
-1.0864822 -2.0318048 1.2037131
-0.70733052 -1.9965472 1.2065281
-1.6234983 -1.8207794 1.2094593
-1.4404656 -1.1255132 1.2001624
-0.39365661 -1.0091344 1.2028197
-1.2442849 0.39221597 1.2022493
0.087854415 -2.4987812 1.2189747
-1.5939381 -2.2903109 1.213212
-0.52669048 -2.2717099 1.2174064
0.10721274 -1.6246994 1.2119135
0.11318846 -1.4633702 1.2166315
0.35853028 -0.18685192 1.2142177
-0.46023792 -2.8884892 1.2201667
-1.2948776 -2.3075624 1.2234719
-0.28735048 -2.3035431 1.2294996
-1.4612788 -1.1329868 1.2236708
-0.02186409 -1.0266848 1.2276731
0.11613763 -0.60808229 1.2257382
-1.6488745 -0.11521542 1.2222874
0.11974896 0.0066054761 1.2215482
-1.4913675 0.023609694 1.2274287
-0.9296397 -2.8753238 1.2382016
-1.3988307 -2.8456469 1.2304341
-1.3147824 -2.8362913 1.2397711
-0.97640169 -2.3009238 1.236945
-0.58962464 -2.2773254 1.2328396
-0.36542615 -1.0332481 1.2352266
-1.453774 0.22724158 1.2351596
-0.58463752 0.39650184 1.2318705
-0.15832625 -2.8204169 1.2457325
-0.7868275 -2.2799616 1.2471052
0.011559127 -2.2268662 1.2407296
-1.1215228 0.32862809 1.2483966
-0.43013024 0.35328832 1.2413753
-0.29535291 -2.8677053 1.2589676
-1.4465262 -2.8048761 1.2539862
-1.4801735 -2.5861421 1.258805
-1.561862 -2.2597177 1.255209
0.047613058 -2.1346953 1.2558353
-1.4551972 -1.0497117 1.2549678
-1.1095523 -1.0296084 1.2526735
-1.6422417 -0.18343163 1.253118
-1.6440063 -0.11170898 1.2521788
0.1057623 -0.041799139 1.2524117
-0.37544769 0.3139509 1.2562503
-1.4158967 -2.7089448 1.2644994
-1.1090314 -2.0641043 1.2667756
-1.2798941 -1.0507869 1.2622788
0.046783656 0.1271524 1.2694527
-1.3215098 0.22693375 1.2618955
0.022290133 -2.3056154 1.2735565
-1.4746838 -2.2761242 1.2702212
-1.3154347 -2.1491799 1.2798917
-0.84929478 -2.1225247 1.2712097
-0.51761729 -2.1003881 1.2762139
-0.80274397 -2.0906324 1.2768101
-0.30537784 -2.0796399 1.2773168
-0.25607571 -2.0664034 1.2714067
-0.77117634 -1.9987121 1.2793317
0.069468431 -1.7001424 1.2729188
-1.6302373 -0.3212983 1.2768638
-1.068151 0.27670071 1.278226
-0.78717327 0.32469058 1.278753
-0.74965763 -2.8651676 1.2820476
-1.1949251 -1.0638707 1.2891266
-1.8900422 -0.14731218 1.2845397
-1.803076 -0.070393547 1.2844863
0.0083469003 0.10733698 1.2866703
-1.4156259 0.1376991 1.2888199
-1.3924667 0.14564979 1.2893896
-1.3803035 -2.778409 1.296104
-0.82343459 -2.2450316 1.2995193
-0.26038349 -2.1329622 1.2901938
-1.4555197 -1.0777497 1.2982451
-1.3992066 -1.0708629 1.2936037
0.28368723 -0.16482583 1.299608
-1.0662785 0.25016445 1.291243
-1.2532489 -2.8108163 1.3038529
-1.340314 -2.2383277 1.3016146
-0.41118872 -1.1324037 1.3010256
-0.2136855 -1.100662 1.3029717
-0.075540245 -2.7367635 1.3143671
-0.047682948 -2.7029388 1.3113229
-1.5611947 -1.9286423 1.3124634
-0.32335967 0.17275271 1.3160741
-0.93443179 0.23357731 1.3108342
0.037391175 -1.7783821 1.3240483
-0.1540488 0.099286295 1.3206897
-1.4660864 -2.6778471 1.3323096
-1.3641838 0.059731387 1.3370588
-0.95425785 0.18912281 1.3306576
0.05736243 -1.0700558 1.3445568
-1.6018186 -0.34800124 1.3468112
-0.52473348 0.15555128 1.3447649
-0.54166913 -2.7900827 1.3593373
-1.1847813 -1.0710301 1.3569586
-0.35411978 0.11166623 1.351737
-1.1444271 -2.1259789 1.3681178
0.013664471 -1.831854 1.3623207
-0.057620417 -2.4864919 1.3754495
0.039300643 -1.2997339 1.3717079
-0.336788 -1.0668581 1.3761547
0.036128014 -0.086026795 1.3730088
-1.0887475 -2.0525594 1.384728
-1.2047375 0.031595554 1.3821614
-0.98929322 0.066629939 1.3884404
-0.35674673 -2.7456634 1.3976088
-1.5744166 -0.20577492 1.3992586
-0.54255491 0.054030363 1.3966283
-1.4231055 -2.5081282 1.4055231
-0.12245103 -2.6162345 1.4193629
-1.417789 -2.4960034 1.4188448
-1.4996912 -2.0290859 1.4138662
0.038999606 -0.47670007 1.4100249
-1.5704086 -0.21542761 1.4135116
-1.0143979 0.0051068291 1.416219
-1.347765 -2.6280093 1.427803
-0.17718789 -2.5845041 1.4257966
-0.03745921 -2.0788536 1.4238189
-1.5555072 -0.92761064 1.4287362
-1.1608473 -0.044040404 1.4276501
-0.51116836 -2.7079983 1.432587
-1.0537254 -2.6865473 1.4344416
-1.3987617 -2.5642707 1.4346758
-1.4519982 -2.3263288 1.4431866
-1.482291 -2.0241737 1.4478688
-0.012083914 -1.6066666 1.4412874
-0.11638904 -0.14806977 1.4492342
-1.4052968 -2.4441855 1.453585
-1.0255249 -0.085034952 1.4593558
-0.73499238 -2.6744583 1.462272
0.0093643144 -0.61589611 1.4785361
-0.12377281 -2.3827839 1.4853199
-1.5457058 -0.41388497 1.4835973
-0.24494489 -2.5653887 1.4967034
-1.255779 -1.1424171 1.4964993
-1.2036773 -0.19051707 1.4952044
-0.08138828 -2.0576658 1.5091189
-0.32967129 -0.20787294 1.5080782
-0.41072357 -2.593329 1.5145972
-1.3308864 -2.4725177 1.513132
-1.2914565 -2.4613323 1.5193754
-0.08560323 -2.0841908 1.5131457
-0.061724693 -1.7367312 1.5184541
-1.5080621 -0.38044563 1.5155954
-1.3660306 -2.2914829 1.5204928
-0.017409675 -0.40193397 1.5221379
-1.4749408 -0.34638625 1.5271474
-0.78597093 -0.18307175 1.5260333
-0.18612151 -2.2887416 1.5301037
-0.09271241 -1.9937329 1.5396208
-0.3504943 -0.26904655 1.5390229
-0.54386437 -2.5461779 1.5427605
-0.01811449 -0.69985104 1.5430249
-1.5119648 -0.55877101 1.5453871
-0.31200254 -2.3264706 1.5550816
-0.17088783 -2.1422513 1.5558288
-0.027230883 -0.86315864 1.5554901
-0.45570883 -0.27551967 1.5524433
-1.2681663 -2.3816376 1.5647984
-0.3623262 -2.3329632 1.5646825
-0.21749014 -2.0679588 1.5697446
-1.5022649 -0.55329293 1.5633321
-0.26219761 -2.3767762 1.5716733
-1.2012624 -2.1078553 1.5787945
-1.2777287 -2.0221066 1.5737115
-1.2854919 -1.8763454 1.5783798
-1.3032515 -1.8431529 1.5786489
-1.468978 -1.4167942 1.571411
-0.049524844 -1.104726 1.5770196
-0.51160365 -2.3068388 1.5880357
-1.0312914 -2.2784846 1.5886345
-1.3592007 -2.087131 1.5876684
-0.076009676 -1.5216434 1.5823809
-1.4750195 -0.58652121 1.5857378
-0.31845093 -0.38431373 1.584417
-1.1660239 -0.37225109 1.5825045
-0.38237223 -0.35987028 1.5828117
-0.3082583 -2.5487294 1.5987743
-0.85488915 -2.5154998 1.5960327
-0.86121559 -2.4553275 1.5983553
-0.2833949 -2.3818491 1.5914972
-1.228924 -1.746958 1.5933173
-1.4644971 -0.78372771 1.5901474
-0.0911984 -0.74437082 1.5969195
-0.081928805 -0.70334911 1.5918243
-0.78048801 -0.33629346 1.5966654
-0.9579401 -2.1731129 1.6059394
-1.2207546 -1.6178275 1.6045585
-1.4226944 -0.7767117 1.6001368
-0.13667317 -0.6954276 1.6026456
-0.84119475 -0.37194768 1.6083961
-0.94368577 -2.6211755 1.6144067
-1.1218508 -2.5843036 1.6114982
-1.2001873 -2.5228 1.6144882
-0.31460309 -2.4803591 1.6142497
-0.45519602 -2.3529959 1.6107085
-0.89552879 -2.1277499 1.6150994
-0.96062648 -1.9880135 1.61272
-1.2929591 -1.3122177 1.6116798
-1.3241901 -1.1253439 1.6125845
-1.3323807 -1.0134013 1.6167911
-0.15819435 -0.71712953 1.610424
-0.65008557 -2.5902667 1.6273212
-0.54553568 -2.5919559 1.6203058
-0.5812782 -2.385685 1.6275541
-0.72808492 -2.1944125 1.623732
-0.80070329 -2.1752043 1.6245532
-0.61695057 -1.8452585 1.6247598
-0.37603429 -1.3262959 1.6265615
-0.26435408 -1.129378 1.6221675
-0.27289206 -1.0831001 1.6253284
-1.2289296 -0.95181859 1.6289308
-1.2166383 -0.77302027 1.6260154
-0.26522157 -0.72212321 1.6281697
-1.0740504 -2.2686808 1.634541
-0.38405985 -2.2321115 1.6338452
-1.1774442 -2.1562943 1.6368651
-0.25376832 -1.8247253 1.6376283
-0.7126385 -1.8100801 1.6365918
-0.44795766 -1.2095127 1.6368005
-1.1417165 -0.95556688 1.6384327
-1.1397226 -0.93439972 1.638572
-1.1487634 -0.74592316 1.6342692
-0.65205967 -2.5659106 1.645748
-0.41288322 -2.4917769 1.6414974
-0.88667393 -2.3023255 1.6418662
-0.40738887 -2.1741068 1.6452799
-0.90965104 -1.4681344 1.6419768
-0.1460501 -1.4382057 1.6408219
-0.56066251 -1.2167779 1.6478629
-1.0214319 -1.1983089 1.6418762
-0.12818371 -1.1971676 1.6478255
-1.0719799 -0.82307911 1.6455332
-1.1921291 -0.58133066 1.6458043
-0.45275107 -2.1350212 1.6546439
-0.45259294 -2.1143448 1.656451
-1.2289864 -1.7809316 1.6562392
-0.86086667 -1.3646495 1.6512825
