# .PCD v0.7 - Point Cloud Data file format
VERSION 0.7
FIELDS x y z
SIZE 4 4 4
TYPE F F F
COUNT 1 1 1
WIDTH 1633
HEIGHT 1
VIEWPOINT 0 0 0 1 0 0 0
POINTS 1633
DATA ascii
130.72861 197.91185 27.602016
201.2766 184.92897 14.1387
255.93001 167.25136 26.489109
64.040955 207.55873 37.167767
242.05823 221.21581 37.89629
149.21603 221.11554 38.377235
143.9136 169.14386 13.452113
143.99094 191.08627 13.453454
92.945641 226.67833 28.19173
255.0695 185.62045 32.22504
175.25375 193.20807 14.1387
105.01796 217.24731 14.1387
227.83954 214.76483 37.606884
79.487892 225.75494 16.098377
91.643669 156.05862 32.993938
117.73582 158.94864 12.1387
178.45816 155.53464 35.243542
138.23079 182.56169 63.560959
188.90228 183.18002 39.069954
166.79454 181.98218 13.336639
223.6906 189.71049 68.551285
203.92012 228.2673 39.986168
197.78763 210.83102 14.138699
114.4249 155.36647 31.883633
178.33389 228.06804 39.637848
124.48519 216.66998 57.161526
233.54886 190.82953 68.051483
165.47873 209.25577 57.524757
77.521065 229.07764 17.041218
70.662689 159.16589 40.216908
132.70198 155.07899 18.803429
227.00993 169.10631 27.709373
74.310402 202.85818 12.1387
243.81921 220.45074 42.063591
157.70364 159.19644 29.927685
184.17148 164.82498 13.639959
206.50177 211.78654 52.38427
140.35309 195.43723 12.875138
231.04932 210.87346 52.609695
121.51955 211.93422 13.061224
193.99969 167.793 36.912903
179.57159 213.03326 69.432335
144.93019 224.36905 57.389099
232.05247 174.18317 14.138699
176.71326 189.05356 69.382812
161.68063 208.616 13.762232
120.46927 201.79518 16.310736
124.2767 181.53775 57.056564
142.41049 162.04892 57.84111
121.5045 217.30902 12.1387
219.34215 223.98628 25.189077
143.7305 218.40836 38.28149
153.09567 207.59796 28.668102
109.09715 159.16541 18.050913
206.47559 222.082 21.138697
179.29684 221.62543 14.069739
155.80103 214.62912 13.659602
118.64662 213.84186 15.673676
187.86827 212.82529 12.1387
262.98483 219.3761 45.088898
144.54332 166.93854 65.035263
93.304085 222.08202 25.688374
179.73383 175.58643 69.434814
253.09036 204.09619 45.421902
207.85254 189.79178 14.1387
162.83054 225.38635 55.790089
186.25528 181.7271 69.470673
147.36626 189.95273 12.1387
135.06834 208.98184 14.1387
234.2579 170.34152 12.1387
107.52628 198.19472 14.1387
190.04845 228.74417 45.568825
79.248596 205.73267 14.1387
143.70996 187.96338 13.448549
135.26291 212.10382 14.1387
95.393555 224.14981 14.329917
135.70212 231.082 22.255905
258.64212 162.66383 19.666946
132.897 191.28009 13.259806
233.35699 210.17499 12.893258
164.73714 227.37708 33.543354
192.26776 171.84328 12.1387
145.64037 197.79364 13.482245
108.07243 155.75827 39.719624
168.20581 200.97292 70.366699
113.34012 177.39636 31.173304
249.1846 198.60141 51.648556
122.76812 160.33347 19.683277
199.91336 181.9895 14.1387
163.62868 187.17072 13.796236
131.30692 187.46381 12.1387
239.32028 203.84616 66.195709
149.52612 211.93115 12.1387
111.94376 172.0607 50.156853
194.78255 204.8591 32.472305
241.43224 223.00076 58.373234
145.30978 186.65956 13.476475
93.41539 150.66426 19.412855
184.0611 231.08202 20.348099
219.14539 151.69942 9.0791702
153.60722 158.83932 37.22612
264.67316 214.09378 27.548018
215.10596 181.19168 68.903061
199.32884 159.20738 30.56258
176.86978 173.94014 12.1387
150.7905 161.46182 14.1387
209.18106 183.15152 29.57423
189.05157 214.50046 29.295719
111.05672 191.12338 14.1387
124.07806 228.70515 44.087246
135.06404 155.07901 22.89555
194.47897 210.60944 31.397846
209.81535 204.59383 27.40921
86.419922 221.76495 14.138699
234.92847 230.58841 36.025993
135.46411 216.75549 13.304621
206.03506 159.89407 41.433735
189.45244 194.47742 13.732142
156.85201 202.08659 36.334297
219.08293 224.42868 1.1162875
120.66545 158.50838 35.16869
152.70084 201.11305 12.1387
156.5311 195.08144 13.157547
147.15547 169.33646 13.5087
142.95979 175.5166 13.435455
157.79921 156.09549 14.1387
190.93469 226.26816 54.709427
219.91505 183.42682 68.717575
127.73284 197.92599 26.812374
139.63005 167.793 37.385433
63.232216 163.66908 31.166348
94.282562 184.8186 45.788971
181.59232 164.88499 28.098698
180.29218 222.31873 14.087114
256.54752 200.10645 48.79985
82.591629 155.47598 34.077923
164.71799 217.97617 14.1387
263.46564 221.71889 40.091602
241.39886 221.81157 37.82769
117.55363 206.0631 14.1387
259.72284 185.50877 23.991381
100.64761 226.51431 46.419403
168.5878 196.49733 14.138699
120.87452 189.01451 14.138699
131.20621 156.59312 45.521908
178.27969 181.87814 13.537118
134.436 158.52467 37.017326
252.32576 182.3958 12.1387
61.279541 189.35516 31.813297
225.35027 216.86359 34.770226
205.79681 180.51901 55.086246
139.2373 211.66086 13.37048
201.14883 195.4178 14.451193
174.7603 187.7803 12.1387
243.82518 220.96486 42.021305
102.04152 203.5222 14.1387
160.07213 184.60742 69.223854
137.5079 186.7005 14.1387
190.00098 180.03223 13.741716
174.12427 212.0437 25.788942
102.69209 192.04425 14.138699
112.62222 174.94698 48.637421
188.12427 172.29785 14.223833
253.97644 193.23717 39.513641
119.49891 161.08038 13.444038
77.357399 214.12854 13.095571
134.00523 185.79486 13.279152
64.117409 160.40587 32.62162
155.15121 194.3002 14.1387
88.000931 196.30733 14.1387
163.76239 169.858 53.102116
112.11053 211.9556 46.656338
241.28156 162.65843 58.114727
152.91809 155.07898 24.369883
115.66656 224.69405 14.1387
136.21652 202.09869 14.1387
153.69806 230.62263 35.337818
197.2908 221.86455 14.383846
145.14584 180.28732 13.473614
218.19263 216.95821 27.61879
163.94852 217.0513 13.801818
85.646255 222.97293 44.208702
194.84337 175.67776 32.687603
187.73869 198.66269 14.1387
233.3275 160.32507 14.909718
96.757805 230.8064 36.361763
135.80038 181.97133 13.310486
170.50641 228.53418 43.451687
194.51549 175.59698 31.527128
181.8519 226.42371 25.758726
239.00555 202.67654 63.875599
188.71452 222.70166 12.1387
143.48598 229.65128 14.138699
112.7485 183.42795 32.901375
214.23007 175.15971 14.138699
213.31183 224.04865 17.999439
254.29303 187.6615 37.40316
103.70465 154.58618 32.406219
148.06406 225.66913 54.865036
234.74228 230.16046 44.583519
214.63106 162.01263 6.5412135
199.21609 173.10126 53.994408
110.35043 164.23648 41.119713
103.59061 198.80679 14.1387
194.94263 155.2626 29.814873
215.84683 219.1909 27.626175
174.22702 234.082 13.567998
158.87808 174.13284 12.1387
166.04721 226.29741 12.1387
117.73422 166.10837 53.530849
103.60213 222.082 17.850761
136.47119 227.14497 14.1387
212.90341 214.58231 27.635439
233.35699 175.53264 13.801991
141.42102 155.12134 26.98513
236.7887 207.78165 50.068218
179.84268 220.09756 38.911831
126.05221 150.2088 52.925674
209.67732 184.90073 27.406801
244.4785 200.95953 32.29565
195.01535 203.83444 20.646847
159.11319 206.46336 69.079651
166.26515 212.01186 13.327398
189.56041 176.96271 12.1387
177.05363 227.59447 35.597683
144.80806 182.67545 12.952906
165.20171 212.49332 13.308904
200.71947 214.34607 50.2952
172.35014 231.61075 12.1387
167.02002 193.61392 12.1387
182.00233 155.97198 43.995457
130.75179 161.81671 57.093781
219.92445 166.91272 67.571609
240.11838 155.83615 41.288216
109.45335 196.2756 14.138699
124.60551 210.13187 12.1387
244.02928 182.71747 40.581081
223.99312 227.39462 1.6893697
163.47327 213.49174 14.1387
150.3703 169.14804 12.1387
85.918861 158.25377 6.4795423
201.55695 233.06633 17.419886
149.40173 218.6226 38.380478
176.76727 201.59283 12.1387
116.00427 229.69966 44.667412
140.50681 174.9669 64.516983
127.00228 231.082 22.437313
126.78244 170.23555 14.1387
216.05486 194.42969 68.866463
135.50162 174.46591 12.1387
156.01584 176.18195 33.374458
124.43787 170.68921 14.1387
194.28764 227.2966 52.734177
161.8046 227.72728 36.460533
254.70659 175.84946 33.537048
230.76016 211.31914 27.579241
179.91776 159.58206 27.049067
92.306206 232.48546 17.852228
124.34762 165.32726 56.721844
192.5258 177.49725 16.99254
233.35699 192.18039 12.823336
134.0986 186.73938 13.280782
229.73238 209.80298 68.257217
142.55339 169.33681 13.42837
172.83351 192.78003 13.956915
175.38181 165.83195 66.208992
239.05211 196.16145 63.829296
221.78113 163.16145 42.229702
185.27957 192.70749 14.138699
208.25908 161.91675 4.7464209
252.82567 158.05888 33.685875
145.85124 159.31206 28.742365
247.47231 157.37793 48.484055
103.45893 223.34779 29.69866
110.71815 188.31813 38.831768
136.11813 182.98184 12.138699
143.51776 176.97072 14.138699
258.69409 218.11716 19.874899
125.1851 196.49075 35.451618
213.30988 189.71658 68.965775
88.801949 156.39856 43.102455
190.07278 192.98712 12.1387
202.38852 226.43033 22.224911
83.4869 156.83618 5.1235328
195.87454 221.276 24.407835
81.470001 230.40532 39.678394
213.41162 229.04593 0.59652519
205.37082 224.94411 39.967041
182.51468 228.18082 40.666531
192.8997 172.72816 13.792315
96.932343 235.79077 11.829156
131.98735 227.61868 39.153721
91.821358 188.54001 14.1387
124.52622 191.94029 15.173287
231.25427 225.37065 11.679099
87.6325 156.21335 27.313871
194.81447 158.7429 34.415836
116.34 159.29987 12.1387
191.20599 157.43576 45.435432
143.96048 183.90384 65.878258
245.78946 231.082 25.505581
216.59343 164.9863 14.1387
152.92967 155.07899 18.957245
238.21587 190.9537 65.186172
226.48776 229.85175 3.4347742
153.05498 231.03947 26.990217
206.70108 181.38742 14.1387
93.297081 178.26868 45.626362
159.37761 195.05066 14.1387
87.396652 213.29936 44.5616
209.61389 224.11766 10.055643
124.65999 208.033 12.1387
149.19948 178.9346 13.029563
169.8674 228.01106 50.710617
158.76445 182.80774 13.711329
103.24111 207.03955 47.041096
206.51105 226.57062 41.460766
124.72786 170.99483 12.602379
192.02951 194.56728 14.292005
241.10236 155.17766 28.109421
155.28015 229.03546 48.171787
143.3847 156.28639 12.1387
133.63162 224.01331 12.757807
172.71426 152.07899 12.79368
81.814995 153.68881 28.451672
111.04429 217.39951 37.879143
167.82448 231.082 24.080687
253.25746 231.082 20.029701
233.72346 176.10847 37.217808
206.60077 151.65076 14.651203
168.81625 180.96045 12.1387
160.73459 180.51144 13.745718
193.84438 164.88498 26.028652
160.27731 217.91805 48.395588
206.59869 195.53035 14.1387
193.79289 205.60754 69.414307
119.94783 223.58255 14.1387
135.05899 214.45898 13.29755
110.44183 179.11111 39.638866
81.341927 164.07899 20.537529
108.85232 233.0627 19.680445
125.35835 201.96356 25.52903
80.860336 230.61592 35.464535
212.78705 232.354 0.85941315
166.63953 226.13188 12.1387
211.86777 221.95967 63.834709
145.35985 185.491 24.718086
123.82552 183.38901 19.065834
134.3459 228.24808 14.1387
162.81648 212.71613 12.1387
154.82492 177.56001 29.159405
198.33307 217.8186 20.70475
119.17479 212.05573 14.130936
215.22153 203.93341 68.898605
155.43396 196.23471 14.138699
192.25705 191.61343 69.427391
129.04967 182.73091 44.781738
179.90909 171.19643 13.565558
102.772 201.96832 46.983803
130.668 169.00568 37.617069
224.48016 158.06049 1.9170264
186.9248 228.71191 45.241562
115.55489 217.03226 24.704216
129.40857 186.62547 13.198915
133.77435 223.19495 30.672245
125.80008 159.68784 25.208008
91.955307 221.20575 45.395802
215.15668 231.84222 34.592827
194.12537 211.83885 30.146355
113.79189 154.91293 18.684944
201.82617 164.46454 14.1387
114.39053 187.87418 28.105181
68.786942 163.12216 12.138699
162.84065 165.76527 65.770599
168.26328 159.38303 53.137985
222.86742 159.59367 54.88636
159.8586 185.6494 13.730428
156.22543 160.10797 22.178038
151.24438 200.96732 68.037712
145.26048 210.99803 66.381218
210.22862 163.85403 31.49217
222.21652 154.69618 34.814678
247.80875 217.13646 53.588207
149.48505 155.53632 35.282482
150.42665 194.71254 13.56579
96.567535 164.07899 18.06863
127.39455 216.06563 13.16377
193.01381 200.67001 21.119219
174.54175 209.85779 13.986734
194.04636 161.24231 57.483761
90.380379 160.94998 18.463312
210.66287 192.28505 27.424004
170.65857 170.12827 14.1387
122.30996 182.32416 14.1387
243.66934 155.07899 14.511902
134.93823 212.05043 23.405518
205.30225 180.51901 57.322819
254.16428 231.082 23.799164
87.225471 165.48158 14.1387
234.40077 155.93292 43.214195
251.23987 196.1308 48.698975
178.46255 182.15584 69.415367
228.7355 154.91621 32.52879
127.9899 223.99216 37.322845
185.58186 170.10979 12.1387
149.1973 159.47238 34.294014
137.42545 193.83771 12.824032
193.43355 175.58449 13.801634
217.72755 157.847 47.110466
126.45995 175.37009 51.995407
84.43277 159.16463 43.545692
207.7719 177.32605 27.651587
227.0943 164.07899 14.389666
228.64438 164.51396 14.1387
182.00859 213.28912 12.1387
203.14209 230.57248 13.752176
129.06477 201.05098 12.1387
152.67032 230.75845 32.617531
218.94371 206.07104 14.1387
59.610279 208.97983 17.088871
245.1487 205.67326 57.047947
216.18222 151.81253 18.351465
210.32532 228.314 42.417736
108.69122 228.95297 20.553391
202.69421 159.3165 23.355385
212.30032 164.07899 25.783148
127.68156 170.23096 49.02824
237.50195 226.80992 54.757626
118.89577 190.73 14.1387
100.83304 218.91876 46.74699
93.569702 168.47856 14.1387
178.25879 157.90576 41.223183
236.77649 208.63931 50.017132
228.19858 180.09018 14.1387
114.92766 194.39149 46.091068
231.85547 155.62395 23.953077
263.54269 221.87794 39.2925
253.24344 166.76028 44.401459
254.32771 216.76067 46.913544
201.78711 172.98767 58.218857
224.81691 165.16 32.406132
130.42249 170.63132 38.018177
197.3107 219.84976 41.420441
194.5925 165.12076 39.169277
209.16528 221.93497 14.1387
120.74174 225.1888 14.225999
120.943 179.74081 43.486729
211.02312 212.47824 27.641357
160.4713 222.38382 12.138699
156.44275 167.19104 38.503368
211.66595 155.93506 43.260235
194.73547 160.24174 21.716887
189.30939 202.29691 36.767002
107.94156 230.81403 31.5117
230.84363 183.15906 14.138699
241.04729 213.46509 12.1387
107.95258 177.53506 14.1387
102.53114 197.58603 14.138699
125.03415 173.17554 43.542358
204.26828 215.70715 14.1387
205.54913 161.55936 7.8757267
159.78981 181.0593 20.297634
258.73999 204.37799 25.841034
161.30721 169.858 55.908649
231.49077 210.01619 27.576939
102.16307 168.97298 14.1387
161.94336 214.84901 68.640045
134.93948 209.2041 23.333447
157.47243 217.75046 19.991541
177.9894 189.76556 69.408134
60.568783 208.5558 14.917613
199.02187 221.20694 47.476887
176.93446 167.77129 37.036789
146.6749 174.3382 14.138699
212.13574 162.14859 22.049761
169.58383 210.68781 12.1387
171.77162 156.72188 46.911259
131.86064 158.18771 38.023766
252.2795 217.81546 12.1387
181.97473 209.59122 69.45829
244.09354 196.14825 40.129158
135.23756 159.62061 25.942589
122.05135 211.49663 43.813053
159.76155 231.082 18.197647
160.86092 169.70184 49.149914
137.39728 164.88499 22.902855
128.50075 150.25534 51.799599
125.21509 180.10199 14.1387
155.29407 221.276 37.450592
121.24132 159.66254 31.497555
92.082382 164.07899 21.053761
156.76978 219.6969 36.199028
121.39925 187.3187 20.377434
168.43207 165.79364 12.138699
89.212097 232.15204 27.241507
166.83794 174.93254 69.052979
123.36542 153.13863 14.1387
228.96283 187.68384 41.165642
65.940613 231.082 25.294529
145.78522 155.11221 26.802769
234.33484 168.26607 52.065014
195.97299 185.9342 12.138699
157.03445 174.15141 12.1387
243.15002 165.16 31.932072
245.21405 193.25772 56.968391
128.19585 159.84174 23.945648
212.11961 193.76199 69.002586
85.162323 152.30859 24.839624
194.96307 207.27075 14.343214
109.35701 228.33925 13.93257
209.43909 151.70407 20.805126
237.76503 157.847 43.271973
178.65393 160.6543 17.939785
194.92915 229.38907 47.61499
118.2297 169.38565 53.809834
115.55348 162.97707 12.1387
88.69635 220.6077 24.413319
175.95416 231.082 18.186005
129.44662 170.71838 38.412018
69.891304 155.903 36.847649
207.21259 201.36386 27.653351
157.31812 155.07899 19.684784
83.960556 222.082 18.181084
155.37918 201.40315 13.652239
162.69217 169.74167 68.290939
222.49046 222.082 18.768164
216.65671 223.30078 33.074387
226.78831 162.02478 7.9690752
233.99899 168.16026 67.33622
64.738243 170.68723 37.091633
218.86394 222.49899 39.416622
213.2699 174.09996 27.469515
57.510941 191.44791 24.127201
203.7222 164.07899 21.820696
212.05052 152.77542 12.461352
147.27795 210.70294 14.1387
161.68927 234.082 12.469856
148.98546 157.77313 41.838413
179.43723 181.20447 12.1387
196.58704 200.67001 23.235888
182.37451 165.04523 14.123464
138.61087 231.082 21.72753
142.43237 186.60675 12.1387
205.3829 225.54523 6.5036898
240.76035 185.59279 62.067947
120.50825 199.17491 16.481142
129.80138 231.082 23.597292
191.85983 203.71298 12.138699
244.3804 179.91574 37.887192
59.626297 163.3425 24.77013
236.72141 155.49092 34.375736
68.446144 155.07899 15.025957
152.14998 221.98654 13.081069
173.28712 159.98303 14.1387
76.161919 190.34624 12.1387
158.61232 182.26543 42.564346
124.52281 217.91513 12.5988
212.89206 216.49286 68.517052
147.91611 203.02364 13.521969
226.83386 221.00099 35.649136
115.01804 192.19373 26.272324
258.09317 175.08682 17.470575
123.45021 156.17365 48.072876
135.67911 194.03426 13.30837
117.40299 191.58444 19.306141
177.22546 179.32368 12.1387
213.69115 224.04259 18.694765
227.86333 231.94202 4.6486058
172.56158 167.8812 68.233795
131.32561 228.07213 38.852474
183.54205 206.47008 14.1387
225.81194 226.7381 30.773058
215.94945 234.40915 8.3626413
259.62598 222.65689 23.603836
119.12382 229.08417 47.194111
151.95792 164.81418 12.1387
244.53008 203.27504 29.35503
132.79518 192.03928 12.1387
161.64697 205.50235 13.761644
185.1917 155.17773 28.107899
83.145142 222.54904 43.687553
156.36258 158.56682 51.216522
207.14995 158.33125 41.497055
221.95718 218.95816 67.574379
166.74271 152.23145 14.1387
143.01971 176.77332 12.138699
115.24131 176.08812 25.620152
122.00494 231.082 24.978939
227.53073 214.82597 70.042252
164.88736 173.42242 57.789879
131.31221 177.48941 13.232158
226.53044 174.14838 34.790821
108.25925 209.44957 46.013889
196.71802 212.58725 14.373848
57.606392 181.68028 22.201275
257.32458 160.10052 28.315004
156.17784 177.35924 68.425751
202.63478 210.00345 50.664169
68.571243 161.91089 12.1387
101.8714 200.86815 14.138699
229.74184 154.79729 27.559124
134.29733 180.37172 61.854919
102.40887 237.22891 22.057472
237.83627 221.78073 61.770531
151.88689 166.90028 13.076476
123.15083 162.17474 37.196815
117.22858 184.13515 46.073574
256.00946 161.36417 28.904552
164.13667 192.526 69.816086
180.70901 231.082 16.031111
201.75056 170.34688 13.94681
237.93117 210.61168 51.388397
108.92123 231.32709 19.227484
203.82994 213.75708 14.1387
201.35699 205.72063 14.086872
148.00481 212.86488 13.008709
175.41548 198.72923 14.001986
230.15685 165.737 31.696232
125.0726 224.57819 29.061909
139.60638 181.31053 12.1387
153.28131 175.60242 18.002483
141.8643 184.11398 38.248917
74.424622 156.48438 12.1387
127.49815 191.40091 25.016966
151.05202 215.461 18.253431
260.58185 222.28096 46.290257
211.93988 160.3252 32.208347
256.72186 218.98553 28.496346
167.57071 214.73535 52.232895
61.799461 158.63409 21.488466
215.82626 153.76523 28.256729
126.07615 230.74918 32.798107
90.928543 151.03378 18.097187
144.30292 226.08548 53.940746
189.41913 160.83139 12.1387
166.00073 165.46919 13.3228
188.17168 206.14789 14.1387
194.51282 201.19135 13.820473
126.1947 234.082 12.857324
233.0836 165.16 30.48073
228.78719 164.07899 22.066977
257.04745 208.67181 13.286997
119.84206 204.70314 54.71072
125.47174 197.92599 25.167152
58.822227 181.18463 18.102589
191.94951 176.12988 12.1387
210.2403 162.12469 19.297485
121.71237 222.14188 12.1387
161.09149 208.5737 26.407627
194.50333 181.62703 13.820307
133.48592 198.48065 61.492046
231.83673 213.78688 50.270599
101.46767 230.17096 42.167465
186.69565 185.491 38.098969
147.41815 220.96021 38.345852
63.795822 210.08966 36.066574
138.92157 207.53235 12.1387
200.05624 170.13383 68.898758
253.15634 223.63177 12.254085
209.26038 154.32515 2.6550424
128.98856 203.55696 12.1387
226.79849 204.69356 14.1387
118.11436 202.24484 12.1387
149.97276 195.42773 13.557868
236.90524 176.54015 50.891052
131.69595 160.72644 16.508686
147.129 215.0836 13.50823
184.85471 187.69833 69.471069
243.20181 163.34109 46.409878
242.31923 155.60312 36.622181
138.90102 180.49181 28.420345
254.01254 162.92989 39.273182
253.3208 183.20134 37.142227
179.8483 153.40782 14.1387
233.82376 184.31206 55.858536
169.37157 221.68471 63.352131
111.15123 153.80679 16.436325
150.3103 193.21907 14.1387
111.43768 162.85591 14.1387
153.52635 221.2601 12.1387
196.25775 172.39005 37.693649
102.98322 228.75598 3.9260859
188.15204 225.65332 19.339624
236.32097 203.68462 27.561739
192.56306 192.19214 14.1387
238.60538 189.12524 65.542473
210.07095 224.16354 4.7734885
68.105843 179.00607 12.1387
160.95476 164.21005 12.1387
79.405708 172.93291 14.1387
169.27515 155.70421 38.635597
62.289696 191.47116 32.944195
85.422615 222.082 18.516064
196.71754 161.21721 57.498573
259.22168 191.052 21.986065
243.40862 173.40587 44.956326
256.40356 160.03146 12.715321
160.50999 211.18507 14.138699
238.28799 197.78343 64.589615
201.19612 216.25497 12.1387
254.06332 187.76938 12.382914
122.82411 192.42476 26.608326
169.68178 160.35475 14.138699
141.42828 175.98917 64.881561
246.9016 155.95395 43.645832
197.13097 155.81354 40.820786
150.16484 201.02652 12.138699
116.03339 198.77151 14.1387
146.89056 181.16943 12.98926
62.656372 224.95493 15.323842
180.8685 191.0381 14.1387
143.00723 189.67502 12.138699
194.58182 230.73676 33.050972
243.17529 158.2921 12.138699
111.44331 196.83664 36.713673
241.7462 165.16 30.440508
183.21767 231.082 24.060978
222.91635 223.77547 40.215179
203.57027 155.3548 17.604469
211.5354 202.4454 14.1387
196.44748 184.61588 12.1387
239.13934 213.58609 67.75016
180.74379 172.74854 70.618683
219.40157 160.87166 40.071526
141.68524 209.54825 13.448588
124.91525 231.082 23.374496
173.65851 164.46786 14.1387
253.65114 214.61002 41.683277
258.1008 165.03398 17.501017
130.57715 219.2034 14.138699
125.22681 171.37375 38.269417
192.1749 219.50662 13.779663
125.16291 184.5788 36.718575
166.53951 197.18584 14.138699
223.69362 187.8288 68.551147
115.1842 160.67073 28.939213
143.17554 222.29738 13.439228
235.3774 189.96759 44.1516
168.6418 156.55511 46.176693
155.45966 182.45985 31.406036
138.09743 212.87398 13.350584
232.37607 202.27969 31.569004
190.57768 210.5318 69.440788
196.46494 227.65369 12.1387
124.28896 170.97365 57.06274
204.51761 227.71815 32.003445
249.50928 196.91241 51.184128
201.7547 163.43184 18.974264
89.236107 160.24142 13.678523
190.51036 227.68796 36.628197
121.86369 213.31058 14.1387
181.83578 174.95 69.457245
197.30145 210.76048 14.384032
160.79778 171.41779 14.1387
65.334534 155.98053 25.82333
128.97263 197.88977 12.676477
94.48275 233.10042 7.3520164
241.08789 195.52881 61.725021
140.76147 198.23126 61.179184
140.51031 191.0484 60.078129
142.41667 231.082 15.854737
100.05435 222.082 22.964336
110.19931 221.98633 42.060539
141.09189 231.082 18.153364
109.06688 153.41089 22.690865
185.49983 218.39365 68.399139
206.13025 213.29819 56.919304
76.97438 169.70575 42.260502
60.937126 178.40125 29.113941
263.99911 202.65915 34.545494
232.18968 231.22121 29.851744
125.21428 160.19327 39.99976
243.73059 155.07899 13.644825
130.16957 230.99216 27.937851
157.39978 201.94968 13.687509
112.69453 226.15773 38.524651
129.58986 200.6604 12.1387
144.00523 160.23509 12.1387
239.49098 209.84804 63.39299
192.85316 233.49098 12.1387
151.49509 220.37106 28.640163
119.96726 226.78542 51.949532
199.48891 158.32758 51.785629
238.33815 155.59273 36.413845
193.71234 227.97005 12.1387
160.22467 173.31169 52.74852
95.728477 199.92282 46.01339
128.57121 234.66348 48.658829
181.54076 219.3196 36.63139
262.80411 199.97385 46.950207
263.18863 223.27179 40.043961
94.227516 217.34674 45.780426
211.539 176.327 34.529175
174.17664 204.5152 22.777382
246.03149 194.03763 55.935616
130.57202 194.37498 60.148308
198.97009 212.03519 20.814497
219.50511 159.9357 32.959469
154.45445 178.10721 13.636098
133.72366 201.60297 61.59837
72.458183 155.44458 33.445862
181.43147 172.2067 12.1387
60.033722 210.76321 25.890814
77.820717 184.29027 14.1387
251.03011 197.17162 49.00021
165.38744 231.049 26.79958
154.61641 185.491 26.526878
206.46083 178.17958 52.307381
170.6647 163.63812 14.138699
205.15652 214.67635 50.844353
197.81081 188.95416 69.351486
111.83359 225.77908 12.1387
167.23456 159.58487 26.803848
71.536331 159.37888 40.506275
197.039 159.08611 31.548809
238.22208 211.40785 64.655258
145.22639 164.70583 63.222969
97.735336 165.21231 20.123543
236.32928 223.10431 61.866589
201.35699 202.56116 12.245821
143.6057 160.3056 20.283167
212.19653 229.61029 47.102978
120.98615 209.98766 55.320351
145.77347 196.60593 66.569801
241.05943 230.74825 32.830494
159.30438 152.98764 14.138699
239.53589 163.31158 43.216862
120.71576 194.80772 55.17627
127.87492 156.48007 44.997795
148.59874 165.80875 38.366463
228.87006 224.79773 7.013958
184.90088 156.09329 44.683716
235.02881 182.10638 27.565804
150.98608 227.12178 52.030708
129.55177 204.93214 13.201415
205.56044 229.5174 47.331516
163.2457 226.19116 23.46468
201.30977 170.38022 13.939116
255.5392 174.76221 29.093683
239.01999 172.71408 63.861259
116.65464 226.79416 29.869751
237.34334 154.60574 12.250358
206.59671 156.3311 46.103683
254.65823 210.49149 43.475163
223.17297 199.03857 27.603119
125.54153 224.22575 37.316463
141.2973 166.0394 28.462172
109.50053 204.91299 14.1387
200.31158 174.68011 12.1387
200.71185 216.58551 28.991554
100.12202 238.91222 15.947783
125.08221 151.20493 47.147228
244.39847 207.4847 36.857132
180.3045 159.02356 31.786049
160.28062 156.49408 14.1387
93.534004 180.67798 45.667076
187.12558 233.32455 14.1387
181.41798 185.61374 13.591897
221.95186 219.31389 14.1387
119.21976 184.41945 45.229774
179.42151 220.95592 14.071916
115.9991 228.23117 48.961025
114.05138 170.07458 29.095831
205.74974 164.07898 21.732702
178.17334 218.68745 14.050128
137.78387 179.92256 12.83029
171.71753 207.20891 14.1387
237.94662 194.7377 27.556622
168.33768 230.62614 35.261982
182.67339 203.06635 36.651161
227.89452 197.21243 37.781052
185.3494 182.84772 69.470932
110.14729 183.83856 47.615402
220.50522 225.23997 32.79628
178.37466 221.26251 13.538774
227.79765 213.54395 27.588562
116.25817 229.0564 47.242893
100.7693 227.20959 18.743992
169.34622 231.08199 22.777685
216.06592 205.97577 27.625484
210.63412 188.659 69.048523
126.68587 202.44208 12.1387
148.61888 222.40013 61.417435
157.15335 176.57208 37.400574
179.32469 193.57832 14.070225
209.04501 220.65814 27.647581
196.8036 220.14853 14.375341
176.74333 224.05922 12.1387
116.22492 194.0695 52.681007
229.19249 221.00101 32.154675
196.16641 230.77888 32.21064
179.474 229.58136 46.512535
139.91208 231.33873 14.1387
244.46118 189.44424 33.282974
183.84209 158.24696 14.1387
156.35901 230.33945 40.994633
194.2724 166.09314 67.190445
59.77132 224.70026 23.53237
126.5877 231.05659 26.647345
166.28271 207.92311 56.941353
190.9838 220.84444 12.1387
124.91098 213.11464 14.1387
220.98233 155.92966 43.150627
199.10313 214.03571 14.1387
257.13171 206.24109 13.624197
127.96712 159.91365 12.1387
130.86267 226.64961 12.1387
174.01077 160.77771 16.812691
197.87964 231.59541 19.01152
199.41003 219.29369 12.138699
185.76678 178.58789 29.238384
211.28891 157.847 42.412636
148.54881 166.60605 14.1387
238.42305 180.89537 65.375481
231.43938 232.79272 24.941076
155.77226 179.16147 19.961864
201.23305 202.70303 12.1387
182.2959 224.79848 13.607222
219.47411 169.12868 27.577822
215.48933 230.75613 36.595261
176.89978 188.16489 14.1387
203.87759 214.62196 50.257736
161.74252 233.72543 14.1387
181.89317 166.65025 14.115062
102.33634 197.79733 46.930595
238.02972 157.96295 43.124176
256.68677 221.86119 26.04491
238.14655 184.5784 53.446274
209.44334 200.63153 27.402718
164.1682 196.25525 12.1387
104.60166 230.70081 33.773609
182.30301 215.461 15.705532
130.94884 158.17462 38.118835
222.29013 202.53456 27.605896
83.763168 157.15973 21.429317
145.51495 202.74432 12.1387
196.69452 196.3308 12.1387
125.31054 155.314 47.998257
80.554955 157.45357 27.061195
141.84076 174.69244 14.1387
229.72021 159.26486 54.395153
222.07533 227.37042 53.261326
72.573425 196.83298 41.119991
251.91891 171.91734 47.723888
125.68192 201.18042 12.619033
95.475166 218.82059 45.974072
124.42995 200.29849 16.7787
182.77986 213.51909 71.999794
252.47679 155.07899 15.526687
85.938965 158.3869 18.543299
147.57397 160.53937 18.371191
81.425293 196.35355 43.305058
227.81964 216.76086 37.543873
149.23933 225.47043 17.110519
163.78905 181.50011 13.284245
157.94177 177.04774 12.1387
172.83899 190.42485 14.1387
250.34981 157.89726 12.1387
117.33329 204.05414 19.509739
166.46324 158.85182 33.000332
241.76117 231.082 19.472195
63.436783 209.04245 35.400455
175.60803 155.83992 41.351391
223.23839 156.62956 47.655151
68.201439 160.61626 12.1387
241.08784 166.68951 61.16864
207.12659 174.36412 27.653618
170.34009 219.93336 14.1387
195.14415 166.9409 14.346374
191.83739 221.276 23.365019
123.68608 214.65651 41.842171
129.95229 180.19048 38.176617
180.59383 169.50894 13.577512
112.08672 200.37863 14.138699
110.95374 173.4133 49.546818
254.89886 219.5015 33.362522
233.0621 215.51552 51.72731
235.91573 183.92393 67.923904
193.87465 154.56163 14.138699
202.78931 205.64301 57.651566
147.9133 171.49576 14.1387
145.61195 221.42973 63.28521
117.96922 210.96283 17.652279
106.74799 190.21025 47.428654
221.80902 231.24626 35.311356
159.39424 155.72287 39.010284
190.70627 184.22614 69.439774
119.57227 167.14127 45.816353
109.26433 167.03905 47.847363
152.16858 180.24626 14.1387
198.58008 181.60114 20.709063
239.69269 201.89561 66.536232
238.91646 172.44707 65.8265
154.55057 220.12444 66.112061
165.09172 157.88322 41.184429
219.90282 233.23901 28.008293
124.58699 185.57333 34.317341
73.812851 183.64145 41.452396
88.106224 222.082 15.243486
172.14862 155.24936 29.542774
144.62527 185.491 24.795837
210.19025 201.49477 27.415756
97.886871 222.082 20.519039
145.09424 204.879 14.138699
198.0153 228.76074 49.896572
226.91145 211.47379 68.40239
120.08105 193.30292 12.521263
121.29654 174.58141 43.061466
227.39073 153.63902 24.218098
98.915176 232.75566 32.149525
191.97278 160.73222 17.511906
247.63753 158.15887 49.105885
197.15234 225.05934 14.462626
187.65268 212.03758 29.271301
100.61015 226.24591 31.440331
240.87523 230.85562 30.680294
139.49541 155.40067 32.567272
254.85306 207.19385 33.668076
160.71854 214.72018 51.798241
156.03725 203.50488 68.596367
109.60806 165.94293 48.704048
234.12155 157.847 43.922955
200.31285 161.17909 12.1387
153.73022 227.69467 14.1387
201.57216 210.18338 69.284592
161.55148 169.858 54.549934
124.1552 161.0078 28.969255
204.68874 190.68201 14.1387
145.93707 219.15727 19.790203
119.62317 174.82489 45.078854
130.42303 222.46397 13.216637
136.71684 160.14397 21.532812
148.94183 172.46796 13.575302
213.87405 210.28008 68.948326
69.673447 166.66595 40.318851
199.84998 161.98558 14.428519
216.67102 195.45102 27.623581
168.47507 231.082 25.298599
110.58041 167.50456 49.313011
169.66202 186.92067 14.138699
165.25374 221.276 46.098454
108.90211 166.5892 48.261936
75.851456 153.94388 20.959042
222.97458 158.81599 40.962318
239.96777 222.49899 43.195293
182.0844 200.77121 29.17411
131.12762 187.57642 60.412266
228.90833 151.63727 13.309156
90.594215 187.29636 14.138699
217.40021 165.16 29.985128
145.92203 230.24751 12.1387
134.75468 228.16072 12.1387
139.62964 208.92279 13.377327
184.83011 209.28238 12.138699
253.58145 173.67052 35.40403
202.92769 228.77135 24.117085
129.71603 161.7002 12.1387
178.4187 180.34679 69.414696
199.00488 180.37195 47.416817
170.74289 227.82852 37.47501
210.40016 222.49899 35.494606
141.44241 231.082 23.396887
125.90301 216.24974 14.1387
118.11707 199.67685 12.1387
130.49054 230.96709 28.439884
114.66797 170.00104 51.775616
166.21111 156.2666 12.1387
210.32162 224.08939 13.304054
95.616531 231.80988 34.647518
217.60591 222.082 16.2442
207.08249 157.74709 29.548471
141.61476 227.37994 12.1387
194.91858 227.08299 31.575294
136.52589 231.79619 12.1387
199.715 221.81204 14.1387
112.26539 217.23241 34.312469
235.89255 163.662 40.0364
183.70508 166.71188 29.202398
138.62927 161.71585 14.1387
78.039703 230.12985 41.038143
124.42262 188.63742 17.197933
255.87332 210.66502 26.866772
131.49109 162.67192 12.720441
61.207878 167.54536 15.712963
156.02022 155.07899 21.456118
148.034 160.64813 37.537506
184.03577 201.58121 69.471306
229.14113 230.66391 34.510269
82.491585 226.19418 23.136259
96.137802 224.05188 32.885326
120.48291 219.58093 44.976303
203.63107 226.77122 17.731522
77.702774 159.78163 18.632414
195.9063 188.23643 14.1387
95.468391 204.73615 14.1387
209.99522 222.49901 40.17672
177.7377 198.56039 12.1387
119.2858 211.44321 45.216522
183.47131 157.5652 44.20179
194.30453 189.02797 12.1387
221.32773 214.84839 14.1387
193.49107 177.42102 13.802638
191.56209 160.48929 19.563526
194.73187 231.082 18.482737
195.18124 160.45543 19.913662
144.50223 157.74133 42.029037
77.357399 165.9545 13.797789
133.33859 223.41789 59.008904
172.01593 213.00897 13.942642
62.163162 206.56302 32.639
253.21719 167.69446 12.262728
144.05679 162.36378 58.511017
240.08829 198.56891 62.770607
191.58025 159.03008 31.927626
80.936829 194.24448 14.1387
244.43785 200.36691 34.612774
254.1743 173.13141 33.45723
124.90987 155.07899 19.689054
124.40797 187.36252 18.035883
126.90114 147.29907 52.916416
169.32855 155.45058 33.565884
149.79105 223.56285 14.138699
254.13968 202.55408 38.424965
230.67104 161.13965 18.219093
123.21336 223.66229 12.1387
247.73828 193.18883 53.683403
115.52577 231.34625 14.1387
243.85866 208.93842 41.785252
104.43889 157.01991 18.614883
184.51183 184.87018 12.1387
169.47702 161.52063 14.1387
156.26895 173.94408 13.152971
117.64697 193.18423 14.1387
125.21427 189.38153 37.994812
160.12489 163.73817 13.735079
63.878128 200.79068 36.775063
192.0105 202.15237 39.124207
233.31918 212.19699 51.446262
186.69705 194.08141 13.684045
151.9639 228.35272 41.589546
63.25946 202.3994 35.283047
62.7183 206.57307 33.432076
123.90665 187.80833 56.870262
86.788895 165.02457 14.1387
77.436554 157.97496 16.153431
258.34195 169.14825 18.465864
102.83586 156.61707 24.682854
191.84009 192.91321 14.288698
124.81324 225.61739 14.1387
213.26978 194.69785 27.469515
162.75922 159.04066 31.335163
242.53979 169.74004 60.129093
120.82056 234.082 13.89923
186.57437 202.26889 39.029327
129.28589 174.12141 40.380116
190.14073 179.67599 19.116991
230.40468 171.123 45.733589
180.8916 159.83894 12.1387
70.106735 230.79041 31.985712
262.15939 206.92715 52.115582
138.12894 155.26082 12.138699
171.62317 212.35849 13.420925
217.99927 193.82306 27.6194
212.64966 173.51071 34.548557
124.89344 178.04488 43.82436
251.73355 231.082 22.256947
167.71759 185.77542 13.867609
105.4355 157.59262 27.923794
240.47839 175.15013 27.548653
97.138092 231.32823 32.642952
109.25235 160.38509 16.425602
194.15053 214.19812 13.814148
158.80447 218.03305 43.244484
208.51295 154.88263 33.846111
238.24628 170.1669 12.138699
171.87408 197.40498 14.1387
238.52919 179.96803 65.472702
264.37927 205.47217 30.599691
208.13992 165.16 27.813198
235.5844 209.89868 45.019421
135.56548 230.23041 42.970245
82.065582 207.21596 14.138699
124.28531 194.66193 13.109492
255.47627 184.41043 29.513016
243.36736 219.47409 59.175056
209.80165 223.24551 41.647652
110.42612 208.4191 14.1387
216.40167 167.90019 34.614044
116.91783 166.5193 47.485313
143.46431 200.46912 12.929448
101.99158 155.45969 3.9824381
226.87535 166.6738 27.707022
252.62712 218.78189 46.706554
200.64754 215.03157 57.304192
183.08467 228.88528 12.1387
256.13821 198.50436 31.848843
214.11327 165.47757 27.63163
128.12689 201.8317 14.1387
173.14227 228.42099 14.1387
178.23633 225.15793 14.968149
248.70509 208.56744 52.332867
257.8616 210.82999 16.544346
253.2243 197.78668 44.529083
175.86772 231.082 19.509243
104.16783 164.07898 25.482334
192.33296 199.30916 69.426788
141.83368 155.07898 16.398638
139.55989 173.15439 14.1387
125.85391 172.86952 57.850616
224.0741 170.31921 27.658121
135.75403 226.86526 52.173069
114.26193 180.4857 28.480804
130.616 198.41687 12.1387
181.53995 203.90216 29.164608
191.51302 206.91435 12.1387
243.2704 186.30597 59.287128
184.00317 228.54382 43.768734
65.777176 179.28732 39.182407
211.00874 172.09908 27.641401
96.706306 224.83121 21.962088
111.10659 184.52504 37.69717
215.36166 201.41833 27.506031
226.79349 156.99692 3.6804075
127.33958 168.2979 48.158787
186.38875 205.13644 13.678663
175.71294 189.81357 12.1387
97.072968 153.51961 10.714776
151.71504 231.082 19.475595
194.64542 185.52005 14.337668
167.14432 227.90652 38.073505
120.59294 160.81296 15.581506
162.8605 197.70152 69.634254
188.52802 203.11008 36.753361
253.38802 212.78767 43.437248
172.75374 155.07899 23.229868
236.19949 212.69469 47.598148
60.41291 203.56877 14.833608
128.93777 167.48654 42.938866
114.68385 227.94965 12.1387
206.71487 230.59763 35.831642
194.63107 227.41103 52.513683
145.28598 165.40184 64.617241
107.98347 193.44186 47.686604
93.054405 229.70065 43.584873
212.26816 152.90761 27.244442
185.7749 230.40974 39.592964
200.52847 153.39638 12.450472
143.5652 188.98419 13.446023
232.96609 228.54903 18.932604
154.37857 154.77121 14.138699
190.15193 207.59041 13.744352
222.51805 194.97882 27.630959
111.39475 197.22386 49.823013
201.9507 212.20485 14.465191
167.66763 234.01593 12.1387
139.73547 166.80666 63.319122
63.857132 174.82152 35.886173
63.737297 225.25366 31.749886
157.97617 185.491 33.085972
101.92609 177.99338 14.1387
117.09864 170.78694 49.419018
123.22748 231.082 17.041998
202.46396 220.15192 37.217216
116.69766 182.12047 21.366354
153.47099 206.32713 19.921694
141.90393 194.33835 63.074009
122.33413 159.56232 26.211309
244.43991 207.30765 34.494381
216.01083 234.19308 7.1992116
125.19189 193.52129 37.504391
61.242733 184.8439 28.349756
137.34813 197.09933 63.190201
113.44758 157.92267 44.160801
180.28232 208.02759 69.443207
149.42476 219.51477 13.548306
126.81201 216.79651 13.153603
172.08939 211.53374 12.1387
126.73405 195.12463 14.1387
184.02963 204.53618 12.1387
192.57558 155.76381 12.138699
95.241074 225.94154 -0.015133232
117.60938 227.27359 33.520096
114.25474 155.07899 25.336895
202.79185 230.13095 23.716434
152.40831 218.36899 36.902016
115.39655 155.07899 15.345444
221.69 154.81937 35.159767
254.8783 226.22386 32.06356
114.37655 158.75069 36.461945
160.87473 203.83968 14.138699
254.50128 215.95894 45.108025
127.70128 173.89957 44.772186
194.76831 174.18411 69.399063
120.50352 183.38901 15.947255
76.172447 232.24718 22.088907
135.80905 193.06824 12.795815
219.67401 164.96445 35.567703
159.45772 225.66562 14.1387
239.56186 184.29903 12.1387
128.79041 207.69453 14.1387
196.52922 203.49925 13.85567
195.38721 165.53453 39.183147
175.59369 182.48755 69.356964
109.11288 230.86919 17.886217
252.17999 217.67432 12.1387
222.56906 174.91862 34.721687
110.68372 209.34436 38.93232
121.29646 196.41417 55.485699
108.90482 154.81149 28.768335
138.35722 231.02417 27.297237
154.83102 213.35556 29.180967
205.42848 153.50607 28.883474
206.72964 155.56294 35.817978
134.9223 175.15466 24.313129
167.14151 171.35451 13.342694
201.03027 159.13959 31.166416
255.56628 179.6463 28.913155
153.33722 157.44681 44.680626
253.46498 230.48381 16.150745
187.5332 157.58675 44.089813
185.01048 165.98682 14.1387
98.499138 202.33679 14.138699
112.83185 164.40897 32.657913
258.88165 189.9053 25.468235
150.7473 160.82556 16.001154
217.73436 162.18222 25.933702
257.16211 195.0183 13.745653
200.02487 162.54791 13.916688
74.609558 231.32494 24.754923
187.41682 155.97757 44.109596
200.84283 214.12134 50.355747
219.73387 224.12465 9.2919855
152.86121 189.96494 14.1387
131.07423 162.5031 14.138699
167.74277 161.91872 58.196198
244.53336 178.58119 57.797081
189.92818 181.34706 13.740445
196.13693 230.80342 31.722448
182.79102 188.45166 69.464417
257.52655 178.96848 15.20359
197.12741 200.67 39.309357
160.53198 183.9317 13.742182
228.12895 215.53857 38.52383
156.88544 202.04335 19.981297
134.20956 201.20584 14.1387
253.31668 202.24341 43.912895
126.41145 178.36942 50.218395
163.04124 215.27974 35.5597
254.38124 216.28467 46.356697
193.54825 165.02827 12.1387
81.545074 155.85974 19.493711
108.44122 199.25665 47.973286
60.804668 166.99197 17.392653
146.18182 230.39151 39.955742
139.36987 155.38853 32.326443
198.54465 158.41589 37.252853
157.32719 226.06482 22.289734
230.97911 167.48203 47.553558
152.90829 225.56294 17.958649
190.72195 157.68727 43.292747
176.89238 158.87799 37.10215
138.31906 219.50711 35.876965
181.05351 200.43999 13.585535
184.86728 194.92697 12.1387
178.15433 166.70105 14.1387
67.963501 166.94131 12.138699
151.8958 208.48273 13.076632
192.42758 198.83032 12.1387
111.5884 202.45596 36.289864
164.09528 209.70544 13.80438
194.46848 207.43085 14.1387
90.442421 222.082 30.181412
77.991028 230.96822 20.397367
176.79289 219.98302 13.511164
103.61065 229.32558 29.567381
112.71987 199.08882 14.1387
155.95483 165.36462 12.1387
194.9119 221.276 29.789095
187.28949 184.33878 13.694386
160.69386 220.41388 65.681969
232.44562 156.21529 21.718679
253.36314 167.46777 43.603458
130.47021 231.082 18.062157
228.62418 186.07956 40.092773
249.17015 205.02629 51.669174
165.61349 167.67825 14.1387
199.11951 155.77652 40.078671
84.211731 155.86203 30.344849
161.85332 200.36668 14.1387
196.15146 155.07899 21.049805
139.53604 228.49461 42.576077
62.277855 187.48817 32.915638
135.70636 186.33891 62.485054
264.45337 206.35889 29.830221
258.27615 222.31522 18.202559
94.82225 189.66571 14.1387
204.38712 206.23666 49.880535
178.23412 185.491 23.42746
94.794426 228.36398 45.269112
174.72739 207.57086 69.33696
205.7308 153.71109 22.203928
96.016983 161.3259 0.78422892
194.82393 169.21985 12.1387
59.347454 199.41566 15.72304
181.89967 231.082 25.45307
239.84947 185.6582 67.711884
85.122849 156.96999 2.4736581
243.04315 177.04968 47.528603
211.94635 162.04233 9.8697042
86.334244 146.46924 8.7384443
177.70789 189.87161 69.403824
257.08652 158.1277 20.509689
166.67276 174.98175 50.849785
223.63184 157.847 44.869728
222.27109 229.75342 0.92682695
63.885605 173.8662 35.699623
203.26909 172.08282 40.997021
145.8017 155.15912 27.740395
231.86096 214.36995 27.575771
185.80881 196.27701 69.470795
243.03192 187.05415 47.607922
108.54824 224.4614 21.231775
155.3631 220.13365 13.137158
106.74699 234.34174 15.242559
234.37793 230.4444 38.89632
157.97635 159.36746 28.483074
101.28346 239.57452 16.797289
208.12125 197.84116 27.65049
135.24393 205.14371 62.278252
217.95764 163.662 37.981934
148.47784 189.31744 67.563957
109.99658 210.07355 40.939381
184.06062 155.23529 29.258751
125.9519 222.27283 14.1387
127.68803 230.40869 39.611576
191.73257 206.48499 16.884247
126.90022 170.22836 12.1387
184.19446 201.57492 36.677711
236.51141 184.43735 48.905834
92.739639 230.3533 40.715164
187.71288 181.60028 13.701777
164.41704 155.07898 16.015697
204.71454 209.93808 47.783062
78.841805 205.05289 14.138699
178.70883 200.46326 12.1387
231.63733 209.68805 14.1387
260.76495 197.90897 31.64629
245.83958 155.45471 33.652111
81.497276 150.45457 9.45609
254.22357 210.05432 12.405673
159.9924 223.12549 60.242989
144.43225 201.60324 66.06395
62.526993 182.09204 31.950113
166.72539 218.02586 68.08596
144.36014 159.76547 14.1387
70.160042 155.07899 19.950436
183.91724 230.25912 42.600227
202.12444 210.89943 69.271744
231.50829 205.13492 53.672974
160.90067 168.94104 13.748617
263.20972 211.65111 42.746037
185.9494 172.86125 71.938438
89.214539 160.29732 20.486
139.5444 181.88147 14.1387
195.10883 196.29851 69.393738
75.327988 231.8329 22.965719
208.13504 162.05992 11.835772
126.38337 212.24866 12.138699
108.51591 173.47632 45.264229
127.22391 230.81494 31.486801
173.89287 231.27087 14.138699
162.79263 184.17752 34.392731
171.80312 229.20543 47.849464
163.53972 199.71483 69.731026
167.34395 174.77911 69.076492
122.69567 183.08942 43.03685
82.987671 230.67157 34.35434
140.1077 163.71677 12.1387
215.27802 162.08479 14.78726
137.76215 206.2403 12.82991
221.90613 172.2146 27.607105
138.18721 225.06644 55.830044
125.07414 148.912 51.589348
140.23563 223.11942 12.1387
174.11136 204.19769 26.530916
61.955635 197.71162 29.527584
161.15817 215.79364 56.266163
164.11417 200.66998 49.16465
192.183 152.21585 14.1387
195.77145 193.90979 69.383377
162.05537 216.30298 52.449982
208.11551 161.09464 3.8704333
233.2858 162.16473 16.000248
183.63124 155.07899 25.774977
129.45483 240.02335 48.33366
138.62613 157.43567 44.518398
204.0121 158.81708 9.4391603
214.23524 232.4986 11.565265
169.27705 171.71597 12.1387
255.76759 157.23746 18.913197
95.075745 177.97046 45.912079
90.650032 208.90062 45.171513
222.98624 225.92108 32.119652
153.97348 161.3502 14.1387
131.63757 202.7283 60.654533
162.05695 175.21951 30.939482
109.29633 192.45667 47.22102
155.64973 157.41043 45.029709
88.008804 148.4866 24.709234
233.99564 171.29776 12.1387
253.0175 162.57393 45.907681
120.27357 193.11108 45.95649
129.31229 211.47342 14.138699
61.582916 188.86993 28.982899
130.92783 216.66898 12.1387
123.57644 162.91554 30.922527
180.36409 188.91006 14.1387
176.25197 226.44583 25.848511
151.8969 185.491 25.324896
114.79781 168.11929 26.915545
142.32742 186.93677 65.235474
201.35699 219.60942 12.992188
211.0947 161.37726 26.297937
61.459145 192.65479 32.246422
137.41299 158.29587 37.203636
258.43561 219.53882 18.84058
233.32013 224.78264 15.102942
187.55859 185.491 27.37677
118.89339 158.01172 40.443226
118.27127 164.09296 53.542793
117.31527 202.38535 45.611954
67.889793 155.29456 30.443878
148.92609 196.0592 13.539598
152.9016 228.74005 44.885597
165.53456 189.63641 12.1387
248.97565 191.54939 51.946747
235.54854 217.53204 12.1387
234.60406 202.49582 40.90966
184.44237 180.25859 14.138699
157.97356 213.28229 40.303543
93.546692 160.31624 33.114971
145.20932 221.18961 12.1387
118.15123 158.26222 14.1387
182.42455 189.57809 69.461662
118.11229 155.8479 14.1387
115.73663 185.25438 52.406067
106.15485 166.85786 14.1387
97.871521 164.07899 31.61603
166.71262 175.12933 56.477249
81.482346 175.1954 43.317745
111.80021 191.58789 50.071552
88.652618 195.37276 14.1387
100.97366 155.03467 20.129772
232.23198 207.52637 50.452137
137.2471 217.87755 13.335745
136.35252 183.59491 12.805303
216.56444 226.09592 28.324566
196.47156 228.94138 49.438133
111.86523 228.20792 44.751179
220.18625 162.04865 10.668386
235.17607 201.53598 54.601906
147.31778 234.08202 12.280074
147.60416 210.85338 67.242783
232.16818 190.04825 30.697502
233.35699 223.69064 12.821114
180.80296 209.06396 14.82328
124.8673 218.69345 12.1387
233.96484 219.73889 12.1387
163.78668 188.8401 14.138699
77.357399 215.19208 12.188107
162.92303 197.82863 69.643166
146.19461 170.27219 12.97711
185.88605 164.88498 28.428955
129.23457 190.74899 59.512894
118.7113 230.4248 39.28426
246.16409 191.61008 55.765671
196.38071 173.02884 12.1387
192.34766 185.491 38.223545
64.100449 171.8228 35.709473
142.42618 229.56689 45.769852
259.3692 191.26318 22.576426
171.73018 216.06927 13.422792
156.74396 164.88498 22.126099
193.02513 214.40034 20.61211
199.76512 224.83751 14.1387
124.8648 227.34221 14.1387
161.70789 153.74866 12.1387
134.35638 219.85306 61.159897
92.296402 162.07184 20.025309
236.75485 190.98334 12.1387
88.42556 159.80302 16.629385
168.50882 212.69052 13.881421
193.66518 158.73352 34.474743
104.5853 217.92694 14.1387
164.15359 169.6604 40.781029
240.50937 199.76202 67.676315
133.06065 159.40211 52.320293
220.80457 159.41576 54.480217
129.7164 195.60004 14.138699
181.85913 170.70198 13.599598
210.69284 176.17972 14.1387
63.390652 182.47975 32.988514
162.29895 212.86612 68.821487
223.36684 234.60471 4.0421648
172.2298 162.06854 13.431514
124.62625 204.64998 12.600605
159.79932 207.79561 46.765617
189.85683 158.49001 36.472755
187.2811 231.00546 27.678667
223.32373 162.04846 10.665627
195.32736 154.76234 39.609306
123.54758 189.71623 29.772018
180.1458 231.082 25.777605
131.12634 174.30235 36.229183
114.36874 154.99847 13.932104
176.12759 166.67114 12.138699
252.88214 196.81119 46.340195
130.47102 189.86775 12.1387
166.95102 216.30299 54.409271
126.73014 178.84515 13.152179
91.067642 225.07733 32.948208
114.81133 227.62642 12.1387
138.3105 160.21924 20.922796
216.35371 224.01314 22.090805
153.54214 173.33594 13.620173
216.12204 216.28787 27.625309
165.76526 156.39851 45.488979
143.01332 224.56209 56.956299
252.79477 169.93279 40.649986
103.07984 195.46957 14.1387
237.48788 212.62743 12.138699
180.76907 155.12076 26.970043
213.4231 164.07899 18.631817
