# .PCD v0.7 - Point Cloud Data file format
VERSION 0.7
FIELDS x y z
SIZE 4 4 4
TYPE F F F
COUNT 1 1 1
WIDTH 1492
HEIGHT 1
VIEWPOINT 0 0 0 1 0 0 0
POINTS 1492
DATA ascii
-6.5501699 -4.0526919 0.56136048
-7.6154423 -3.952023 0.56729507
-4.5343914 -1.4630686 0.56004059
-5.5747042 -1.4501394 0.56022823
-2.7937298 -1.4588399 0.56010193
-2.2572386 -1.432284 0.56058848
-5.9525084 -1.4241705 0.56060523
-4.2968454 -1.2553771 0.56305575
-5.758204 -1.2164392 0.56362098
-3.6266258 -1.162689 0.56440139
-5.974956 -1.1269096 0.56508619
-5.8947835 -1.1254089 0.56503093
-2.4413068 -1.024196 0.56683213
-3.5918674 -0.83755112 0.5691216
-2.7121229 -0.83079368 0.5696106
-6.1529617 -0.78660703 0.56989145
-6.290494 -0.59592319 0.56272167
-7.4259157 -14.157458 0.571513
-2.3765256 -11.984133 0.57627881
-5.3958206 -11.92209 0.5763396
-1.4477391 -11.87277 0.57638788
-3.4577467 -11.857174 0.57640314
-4.8093977 -11.828053 0.57643169
-4.1832871 -11.795065 0.57551038
-3.3230331 -11.790468 0.57515657
-5.7119517 -11.7527 0.57224983
-0.58177233 -5.8836136 0.57706487
-6.5501699 -2.5699592 0.57467049
-4.1460118 -0.76988375 0.570104
-3.8264022 -0.71825647 0.57085347
-4.7557907 -0.64669442 0.57189238
-4.0903616 -0.47057191 0.5744493
-4.0521851 -12.075636 0.58868068
-4.9804268 -12.054873 0.5851106
-2.1876779 -12.038633 0.58231831
-7.8933554 -10.633554 0.5820533
-1.0178297 -12.36377 0.59221506
-1.1068399 -2.6206596 0.59322548
-7.5329585 -1.2867668 0.59435862
-0.97999525 -14.191956 0.60042846
-3.1814551 -12.156618 0.60260558
-5.1387529 -12.143499 0.60034966
-0.9171924 -12.003272 0.60653162
-1.3443934 -12.61195 0.61759508
-5.7225256 -12.25222 0.61904389
-0.850416 -2.1580231 0.61409247
-2.1163638 -12.26439 0.62113637
-1.19651 -12.002579 0.62667108
-1.99719 -3.1239328 0.62099463
-7.8947401 -14.233147 0.63817346
-0.77582395 -13.631118 0.63877505
-3.0674698 -12.338695 0.63391292
-4.2419858 -12.321651 0.63098222
-1.3585184 -14.611475 0.64018893
-3.4656558 -12.427011 0.64909875
-4.6625748 -12.419233 0.64776117
-2.6487494 -12.412256 0.6465615
-5.7586522 -12.385701 0.64199549
-7.9737973 -6.30515 0.64256293
-7.6213017 -2.56812 0.64134479
-7.7497158 -14.248909 0.65395325
-4.0406413 -12.475368 0.65741354
-5.6606383 -12.436356 0.65070552
-0.82968497 -2.9602993 0.6595518
-8.0991869 -14.267742 0.6655975
-0.53381693 -12.745812 0.66366106
-6.1183877 -12.530176 0.66682768
-2.3544099 -12.536952 0.66800249
-1.2372614 -12.326709 0.66237581
-7.9072862 -11.748356 0.66266757
-0.65788978 -11.57523 0.66137791
-4.0252848 -12.590403 0.67719322
-4.8324456 -12.55756 0.67154586
-0.82162941 -2.9268398 0.67882699
-7.2417245 -2.4417205 0.67969453
-1.0084057 -14.700325 0.68503648
-4.4404492 -12.622134 0.68264931
-2.2335813 -12.623688 0.68291652
-0.58654159 -7.2099195 0.68604863
-7.70998 -3.5548539 0.68203515
-6.1609268 -12.674045 0.69155836
-2.8529747 -12.667846 0.69050926
-7.9069481 -10.611839 0.6967957
-2.1995137 -0.21425217 0.69663119
-7.625546 -14.296294 0.70514339
-7.8561568 -12.706441 0.70710742
-6.9264641 -4.837316 0.70734817
-1.99719 -4.3200612 0.70094746
-7.2290363 -4.208765 0.70517027
-1.1192044 -0.82890809 0.7002964
-3.4041929 -12.791922 0.71184379
-0.61570758 -12.287846 0.71250892
-8.0326385 -4.9368391 0.71278012
-7.7715302 -3.2393115 0.71554661
-0.77582401 -13.192861 0.7275005
-6.0339308 -12.87179 0.72555536
-1.0743123 -2.4901962 0.72596705
-7.9700508 -2.0813437 0.72391248
-6.5501699 -1.9802698 0.72850358
-4.64115 -12.926263 0.73494339
-3.5554554 -12.923096 0.73439884
-6.5477586 -12.893722 0.73454845
-7.9252529 -9.6966648 0.73040891
-7.9290686 -9.4642363 0.7348026
-7.7715302 -2.8903549 0.73081958
-1.9421802 -12.494601 0.74495864
-0.87523001 -4.8372688 0.74428236
-2.3829203 -13.069355 0.75954765
-3.7314711 -13.020552 0.75115597
-7.9074726 -4.8372498 0.75960279
-7.4420037 -4.1382265 0.75686872
-0.63079429 -8.9691648 0.7602849
-7.8996339 -8.7044439 0.76795685
-0.77582395 -3.1233659 0.76865703
-0.71288097 -2.4622538 0.76198548
-0.66075468 -2.4590604 0.76610166
-0.83737999 -13.423151 0.77853167
-6.870934 -11.997626 0.77048409
-7.9150739 -10.693839 0.77274704
-0.63039398 -10.613957 0.77734137
-0.70688063 -7.2291236 0.77808011
-7.4283371 -2.0834603 0.77173012
-3.2360287 -13.199502 0.78192598
-0.76453441 -5.6959128 0.78919512
-7.6108866 -4.5431566 0.78591454
-1.2161087 -2.4450469 0.78555149
-1.0589765 -2.4450302 0.78557605
-4.4919686 -0.013785375 0.78214896
-7.70998 -13.015169 0.79124838
-0.64128697 -11.487374 0.79663897
-7.6387539 -4.8372049 0.79429722
-7.5094848 -0.96082109 0.79810596
-7.9921684 -11.991701 0.80025023
-0.75352526 -6.8604946 0.80483216
-7.0651717 -4.8371935 0.80305159
-7.7715302 -3.1517994 0.80564785
-0.83738005 -13.796682 0.81117535
-2.5186629 -13.384291 0.81369978
-6.1348982 -13.369402 0.81109416
-4.8839812 -13.364464 0.81028163
-1.9886386 -13.29258 0.8163712
-6.6349273 -12.510026 0.81003213
-7.7493811 -12.237449 0.81194365
-1.3447112 -11.996032 0.81678015
-7.8521156 -9.260828 0.8179723
-7.5285444 -4.5682869 0.81497526
-3.4716303 -0.060118929 0.8105191
-3.7568412 -13.477543 0.82973427
-1.9607717 -13.03631 0.82034266
-0.61492217 -4.1852069 0.82352173
-7.70998 -3.3649523 0.82610154
-7.70998 -3.3282814 0.82586372
-1.99719 -1.7984128 0.82869327
-1.6089702 -1.7231414 0.8271898
-1.069721 -1.7231427 0.82634115
-3.0230403 -0.091466695 0.82294691
-3.8301778 -13.512903 0.8358146
-0.67411751 -10.784372 0.83463001
-0.69962597 -9.989399 0.8398909
-4.3208132 -13.54302 0.84099257
-7.7974539 -8.6362581 0.84778774
-7.7955389 -8.4852829 0.8460027
-7.7271938 -6.5681839 0.84808552
-4.8620043 -0.054576583 0.84440994
-7.70998 -13.7716 0.855138
-5.7606316 -13.646368 0.85871696
-4.427876 -13.605723 0.85176855
-6.5791306 -13.267709 0.8535558
-7.6086173 -1.7231071 0.85536242
-6.1993771 -13.665329 0.86196375
-5.9809632 -13.665802 0.86205125
-0.49506107 -14.795138 0.87712151
-0.72905505 -10.387586 0.87899172
-6.9625463 -4.8371172 0.8791467
-1.8475869 -4.8371186 0.87723565
-1.7119129 -4.8371229 0.87264085
-0.45090955 -2.0520506 0.87355411
-5.8896103 -13.813249 0.88740075
-5.3225431 -13.788438 0.88315195
-2.1067598 -13.779107 0.88158727
-7.6204815 -4.5880766 0.88535601
-7.6226473 -2.3830199 0.88396835
-1.1280082 -0.74230665 0.88076669
-1.8589541 -0.27202934 0.88280004
-7.7845345 -12.761333 0.89625245
-7.4011021 -12.57785 0.89385724
-1.99719 -4.641109 0.89039826
-6.1996264 -15.534771 0.90997601
-6.2085299 -15.180264 0.90845382
-7.6654072 -2.5271666 0.90426797
-6.5261202 -15.649865 0.91570437
-6.5456734 -15.325112 0.9123615
-0.77444607 -10.398893 0.91943264
-0.79606009 -9.782506 0.9185372
-7.2368927 -4.8370867 0.91263855
-7.8614583 -2.0213485 0.91278493
-0.84009904 -15.622756 0.92416495
-0.5150758 -14.814223 0.92953384
-6.1420751 -14.758829 0.92155361
-6.3119707 -14.576056 0.92521167
-5.3250632 -14.046774 0.92756122
-4.862545 -14.031434 0.92493773
-2.909802 -14.031832 0.92504263
-7.6600771 -7.359334 0.92384899
-7.676991 -4.2444019 0.92877245
-1.9033241 -0.32926974 0.92476344
-6.3525167 -15.50953 0.9398796
-6.1228104 -15.306373 0.93041492
-0.72943997 -12.558052 0.93264997
-0.7879113 -10.394163 0.93133914
-0.80387735 -10.065539 0.93482614
-1.0976293 -0.78590178 0.93781799
-6.7247128 -15.07055 0.94851458
-0.46611112 -12.984179 0.9460609
-0.93703985 -12.550898 0.9470576
-6.8712826 -11.993464 0.94392455
-7.7607279 -11.379086 0.94760883
-7.313252 -4.8370585 0.94340366
-0.48509192 -2.9415956 0.94367766
-1.3125858 -14.816056 0.9539535
-7.7172709 -14.45491 0.95030868
-5.0078783 -14.188735 0.95197421
-0.80974489 -10.961303 0.95953941
-0.85772943 -5.2439771 0.95714593
-0.77248085 -15.4037 0.96816987
-7.6892619 -12.880378 0.96118277
-1.99719 -3.6328773 0.96210319
-0.85592526 -2.6652269 0.96809292
-0.70825237 -1.5466734 0.96271181
-6.4878597 -15.774249 0.97636437
-4.5388136 -14.310833 0.97297698
-0.78662908 -12.814738 0.97156763
-7.70998 -12.803565 0.97782892
-7.7734203 -12.664283 0.97304308
-7.757844 -5.1753626 0.97129327
-7.9318514 -14.471478 0.98859084
-6.3388195 -14.389672 0.98647773
-7.1121225 -4.8370166 0.98924977
-6.5501699 -3.6182237 0.98869789
-4.5158114 -14.460567 0.99871737
-3.099282 -14.443152 0.99576527
-5.5838652 -14.439706 0.99510056
-8.0650339 -13.223619 0.9972173
-0.46915436 -13.022248 0.99619037
-1.3574066 -12.368343 0.99566728
-7.3815665 -4.2723918 0.9906584
-0.75590211 -3.3271461 0.99676645
-7.7715302 -2.9673655 0.99999261
-6.4290462 -15.365912 1.0058864
-2.2966936 -14.480398 1.0021722
-7.4071794 -12.524805 1.0078194
-0.50349075 -4.8370056 1.0004702
-1.1586124 -4.6201181 1.0036144
-7.7916312 -2.4481699 1.0066966
-0.93018377 -1.2169559 1.0074852
-6.205183 -16.171001 1.0105171
-6.5606179 -16.013987 1.0181136
-6.0893912 -14.57091 1.0176406
-4.6301246 -14.547733 1.0136987
-0.56781906 -2.4125054 1.0116273
-6.2282171 -14.519503 1.0247273
-7.9223714 -13.464695 1.0260687
-0.62682664 -13.454656 1.0266966
-6.4912891 -16.379776 1.0376396
-5.3146615 -14.684334 1.0371614
-7.6820564 -7.1430116 1.0332398
-0.77582401 -2.5873938 1.0306815
-0.6891126 -1.58705 1.0380923
-1.8719087 -0.35325581 1.0306743
-6.3160796 -15.89595 1.0418533
-2.2133629 -14.754402 1.0492861
-7.7096128 -11.570858 1.0452491
-7.6564622 -11.28815 1.0439544
-7.9434052 -3.2728443 1.0449879
-1.99719 -2.8132958 1.0481083
-1.172552 -16.210648 1.0525014
-3.1862233 -14.766863 1.0514098
-0.89035571 -11.144231 1.0551283
-6.5501699 -3.4021511 1.0517185
-0.85604298 -2.7644701 1.0533526
-7.4286814 -1.7487235 1.0508668
-1.3864396 -1.7494684 1.0559068
-0.6838187 -1.5726609 1.0590879
-6.7034574 -16.475079 1.068694
-6.3395786 -16.458708 1.064023
-6.2469635 -15.957796 1.0659021
-6.8264213 -14.862703 1.0675954
-0.60866523 -3.1323676 1.0694218
-7.8364201 -2.6514783 1.0660944
-6.7084522 -16.433428 1.0747101
-6.1668806 -14.898804 1.0740047
-6.7714667 -11.995899 1.0792356
-0.78167099 -2.8097782 1.0782907
-6.0858202 -15.973125 1.0837928
-7.8028231 -15.378235 1.0829558
-4.3731699 -16.740269 1.0922984
-0.81813914 -15.732809 1.0906154
-6.8367572 -15.653763 1.0900638
-5.8460732 -15.060162 1.0998373
-1.3215884 -15.053715 1.0991893
-1.1568547 -14.839448 1.0946302
-1.8524396 -13.055332 1.0903058
-0.77582401 -12.972711 1.0993965
-7.9061542 -12.161833 1.0987453
-7.9702682 -2.3933804 1.0927523
-5.5414076 -15.12228 1.1070826
-5.5215478 -15.092843 1.1036432
-1.6189468 -15.075743 1.101743
-6.3312855 -14.712032 1.1059016
-1.019101 -14.51261 1.1070993
-7.7252922 -12.74896 1.1058131
-0.52695417 -4.8369102 1.1052231
-7.70998 -2.983156 1.1081973
-7.9837713 -2.293088 1.1028852
-1.99719 -2.1676238 1.1058065
-4.8288789 -0.14635834 1.1010344
-3.5664892 -16.734131 1.1188753
-6.0723391 -15.937336 1.1153299
-2.5085847 -15.187974 1.1147693
-2.4747274 -15.164362 1.1120253
-7.70998 -13.654316 1.1132264
-7.71767 -12.736717 1.1193001
-7.5766869 -11.993042 1.1182963
-7.8498917 -5.1466818 1.1127521
-5.5259662 -15.24577 1.1215261
-2.3777952 -15.248557 1.1218512
-1.2259823 -11.993037 1.1200695
-7.8811579 -3.0350456 1.1261029
-8.0525522 -2.9584229 1.12965
-0.83737993 -2.6685343 1.129603
-7.5165 -1.935463 1.129873
-6.7375927 -15.820406 1.1364146
-6.3272476 -15.245962 1.1304039
-6.7208447 -15.025369 1.1371696
-7.2028513 -14.653488 1.1333468
-7.5411267 -14.520987 1.1375751
-6.1057034 -14.501026 1.1354704
-1.8880498 -13.689877 1.1385795
-7.9622679 -13.566741 1.1367924
-7.8333988 -12.48353 1.1375
-0.87512559 -11.452488 1.136196
-0.99195433 -2.2851872 1.1300764
-4.7023296 -16.77113 1.1499107
-6.0606174 -15.926768 1.1467651
-6.7457385 -15.489508 1.1498392
-7.1582685 -15.476622 1.1483423
-5.9598131 -15.432461 1.1432128
-4.0361938 -15.413746 1.1410389
-0.87030786 -11.104408 1.1401292
-0.81797409 -5.627532 1.1413647
-1.6514155 -15.532589 1.1559134
-7.70998 -14.024204 1.1564757
-0.45027491 -11.898494 1.1511935
-0.84838188 -7.7919197 1.1543977
-8.1177959 -4.5640893 1.1541492
-8.0181351 -3.1703806 1.1579471
-3.5237896 -15.604817 1.1664038
-0.83737999 -13.589008 1.1661793
-6.7293806 -12.832962 1.1627926
-1.7817004 -12.352937 1.1628408
-1.2757726 -12.129585 1.1665181
-7.71767 -4.0954394 1.1638691
-0.62044591 -3.2563415 1.1691349
-6.5501699 -2.1295049 1.1601319
-0.71094102 -12.762022 1.1781234
-4.6370568 -16.792799 1.1811888
-4.5939713 -16.798071 1.1888647
-6.3874674 -16.611267 1.1879071
-7.6436596 -16.080193 1.1835136
-6.4630661 -15.750691 1.1875907
-6.4959126 -15.720833 1.183254
-3.9490743 -15.714664 1.182358
-7.3535519 -11.996341 1.1849777
-7.7734194 -2.5526729 1.1820415
-1.6368461 -15.794141 1.1939013
-1.9440646 -14.519026 1.1968925
-0.84447777 -8.463398 1.1957543
-7.7174153 -6.9265947 1.1918049
-7.9040151 -2.9869351 1.193554
-6.4267468 -16.591473 1.2000791
-3.7479277 -15.896978 1.2088375
-0.96132433 -15.877056 1.2059441
-3.7397928 -15.839308 1.2004614
-5.9660668 -15.355799 1.2012647
-6.4854841 -14.830335 1.204594
-0.83339369 -11.563642 1.2019839
-2.560847 -16.728291 1.2174689
-7.1592369 -15.926167 1.2130768
-7.3929548 -4.3370728 1.2157154
-7.7715302 -2.5898829 1.2167478
-7.2464633 -0.52888757 1.213992
-0.83864355 -9.1151295 1.2286396
-0.48517072 -5.0563192 1.2216582
-0.90899897 -2.7132602 1.2287891
-7.6617699 -1.9212396 1.2206092
-0.78876472 -15.750509 1.2345792
-7.9277725 -13.912693 1.2380749
-1.1894634 -4.6800499 1.2386451
-7.8880463 -2.2635784 1.239699
-6.5501699 -2.0643778 1.236385
-5.5426955 -16.156597 1.2430346
-6.7809973 -16.141945 1.2411566
-0.88219994 -16.098574 1.2436303
-6.2960877 -15.967827 1.2485806
-7.8813581 -13.729848 1.2457517
-0.83718574 -9.5187111 1.2467833
-6.3339791 -16.25631 1.2558172
-2.2710605 -16.217875 1.25089
-6.4718037 -15.154411 1.2599378
-7.5362225 -12.000936 1.252846
-7.9994469 -11.735912 1.2534401
-7.7057481 -10.624041 1.2518139
-7.709815 -9.7152357 1.2507858
-7.71456 -8.968585 1.2539458
-0.79470247 -5.6982918 1.2511479
-6.5501699 -3.5037491 1.256423
-4.5230103 -16.304131 1.2619476
-6.8805447 -16.290644 1.2602187
-3.6683722 -16.291847 1.2603728
-6.2617445 -16.048826 1.2689459
-3.2825418 -16.47131 1.2796535
-4.3987246 -16.439726 1.276334
-3.164741 -16.419941 1.2742547
-6.0260992 -15.810261 1.2710115
-1.9107063 -14.450687 1.2779443
-1.8031623 -13.080929 1.2724078
-0.77393502 -12.691956 1.2742915
-0.71094102 -12.670948 1.2786767
-0.7557798 -12.571862 1.2736466
-7.7027884 -11.376589 1.2752998
-1.3776064 -4.8367572 1.272319
-7.9911399 -4.3450518 1.2701961
-4.9784021 -16.674055 1.2852
-6.8909039 -16.600592 1.28417
-2.8287108 -16.49181 1.2805367
-6.5898037 -16.481979 1.2802341
-6.3369999 -15.752999 1.2877634
-0.55839986 -13.30769 1.284798
-0.67631459 -13.195282 1.2822521
-6.8177991 -12.003248 1.2869971
-0.83737999 -2.7556591 1.289747
-0.82633042 -9.5926065 1.2980533
-7.8609524 -3.6710892 1.2941437
-1.99719 -2.0841749 1.2967203
-1.1140238 -1.9382173 1.2917023
-6.1439934 -16.794418 1.3092179
-6.6656222 -16.536291 1.302446
-6.3611093 -15.466909 1.3072313
-6.4344473 -14.533413 1.3064156
-7.2392178 -1.91629 1.3047311
-7.2045808 -1.7858824 1.3022547
-7.3910933 -16.401527 1.3159956
-6.6700625 -14.160668 1.3121352
-0.99486703 -12.683613 1.3149538
-0.54277557 -12.455456 1.312404
-7.9997873 -3.0986607 1.3184533
-7.70998 -2.6674361 1.3176131
-0.75885123 -1.4630342 1.3113712
-6.6120033 -16.459261 1.3209832
-7.5524902 -2.4824872 1.329561
-7.3184061 -12.453893 1.3353345
-0.41939148 -4.9489436 1.331938
-1.3156326 -1.7902596 1.3318672
-7.8261538 -13.888361 1.3464898
-0.52247661 -4.8352213 1.3427079
-7.7992063 -2.9106841 1.3457615
-8.1037083 -1.9572763 1.3412325
-0.61230564 -1.7751451 1.34044
-7.4522839 -15.023771 1.3599598
-0.77582395 -14.188626 1.3528584
-6.7688522 -12.953775 1.3504939
-0.81262147 -8.3083601 1.3524736
-1.1196803 -4.6690197 1.3521769
-7.9380517 -1.6173272 1.3532021
-0.67196536 -1.537891 1.3592192
-7.8956227 -15.257653 1.3681853
-6.8068752 -15.023765 1.3600442
-0.82107699 -11.009485 1.3610545
-0.80946523 -8.7951984 1.3686628
-7.2150626 -4.8336096 1.363432
-0.77582401 -2.5728898 1.3645952
-6.7539558 -14.906057 1.3710997
-7.5609517 -14.551873 1.3751369
-6.7524738 -14.554764 1.3723304
-7.7376013 -9.4991875 1.3704246
-0.80830193 -9.1479397 1.3748581
-7.6887617 -4.8330593 1.3705111
-7.70998 -2.7488351 1.3784444
-1.7350603 -1.796447 1.3701507
-7.6840777 -1.1818577 1.3795691
-1.3418908 -14.678139 1.3827156
-6.7430258 -14.652994 1.3801746
-0.86541712 -12.563958 1.3873136
-0.519853 -12.110945 1.3804941
-7.834125 -12.009645 1.381488
-7.5134382 -1.9106314 1.3903139
-1.6416483 -0.43336684 1.3913972
-7.7423167 -10.053222 1.4076273
-7.7603588 -7.1364264 1.400739
-1.1125048 -0.67520487 1.4034295
-7.236536 -0.50092423 1.4018366
-1.7813196 -16.711502 1.416502
-6.3121252 -15.414757 1.4188752
-0.9499259 -14.890584 1.4172627
-6.3454456 -14.537294 1.4125367
-8.0732012 -12.127817 1.4177679
-0.76795667 -6.2668772 1.4174703
-0.94195402 -2.7406425 1.4180831
-1.9176943 -1.8049178 1.4196639
-7.6682138 -1.0934167 1.4143317
-7.9432726 -15.11134 1.426167
-0.61344087 -4.3512297 1.4279666
-0.83737993 -2.9477668 1.4261789
-7.7274408 -16.116104 1.4368674
-6.5720291 -15.559217 1.4319472
-6.6010866 -14.871912 1.4333545
-8.0847378 -4.2153563 1.4339533
-0.83738005 -2.4829769 1.4360553
-8.1100016 -1.9753041 1.4352604
-7.2058058 -15.01685 1.4469031
-6.4723125 -14.146979 1.4492821
-1.99719 -2.1606426 1.4493582
-6.6643944 -16.754435 1.4525037
-4.2064013 -0.13672397 1.4544127
-5.2734756 -0.18088937 1.4676763
-6.2538147 -14.401705 1.47741
-0.83737999 -13.780664 1.4717927
-6.6626081 -15.000383 1.4887267
-7.70998 -13.532117 1.4832522
-7.2826891 -4.8242006 1.4844375
-7.1174035 -0.47117281 1.4861822
-6.1068754 -16.890629 1.4992131
-7.8445601 -13.872823 1.4970961
-0.83737999 -2.7257683 1.5069221
-7.70998 -2.6213443 1.5030179
-0.83737999 -12.696345 1.5146575
-8.0979118 -2.2781518 1.5120592
-1.6265044 -0.43235871 1.5193683
-5.2853146 -16.970947 1.5277008
-0.79024398 -11.368135 1.5285223
-1.3310907 -4.8211927 1.5231245
-7.7779346 -7.9522305 1.5499812
-6.4774957 -0.26419559 1.5465801
-5.8315163 -0.20566845 1.54658
-4.5838218 -0.048050918 1.5496572
-0.77208465 -9.2911301 1.5534527
-1.68595 -1.8274374 1.5512947
-0.9704501 -14.883227 1.562583
-2.6849933 -0.13284867 1.5646447
-6.5408707 -13.963928 1.5767808
-7.7909365 -12.023846 1.5711356
-0.76810044 -9.4729605 1.5733185
-0.74615079 -6.9405432 1.5795085
-8.0207186 -3.4661016 1.5762532
-7.9047799 -3.3861969 1.5758508
-1.7532103 -13.245341 1.5809529
-0.83737999 -12.664663 1.5833044
-7.8119287 -6.3758779 1.5853355
-0.74243969 -4.6805768 1.5806704
-2.8207476 -0.12219667 1.5878893
-7.224987 -14.627925 1.5951769
-0.78639209 -12.722334 1.595242
-7.9819202 -12.030142 1.599087
-7.9135818 -3.0601172 1.5921975
-6.5501699 -2.4360301 1.5915556
-7.2558718 -2.228323 1.5984479
-0.61625314 -1.5803238 1.5953863
-0.43961671 -14.821233 1.6064463
-0.99486697 -12.597792 1.6066976
-6.7437615 -14.256789 1.6135983
-6.6887221 -1.8416497 1.6155202
-3.0507028 -17.006195 1.6233665
-1.7800552 -13.896927 1.6255845
-7.9006667 -1.5519328 1.6283622
-0.50436795 -13.910454 1.6369808
-0.37112659 -11.9991 1.633604
-7.9790831 -3.3733115 1.6313519
-1.99719 -3.3515587 1.6311291
-7.4270544 -14.988549 1.6479189
-8.0453281 -4.7992463 1.6439399
-1.7926033 -4.798408 1.6474699
-4.1397886 -17.050774 1.6540138
-0.58096778 -14.868876 1.6538508
-0.91618633 -12.135906 1.6555579
-0.69917631 -3.587559 1.6500798
-7.7734199 -2.4396861 1.6519266
-0.65176028 -13.635271 1.6625028
-7.9514713 -13.362961 1.6652676
-0.79270297 -12.746084 1.6699659
-1.2258037 -12.488605 1.6648725
-7.7884326 -11.22484 1.6693912
-7.7918687 -1.4409177 1.6617481
-7.2799482 -14.864573 1.6731983
-7.8002162 -8.1005144 1.6771866
-0.71094102 -2.4157825 1.6777771
-0.53844649 -1.8376637 1.6767411
-0.68473637 -3.057292 1.6853034
-7.70998 -2.7455468 1.6888111
-7.382515 -1.9457171 1.685926
-5.5041895 -0.10793696 1.6846164
-7.8114147 -7.6873665 1.6961305
-7.8157578 -7.419096 1.6935108
-7.6773882 -4.7876401 1.692817
-7.7715302 -3.8752742 1.6926608
-7.7734194 -2.562489 1.6990144
-0.82968497 -2.5255966 1.690691
-7.9378452 -15.406125 1.7090399
-1.5385834 -14.975208 1.7032975
-0.85604298 -12.970478 1.7086186
-7.7715302 -12.882905 1.7055956
-7.331944 -2.3012242 1.7083882
-0.7932502 -16.154963 1.7173523
-0.41801852 -5.006846 1.7184153
-0.83737999 -3.6120734 1.7156928
-1.99719 -3.5104442 1.7116866
-7.6690893 -2.3019962 1.7110445
-7.7748556 -1.3591526 1.720782
-2.2001925 -16.92787 1.7314581
-7.8157749 -7.9004984 1.7380077
-7.8474369 -6.1465249 1.7398632
-1.6204133 -1.8703988 1.7353551
-0.90646738 -12.632775 1.7406013
-8.0804024 -12.06352 1.7472756
-0.73086941 -7.9494467 1.7461517
-1.8148832 -4.7748814 1.7465459
-1.5818605 -14.962142 1.7574257
-7.9348998 -3.2378666 1.7549331
-1.2923663 -14.530787 1.7659962
-7.5524902 -12.743034 1.7646716
-7.3807659 -4.6411061 1.7688189
-1.5434202 -14.956969 1.7788558
-1.7307601 -13.411732 1.7725503
-0.74738085 -12.645987 1.7719485
-6.8668747 -12.32535 1.775844
-0.46237338 -2.5197973 1.7724435
-6.1583605 -16.974758 1.7875859
-0.83737999 -14.103173 1.7851001
-0.85066664 -2.4543319 1.789777
-7.775629 -12.898232 1.7995038
-7.6294355 -12.88234 1.7999463
-0.47191334 -12.075072 1.7978165
-0.73411351 -11.323899 1.795073
-6.5501699 -4.1504602 1.7901185
-0.51238847 -15.12536 1.804394
-0.69252437 -6.431118 1.8014611
-8.0589752 -5.0281672 1.8059701
-1.2520899 -0.52655756 1.8058393
-3.0804605 -17.038774 1.8115147
-7.8230138 -10.146816 1.8162309
-7.3702154 -4.7575445 1.8110013
-7.6405492 -2.6834135 1.8193517
-4.1583819 -0.159722 1.8146273
-7.8238125 -9.8390636 1.8256998
-0.49446416 -4.6238666 1.826636
-1.1626658 -2.3445954 1.8215885
-1.9074955 -0.25541824 1.8230717
-0.77582395 -13.355574 1.8392025
-7.7274141 -12.182379 1.8319135
-1.9712549 -4.7464633 1.8379388
-6.5501699 -4.673542 1.8306675
-8.0381002 -1.7499712 1.8365376
-5.3522329 -17.050049 1.8482285
-1.6400397 -12.094238 1.8444878
-7.830585 -8.2421951 1.8401284
-1.9924456 -4.7446985 1.8422276
-0.81000429 -3.9671185 1.8466815
-0.83737993 -13.06743 1.8511295
-0.67043102 -5.7695179 1.8529978
-7.70998 -3.0764599 1.8502736
-7.7170506 -1.9919649 1.8585255
-1.8062218 -16.87343 1.8693495
-7.6969457 -14.441501 1.8601968
-7.5891433 -12.712225 1.869771
-7.70998 -13.607029 1.8719705
-7.638792 -12.786759 1.8780334
-1.6799253 -12.416949 1.8716564
-7.3616219 -12.106264 1.8737702
-7.8332348 -10.242943 1.8757844
-7.6487074 -4.7324677 1.8719602
-7.70998 -3.7010574 1.8764257
-7.1662359 -0.4386656 1.8726633
-7.5939531 -16.434601 1.8804722
-6.7998104 -13.91396 1.8867415
-0.77582401 -13.254728 1.8852632
-1.6703539 -12.221069 1.8879839
-7.1125507 -12.110478 1.8840324
-7.8656912 -12.109304 1.8811734
-0.7148397 -9.5661068 1.8818374
-0.69066048 -7.2452869 1.8860643
-1.5542612 -4.7278218 1.883253
-7.2077336 -14.562084 1.8928943
-7.962184 -14.424561 1.8934985
-6.804184 -13.810483 1.8905078
-0.75414354 -1.3795424 1.8962922
-7.9147706 -12.208542 1.9044919
-7.9505863 -11.710773 1.9008181
-0.66271853 -5.9385405 1.9078859
-7.7661548 -2.6765401 1.9045769
-3.061882 -0.18701801 1.9045069
-0.74142158 -12.595165 1.9197977
-0.99330986 -12.121317 1.9104238
-6.9274535 -0.34026837 1.9116914
-3.5541959 -0.159722 1.9252858
-7.4283466 -16.57073 1.9329287
-7.7715302 -13.406542 1.9327384
-8.0713062 -4.9868946 1.9334571
-0.7042073 -9.141016 1.9459302
-0.64311361 -5.1247716 1.9436985
-0.43975943 -2.0856187 1.9465315
-5.3010054 -0.159722 1.9417706
-3.4050529 -17.076729 1.9518471
-0.76816487 -12.821676 1.9580569
-0.49289715 -1.9497838 1.9537003
-7.9007511 -5.6446505 1.9695748
-0.64837015 -4.6959429 1.9607449
-3.556221 -0.091615006 1.9699087
-0.42592129 -11.873146 1.9754684
-8.02845 -15.206212 1.9800435
-1.99719 -3.9107947 1.9822966
-7.1542873 -16.762091 1.9964128
-0.67238861 -7.4258485 1.9958187
-2.775758 -0.2043139 1.9976755
-5.8288398 -0.16589279 1.992398
-0.84378195 -14.868992 2.000514
-7.9780502 -14.357093 2.0011139
-7.7715302 -13.464623 2.0035191
-4.3375182 -17.111095 2.0173533
-7.7715302 -13.54989 2.0197361
-0.83737993 -3.4386063 2.0107365
-1.1132941 -0.66171312 2.0116014
-0.53384805 -15.259924 2.0256491
-0.69025195 -9.5988331 2.0281289
-0.46909961 -4.2050724 2.0229378
-0.83737999 -3.6166193 2.0287735
-2.2379515 -16.986179 2.0324309
-0.65828365 -7.0499039 2.0330048
-1.2372199 -2.0693617 2.0358448
-0.4407047 -12.329045 2.0414011
-7.8673868 -8.6834478 2.0481091
-1.3607444 -2.1417453 2.0445151
-0.86541021 -4.1165009 2.0544078
-6.5602255 -1.9994819 2.0555294
-6.5501699 -2.6652169 2.066937
-0.83737999 -13.915015 2.0786982
-8.0098104 -4.637547 2.0759463
-0.94356489 -4.1021118 2.0715239
-0.78351802 -3.773474 2.0749042
-1.99719 -3.4155009 2.0787222
-0.51930535 -2.5393019 2.0770569
-4.5181513 -0.159722 2.0728827
-7.8454704 -12.212042 2.094346
-0.92833591 -12.21101 2.0926538
-1.1598299 -4.6252532 2.0961187
-4.8908925 -0.159722 2.0984857
-3.1678078 -0.159722 2.0965738
-3.2866995 -0.091614991 2.0956991
-0.6328665 -5.8145676 2.1021154
-1.7337077 -14.302336 2.1197605
-0.80904204 -13.931131 2.1172009
-1.6638737 -4.612752 2.1166322
-0.79633832 -2.874125 2.1160233
-0.59931087 -15.493521 2.1250834
-0.64513409 -7.1308417 2.1233468
-7.9101839 -6.4124966 2.1224759
-7.9135666 -6.1312099 2.1243856
-0.52414554 -2.1184402 2.1224496
-4.2693381 -0.14240867 2.1260812
-7.7099795 -13.259098 2.1320014
-0.35288578 -12.210258 2.1362438
-8.0322094 -11.851713 2.1363277
-7.2820787 -2.0488989 2.1360855
-0.64650184 -2.0471389 2.1332166
-1.317982 -2.144237 2.1429935
-0.6922971 -1.5839903 2.1450152
-0.54610586 -15.340266 2.1567457
-0.46088785 -13.710299 2.1528301
-0.66355765 -9.2381477 2.1575048
-1.3022313 -4.5919633 2.1507449
-0.64710277 -4.0275822 2.1506777
-3.5230875 -0.091614999 2.1582041
-1.4470544 -14.774003 2.1618178
-8.0337172 -15.243835 2.1715195
-1.337574 -12.6315 2.1709917
-8.0361872 -4.4499683 2.1774116
-1.9628181 -2.0755248 2.1794891
-0.97283185 -0.82039452 2.1786401
-1.3629397 -14.442308 2.1826534
-8.0674267 -4.5719614 2.1835654
-0.59698778 -4.5729146 2.1820011
-8.0571842 -4.0056291 2.1852078
-0.51442313 -15.260552 2.1935329
-7.7169337 -14.639456 2.1928823
-7.71767 -13.430299 2.1992147
-7.8867545 -10.462668 2.1981916
-6.8123264 -14.688244 2.2081168
-7.6547475 -12.28065 2.2069895
-4.3030381 -17.143394 2.211885
-1.1223899 -14.157492 2.2117381
-0.57987857 -11.819739 2.2178378
-1.99719 -3.4714153 2.2130291
-8.0585947 -2.1008449 2.2205081
-1.2077566 -12.877771 2.2356215
-0.8107301 -3.3096898 2.2359962
-0.86507118 -2.6722364 2.2313445
-2.4012392 -17.053511 2.247689
-7.3527374 -14.108201 2.2488935
-0.64441925 -8.3594246 2.2499683
-0.64217627 -8.1893244 2.2567701
-0.86519134 -4.5208502 2.2551169
-7.177268 -4.259903 2.2541997
-1.2678401 -0.549806 2.2552493
-6.868268 -0.34643987 2.2517617
-7.4047871 -12.927162 2.2699056
-1.3658493 -4.2838058 2.261477
-8.0259066 -15.299234 2.274899
-7.0440321 -12.334803 2.2746992
-0.62129164 -6.6356621 2.2782149
-1.5747588 -4.5076394 2.2706473
-1.0780497 -2.1494989 2.2773366
-7.5157785 -12.341419 2.282481
-1.4968797 -0.41316137 2.2881806
-7.9450235 -14.032516 2.2974505
-6.5501699 -3.7270622 2.2999625
-3.026587 -0.13598409 2.291219
-1.1037629 -14.52034 2.3092911
-0.55243593 -13.135195 2.3070486
-7.8811045 -11.551068 2.3072519
-0.53608781 -12.461175 2.3141229
-1.7634709 -2.1817439 2.3149996
-1.5757776 -16.885422 2.3225765
-6.6960721 -2.1913292 2.3261955
-0.66456187 -2.191406 2.326282
-4.9478626 -0.11690488 2.3274448
-0.43007469 -14.853329 2.3393595
-8.1095238 -14.639674 2.3359604
-0.43682271 -14.437441 2.3311186
-7.3669462 -3.7725296 2.3300345
-7.2495213 -12.945399 2.3444159
-7.776969 -12.492352 2.3488338
-7.8842258 -11.624825 2.3435402
-7.1937122 -4.4454632 2.343739
-1.1262312 -2.3212392 2.3443892
-7.219841 -12.86375 2.3506925
-0.61274028 -6.6727228 2.3541689
-4.0255823 -0.1094601 2.3575573
-1.6797999 -14.614347 2.365648
-0.48911822 -13.087423 2.3689706
-7.9325228 -6.9781981 2.3654728
-0.69539315 -13.14502 2.3786235
-7.372221 -4.2813983 2.3795714
-7.696949 -4.2730422 2.3772736
-0.64962441 -11.150251 2.3832648
-0.35897726 -4.6200013 2.387917
-7.1807952 -4.1592555 2.380831
-1.9539019 -2.2389581 2.3818362
-0.4466396 -14.938661 2.398942
-7.9182615 -9.8154345 2.3944674
-0.94943666 -14.447403 2.4068465
-7.9462957 -6.2360086 2.4058518
-6.5501695 -3.9737802 2.4031262
-1.0878221 -3.5589242 2.4097881
-7.8277574 -1.5354562 2.4053574
-6.6935391 -0.32924119 2.4052641
-4.2264256 -0.12558851 2.4036241
-7.6142635 -14.425829 2.4179685
-0.45983931 -13.956535 2.4157491
-7.8615394 -13.252256 2.4112868
-7.9477739 -3.0840082 2.4183884
-7.4836349 -0.78014988 2.4141948
-0.80247235 -14.43463 2.4239407
-0.70765996 -13.694952 2.423821
-0.62574768 -10.160113 2.4246192
-7.9579926 -5.4725137 2.4207976
-7.9451094 -2.379257 2.4216759
-5.5429316 -17.090256 2.4355726
-1.077336 -13.41589 2.4377806
-7.6820593 -13.377394 2.4341421
-7.9192672 -4.354311 2.4385045
-7.383255 -4.3519487 2.4405274
-1.9843483 -4.3461413 2.4455001
-3.3900959 -0.17657274 2.4495316
-7.9726043 -14.399258 2.4551351
-7.3102703 -12.508697 2.4582405
-7.9190397 -8.9420729 2.4511237
-1.5976422 -4.3317194 2.4578514
-1.7191608 -2.3151042 2.4522681
-6.85882 -13.451801 2.4615812
-8.0658455 -12.62788 2.4604764
-8.096653 -4.3220315 2.4661477
-8.0661221 -2.3266437 2.4622304
-4.7613578 -17.120375 2.4755142
-7.9197483 -10.654929 2.4775589
-7.8552542 -15.98561 2.4885581
-0.6387614 -15.830261 2.4879005
-7.6262941 -14.358693 2.4876423
-7.941493 -7.4572935 2.4870045
-7.9514589 -6.5483065 2.4807508
-8.1458426 -14.567863 2.4926274
-7.8950477 -14.47393 2.495419
-1.382519 -14.469636 2.4991794
-0.62302595 -9.4827585 2.4990335
-3.5241203 -0.18973169 2.49068
-1.526508 -16.780266 2.5192144
-6.8731618 -12.812124 2.5106165
-7.9990664 -12.583443 2.5221915
-1.99719 -3.0347471 2.5216472
-0.73977542 -2.4887688 2.5205674
-3.9940939 -0.18448752 2.525579
-4.5394087 -17.046322 2.5395932
-3.5729356 -17.03162 2.538116
-7.0610294 -14.431955 2.5311966
-8.0920677 -2.574594 2.5384173
-1.0077925 -0.96624416 2.5359499
-6.8587518 -13.72415 2.5436528
-7.9456511 -12.613533 2.547936
-7.9274321 -9.4363775 2.5460422
-0.56709355 -4.8756871 2.5466204
-6.4506178 -16.868088 2.5589032
-6.8736334 -16.781656 2.5577042
-7.9282694 -9.4760523 2.5560174
-8.1587629 -14.406494 2.5694354
-7.1914873 -4.2074766 2.5629988
-7.5226893 -0.96467936 2.5612187
-3.9892273 -0.20354298 2.5635591
-3.3501177 -16.988754 2.5781722
-1.6919599 -14.085216 2.577049
-1.321489 -4.0095558 2.5734091
-1.99719 -3.3243418 2.5747786
-5.4570937 -16.975378 2.5801759
-1.375375 -14.359932 2.5826499
-8.1159563 -13.927315 2.5861788
-8.0748587 -4.1664276 2.5881891
-0.93568045 -2.4872184 2.5881393
-1.3601282 -12.917027 2.5901961
-0.5495609 -4.001255 2.5942206
-0.94265372 -2.5031004 2.5979915
-1.9081494 -16.796053 2.6015413
-7.8242698 -12.820713 2.604578
-1.5625292 -14.304287 2.6166773
-7.9685583 -6.2454929 2.6170752
-1.1039703 -3.9180698 2.6155155
-1.6977987 -2.5320795 2.6159682
-1.7807522 -16.754803 2.6256039
-0.47764707 -14.124874 2.6202316
-8.1123238 -13.586655 2.6263516
-7.9186001 -12.736602 2.6259062
-7.5204806 -12.739658 2.6277812
-0.60720921 -12.017888 2.6294641
-0.63692778 -11.630934 2.6234338
-7.9940257 -4.6815071 2.6295855
-8.1398411 -4.4763613 2.620523
-7.1837163 -3.2651627 2.6253009
-7.8730183 -2.7030084 2.6209428
-0.8285768 -2.6556418 2.6232889
-7.5852251 -16.358625 2.6322229
-7.1850739 -3.7662921 2.6331053
-3.7633719 -0.25255406 2.6386936
-7.5440302 -14.096922 2.6497493
-0.61448681 -3.9132211 2.641423
-1.99719 -3.0541899 2.6482868
-7.9583092 -7.7320766 2.6555603
-4.6728725 -0.25647593 2.6566203
-7.9797974 -2.0050528 2.6603935
-1.1190749 -13.042559 2.6794171
-1.1395407 -13.024309 2.6728508
-1.1490515 -13.01783 2.6705194
-1.99719 -3.2730162 2.6714067
-1.2779905 -14.196678 2.6819828
-1.0350533 -12.993792 2.6869485
-0.6062066 -8.8080692 2.6809754
-0.66336322 -2.8442087 2.680012
-7.7170963 -16.142952 2.6987588
-7.0738511 -14.154763 2.6992188
-8.0920105 -2.9370303 2.6991978
-3.2569764 -16.879993 2.7084565
-7.3108535 -13.046413 2.7058823
-0.56940234 -5.8766565 2.7030158
-2.5080733 -16.831051 2.7163663
-6.8707323 -13.034053 2.7171822
-8.0281868 -4.4512529 2.7170877
-0.74120641 -14.094985 2.7240424
-0.57656682 -6.793828 2.7297287
-1.1610775 -3.8996127 2.7298737
-0.80157357 -13.848992 2.7393491
-0.79319561 -2.7733228 2.7382836
-8.0361872 -13.813368 2.7473636
-1.6786669 -13.74544 2.7467368
-7.9651093 -7.9057322 2.7427864
-1.8789368 -16.692432 2.7598653
-0.58434069 -15.331415 2.7536278
-7.7709761 -13.760584 2.7590127
-0.86538148 -13.731005 2.7532887
-6.8684425 -13.415578 2.75565
-7.9438429 -9.9077549 2.7574339
-8.0497561 -2.2098618 2.7520604
-7.1335888 -13.995386 2.7651365
-0.53880697 -13.039838 2.7693281
-7.923842 -11.582194 2.7695701
-1.054788 -3.1161151 2.7665138
-1.0770582 -3.0683308 2.7628844
-4.3354425 -0.32136571 2.7624636
-6.8672671 -13.683876 2.7789452
-7.6225605 -13.552639 2.7795334
-7.9603395 -8.3666058 2.777709
-7.5240808 -3.467329 2.7731805
-0.59261763 -3.1978021 2.7789192
-6.730042 -2.8798468 2.7788618
-4.636631 -0.33731508 2.7744758
-8.0070648 -13.480924 2.7826023
-7.2860603 -3.305634 2.7831631
-7.2526832 -3.3083606 2.783078
-4.380125 -16.843853 2.7901816
-0.7671687 -13.12233 2.7900631
-7.9329381 -11.297215 2.7940228
-0.5385471 -5.2659216 2.7992051
-6.9777861 -13.84132 2.8047879
-1.9961339 -2.9778433 2.802789
-7.1728287 -13.790819 2.81691
-7.2506175 -13.232661 2.8165226
-1.1747527 -13.23251 2.8164864
-7.9496884 -9.1759596 2.81879
-1.3839433 -16.502335 2.8297033
-1.1742036 -13.741344 2.8275185
-0.62106752 -11.769718 2.8278434
-0.60857064 -11.026881 2.8238051
-0.57386553 -7.5783353 2.8228505
-4.8752375 -16.803268 2.8309159
-3.6187067 -16.798191 2.8375931
-7.5403414 -16.294659 2.8314114
-1.1288695 -13.638416 2.8356233
-6.9341536 -13.620063 2.8370681
-7.9728303 -7.2957039 2.8322597
-7.040206 -3.536624 2.8320994
-7.5773644 -3.1478453 2.8343759
-4.3276734 -16.737719 2.84637
-2.6984558 -16.701118 2.84637
-4.3026257 -16.698151 2.84637
-2.4690847 -16.629969 2.8463702
-3.1015778 -16.450386 2.84637
-0.62114251 -15.437611 2.8466196
-8.0549097 -3.3503468 2.8465321
-0.46662635 -3.3015761 2.8468134
-6.1609311 -0.52552474 2.8476074
-3.3989263 -16.445091 2.852139
-7.1483631 -16.479092 2.8653307
-7.9213438 -12.015375 2.8605762
-7.9365067 -11.419458 2.8659253
-7.939733 -11.25882 2.8787775
-0.57720572 -8.4494686 2.8789902
-4.5088444 -16.441551 2.8844421
-8.159626 -4.0672045 2.8850861
-0.72815818 -1.8816996 2.8806288
-7.946887 -10.66284 2.8968527
-0.72982305 -1.8944596 2.8982015
-7.9539104 -10.011897 2.9034464
-7.9530721 -9.6007042 2.9061103
-7.9702539 -8.5450974 2.9078414
-0.59197259 -10.009739 2.9275734
-8.1672935 -3.2373319 2.92698
-7.9690542 -8.8541565 2.937187
-2.1027064 -16.504761 2.9447868
-1.2258123 -16.338799 2.9447296
-0.37887269 -14.030113 2.9474175
-0.58331102 -5.211935 2.944582
-7.8570089 -2.0702572 2.9413579
-0.72715902 -15.717838 2.9754603
-2.9567828 -0.66952556 2.9750714
-4.2334661 -0.53756094 2.9712677
-0.56067604 -7.1201997 2.9932292
-0.40933895 -3.8441727 2.9911277
-8.06528 -2.6596453 2.9940703
-2.3824229 -0.75485373 2.9960568
-0.6536746 -15.419958 3.0127997
-6.5946589 -0.80876994 3.0129614
-4.3752928 -0.64635801 3.0120955
-7.1128373 -16.362404 3.0236304
-8.0973597 -12.85196 3.0215683
-0.60103601 -11.449378 3.0232611
-8.1611032 -3.2524998 3.0347638
-7.5971379 -16.105412 3.0417168
-0.38578522 -3.3083143 3.0431972
-5.1716108 -0.75199807 3.0499821
-0.52166367 -3.8718972 3.0788178
-8.1070719 -13.912487 3.0951807
-0.44648519 -3.2010643 3.0910559
-7.9655972 -8.9912663 3.1077371
-0.59514624 -14.806164 3.1102812
-4.2641869 -16.280392 3.1237712
-7.9055743 -5.0818162 3.1455235
-0.61585581 -6.1163473 3.1580942
-5.6864982 -16.203541 3.1986895
-7.9532623 -11.395971 3.1997528
-0.58388507 -9.4778137 3.1959593
-0.57824033 -7.559444 3.1944845
-3.8635488 -0.93534267 3.1922817
-1.8007976 -16.305603 3.2009549
-5.1061206 -16.169962 3.2061222
-7.9642763 -7.5259495 3.2070911
-7.9565921 -7.2396932 3.2006278
-7.796504 -2.3520784 3.2033038
-6.4118385 -1.1362948 3.2029409
-3.8729665 -16.251869 3.2136729
-8.0653114 -13.569817 3.2124434
-7.9574852 -11.075657 3.2180376
-0.58894509 -7.4337339 3.2165124
-0.59410095 -11.488132 3.2281878
-0.5854528 -9.9572029 3.2324038
-4.5171704 -16.210245 3.2447109
-7.8639207 -4.0912881 3.2414179
-3.0887203 -1.0885315 3.2449479
-4.6192837 -1.0228307 3.240169
-7.9552684 -11.38913 3.2534137
-7.7614894 -2.3667502 3.2598703
-3.9745314 -1.0419582 3.2501619
-0.58719295 -10.331758 3.2666285
-7.9129076 -6.5291109 3.2680674
-0.6939196 -4.1284361 3.2693567
-0.58764839 -12.880766 3.2728779
-7.9068336 -6.4295654 3.2773566
-7.8042426 -2.6191077 3.2788928
-0.5980587 -14.322236 3.2813923
-3.4944453 -1.1304188 3.2811601
-1.5249521 -16.207554 3.290874
-7.9900727 -13.967144 3.2933741
-7.8615866 -5.420722 3.2992034
-5.7250915 -1.2005002 3.294225
-5.8431497 -16.144518 3.3069289
-0.59390843 -12.944126 3.3029189
-0.58805335 -10.334213 3.3002796
-7.8575616 -5.4111271 3.3076801
-2.305285 -1.2904457 3.3023999
-6.7790613 -16.203066 3.3165145
-0.61543798 -7.5408845 3.3185592
-4.4312892 -1.158461 3.3110344
-7.9461908 -12.38208 3.3284822
-7.9597659 -8.4470415 3.3270607
-7.8388834 -3.776139 3.3281488
-0.68655789 -3.2822223 3.3253837
-0.81067538 -15.648748 3.3373365
-0.76811802 -2.7005258 3.3440118
-6.5678406 -1.4445466 3.35571
-2.3161843 -1.3783503 3.3514059
-0.58085626 -13.231478 3.3627844
-2.3319049 -16.133326 3.3753314
-3.4618435 -1.3121352 3.3750131
-3.8506556 -1.2849066 3.3744504
-0.62605917 -7.8374038 3.3882849
-1.3054039 -1.6646618 3.3809681
-5.6449094 -1.3670597 3.3842845
-7.8636065 -6.319252 3.4028549
-7.8233829 -5.5913877 3.4112682
-0.63639385 -14.684165 3.4263659
-1.552703 -16.106701 3.4323976
-6.6801324 -16.041828 3.4343963
-7.795279 -4.775775 3.43362
-2.1987071 -1.584316 3.4389615
-4.581018 -16.034117 3.4414473
-7.7861166 -4.3555307 3.4490302
-7.3937874 -1.9117535 3.4423096
-5.604115 -1.5029012 3.4484348
-3.6686082 -1.4316832 3.442555
-7.8925076 -14.953796 3.4508936
-4.8944368 -1.4658048 3.45522
-5.5744176 -16.020834 3.4644437
-0.59509301 -11.473828 3.4693768
-2.0095131 -1.6810151 3.4611628
-1.5338706 -16.069107 3.4728832
-0.72553432 -6.0615158 3.4717712
-1.1914287 -1.9525993 3.4716196
-5.5570011 -16.094957 3.4854436
-7.8703518 -7.2100644 3.489805
-0.77216268 -3.7557895 3.481854
-0.83432621 -2.8725026 3.486603
-5.4213581 -1.5783859 3.4829054
-2.5851951 -16.083435 3.4928167
-5.208683 -16.05052 3.4946747
-5.3033738 -1.6065656 3.4972508
-3.3424544 -1.5851718 3.4919405
-7.5615406 -15.781279 3.5091789
-0.61158907 -12.464283 3.5056322
-7.8729701 -7.4015913 3.5026872
-7.7659779 -4.6845059 3.5038238
-7.1203852 -16.0019 3.5139279
-1.9444987 -1.8440914 3.517921
-4.4307613 -1.6130364 3.5199594
-3.9425645 -16.072245 3.5248365
-4.4735394 -16.064461 3.5383234
-7.8788929 -14.896022 3.5330315
-6.9153199 -1.9039006 3.5315237
-5.4856515 -1.7253222 3.5372953
-3.6629562 -1.6829047 3.5390601
-1.2028126 -15.878308 3.5438712
-7.9497733 -11.623884 3.5573688
-3.3707647 -16.003342 3.5643337
-7.9487333 -10.267511 3.5663288
-1.3977022 -2.067116 3.5650368
-3.3731828 -1.7802582 3.567924
-4.8814545 -16.042336 3.5766475
-7.7368383 -4.5863948 3.5791047
-5.7817879 -1.8517456 3.5703602
-4.8010116 -1.8061793 3.5889728
-6.4610825 -2.0358367 3.5964704
-6.0443249 -1.9863956 3.6059692
-5.4267573 -16.020355 3.6147244
-7.9145927 -9.7629299 3.6176033
-6.9957271 -2.1490436 3.6109514
-2.1488762 -2.1238244 3.6319928
-5.7503133 -2.0264783 3.6347992
-1.2192578 -15.797298 3.6449194
-7.1360645 -2.3453827 3.6622267
-5.4859371 -2.0912187 3.6694181
-0.74522042 -14.998809 3.6790786
-6.6383429 -2.3139315 3.6793647
-1.7509922 -15.853937 3.6820717
-2.2162786 -2.2883377 3.6930206
-0.70006454 -8.6825504 3.7067862
-7.8422375 -8.630228 3.7116098
-4.0950947 -2.1110969 3.7116194
-4.2677474 -15.968115 3.7285504
-7.7515297 -6.8413 3.7248669
-0.89982432 -4.1286306 3.7245159
-2.4538691 -2.3450537 3.7266181
-0.62124503 -11.618321 3.7326627
-7.7088475 -6.166543 3.7384191
-7.636343 -4.0911574 3.7395735
-0.60082644 -11.93589 3.7403913
-3.9921892 -15.952465 3.7515407
-7.8963223 -13.446594 3.7510061
-1.3184395 -2.7614753 3.7587428
-4.99717 -2.2777021 3.7515202
-0.76254803 -7.9184532 3.7627702
-6.2585149 -2.5040267 3.7624366
-4.8838625 -2.3545556 3.7771461
-0.65748584 -13.438398 3.784368
-3.5719409 -2.3988173 3.7860103
-6.2372289 -2.5993187 3.7919624
-5.8942318 -2.535682 3.7935789
-2.9427252 -2.4984255 3.7912016
-4.2600198 -15.966382 3.8129339
-0.96315467 -4.1043749 3.8115513
-2.994765 -15.923935 3.8222904
-7.8797636 -10.806997 3.8296022
-0.73153412 -9.2104969 3.829711
-0.80203736 -7.6144261 3.8223538
-0.82985461 -7.2106233 3.828361
-0.88366079 -6.531745 3.8247046
-6.3105383 -2.7421522 3.8291678
-5.870255 -2.6386573 3.8246565
-7.897254 -13.238984 3.8350527
-7.5655746 -4.2163043 3.8355174
-5.3004794 -2.627676 3.8383555
-4.0211887 -15.942501 3.8480339
-7.9082661 -11.905581 3.8409951
-0.74431455 -9.1958141 3.854701
-1.0520694 -3.6602931 3.8599486
-3.1087058 -2.6929121 3.8534849
-3.1283686 -15.901722 3.8625376
-0.90350372 -6.7403178 3.8672223
-7.6011972 -6.2354031 3.865387
-1.9248263 -2.9922054 3.8659282
-5.2406497 -2.6964941 3.8604269
-0.6484583 -12.171927 3.8713458
-7.762836 -8.5117998 3.8706832
-0.87643081 -7.189878 3.8793826
-4.8625736 -2.703141 3.8748589
-4.5327392 -2.6703212 3.8747754
-4.3139963 -2.7089882 3.8855255
-7.8949122 -12.588788 3.8906164
-7.8905478 -12.282957 3.8957624
-6.6245146 -3.1075976 3.8944993
-0.71819472 -11.710647 3.9010334
-7.8224168 -10.252186 3.9118714
-7.116643 -3.4019651 3.9130166
-7.8847547 -12.92938 3.9246132
-7.8410912 -10.771137 3.9271517
-3.0814955 -2.9423654 3.9262338
-4.0832224 -2.8486171 3.924345
-4.181469 -2.8360515 3.9208512
-7.8786311 -13.333282 3.9323969
-7.8158379 -11.649289 3.9310272
-4.7969489 -15.803946 3.9597468
-5.1890512 -15.791154 3.956214
-0.80973035 -8.7448845 3.950593
-0.8159337 -8.6489983 3.950614
-1.0191762 -5.4005642 3.9546046
-7.3941755 -4.2750163 3.9599767
-4.2444062 -2.9864237 3.9577527
-7.8183827 -14.30913 3.9633412
-7.8640089 -12.886672 3.9654589
-0.85661983 -8.2973461 3.9671941
-0.97977489 -6.3877182 3.9690199
-3.1260059 -3.1200006 3.9688778
-7.8585691 -12.975985 3.9748702
-1.1719966 -4.3405504 3.9724844
-1.186413 -4.3003821 3.9729443
-4.5296535 -3.0534592 3.9730327
-7.6956582 -14.946479 3.9861565
-1.6995169 -3.6575408 3.9894185
-2.0653787 -3.4974573 3.9889438
-4.588728 -15.787473 3.9938869
-7.7620082 -9.7146378 3.9921122
-7.7174587 -8.9398289 3.9957829
-7.8414183 -13.394592 4.0014768
-2.0845227 -3.5844643 4.0090117
-2.2280765 -3.492312 4.0025358
-0.79180145 -9.7957096 4.0118461
-1.4080428 -4.1199541 4.0112224
-3.4013104 -3.2787206 4.0117111
-3.9346113 -3.2215104 4.0113373
-3.5347023 -15.748257 4.0292716
-0.74336511 -14.40827 4.0275521
-7.7938113 -10.940178 4.0292296
-7.7439156 -9.6541843 4.0249023
-4.3787155 -3.3003819 4.0293155
-3.3562772 -15.735836 4.0373702
-0.58681124 -5.4795499 4.0377531
-0.53124368 -5.3428192 4.0356493
-7.5231915 -5.1125841 4.03374
-5.4374628 -3.4159722 4.0343823
-8.0607491 -5.6940846 4.0547085
-8.0769224 -5.6537809 4.0525651
-7.0640163 -15.535711 4.0602942
-7.5136991 -5.997818 4.0647597
-0.58953762 -5.6988831 4.0729117
-2.8731499 -3.6344519 4.0758886
-0.24658971 -5.7072935 4.0844193
-7.7057099 -5.154748 4.0870023
-3.9614754 -15.716125 4.0986614
-0.83452517 -9.8689651 4.092855
-7.5157537 -6.306778 4.0948663
-0.77729815 -5.6481419 4.0979204
-5.7336812 -3.8786099 4.0960717
-1.0164088 -6.7845597 4.1032739
-7.5375719 -5.4092979 4.1029701
-2.5602734 -3.9082723 4.1015353
-4.5940495 -15.702744 4.1183224
-7.7819934 -13.391291 4.1140246
-0.75945699 -11.798509 4.1161761
-0.85840666 -9.8349361 4.1189103
-2.9341707 -15.659074 4.1260653
-0.78722429 -13.990583 4.1421719
-7.4671192 -5.4349265 4.1417694
-2.0784485 -15.555593 4.1557183
-0.79085207 -13.62648 4.157073
-7.5323238 -7.2638044 4.1557331
-7.5255756 -7.0537572 4.1522498
-7.5018559 -6.4760695 4.1590486
-8.5187473 -5.8313808 4.1509662
-3.5460677 -3.8862071 4.1531677
-5.5123172 -15.638137 4.1625605
-0.54334396 -5.3485126 4.1662459
-1.1196448 -5.0869112 4.1651897
-0.80137599 -11.508669 4.1702261
-0.99063659 -8.3306408 4.1850901
-1.1000838 -5.4290118 4.1963253
-7.0392132 -15.417273 4.2024922
-7.5983534 -9.5613394 4.2088075
-1.0866337 -5.9313602 4.2196736
-1.0502546 -6.9078355 4.2253194
-7.484549 -6.5820189 4.2265444
-7.5584373 -8.9378204 4.2382817
-1.0676041 -6.6063194 4.2446408
-1.01539 -8.4109554 4.269115
-1.0194583 -8.2886324 4.2698708
-0.85211229 -11.98519 4.2793846
-5.4795265 -15.564402 4.307848
-0.95858574 -10.366203 4.3022375
-5.9098005 -4.1406407 4.3040996
-7.6311255 -11.101029 4.3177981
-7.2799549 -4.8770237 4.3189845
-3.5903032 -15.573371 4.3300352
-7.4839907 -7.5208774 4.3314648
-7.537879 -9.355957 4.3419147
-8.3878431 -5.5688343 4.3562822
-0.50813502 -5.3556042 4.3581815
-1.7057259 -4.5417948 4.3594117
-2.8836691 -4.1878242 4.3528051
-3.1116612 -4.178112 4.3585582
-7.8868518 -5.2804995 4.3696055
-5.1824474 -4.1961408 4.3863096
-7.4024339 -5.808095 4.4032936
-0.15422009 -5.7462411 4.4114227
-1.7999353 -4.5817881 4.426487
-2.5657167 -4.317553 4.4289665
-3.9537578 -4.200181 4.4211421
-7.5195885 -10.080777 4.4387422
-4.1172748 -4.232717 4.4452653
-0.96212608 -13.224125 4.4561262
-7.4978824 -9.4368839 4.4569297
-3.9082642 -4.2484012 4.4559164
-0.97333348 -12.383463 4.4628057
-7.8082933 -5.3655348 4.4660897
-6.662056 -4.5880857 4.4642334
-3.656862 -4.2842426 4.4682016
-0.98981225 -13.552765 4.4745321
-7.3471389 -5.5042624 4.4780092
-0.54085928 -5.4372621 4.478796
-1.7091622 -15.315565 4.4899297
-7.5267882 -14.025157 4.4830875
-0.35194543 -5.4921694 4.4899497
-0.99030685 -12.968226 4.499958
-6.1476312 -15.438829 4.5040932
-1.0006893 -11.503486 4.5071998
-1.0657573 -9.4408522 4.5016298
-4.2848339 -4.315412 4.5065651
-1.1348132 -14.596699 4.5123324
-1.0074223 -11.437575 4.519032
-1.0938835 -8.475296 4.5172243
-7.1326251 -4.9477005 4.5109086
-2.4186463 -15.428036 4.53479
-7.471271 -9.6040754 4.5376945
-7.9847817 -5.6558032 4.5388618
-7.6857185 -5.5205398 4.5354085
-7.5291843 -11.988874 4.5433102
-7.4484968 -8.8459492 4.5676799
-4.0496712 -4.3996344 4.5689902
-2.3623524 -15.387308 4.5789547
-7.7395439 -5.5725541 4.5717411
-3.9924483 -4.4116454 4.5778913
-6.8768816 -15.138596 4.5988941
-5.346158 -15.382731 4.608932
-6.7109003 -15.20533 4.60109
-7.4299436 -8.9335556 4.6220303
-7.3193245 -5.8427396 4.6400185
-4.0816717 -15.301708 4.6557255
-5.9841275 -15.222151 4.6563563
-6.9794593 -14.812987 4.6584172
-1.0630982 -11.968067 4.6551666
-1.8880284 -4.8657579 4.6597815
-5.7242737 -15.208548 4.6669397
-7.4839697 -11.854367 4.6606226
-5.4916377 -15.198112 4.6748347
-7.4169292 -13.516996 4.6772003
-5.3359814 -15.159115 4.6927524
-5.4600058 -4.6720028 4.7240758
-6.0205631 -15.000013 4.7399583
-6.3467875 -14.949448 4.737103
-5.9033313 -14.961729 4.7595706
-7.1590071 -14.501788 4.7596226
-4.380096 -4.6499357 4.7545266
-6.0776548 -14.928058 4.76401
-7.3183761 -6.6958337 4.767139
-4.8294678 -4.6869659 4.7701874
-1.1470575 -13.041984 4.7831483
-7.4131203 -10.964561 4.7823963
-7.3696184 -9.2421951 4.7997189
-6.8483853 -5.1696272 4.797451
-5.6144447 -14.865761 4.8015261
-6.7606797 -14.654684 4.8050585
-7.2591629 -14.184362 4.8006735
-4.3761015 -14.886769 4.8108301
-7.3882141 -10.678565 4.8260307
-7.3580637 -9.0555143 4.8236399
-7.3340182 -7.8917761 4.8291779
-4.0243793 -14.829239 4.8323355
-1.1516335 -11.115729 4.8391032
-1.2902485 -6.1481972 4.831852
-7.3875823 -10.922121 4.8438897
-3.0051785 -4.8958883 4.8864493
-1.2175323 -8.8639975 4.8929863
-2.4665053 -4.979867 4.8997154
-4.5808554 -4.8395858 4.8951006
-6.4480391 -14.564787 4.9089622
-7.3427429 -10.31682 4.9298334
-7.2262154 -6.154542 4.9294987
-4.2393122 -4.8799443 4.9250178
-2.5432661 -14.582363 4.9399767
-6.5161133 -5.1842012 4.933136
-7.2676277 -7.1798849 4.941318
-1.223439 -13.089738 4.9513197
-7.2336378 -13.728885 4.9784865
-7.1716766 -5.8601494 4.9722905
-7.3421354 -12.53857 4.983922
-1.3171473 -6.7665415 4.9822407
-1.2336813 -10.072714 4.995451
-7.1261258 -5.7296081 4.9986095
-6.7689142 -14.316175 5.0080042
-1.7866902 -5.4136343 5.0000229
-1.5882564 -14.209528 5.0178394
-1.2055209 -11.427915 5.0124178
-2.7535908 -14.466292 5.0201302
-1.3474994 -13.715075 5.0375667
-1.2720902 -9.0042124 5.0479684
-7.2994652 -10.392618 5.0508318
-1.2419661 -12.574171 5.0652447
-1.2833302 -13.13464 5.0821137
-2.7357576 -5.1831841 5.0860109
-7.1581712 -6.4507494 5.1175699
-5.0792799 -14.317296 5.1394992
-6.4087157 -14.210287 5.1356955
-2.5946293 -5.2782431 5.1469431
-6.7607951 -5.6500654 5.1544704
