# .PCD v0.7 - Point Cloud Data file format
VERSION 0.7
FIELDS x y z
SIZE 4 4 4
TYPE F F F
COUNT 1 1 1
WIDTH 1598
HEIGHT 1
VIEWPOINT 0 0 0 1 0 0 0
POINTS 1598
DATA ascii
44.875908 177.49457 11.941767
-5.2393231 48.02317 8.3379879
-12.52791 111.03185 55.495613
-42.2188 165.53033 17.092064
10.330195 214.51666 7.5
22.136055 175.91222 7.5
13.474165 106.59842 55.149281
-15.515293 167.10266 7.5
-43.095268 163.94664 28.091299
8.3258915 16.305923 8.4452095
-15.237528 3.8986249 14.694868
-8.272563 68.293732 44.547405
-35.393867 162.0238 40.920708
35.448185 33.606304 15.629484
-23.116974 169.08006 47.044914
41.938156 45.409012 17.366444
-2.4532142 2.366441 23.860264
25.245003 185.09309 18.536436
-31.421686 209.99994 8.8789806
39.208847 201.58539 9.0786839
-43.685455 40.406273 16.869259
-2.0404818 219.16174 7.9054451
-28.123432 154.89439 48.003128
32.035763 73.609924 7.5
-41.309368 153.4743 18.746231
43.46244 173.62886 4.2097712
39.922104 148.39062 9.5188293
24.516884 174.92427 7.5
18.967291 145.55269 53.164394
5.4218535 2.7031565 12.024946
41.235249 50.676315 2.9026461
-33.77475 166.85185 25.159973
-11.063095 195.48193 41.397057
-7.4119396 87.533043 8.7134733
-11.483874 73.979881 46.83622
40.361034 34.179493 19.70886
-14.259203 3.4442873 14.834459
44.193199 181.31351 5.29988
41.878899 73.256393 11.543963
38.666901 130.14746 35.652275
-38.258297 152.17661 9.2289715
40.287231 127.77658 14.903545
3.0695307 191.36301 7.5
-38.146053 144.86203 23.612343
-37.541111 98.942413 37.519455
-0.26767209 115.37913 55.258553
-44.447723 38.985073 29.304249
-41.46994 154.16306 9.2399178
-36.553375 139.81502 40.55114
-40.439693 138.3318 19.247433
26.185535 194.9619 13.728613
33.883991 160.61557 23.766171
-21.00222 101.70404 9.8511047
-40.670464 151.03616 12.610863
-28.424519 101.22743 9.824337
33.014385 82.914246 8.2292995
-25.245001 159.66574 9.4905643
38.467777 138.38638 24.261265
33.996372 138.78123 44.514015
-42.790672 176.9832 11.736626
-30.206648 74.432686 7.5
-29.838879 67.594749 24.739206
39.549992 109.47455 24.954418
35.501987 36.04454 24.436832
18.466158 42.896339 7.7839489
25.245001 172.24648 17.447418
44.032745 188.75966 28.72551
39.167618 202.00974 13.911217
-6.7723331 7.4096575 28.196653
-35.652649 51.180748 2.9495642
32.884888 193.98796 37.270355
-4.1914339 126.87064 55.085316
-4.9112353 72.830292 7.5643167
-44.331593 162.32455 27.881123
12.097644 95.538834 9.3706837
-42.011768 47.959747 9.1184797
-26.168104 214.84485 12.575727
13.671534 117.47414 55.669647
-45.113342 180.28941 4.3437643
-39.874538 39.25536 6.0173359
40.4744 194.24651 20.742416
44.305145 186.72591 23.253843
-36.342777 192.48947 13.064108
2.2267807 100.04562 54.810471
-38.889893 172.34738 28.537556
37.058105 42.710152 6.7402568
-29.573854 125.49274 52.736805
-8.4056768 171.90497 7.5
-7.9674559 221.34683 18.810852
-40.729507 160.95256 13.905381
-39.190403 52.730644 7.4617519
2.043762 43.602325 37.746365
-2.7409022 8.2782593 29.350075
-39.851753 190.65176 24.317225
-38.554859 62.201653 3.5722148
-31.749483 50.474766 38.479286
-16.140221 4.0572953 17.71464
-7.0090818 146.49698 9.6573172
39.439621 172.34351 4.7323332
27.406324 47.947109 32.330666
-43.622566 167.83582 9.250967
-4.0487933 46.636497 8.3878565
-30.858622 99.525681 9.6959581
10.289783 15.516268 8.339529
1.2909938 113.68492 10.52397
-2.8823149 175.18431 7.5
42.187157 156.42029 22.742426
15.682611 169.56816 7.5
21.631161 7.9293289 19.674774
-32.036129 33.615101 16.120733
-7.8848681 221.20676 32.945423
-25.245001 162.15981 21.313675
-32.913586 123.13081 10.594106
-41.645767 176.95593 2.8680122
-18.925594 183.17145 43.864094
-23.982098 184.02345 7.5
42.296101 173.56 14.918463
-39.907555 95.745453 11.540408
-30.424091 158.77997 8.0961466
-20.032562 189.27621 7.5
0.3345207 35.146214 35.828003
-36.27903 48.039886 31.512447
38.517342 166.66284 24.560204
35.569195 130.87263 10.512498
22.478413 31.130316 7.9241629
25.245001 37.73587 21.389969
37.56522 154.87579 8.4915466
-6.2114296 220.9321 15.560406
25.245001 181.61575 26.891844
14.919195 3.7626483 21.848227
-41.033829 165.11227 34.334053
34.458687 92.523735 9.1246929
42.30233 48.918835 22.255268
32.494377 153.14948 44.980446
-24.01115 133.82745 54.275173
38.386906 91.088181 36.660583
9.4905691 115.43467 10.576709
-39.529499 180.51222 21.644337
-35.766811 181.30133 38.486881
11.182136 220.24518 32.688408
-45.111465 190.42426 16.602354
-11.663572 174.28874 47.936569
44.538471 189.08209 29.704037
36.92421 49.588165 0.40818849
-42.856464 168.46989 7.0959768
-37.132988 188.1813 4.7178459
-27.415054 70.071732 13.549812
-37.973183 49.489731 29.186575
-23.242933 157.49194 49.776596
1.2178992 186.9062 44.505688
5.6799731 7.8948636 10.1903
-36.599133 170.3555 4.5379958
-14.320057 135.75775 10.335054
33.904327 45.643311 6.7810969
-5.6316714 150.50043 9.364522
-43.716583 33.323029 21.050217
-37.163113 21.536991 9.1753254
-25.248966 46.87429 32.119431
32.02018 15.474215 22.691525
-34.77964 141.93927 43.034592
-22.827351 202.48068 7.4999995
-34.961842 55.113472 28.434002
-36.606068 95.280281 9.3495893
41.815239 196.40158 25.270714
2.8691213 37.189568 36.22229
-27.488787 103.966 53.470463
11.740335 39.85714 37.575558
-39.54916 42.220425 30.248209
-7.6751285 26.72789 8.6045017
24.801264 214.2588 10.482233
-36.497864 55.994598 3.91154
24.525221 121.79659 10.591089
-34.786797 207.74031 11.878073
-8.2915316 12.305804 30.862267
-42.296101 175.78503 16.810349
25.244999 55.05114 14.563793
-37.942421 40.616035 24.738888
43.027657 163.11848 30.403383
25.245001 167.33972 9.5023727
-22.996998 211.4653 7.5
41.068108 55.5546 10.536311
-41.484085 163.74042 14.346743
-12.519409 196.03233 41.191162
-37.892426 58.99118 13.319321
-25.245003 186.77637 26.529701
-31.453844 159.59982 44.663815
38.266773 154.24356 38.685917
-41.483757 173.18442 12.947267
-28.847378 173.92787 42.935448
-26.214626 101.03422 53.524734
41.259552 50.455723 36.291233
33.781605 170.76306 4.0335474
-8.2671776 220.41586 14.848974
32.224861 74.486656 39.586166
-1.257781 35.821922 35.900719
40.392166 185.08588 25.166279
-40.188641 178.78152 23.029699
-26.860926 49.818291 38.443314
35.81517 37.40955 26.24472
22.599434 29.546066 7.9030423
28.447353 34.474556 21.023693
-38.174183 33.890923 8.0237465
32.311096 45.397484 3.0125942
-41.951515 169.30371 34.757828
12.825431 66.501663 43.124481
-25.245003 52.553062 17.167418
-40.319901 173.11221 20.328674
42.283279 72.967209 16.77194
38.09407 36.114151 24.581699
40.4025 57.074142 36.322201
26.317871 65.186569 39.697567
43.952171 180.57808 28.805334
24.276649 212.87532 7.5
32.643684 194.84065 17.59123
39.554203 93.061722 9.1685858
-21.664104 129.30281 54.954964
33.41301 23.401115 30.306305
-39.561378 201.18457 10.535973
49.560192 61.730354 13.829982
-46.435768 38.483158 10.704607
35.441059 189.35368 25.641306
19.429218 132.06345 10.469244
34.192039 40.914566 21.181202
-9.589818 53.388268 38.062771
32.825771 78.544373 40.547096
-20.000309 217.72826 21.55979
0.99883568 74.968765 7.5247593
-45.380245 45.43766 32.160057
40.989933 48.198582 6.7455492
-25.245001 181.96075 16.033371
25.245001 179.60504 28.24432
-41.047985 167.9769 24.728548
-19.220642 77.582092 47.616791
-42.031013 30.878815 21.773792
-7.5603104 110.36847 10.337711
-33.509651 59.657082 25.446754
2.5678897 192.70767 42.452892
15.264615 218.8506 25.965752
-25.244999 52.180809 25.540998
40.137833 175.8522 20.747248
-48.857845 41.427933 15.973246
38.036991 132.74454 37.7243
13.074457 111.5103 55.491566
-8.3101339 119.92455 10.586858
-44.706089 53.679035 17.146799
-39.709229 175.51532 37.353035
-7.2411337 23.037752 8.6242409
-38.3438 175.76733 12.907287
13.883812 218.24838 33.733589
-35.91058 126.28082 10.601227
-40.445896 43.745216 26.649866
0.89611149 51.165329 8.3143921
-22.692982 212.77745 34.47617
-39.619434 63.925331 13.680808
12.688482 178.05469 46.702431
46.854614 61.697792 26.851231
41.403816 42.028877 27.206436
40.99836 161.28641 32.317932
-9.3787556 36.616844 8.3171043
43.856266 168.36346 29.2754
41.634632 54.860687 20.735252
-9.9665966 190.29349 7.5
-25.166683 214.41895 16.0844
38.3438 176.68861 12.034114
40.319901 176.96146 10.401446
-44.353123 181.64877 13.308406
20.583714 92.214981 52.426571
-9.4727669 175.03442 7.5
-32.162224 16.670012 13.602856
-37.00795 52.839794 14.28205
12.55358 112.98677 55.622555
-12.934122 146.2496 53.688805
17.610764 155.16901 8.9130421
-6.9385052 88.809906 8.8216934
0.044848323 38.021568 36.878025
-35.521275 179.88283 3.2533426
21.912737 25.866175 8.0246716
38.98872 58.930389 27.760426
-25.507872 177.79291 32.664112
-42.337486 52.355213 14.524736
25.245001 187.72256 23.356237
16.774628 122.77475 10.593302
-9.6905518 108.55232 10.235714
-34.633945 186.08292 30.496033
-40.07185 167.39647 3.1781604
-37.053497 173.9998 3.2124515
-25.525427 131.44011 10.491886
-0.71960902 27.928947 35.079288
-22.625248 100.88441 9.8050728
-22.718426 158.57948 49.728779
-34.455139 63.075996 16.791338
33.278061 207.77747 27.325081
19.057962 157.34309 8.1713343
41.232933 188.00925 23.125839
-22.190031 215.60352 29.672836
34.950352 182.22957 31.967232
-29.455288 62.450813 10.267405
10.718286 176.2451 7.5
36.161297 166.25041 22.477774
42.296101 169.01901 18.948587
-39.027283 184.16396 30.373547
26.393318 68.163139 41.442825
-32.244629 62.779049 19.60074
0.098025933 144.13188 9.8302917
-9.1244831 139.54279 54.802586
39.261154 112.59117 22.841356
-9.8114834 12.513314 30.874979
35.860718 195.93639 7.5
-1.9524313 164.81499 7.5
35.349972 22.896389 28.225025
-39.990681 156.70906 34.672272
18.037359 80.433456 7.9357586
44.541069 177.99899 21.104599
33.963959 188.46307 12.369114
-3.5241289 207.07785 39.639763
40.256538 80.810143 12.412523
33.782265 167.26978 25.82095
-31.179012 152.69382 46.796059
-43.53471 163.74841 30.306931
-21.261913 195.53888 40.263069
-25.244999 192.51886 20.38496
-39.19305 142.12674 34.898842
-38.133568 53.215816 3.0728054
-34.018433 190.33272 27.296352
-45.203995 189.09917 28.920502
-31.777203 162.31642 26.259977
13.239642 58.75264 38.822037
0.67632389 87.331444 8.6910849
-39.851692 39.288174 19.570171
-32.852669 163.76666 27.889147
25.525234 91.880577 9.0722198
-40.999233 48.342102 12.562888
22.717415 63.875603 40.228611
-25.244999 63.071892 16.335636
33.098 207.19873 30.687721
-36.445511 165.22813 27.306904
2.1498241 162.0894 51.408772
-44.853436 176.63789 33.580269
-29.557793 212.85989 15.466022
-13.599637 37.375137 8.1417189
43.208778 46.787617 28.008299
-38.972919 58.776421 27.664391
45.141701 181.97383 4.3473172
27.803335 214.04877 20.637058
8.7528048 17.67168 33.046768
-16.341909 175.43585 46.975025
-47.828934 45.769703 4.7417784
40.388336 84.05426 18.302874
2.7485886 186.64 7.5
-26.201284 139.09702 10.198521
46.075432 58.761932 7.6336641
-10.995006 93.167549 9.1772194
-31.492807 29.987034 7.5
-25.245001 167.54778 19.468679
26.299843 170.32283 31.603504
32.772903 45.809547 6.9984527
42.180679 48.957047 22.298908
43.483929 180.32974 6.1837339
3.620461 11.047845 30.894848
42.91507 186.64023 28.644474
40.400536 93.091644 19.042749
6.9393153 182.80299 45.621922
41.024815 182.68663 26.913813
-41.088379 49.458607 31.872181
30.316555 120.38704 51.737999
-21.220276 15.254379 7.8195782
-33.773968 209.07416 16.191471
-39.843773 53.219627 11.040776
-5.723434 24.450005 8.6932659
44.085617 184.9286 13.689522
25.245001 55.724281 30.404633
30.603722 135.81787 50.741772
-27.21435 214.07372 12.497187
-15.838552 112.44105 55.40826
38.231186 41.67186 36.302326
-14.331157 119.78302 10.586538
-35.84391 147.79639 9.5622883
-12.648886 89.320816 52.182796
35.569984 192.2691 19.679462
-28.720146 173.68365 43.093414
13.215833 77.897781 48.282997
5.4124842 184.98468 44.970226
34.259914 44.426155 6.3520241
-6.9752712 49.026337 8.265274
36.573555 40.098892 18.70805
-41.717094 157.99782 27.658842
28.799133 45.781448 38.298405
-44.193199 165.77428 21.154531
-39.990593 103.39405 14.359817
-21.510578 103.65215 9.9605122
-34.562519 166.6234 22.964018
-39.689831 35.351692 22.994827
42.296101 172.601 26.179953
30.390451 39.34581 21.333252
26.596403 194.69731 18.351429
-3.1746719 115.52708 55.110561
32.254848 201.07216 35.713318
30.981319 41.465363 25.350323
-25.245001 47.464447 9.1538086
21.032856 68.888008 43.309006
-24.851288 96.844376 53.021603
7.4629998 194.98526 7.5
-39.39138 151.03815 30.687742
41.050762 28.632355 16.302746
41.347504 181.8537 27.018599
-43.289543 56.439102 3.2064717
3.3062706 135.57652 55.095139
-45.058723 174.55998 15.770758
39.564045 66.644379 13.011827
25.245001 52.933937 28.911587
-38.50238 203.03928 14.687611
25.245003 36.129677 23.693897
22.41861 8.7485714 20.606045
44.882107 180.4933 18.099632
43.476952 194.94109 14.888147
42.665787 179.59824 11.271399
16.082365 218.40028 15.866272
30.036076 38.499031 15.630474
40.368954 157.19156 31.609711
-20.198797 55.578991 38.295361
-34.702599 83.315018 8.2713108
25.402008 48.787758 32.426067
37.166031 34.703995 21.646692
28.951672 173.86659 42.883327
17.360296 181.69446 7.5
23.691442 132.45483 10.455027
29.205074 108.00291 52.730606
-28.835754 191.79303 25.655308
-37.862076 58.751163 15.167592
-41.3475 181.69044 5.340416
36.834206 46.340927 27.836569
-39.986229 114.4704 12.552069
25.245003 40.820412 24.101028
-39.432552 115.80566 31.172819
28.334469 157.02124 47.335838
-13.183097 133.23788 55.247986
34.731201 89.041428 40.327934
-42.296101 175.37732 15.264536
-20.047071 174.08344 7.5
40.971268 29.17725 21.638962
-35.837986 47.983025 37.840477
39.370056 119.57086 29.985176
-43.133999 162.96465 26.988182
42.296104 179.63693 13.865201
-11.55677 3.2144473 22.807076
26.179371 119.03024 54.54834
34.008671 70.005203 17.264618
-28.860065 202.30014 7.5
-14.057543 153.21538 52.532757
-29.558254 203.1109 36.298054
-39.525406 115.74979 29.263962
-23.575539 157.19843 8.0756435
5.2175145 101.88141 54.969734
30.044529 97.143021 50.358307
37.453308 175.20959 4.001689
38.732311 53.043182 12.867821
25.245001 66.265991 13.784647
38.835827 33.798229 9.5138445
-16.409939 183.09454 44.416653
25.576824 205.96317 36.788326
-45.836102 41.917004 19.932285
44.193199 187.98082 20.716919
-15.555556 106.2655 55.030903
33.030209 94.007141 44.55542
3.4078074 81.913292 50.30864
41.910934 197.90422 14.677685
21.922382 187.55161 41.656765
-41.889687 39.574352 16.224882
-43.995949 187.08386 9.4631138
13.405941 120.20562 10.587494
-39.133675 188.88997 21.307375
-32.894032 205.74846 32.731544
20.361015 82.317139 49.351791
-39.558598 53.486588 28.267754
13.744356 209.89621 7.5
-40.06263 119.25129 12.504803
36.063305 70.808876 37.641518
-40.063469 76.113716 7.4999995
-37.008553 134.45657 10.382318
-15.762059 7.0249972 25.76445
19.074411 14.161381 30.881229
-36.515591 121.79729 40.10611
22.38258 88.633102 8.8072701
-40.686687 49.265205 8.4095087
36.045483 107.42604 40.126026
-24.634998 15.126623 27.873175
-44.524178 47.049866 14.040462
0.63117409 58.112495 8.0862932
29.013273 64.248566 28.472332
41.980686 45.027901 34.948868
-0.21074961 93.157524 53.532715
1.0360178 166.78067 50.351822
-25.244999 49.721519 21.000971
-4.6659274 167.7321 7.5
46.628098 55.340103 27.911228
11.006593 163.34248 50.780163
39.853676 26.820408 16.406055
-40.581348 77.337204 26.775305
20.29723 135.50133 54.585979
12.106359 15.195852 8.2485456
-37.845795 105.24719 10.050093
24.241533 87.613541 50.61908
11.119396 90.532448 8.9622307
33.521832 132.96561 45.742165
35.272243 128.51146 10.598264
-7.5443196 47.522068 37.874706
-40.715199 185.76926 11.847357
38.091 178.45622 29.185005
13.606121 7.3525109 10.1903
-17.500286 133.70169 10.409739
-30.71545 70.048553 14.843939
-40.404938 88.387321 27.94803
43.497707 64.106377 12.708845
32.988197 117.45744 46.866619
25.145863 82.706573 8.1879387
10.892912 108.9145 10.256056
35.911331 120.05448 10.587152
-5.4007998 164.24518 7.5
-26.666031 181.88594 41.771393
49.865311 62.089157 15.314656
-38.381844 59.22076 26.023788
45.210548 163.43811 27.520061
37.241806 47.11779 4.0519748
46.751785 61.787281 10.561418
-36.156425 97.885368 9.5621309
25.245001 66.265366 21.103289
-25.244999 186.25882 10.118586
13.497821 11.414721 30.250877
1.6308786 0.58739895 16.231823
-7.4960732 1.1522565 19.302946
33.757004 74.955322 38.618305
39.627674 92.477623 34.414406
39.080727 132.18492 33.63084
40.531246 179.164 0.31311005
36.012177 52.364975 2.9629118
22.121996 133.33832 10.422936
-25.245003 34.577492 9.8701773
-41.26133 51.766323 20.781176
-1.2541056 6.7565861 28.382145
34.085434 208.57947 22.48852
13.053674 104.21751 9.9922647
30.202858 154.02444 46.988556
-12.909349 19.282152 33.776867
-38.962723 199.82796 27.35741
34.190056 157.46915 42.357719
-41.943665 41.22971 23.667448
-21.853104 201.90454 7.5
-29.689299 127.73349 52.495041
-27.585201 190.41525 27.20359
34.39122 75.512222 7.5
34.556835 207.84009 24.30205
-41.760731 50.238838 28.139219
46.525436 64.448387 8.9048777
-40.914516 197.51419 25.681908
36.893967 42.70882 23.881302
19.050934 24.960388 8.1603651
-39.572659 100.76423 9.7970076
25.245001 47.600037 26.127724
12.883286 178.75958 7.5
-27.83153 120.86278 10.588979
1.8621067 164.72853 7.5
-37.523819 56.77396 17.029139
37.553299 175.06223 16.238464
40.515106 37.640816 26.504604
37.372761 69.887894 17.906918
-35.163513 47.448254 2.6929984
40.284863 141.79651 11.485042
42.733688 156.63197 20.451923
25.244999 164.24559 9.3828106
-10.35569 189.9332 42.804657
40.270515 132.09119 12.280522
26.867626 78.181915 7.6833434
-0.9715054 130.79062 10.515477
-32.907547 209.98112 18.518328
-40.981876 60.564674 24.645281
-10.29374 33.388077 35.725273
-43.742035 46.679932 32.050022
-39.282501 184.58374 12.890337
23.79048 214.32382 32.012959
41.337875 166.13484 22.327124
38.974785 119.31657 21.740728
33.991375 135.03986 44.566563
-25.244999 178.71422 9.1637325
-30.225843 167.91827 30.744877
6.2250552 54.834969 8.1501417
20.266832 174.29904 46.457573
-16.786039 80.175262 48.83725
-34.031013 61.768276 38.146339
-14.802617 116.46924 10.579048
17.202717 13.009779 8.8733988
25.245001 49.512428 30.371059
-13.293337 56.242889 8.0006256
15.354918 142.76941 53.979469
-30.102108 146.93344 9.6253986
-34.492001 130.70264 43.37788
-37.967693 29.583504 28.51321
-26.179453 24.222288 7.8544579
-39.490795 61.45665 21.221777
38.756088 168.84245 25.440453
-42.650936 188.17461 29.112488
-36.706242 24.001226 24.498365
-40.957649 55.702995 13.11463
-28.639175 212.10876 26.727047
-36.386391 104.03114 39.47002
2.7818191 5.4313664 10.1903
7.9841614 107.91977 10.200188
-44.504677 191.1794 11.735071
29.710342 150.45093 48.298141
13.710745 30.828739 8.2886868
3.8180845 57.621586 39.147205
36.95298 40.09763 10.316556
-31.066833 133.89021 50.226044
-41.047379 199.05824 12.122032
-32.1623 204.3143 34.239628
36.227905 180.8927 27.656898
-35.240093 180.94011 38.758305
9.657649 66.844078 43.679802
34.276142 179.164 1.4783925
44.193199 165.3819 15.871998
-40.368847 164.73343 35.722927
41.431805 49.484085 20.606848
25.245003 35.166161 21.269192
8.0567732 211.22141 7.5
6.1071877 143.84264 9.8514452
-12.677961 142.55856 54.214848
-40.093246 52.490589 3.8347588
-16.55138 187.27377 42.804543
20.309284 202.04973 39.063824
-10.894278 14.172348 8.8549347
-8.9836645 116.4334 10.578966
-18.169075 170.17499 48.074806
-14.914184 60.323009 39.460068
-41.631737 166.5652 24.433004
-25.245001 166.80983 9.2744074
-1.7183719 0.85509503 14.366581
-8.4153452 116.54414 10.579216
10.620387 183.12978 45.248547
-28.661139 35.899815 24.135588
43.496273 158.66321 17.884964
34.254623 149.43045 43.064041
-37.826035 142.33405 9.9617834
2.9422286 89.908875 52.701828
-17.108585 9.2551765 10.1903
14.166271 83.9272 50.41584
22.741695 92.319031 52.271156
-25.245001 54.981087 9.4143009
13.136946 162.77229 50.685146
-40.433186 83.96991 19.075735
42.296101 173.66472 9.0840778
14.732037 144.51318 53.787106
32.640156 162.73685 26.73225
25.245001 48.978527 16.984732
-23.672668 126.36012 10.601405
-40.796249 183.88397 31.376472
38.556686 139.06395 25.535105
-37.116356 59.084156 5.314467
-18.853439 196.30128 40.496922
30.765045 44.41629 9.3987389
16.099989 214.43631 35.741364
42.296097 173.25325 25.119194
33.068996 205.33382 32.851093
39.529499 178.56026 20.982481
-37.897697 95.726814 37.084564
20.998705 82.164528 8.1138964
-34.104912 16.75528 10.435878
13.778524 139.07733 10.199959
-41.200256 55.114368 16.051044
18.894003 164.06117 49.470669
-32.386189 14.846813 11.563139
-36.277775 146.56319 41.089401
25.949856 105.02754 54.119171
16.338402 165.42244 7.5
7.2097554 57.10268 38.726849
-13.570824 65.102036 7.7511244
-32.977859 107.49878 46.429688
-37.000237 204.54688 9.3598194
-25.245001 180.54874 26.417866
37.880894 174.79556 3.1076851
25.244999 171.24982 14.075027
43.386009 63.773453 20.401327
37.283222 175.97322 3.9011693
-47.370941 42.887577 15.828885
33.082909 14.677656 19.792671
-34.068428 96.754677 42.55349
-40.054985 41.444244 8.9314957
-25.245003 59.489746 18.526564
19.186365 65.537682 7.6917505
-37.809624 52.473938 15.456488
-6.4192486 107.90231 55.066269
-41.3475 173.14853 4.4561911
-33.379543 25.467648 31.783459
39.245731 111.92667 22.402996
2.2482629 42.596725 8.4922571
-43.842049 49.84409 18.896862
16.281231 43.777016 37.780651
-16.117859 94.500694 53.297565
-0.60044587 136.69386 55.085182
2.0359001 104.80286 10.025138
-31.947241 99.295135 9.6771488
-41.237381 186.84479 7.6069059
-42.985855 162.258 22.630222
30.162926 144.92148 49.56052
30.324364 71.01693 40.846306
-43.672386 43.930679 16.273514
15.475952 107.28918 55.11763
-18.59696 146.84291 9.632019
38.16222 94.058647 36.888111
14.758863 209.56618 7.5
39.074425 127.20953 27.04616
25.244999 34.963448 17.185247
-18.36179 119.82002 10.586621
40.266449 91.225662 22.108305
-44.877739 176.2475 20.31358
-34.248383 62.337013 29.736885
-34.112831 166.77631 41.255802
29.089378 211.37576 7.5776386
-16.71282 85.858673 50.842476
-31.605694 179.9348 32.420994
42.84914 173.23976 31.743977
25.245001 191.41559 9.5726652
32.159531 103.264 9.938714
-34.033051 175.59129 30.505142
-25.245003 69.180969 12.107922
-43.678204 62.614967 31.891602
-38.888924 64.937042 20.89658
-26.085276 39.310379 37.970364
2.7615302 201.31308 7.5
-31.251822 104.34412 49.751915
45.202328 174.95575 33.22097
38.839359 202.45984 19.005583
39.646538 83.123405 34.903175
39.063091 191.18028 26.343601
-12.959735 79.003647 48.735817
-32.040527 210.46228 14.240218
-13.524382 29.386906 8.3491831
-27.173506 117.72108 54.291409
22.5634 170.1588 46.963905
-8.3305788 184.28729 7.5
-46.047852 50.820732 28.034649
35.999832 121.00489 10.589301
-20.172976 148.17992 9.534235
-43.855923 172.17844 33.838875
43.507866 54.218002 14.011146
-0.55827206 66.488228 43.892811
44.96397 54.738213 17.1278
44.625038 188.15149 11.616924
38.397747 166.32161 22.570591
-7.0434136 217.28574 36.111389
39.141308 99.293106 35.07135
43.187397 184.46841 24.454573
37.099483 70.02375 16.229132
-13.167093 194.34259 41.420456
-10.915141 43.560703 37.67318
6.1508713 121.3885 54.973007
-35.158516 44.887268 37.685551
16.821247 204.21404 39.054268
40.276134 134.07439 11.761992
1.82717 135.75349 10.335209
-43.74712 182.51962 14.588849
-13.700531 133.0284 55.241722
-41.382511 39.619595 14.240066
-25.244999 173.68124 22.315144
-42.63356 175.85524 11.441407
43.885288 47.746407 3.9964294
-40.115467 98.850449 30.575832
42.557293 62.166355 9.957304
39.133377 148.58447 27.384998
-30.479126 167.40332 43.557083
-37.88335 164.62531 28.601889
-27.025856 29.401159 35.936783
-32.228905 66.042419 38.350056
40.345535 83.564644 17.454552
-28.833775 71.965927 42.545547
41.547176 49.530853 11.635242
23.140209 39.353081 7.5881643
-44.736282 171.80992 17.336315
-44.948479 180.23434 15.177343
-41.104385 180.16064 19.270712
-44.407249 187.64185 26.776604
-29.618214 212.70331 23.344389
-25.245001 69.338875 7.8283281
-42.296101 173.78091 18.965549
27.484215 205.18002 36.454178
-25.245001 170.17361 26.29921
25.245001 54.336578 11.406651
-6.7452931 20.476795 8.5886288
-36.839725 69.970444 10.432772
44.319206 183.7157 13.385374
-39.508514 162.02449 37.416965
-28.271008 84.310936 8.3757095
-34.822083 127.74962 42.770889
-41.364639 30.042028 22.5846
45.141705 189.45616 15.098621
33.73798 43.279884 28.488722
-1.7396498 26.769255 8.8744507
-34.294159 164.73891 18.282589
27.527948 81.867821 47.809326
-6.5449634 220.91312 31.204145
34.92342 34.317642 20.324455
-37.48447 198.3196 32.17215
-32.910053 62.551353 20.721151
36.73539 106.92578 10.144366
18.896309 151.62863 9.282011
35.899464 18.875469 22.53883
-3.021631 1.0533603 14.19789
30.241302 38.495197 17.474842
34.394787 133.11575 43.621845
42.6049 57.180161 17.690056
21.564066 66.989136 7.6246247
1.9798672 24.627733 8.8635254
33.371033 41.322136 21.324053
29.656322 13.249402 10.157604
-40.536766 156.96379 30.012814
-37.422699 204.59167 18.465794
-11.551147 33.673801 35.943905
35.68074 167.82169 7.7243705
38.416039 52.287182 19.518288
-38.189056 164.56937 5.7835822
-46.412109 44.824554 3.1925008
-26.855457 95.006081 9.3272181
-34.46637 66.555916 38.153721
19.037405 182.74599 7.5000005
41.808563 57.324776 17.364557
38.805332 111.43489 35.655544
-22.852024 58.153381 38.43256
-5.7905312 158.32361 52.141716
32.915619 110.91852 46.766304
-40.133495 93.402672 22.486361
17.106562 4.6838675 16.874992
-33.394524 185.96388 38.655724
34.900215 112.06905 41.97047
41.743912 64.055511 17.834015
43.561436 34.496883 25.277531
42.978065 61.079754 33.492508
40.186989 189.09315 15.94409
-49.482346 42.488014 13.917829
-40.921257 194.94983 14.400461
31.832726 140.27013 10.112725
-41.270565 38.381428 32.379589
0.23089184 213.4301 38.142517
16.711565 8.0251484 26.494495
38.938778 120.72011 21.781588
26.434948 116.23282 54.461792
-40.796593 50.908016 24.527603
-39.677048 173.50452 28.972874
-38.515816 67.526642 14.240946
-35.703308 65.848007 26.836845
35.110641 188.14426 26.93804
10.368667 99.713287 9.7112637
43.585205 168.95219 7.9114461
37.861946 61.186234 26.611969
-39.959816 105.39111 13.099919
25.245001 176.19713 7.581461
-30.560246 133.51253 10.416609
30.32737 197.3382 7.5
6.4577913 94.278076 9.2678232
-14.930315 184.1546 44.316139
-23.721087 41.467621 38.100899
-19.806549 208.51227 37.283749
-12.824741 102.08878 9.8727121
42.123158 175.70486 20.707764
27.333605 12.025043 14.516244
27.342722 71.905273 43.245434
-43.494724 182.68599 33.796078
25.245003 42.692123 12.521717
-39.007435 68.184219 23.512264
29.041765 26.982483 7.7348518
12.505331 160.24057 7.7472687
-44.141869 172.60989 3.6042628
-6.8278704 197.60167 7.5
-39.3783 37.662575 10.515959
-30.234364 202.20341 7.5
35.22229 147.87288 42.21228
-27.876488 13.919005 22.432161
25.244999 46.591187 15.308101
-42.648453 174.78096 8.6422939
-35.945927 197.28668 7.5
34.684048 51.647892 32.750664
-44.27507 65.965218 26.705179
-41.721584 42.396515 25.183605
-25.7766 215.22382 21.48024
-27.226048 38.540867 27.515814
39.664036 60.866417 30.706635
40.280834 144.63451 11.890063
-5.6192279 185.76077 44.691414
37.020016 160.78047 15.211259
-28.713737 208.03564 34.377373
40.319901 168.13745 13.966208
3.2134709 0.50902665 20.586529
15.118412 8.113306 27.1385
25.874109 57.69458 31.839321
38.509632 26.717918 23.856232
24.14015 187.15486 41.361084
21.984837 193.13139 40.627953
0.040535633 221.50717 33.487579
41.347504 165.24112 18.241531
-44.193199 178.44467 27.379854
-34.443737 16.639208 21.883799
-45.126038 165.22461 23.042431
31.009584 95.624733 9.3776922
43.032837 161.29868 28.725897
-30.451195 65.571968 16.350471
-36.788574 52.324806 32.064396
-10.559396 209.51489 7.5
-33.373997 81.832924 41.000462
26.698236 202.62746 37.484966
-38.105228 163.94096 12.825163
27.348366 94.539146 51.766838
41.622631 44.223732 19.427427
26.141245 179.30275 32.492733
37.483414 81.087852 37.352554
-34.488789 58.321442 26.708841
5.954864 97.378189 54.335609
43.097832 195.01965 7.5400538
36.130531 173.93288 4.1697516
-33.759201 183.82919 26.403393
4.4576378 74.620575 7.5086193
5.0473695 203.14664 7.5
-43.411026 69.897545 17.855782
-33.105747 189.0824 28.512035
25.245001 65.949486 13.005035
-45.113213 163.53403 12.895393
3.5450721 6.5073676 10.1903
33.970066 177.29166 1.7758652
-38.73539 55.908829 8.7713938
-43.032135 70.043968 15.100117
-35.140312 170.8006 4.3536372
-34.672474 171.59531 27.208298
-26.460495 189.44939 28.269291
-44.193199 188.35976 19.949221
1.2085609 123.22187 55.220085
39.712715 86.200363 34.337925
9.5721512 183.51093 45.202934
28.869484 19.936035 7.7222228
15.517994 193.00385 41.481201
32.163162 106.13519 10.099964
20.341282 149.3084 9.4517021
-1.0998157 158.41968 52.180679
44.644432 161.97534 17.075138
40.402885 148.35287 20.980801
22.563988 10.456031 24.04731
1.7795067 158.3564 8.4713182
-39.366341 62.212433 36.150997
40.010887 90.354919 32.959911
-39.529499 181.70923 15.341298
42.313251 45.197746 31.520735
-21.901525 69.933235 7.5243616
35.559772 30.360439 33.425869
32.736343 21.0702 7.6148224
45.169399 66.538689 19.212193
-35.920525 167.50182 25.596611
25.244999 173.58 30.072693
25.244999 62.303364 9.2638226
25.244999 173.31207 22.203089
35.629555 159.57849 40.958092
34.485847 50.3666 38.283821
25.245001 186.76422 11.036006
23.534122 179.18929 7.5
-40.49437 79.064789 14.188885
36.773758 196.7374 34.061333
-1.5087552 69.693176 45.461742
-31.272596 172.80098 41.945923
-28.147377 33.600506 15.307394
-30.391384 146.22476 9.6772308
-27.571436 61.789001 30.099415
38.012909 189.76225 13.823116
-23.519463 52.914612 7.5722785
-29.915432 178.59274 41.246071
-43.476875 47.866806 26.163176
11.340679 98.362404 9.6010494
33.821705 180.73013 32.330719
-18.652321 90.66481 52.143639
38.730389 110.20385 35.992168
-34.131126 167.79547 4.6210971
-36.39048 22.303148 25.887558
35.516476 193.18607 23.286324
34.41589 118.87122 43.423714
38.073997 155.85103 8.246192
31.674343 194.80328 8.8186331
42.656677 165.0014 19.621948
5.5363159 154.17928 52.882179
-34.940353 123.1012 42.493084
-32.292145 141.53215 47.588257
-18.869205 32.911659 37.163036
-43.092194 169.35809 5.2294302
-25.984978 214.13348 16.335476
-34.905567 57.358494 5.9221087
0.49381718 222.084 18.271303
39.04364 24.656261 11.967608
-15.183095 179.36996 7.5
34.042778 164.52686 23.855101
-42.196819 162.12854 9.734333
45.611488 61.704727 12.660048
27.543293 26.549994 34.602783
40.319901 172.55876 20.580599
6.6792169 153.87634 9.0495157
-25.245001 182.48627 20.878483
46.489128 60.621922 19.614416
-0.70016164 128.50121 55.237122
-3.6163354 0.59480238 20.753727
34.213478 181.44241 39.108791
2.5756736 221.63818 25.922819
21.984802 157.07458 8.1658154
-4.3032312 158.92131 52.054443
-36.551399 178.85324 4.0663872
-10.033648 197.79929 7.5
16.943981 191.91492 7.5
25.245001 177.52243 13.49003
-12.766123 14.532499 8.3752365
39.552811 113.5823 30.260904
34.522163 158.71704 9.1087971
43.709915 186.29504 32.315235
-19.744635 217.86536 22.168417
-42.161587 42.963905 8.1466503
25.333006 194.96567 39.724094
-36.423817 34.053726 19.148445
-19.51849 12.261012 29.352892
4.1139331 100.7784 54.858837
30.758425 196.37485 37.64904
35.537846 49.555428 31.76796
40.564232 83.971992 21.912987
-39.529499 179.06616 23.457651
-37.184116 42.539761 4.9442205
16.349165 210.26405 7.5
-40.319901 171.44664 15.024237
-12.073524 130.71175 10.518342
1.5497131 21.226988 34.188427
43.217007 174.539 7.7392397
-12.181108 37.611683 8.2208672
42.426777 35.126724 28.40066
38.254837 111.52393 10.402604
40.839649 164.65814 26.582712
20.319582 38.229942 37.754524
48.875134 60.689034 19.699398
36.020844 37.835716 23.400276
29.218681 145.07404 9.7613916
-42.67564 195.36778 24.840237
34.480331 42.308861 37.426121
-40.011513 73.7715 7.5
-36.826519 64.057549 28.598694
-45.377537 173.45189 32.886162
41.240585 48.797874 13.0453
-34.265869 157.85178 7.742836
-38.266129 164.72713 14.057468
5.9930625 59.813465 40.278568
49.26265 64.947899 15.617439
-31.982632 158.56204 11.601921
5.1324921 89.121475 8.8471136
-39.985004 175.87251 37.189308
39.881516 158.79568 18.475153
-38.604843 143.45656 37.184662
-38.001675 178.82582 0.26858166
-39.00798 140.50513 29.401442
4.2197285 82.911987 50.606426
-27.774364 42.312252 30.308958
6.681282 181.76035 45.972752
-27.485567 113.83443 54.159111
-29.690327 21.869459 7.7494602
-23.66766 9.3758945 17.933039
18.913147 81.870514 49.312435
18.425123 177.22729 7.5
-38.024994 170.22142 5.7520561
1.7850521 85.80545 51.581596
40.715199 183.62306 22.679703
9.8467903 195.11002 41.53846
-23.256754 175.38336 45.230125
-40.069832 101.96591 28.915646
-6.4451013 108.23757 10.218037
-38.020081 57.644333 13.223219
30.910444 96.718437 9.4669247
38.7631 52.695648 37.392807
38.423256 45.850273 1.2937241
21.392506 217.03145 19.040304
-37.065147 126.68293 10.602135
-21.931896 18.453671 32.77861
34.043274 181.71854 39.129692
-6.9515762 51.609413 8.2512178
34.393036 46.325825 27.282698
35.325378 207.14224 23.927013
26.473782 116.3652 54.453335
-30.922901 57.722977 5.6524596
-34.173038 52.388988 31.274858
39.512714 53.531631 16.627897
38.353069 41.895061 13.436958
-38.836651 175.16896 29.192009
-8.9251013 149.64384 9.4271698
32.778423 15.428975 10.434189
-12.509356 219.56566 28.563629
44.246414 191.61533 27.651745
40.265305 153.5013 30.415836
-35.922401 92.397415 38.939487
25.245001 56.938587 24.707838
-5.692915 4.2083492 10.1903
-19.865871 38.298542 37.727589
13.260401 119.33957 10.585537
-25.245001 182.92245 10.419358
39.563625 48.708893 32.417122
-28.462688 70.022385 11.824724
33.534386 48.807228 27.233616
-37.044533 59.024704 5.2932906
34.441044 163.37308 9.2238121
26.335979 44.404922 31.237598
-32.07196 193.61826 37.721973
-22.65317 171.31801 7.5
41.144909 198.94052 12.600235
-37.592415 36.021011 24.387856
23.534447 84.820419 49.888084
-21.12855 51.056812 38.298321
42.304459 189.78528 13.99819
2.7587693 164.48056 50.885529
-45.632275 42.176567 22.976473
2.3256924 193.37662 42.238445
11.958031 53.410416 37.986717
-38.621201 47.705769 4.364758
36.834496 174.09113 29.050108
-17.869123 72.751297 45.590969
40.371223 138.35532 16.204388
15.937143 65.216293 42.030003
34.827995 139.56244 42.95694
-30.30209 79.229927 45.033978
42.064884 59.089573 17.136572
-7.0890026 1.4067118 16.330868
-15.690104 80.153366 7.9107552
7.5429077 211.14325 38.34269
39.529499 174.60239 20.645237
-38.455269 54.514076 9.3842688
16.054237 177.68179 46.324989
42.296101 176.64799 16.256168
33.563686 56.59473 38.322838
-7.1900778 81.606773 50.12429
39.424259 26.333206 16.498745
41.351673 184.03476 30.427067
21.405447 28.282906 36.527306
-2.1776612 0.93242055 22.113689
-22.910439 191.53046 40.814804
12.92274 4.1058497 12.546209
28.735744 194.96739 38.637806
39.279819 36.913788 16.552019
-44.179138 178.04134 3.9594779
22.704439 32.213528 37.250889
-36.940197 191.48224 9.8279247
-4.6821685 31.882488 8.7338696
-13.36245 141.40631 54.320724
-24.456026 204.84433 7.5
0.98202425 67.86393 44.573265
28.547453 152.65529 48.328342
-25.245001 163.74532 19.430502
-37.338638 163.86163 18.82357
15.569345 3.6939731 20.579155
13.929052 5.8632765 10.570224
29.698769 46.843163 38.347904
40.018307 183.05911 30.831196
-40.704647 171.9377 0.82876992
-41.207573 55.096535 12.425128
-35.605827 187.58522 10.249949
13.283337 107.16493 10.157796
-36.996437 204.60583 23.441063
-10.028973 220.32257 16.428791
-45.092846 163.7502 11.658862
-37.194519 42.826389 5.3018355
41.3475 167.37108 8.416275
-30.892723 123.25166 10.594379
-32.127842 207.25404 32.389309
25.245001 55.085693 26.472239
-28.409328 209.62479 33.64357
-41.293053 48.705559 31.770241
-29.757189 82.647064 8.190938
-39.999222 129.1375 10.575524
38.532097 166.09488 28.073782
-1.8501456 211.37839 7.5
-26.747356 205.49507 7.5
38.257248 57.226337 31.558109
-25.245001 180.53241 12.209604
40.166 175.22821 0.20506285
20.457918 111.47268 10.399726
-23.324266 9.1549835 16.363398
11.406031 153.05717 52.821869
-41.830482 51.129974 4.0063748
-42.69368 186.16454 23.985315
-20.41169 89.707367 8.8949146
13.753096 3.2310314 15.797787
-39.960026 102.1485 13.328663
-33.357578 75.563347 7.5
-40.653458 170.50468 27.774357
46.699371 56.931564 7.2005529
-37.594521 66.956841 10.284853
23.939865 114.95173 54.925117
40.552776 77.443924 27.296413
39.367691 96.405296 34.873466
-35.462547 31.0207 33.824844
-14.091816 125.04759 10.598438
32.004784 209.00974 26.890339
-25.224846 168.13739 46.477203
-43.599918 48.68198 14.518588
-25.245003 43.359585 29.316753
31.259373 117.31387 50.337299
-43.773499 50.701077 11.41678
33.607803 177.97659 39.888657
9.5731163 120.26261 55.374496
31.445627 89.276939 8.8597984
24.769302 88.586388 50.81414
-12.264986 186.62158 7.5
46.592403 57.288506 5.464673
25.343132 171.45413 45.558006
-37.762299 58.401447 18.099321
8.5986567 112.95569 55.262917
-36.722111 67.732185 18.938576
18.005783 71.989212 45.235039
37.201458 48.187363 0.59596455
-40.961521 55.693527 19.384167
9.2923307 133.49164 55.302689
-1.2106543 9.4209518 30.190891
31.462654 192.60124 38.172585
36.690392 42.377056 24.924898
-41.923965 68.177521 23.526192
-39.529499 172.94476 22.707434
42.856842 47.303535 1.229138
14.924347 98.551971 54.199463
16.23901 139.43561 10.173759
42.296104 178.89041 18.813131
40.715199 184.35014 14.628427
-30.263353 76.251953 43.851036
-42.438866 164.52557 16.661503
38.3438 179.93732 15.139231
33.173603 173.04404 32.353775
42.01503 197.69757 19.497997
29.337214 17.438972 7.6358376
25.76144 214.3058 28.735332
9.6814947 61.223167 7.9107876
-39.292721 117.32652 24.935312
-1.4916676 93.367004 9.1934929
20.938072 184.32236 7.5
-42.292961 188.01868 20.954252
19.505411 217.88046 20.930418
39.393089 144.34406 33.053162
23.413877 185.93057 41.703835
-43.341225 49.762962 12.797223
-25.245001 166.26389 20.401127
-43.099091 162.83102 30.070133
39.248798 58.056782 31.709991
34.494701 206.75372 28.260496
43.236839 32.486324 14.967009
25.443794 214.42618 13.974254
-28.090683 69.464355 20.152966
-29.82597 60.373783 11.963764
35.292542 77.793625 38.346226
42.030018 47.919304 12.220675
44.673809 175.43643 21.308086
37.272217 92.946396 9.1591778
6.2968988 74.849411 47.592865
38.53022 43.982071 31.086605
-37.402618 55.717682 14.438123
14.455674 159.40005 7.8135958
14.185985 23.09313 34.970795
-3.6858625 98.000488 54.470493
46.012112 54.510056 13.269001
-4.2368927 172.20345 48.95612
36.124931 51.995956 37.982109
10.937902 50.731041 37.92001
-14.694236 26.3326 35.748184
36.868145 40.788773 20.93675
25.245001 65.092842 17.418217
-26.84206 94.128799 9.2556438
18.43152 159.22557 7.6912823
-45.141701 189.51541 18.65851
-42.128708 48.924969 27.799065
32.642792 65.437111 27.298481
3.919347 58.93605 39.870476
41.4734 153.40346 15.852972
39.585709 33.915958 18.534565
12.833817 89.052414 52.097435
-43.841541 184.28603 31.232906
-10.272369 127.82593 55.484241
38.803757 126.852 22.54575
-40.617191 177.84052 32.658707
-43.86441 172.82861 7.733614
41.177685 151.60484 9.3376455
-40.167931 120.76047 15.186216
-3.8142948 24.623449 8.7800941
25.245003 57.045567 8.9581995
21.277998 113.27771 55.154167
-42.642715 52.878082 29.364742
1.7216725 61.174633 41.158077
-0.44870558 211.85468 7.5
2.009861 180.57437 46.54694
-25.245001 174.40837 9.9783897
15.433464 218.42368 33.046932
-25.245003 170.28146 18.306768
36.666119 62.606842 29.558384
13.189386 48.899632 37.903366
26.356869 164.39575 28.450006
12.083546 9.6669483 29.25156
-32.9688 61.311623 11.165692
24.123466 104.53131 10.009889
44.50856 162.04364 18.863808
32.480309 47.00853 26.014202
38.751987 115.50614 35.613796
-17.605888 164.72191 7.5
37.456112 59.003914 31.371752
35.940849 21.162638 17.157331
22.416492 8.8597298 21.039183
28.010742 130.04701 53.536777
43.415569 40.388054 29.03603
-1.0106965 87.537445 8.7136173
42.742188 156.39388 16.181162
-39.62825 175.35934 28.268593
25.245001 65.783623 12.452023
42.558685 173.99931 31.864868
34.718266 86.438034 40.042576
38.66135 117.94684 35.900112
-38.975037 28.240705 26.52943
41.078484 188.09839 20.761816
40.307945 72.001236 33.999535
44.446987 59.792278 8.0534544
38.788528 44.194061 25.889854
-38.790104 65.585907 18.917486
6.759531 151.40045 53.300797
28.415834 213.70087 20.248571
37.231514 161.13188 19.705978
44.254906 48.62989 28.97678
39.947838 101.09581 25.850521
-45.036385 40.74498 11.741104
-25.08857 74.652588 45.331516
0.65740681 89.298836 52.595467
36.06773 192.38701 19.815336
26.540949 139.95612 10.135692
41.671909 38.878967 27.895702
38.118015 143.02509 9.9112453
33.866787 164.0405 10.419026
-41.380257 58.421692 6.106194
-7.7870259 197.24878 7.5
41.175934 167.63934 34.967972
-39.046974 127.6666 26.721771
-17.127041 191.91154 7.5
41.122677 166.74734 34.747482
13.700068 149.6535 53.135845
-28.353485 156.78113 47.384613
-9.9524994 184.40952 7.5
-27.030485 87.11264 49.828728
38.865913 58.897736 30.815708
13.727346 73.332458 46.301147
-35.991508 59.843491 17.130024
20.039742 134.10336 54.742195
34.434429 48.895687 31.420248
-41.156036 177.93423 20.632969
40.34647 178.9886 32.528393
17.218258 196.892 7.5
-39.529499 173.25214 21.642807
26.949287 197.24664 7.5
-39.598999 111.46321 26.844818
1.9815927 120.05624 10.587156
16.723482 169.49635 48.528862
33.98568 182.38141 29.309971
23.216614 190.90012 7.5
25.245001 67.530045 10.664042
33.380371 22.43298 27.779774
-15.040083 58.432426 7.9274588
-37.128487 63.511505 12.249167
-25.244999 35.887154 10.018371
31.384018 47.35667 5.2485051
-32.144173 38.143806 27.069691
-41.82373 177.50909 32.696327
25.245001 182.6537 10.585615
-13.761403 218.00201 11.058165
-39.529499 172.04338 17.293867
-33.915779 93.302048 9.1881924
28.910046 13.569345 16.163216
35.450096 166.94136 23.378542
-33.759201 183.45297 26.994144
-36.839508 33.612354 15.966625
28.686966 211.80956 27.644028
-4.2505035 127.48451 10.603947
15.101177 217.75777 11.468035
31.723219 191.23132 26.286543
33.161758 162.72092 42.492363
36.085587 171.71774 28.276775
-6.6895733 175.05602 48.056347
10.589128 103.43736 9.9484501
29.216011 82.512054 47.187294
-34.112389 166.83578 23.24091
-39.925995 51.204479 32.143021
40.715199 183.80438 16.278021
-36.628948 64.179276 26.181601
6.4261723 30.816786 8.6780987
-39.724152 51.435589 22.768969
-34.985897 56.859612 32.137501
26.07412 19.466951 30.819176
16.871433 193.34723 7.5
34.909569 17.753536 11.365335
33.104637 46.753891 6.2317286
9.314436 208.73872 7.5
21.287872 128.42972 55.034554
-38.644848 38.920696 9.8098946
-6.9309931 117.98659 10.582478
-22.725872 32.744518 7.8821044
40.432117 141.49355 20.189747
0.5632661 159.2278 8.3718433
-45.257267 52.280323 18.953291
-1.8866416 8.064806 29.24572
5.2400522 181.27475 46.199249
-17.43413 110.7449 10.358853
-22.963793 214.21349 7.5659089
25.56131 65.639656 27.070896
27.34453 119.6958 10.586341
-24.634684 170.29546 46.174629
39.440208 146.12402 23.787685
44.320431 44.324303 32.774845
-42.296104 172.99463 18.453989
3.8370302 137.15685 10.284235
33.841839 163.25919 12.600866
32.784302 103.41797 9.947361
-25.245001 43.824265 14.013193
-41.708309 36.476543 25.196438
-5.7887487 43.185421 8.3149748
-40.24651 94.473511 27.733723
-39.178856 54.948421 32.431561
22.345404 87.52137 50.921867
-25.245001 160.94418 13.953971
27.781864 160.88371 24.324511
-16.513628 7.0798683 10.870264
18.704035 146.3815 53.061638
-12.12407 4.3479614 23.998608
-34.619713 182.11826 30.399857
-25.245001 165.85966 26.976559
-36.54866 185.04816 37.513908
-12.335437 37.108597 37.204109
42.271847 176.342 35.448391
-14.522533 55.912132 37.981911
33.759201 173.56598 28.813599
-23.534735 29.746428 7.8853188
41.887653 51.033691 2.8651853
-15.692168 9.0092497 27.820532
44.042667 177.71153 3.9160504
-24.439789 138.87518 10.214744
-38.236103 203.4791 15.406858
-40.98592 194.90295 17.010946
40.517502 185.39876 14.58021
-34.41922 172.33563 1.7258725
-22.044102 215.5952 30.196487
-41.068787 193.64511 22.331417
23.21089 213.71608 33.620609
-42.907532 40.277908 14.031182
21.573814 35.665836 7.6537766
28.361229 169.28999 31.234695
36.401203 45.40757 30.464462
-0.23335928 139.55565 54.976471
-45.503387 44.674152 12.87415
25.245001 180.50708 12.731413
41.288448 29.822306 8.182478
36.846981 28.510483 31.26152
26.087276 194.1459 21.275928
-17.884176 143.92418 53.54258
33.953957 150.27066 43.247028
37.573212 27.986128 29.915277
-43.655064 174.55327 27.213892
-40.40612 150.93698 22.587288
18.581467 152.03186 52.109867
-19.337683 74.979294 46.458153
-25.244999 69.229919 13.272615
-44.188957 55.255966 29.233192
-18.662201 67.981972 43.154938
-11.886753 172.16919 48.503456
13.224615 43.740803 8.0035048
-2.3884451 141.16277 10.047441
-39.372986 148.29167 31.27857
-35.391361 169.43784 31.287485
-15.405671 145.58748 53.573334
-40.824089 175.7283 0.13923375
-16.086432 197.04572 40.684204
31.146595 141.69675 10.008391
40.79277 160.91888 24.397362
40.357426 156.73358 8.0241566
-39.227539 176.52251 0.034686454
-27.086872 200.17032 38.00264
-35.314487 123.42557 41.919491
-40.356441 143.92001 17.964844
-9.5251799 166.55891 7.5
-15.313429 164.22589 50.076775
22.16317 15.275805 7.7840939
40.319901 181.19687 13.218187
-36.400826 144.34853 40.876389
-42.296101 169.69629 13.902462
40.453609 199.9214 11.370244
19.304039 11.841586 29.049068
22.956171 67.792801 42.38242
36.184757 178.66522 31.973011
-34.230583 17.186069 11.984962
-29.881804 109.37128 52.115303
-21.868219 54.490356 38.374435
32.977833 89.874084 8.9085159
-15.112387 36.087822 37.268631
37.01976 35.240097 22.762543
-35.82093 172.29019 31.456856
32.29237 45.675053 38.184593
40.563347 69.92981 9.3437576
-8.59027 1.6229271 17.033028
43.688263 39.996346 31.104731
15.479214 95.211037 9.3439407
38.409454 50.307854 4.0395103
-36.928616 36.701141 25.448784
-44.987652 181.35245 27.466461
-32.031036 65.716576 12.200412
-13.900629 144.5161 53.853039
-37.7449 105.87999 37.701714
-27.792917 14.480041 7.5648522
34.705292 76.621269 38.509109
42.296104 179.31091 17.809729
-14.948406 73.235069 46.101318
25.244999 188.58022 20.100605
-40.319901 179.81369 8.7669744
-30.156443 62.14933 29.86105
-41.362743 169.71786 7.3238344
-30.778187 60.220856 10.746336
-39.050282 153.93216 37.559113
2.8696465 113.56991 10.51751
-37.509308 67.46228 11.644782
-49.370014 39.518375 19.506401
25.245001 170.43472 10.902628
40.158291 45.901299 26.164141
18.314243 203.43881 39.045719
41.23822 54.009918 23.869743
38.623436 132.991 36.169701
30.75387 176.1362 41.47747
-42.716232 180.75201 28.733295
-33.824394 168.03903 26.820847
-43.620235 42.158573 8.2965136
39.515202 149.55611 32.123093
40.701874 77.199158 21.350765
-17.65942 147.53879 53.000206
-41.642841 177.71872 0.12280911
-27.115381 161.2049 24.993004
-36.800301 53.343575 14.788652
-31.345367 47.246857 32.251198
14.159333 154.58015 52.284863
-38.732849 162.06003 9.8996992
-17.713737 136.47203 54.66507
43.499966 172.87064 4.5139866
-26.0639 191.77815 25.672031
-39.038841 46.062168 28.208357
37.641685 48.279869 18.706543
-24.300688 113.78156 54.872898
-33.41378 32.438778 35.217529
-15.898675 128.11932 10.605382
-43.469101 190.70476 26.877941
-7.9634752 218.79129 9.1046276
40.291088 198.71512 25.057215
-37.549427 167.56909 24.196915
5.6443143 72.881172 46.748314
42.296101 175.74118 13.224715
25.245001 175.67464 20.088043
-42.296101 184.39328 12.976627
-40.289822 82.694275 16.423235
28.675665 147.85771 49.582859
42.860237 167.25987 23.793776
-44.8909 178.98424 14.794979
1.4825872 45.197701 37.819256
-40.427826 56.98856 18.752588
3.0003829 161.96732 51.424744
-12.419239 157.18863 51.984219
31.861952 44.827599 6.8077712
-43.459072 167.0647 3.7139773
29.138042 70.048843 14.827337
16.117571 3.9381044 18.759375
-41.37817 64.96006 33.837406
40.803894 56.075195 22.285894
38.807068 70.495193 36.364281
-23.603445 16.764351 7.8338118
-28.762962 39.35236 28.350889
21.668034 199.01311 7.5
29.251677 107.11382 10.154926
24.28764 137.51567 10.2712
-38.322742 89.211075 36.777359
-41.736179 59.550755 13.702126
-43.075947 189.02107 16.854301
-41.339127 153.10034 15.079302
16.120455 10.006727 9.9525404
48.386158 60.963898 19.197048
-5.2508564 124.59059 10.597406
-11.150552 190.83308 42.37056
25.339123 200.29333 38.525959
-19.037657 178.12531 7.5
26.268179 10.711973 14.019721
39.373421 119.0341 27.703972
-15.719952 3.75879 18.750675
-25.465586 161.28151 25.097404
10.739089 168.30267 7.5
-42.432617 174.37921 7.1429157
-25.245003 159.37518 13.779448
-44.610947 44.350224 8.0387383
-33.191681 187.91614 38.388222
-12.991892 46.887333 8.0132523
-34.484863 87.068443 40.458458
31.28911 119.1552 50.308937
43.867035 180.36302 7.5863962
40.135124 94.777222 15.619321
-22.205555 9.3111982 22.708288
-27.368429 84.948647 8.4425592
42.626446 168.85379 5.6164322
