# .PCD v0.7 - Point Cloud Data file format
VERSION 0.7
FIELDS x y z
SIZE 4 4 4
TYPE F F F
COUNT 1 1 1
WIDTH 1434
HEIGHT 1
VIEWPOINT 0 0 0 1 0 0 0
POINTS 1434
DATA ascii
0.19720142 -1.7213321 0.43279323
-0.96865988 -1.6037126 0.43938667
-0.49834767 -1.5617338 0.43207121
0.038268451 -1.5013306 0.43195951
0.12098715 -1.4997166 0.4354248
0.13888267 -1.4804456 0.4312166
0.12216439 -1.4385662 0.43906909
0.11997661 -0.92490023 0.43652076
-0.70702732 -0.071978018 0.43104786
-0.69141924 -0.074216366 0.43016821
-0.16787085 -0.052761383 0.43896097
-0.82457238 0.045260716 0.43922794
-0.64177966 0.27814317 0.4398233
-0.3418068 0.27183577 0.43389109
-0.30600199 0.29099333 0.43184119
-0.044620492 0.2966097 0.43643332
-1.1123217 0.33340642 0.43384045
-0.67135108 0.39283621 0.43443096
-0.55785435 0.47155625 0.43341523
-1.0374595 0.83049232 0.43532163
-0.77315271 -2.4411016 0.44928372
0.091506921 -2.4421582 0.4470892
0.34610721 -2.3513224 0.44764045
0.15476233 -1.9613202 0.44722238
-0.6459443 -1.8067522 0.44986641
-0.40428841 -1.5949376 0.44085994
0.19850731 -1.5621694 0.44962817
-0.96110749 -1.5252619 0.44435295
0.29669124 -1.2438235 0.44354099
-1.2106359 -1.0732127 0.44174752
-1.09338 -0.78521371 0.44815367
-0.19372526 -0.034792371 0.44620246
-0.30600199 0.24361177 0.44740832
-0.19127603 0.29568726 0.44103217
-0.20056713 0.47252074 0.44182777
-0.27658951 0.50845879 0.44454104
-0.71181238 0.65927714 0.44489473
-0.99343026 0.83049357 0.44810355
-1.0636623 0.91336298 0.44078428
-0.22173168 0.96346092 0.44713229
0.10431484 -2.3943872 0.45059592
-1.113346 -2.3501265 0.45500639
-0.65055728 -2.3114285 0.45413324
-0.64482754 -2.3017321 0.4503473
-0.80912387 -2.2793539 0.45600763
-1.115447 -1.9492244 0.45085233
-0.47220725 -1.863816 0.45700449
-0.40867361 -1.8125358 0.45661017
-0.81819463 -1.7645304 0.45655647
-0.4025642 -1.755393 0.45301014
0.28274602 -1.7321187 0.45888132
-0.80126631 -1.7262356 0.45678049
-1.21881 -1.7007322 0.45007533
-0.5626446 -1.5502614 0.45365509
-1.0537136 -1.5450809 0.45525789
-0.54961222 -1.5482268 0.45142567
-1.2139263 -0.91863364 0.45647019
-0.93145984 -0.13404569 0.45734772
-0.69619828 0.06249354 0.45180041
-0.14878482 0.06271445 0.45478559
-1.2186 0.089968346 0.45822352
-0.77583921 0.30559364 0.4509598
0.28695476 0.43766147 0.45695308
-0.30550399 0.48314756 0.45935243
-0.19163996 0.48224667 0.45100209
-0.23694636 0.57512987 0.45796609
-0.56714272 0.87210858 0.45887175
-0.46050802 -2.7312272 0.46929276
-0.2238587 -2.7315636 0.46991977
0.12505218 -2.424536 0.46531293
-1.0852301 -2.3428416 0.46943676
-0.93321085 -1.9590919 0.46198964
-0.54185152 -1.7903574 0.46192619
-0.63903874 -1.7792008 0.46922123
-0.50240016 -1.6438391 0.46758252
0.25777704 -0.97615552 0.46787763
-0.0088060675 0.06547264 0.46072042
-0.12117027 0.40676677 0.46489209
-0.76052719 0.41768032 0.46040946
-0.60071999 0.44019741 0.46007535
-0.53311467 0.52226144 0.46159819
-0.25761884 0.5460732 0.46110344
-0.5560782 0.87241089 0.46733457
-1.0907835 0.91336298 0.46366498
0.048275873 -2.4751568 0.47338739
0.07726147 -2.4439042 0.47151944
-0.66345853 -1.9856828 0.47288895
-0.55374575 -1.9860892 0.47373301
-0.39996088 -1.9586289 0.47373301
-0.36428806 -1.9526857 0.47373301
-0.53063661 -1.934612 0.47373301
-0.31778115 -1.9103725 0.47373301
0.2460168 -1.7369436 0.47055009
-0.63396192 -1.7201563 0.47395962
-0.52786636 -1.6981148 0.47177029
-0.41282862 -1.5799172 0.47702631
-1.0512569 -1.5555589 0.47632921
-0.3395721 -0.59822369 0.47863623
0.25777701 -0.35077128 0.47793388
0.41013342 0.33995995 0.47329152
-0.52831316 0.87320513 0.47722259
-0.28428349 0.96346098 0.47049055
-0.17525263 -2.8853204 0.4885354
0.20975648 -2.8364272 0.48225221
-0.91790807 -2.733511 0.48649073
0.093800597 -2.6884227 0.48626134
-0.12580742 -2.6642127 0.48604268
-0.11723262 -2.6423421 0.48604637
-0.58840823 -2.6390958 0.48582423
-0.28071299 -2.6310375 0.48576325
-1.1201477 -2.6266711 0.485578
-0.54077101 -2.6196728 0.48573369
-0.17191008 -2.6061201 0.48593557
0.13738212 -2.5959668 0.48121446
-0.94150078 -2.5789511 0.48610023
-0.74363148 -2.5399611 0.48603842
0.0091077294 -2.5146861 0.48119038
-1.0865103 -2.4884486 0.485578
-0.63438171 -2.4825494 0.48582447
-0.47026125 -2.482512 0.48562473
-0.34774554 -2.486438 0.48557854
0.13471544 -2.4732089 0.48588568
-0.87557828 -2.4603302 0.48625824
-0.76059157 -2.4513268 0.48602313
0.19523184 -2.4339104 0.48564741
-0.16538912 -2.3920827 0.48584026
-0.05736059 -2.3870604 0.4860211
-0.35648113 -2.3300591 0.48571309
-0.60880399 -2.3217525 0.48570111
-0.023303006 -2.3295135 0.48605031
-0.6100412 -2.3138478 0.4856993
-0.40184671 -2.3070443 0.48584169
-0.90116131 -2.1572468 0.48639739
-0.62858379 -2.146497 0.48564759
-0.87782073 -2.1378098 0.48627061
-0.68469799 -2.1145923 0.48572701
-0.095025718 -2.1118984 0.48582041
-0.86748123 -2.0710163 0.48621446
-0.28810018 -2.0735464 0.48572969
0.039131306 -2.0621009 0.48625374
-0.49203801 -2.0355377 0.48589399
-0.0039289892 -2.0086482 0.48601979
0.0026626214 -2.0037808 0.48605561
-0.8543272 -1.9809715 0.48614305
-0.43781489 -1.9594918 0.48608276
-0.64326739 -1.9498281 0.48558271
-0.62424141 -1.9420929 0.48563525
-0.27058616 -1.9114213 0.48580366
-0.65501666 -1.9073068 0.4855845
-0.62385619 -1.8742405 0.48568523
-0.27629346 -1.8633072 0.48585251
-1.0123336 -1.8599768 0.48375851
-0.6650821 -1.8468788 0.48560327
-0.097419076 -1.8417881 0.4856821
-0.46132529 -1.8165303 0.48612806
-0.16607821 -1.8054898 0.48562229
-0.6291014 -1.7966573 0.48572838
-0.26461044 -1.7826657 0.48588195
-0.91734552 -1.7701747 0.48963371
-0.68404543 -1.7600789 0.48561922
-0.67087334 -1.7437063 0.48566353
-0.92689407 -1.6470081 0.485349
-0.36018464 -0.59736329 0.48662457
-0.90584207 -0.57995796 0.48706853
0.37111768 -0.24543683 0.48221582
-0.87745905 -0.1116109 0.48517954
-0.31528085 0.02411326 0.48480168
-0.079081111 0.064956561 0.48508373
-1.0449039 0.14216425 0.48904887
0.3793976 0.15935025 0.48769516
-0.35361752 0.17746001 0.4825252
-1.1436785 0.18799147 0.48995167
0.40243268 0.23083249 0.48741466
-0.16949511 0.26606414 0.48754686
-0.109066 0.33090639 0.48821282
-1.0957309 0.45379826 0.48652247
-0.41092408 0.52724922 0.48929924
-1.2123691 0.56734538 0.48872906
-0.4355492 0.63102806 0.48186684
-1.055075 -2.7355914 0.49816164
0.011333758 -2.5807247 0.49448708
0.15180795 -2.54792 0.49042091
0.16465877 -2.3068354 0.49897885
-1.21881 -2.108994 0.49346161
0.10555021 -1.9914457 0.49897909
-0.92987418 -1.9333367 0.49002919
0.10086845 -1.9283969 0.49903309
0.11184035 -1.7882689 0.49385479
-0.92005098 -1.7660836 0.49354085
-1.2130098 -1.7388983 0.49469632
0.37630898 -1.6573396 0.49778515
-0.35820085 -1.0380876 0.4911499
-0.4694165 -0.70549232 0.49812499
-0.21845981 0.45816836 0.49357018
-1.0321701 0.46853456 0.49102622
-0.38155499 0.53285336 0.49709535
-0.93716753 -2.7363167 0.50322962
-0.028248698 -2.4551654 0.50376868
0.18517593 -1.9260799 0.50914592
0.37630898 -1.7150266 0.5083245
-0.15706919 -1.3446161 0.50303435
-1.2060481 -1.3358566 0.50890571
-1.2092602 -1.1354642 0.50979769
0.12580051 -1.0376624 0.50111431
-0.71069598 -0.57085234 0.50754791
-0.33115587 0.040740497 0.50167501
-0.97063363 0.27809459 0.50765097
-0.15611005 0.28709757 0.50661772
0.31034398 0.39236301 0.50210106
-0.18021026 0.44093466 0.5042631
-1.2391065 0.60489786 0.50457394
-0.43573347 0.64593679 0.50719351
-0.4957242 0.87422937 0.50020099
-0.37847111 -2.7388172 0.51436245
0.2648524 -2.7385936 0.51770037
0.1359401 -2.6652582 0.51819855
0.11758955 -2.2616346 0.51257843
-1.0411365 -2.1895921 0.51955819
0.11005765 -2.1378288 0.51177263
-1.2123086 -2.0697458 0.51756591
-0.23391648 -1.8375003 0.51737285
0.14924119 -1.6172092 0.518875
-0.96988094 -1.4178503 0.5176819
-1.2118106 -1.006551 0.51729983
0.30886331 -0.24613178 0.51007146
0.29136145 0.0060076243 0.51819974
0.42053276 0.14933337 0.51194841
-0.13623834 0.32176939 0.51990789
-1.1778798 0.41992351 0.51530886
-0.15941334 0.48149091 0.51733762
-0.88437593 0.57035917 0.51403207
0.40744886 0.62481678 0.51871622
0.14153461 0.83049047 0.51400125
-1.0144309 -2.7405434 0.52760607
-0.02390923 -2.6006255 0.52377003
0.12008192 -1.9848197 0.52181953
-0.99321115 -1.9280596 0.52979243
-0.57280046 -1.8373796 0.52167416
-0.37357563 -1.8373901 0.52215564
0.23760518 -1.8050191 0.52405947
-0.92319077 -1.7476953 0.52057564
0.37630901 -1.6957265 0.52342504
-0.94002366 -1.6854305 0.52728784
-1.2101246 -1.082197 0.52575743
-0.036080286 -0.56563652 0.52382898
0.39314207 -0.076619714 0.52553618
-0.027997686 -0.032573946 0.52330226
-0.82186592 0.04952126 0.52397156
-0.59139156 0.15692121 0.52926385
0.25933778 0.35941362 0.52068377
0.030897561 0.37012944 0.52927536
-0.81182933 0.42917046 0.52708399
-0.59584284 0.53378201 0.52336603
0.26317489 0.7285803 0.52485549
-0.9206199 0.83171332 0.52000874
-0.25960654 -2.7425334 0.53384131
-1.1975479 -2.3246002 0.53796315
0.21052545 -2.318346 0.531394
0.10925255 -1.9363066 0.53299123
-0.5633719 -1.8370031 0.53447467
0.31137788 -1.7817448 0.53321159
-0.9250499 -1.6994729 0.53556758
-1.0393897 -1.5842752 0.53385526
-1.09338 -0.92826653 0.53821921
-0.91180646 -0.56364733 0.53249788
-0.23988535 0.068688668 0.53551668
-0.41204023 0.53498602 0.53226703
0.40683219 0.68137443 0.53916419
-0.16089517 0.86501575 0.5301674
-1.1603327 -2.7451508 0.54509747
0.26284671 -2.7485838 0.54722577
0.046571814 -2.3225014 0.54174829
0.11161001 -2.1201992 0.54415911
0.11068739 -2.0632849 0.54341811
0.35384148 -2.0220215 0.54305899
-0.9900443 -1.9832916 0.5420844
0.14494063 -1.9191725 0.54797745
-0.36753568 -1.8225904 0.54968965
-0.22349319 -1.8209434 0.54922712
-0.42806268 -1.808171 0.54979801
-0.91697502 -1.7978646 0.54939061
-0.11616632 -1.7411618 0.5487991
-0.28535846 -1.7347105 0.5493089
-0.78596187 -1.7224867 0.54998487
-0.13703775 -1.7244303 0.54884803
0.14087853 -1.588539 0.54065222
0.16065414 -1.372497 0.54037935
0.13452756 -0.71647072 0.54564178
-0.60868824 0.47172257 0.54489493
-0.23701859 0.5885281 0.5466643
0.39518338 0.65069371 0.54691321
-0.44377011 0.81016243 0.54504979
-0.25664395 0.87182915 0.5401209
0.29308006 -2.2003257 0.55450249
-1.2211741 -2.0246494 0.55335051
0.16010489 -1.982013 0.55067194
-0.6811763 -1.8412035 0.55600768
-1.0922662 -1.8047869 0.5575369
-0.62188727 -1.72007 0.55427045
-0.1133441 -1.7174504 0.55831969
-0.25741971 -1.6926268 0.55540115
-0.68472791 -1.6849765 0.55660295
-0.12489833 -1.6685663 0.5597989
-0.938757 -1.0356749 0.55758631
-0.11823557 -0.55241889 0.55896527
-1.09338 -0.35706443 0.55321538
0.11063242 -0.10585144 0.55385447
0.016504709 -0.081273451 0.55286056
0.40987754 -0.031410128 0.55988425
-0.1756492 0.070399262 0.55863237
0.29380471 0.23595178 0.55370027
-0.81713492 0.29390773 0.55509108
-0.19689259 0.63060069 0.5504564
0.34641039 -2.680707 0.56118017
0.34726697 -2.6451497 0.56957567
0.3482435 -2.6043735 0.56909961
0.086188883 -2.5371768 0.5618723
-1.1908319 -2.3329163 0.56809711
-0.54161757 -1.8454 0.5629161
0.11530793 -1.6952955 0.56209511
-0.88433957 -1.6542175 0.56213242
-1.2094755 -1.1220187 0.56452471
-0.47424686 -0.8806144 0.56147736
-0.47268945 -0.81193316 0.56931406
-0.46712786 -0.64673334 0.56410068
-0.80306429 -0.043708775 0.56543863
-0.077963419 0.071229532 0.56985199
-1.0321701 0.36196798 0.56523043
-0.032956012 0.42084634 0.56499863
-0.56215602 0.58631277 0.56941319
-0.53422838 0.63457787 0.56238449
-0.36499828 0.6654197 0.56820107
-0.45077294 0.70311993 0.56379884
0.2594828 0.77594352 0.56115353
-1.0883037 0.83063984 0.56488383
0.24667853 -2.7795196 0.57768881
0.11710098 -2.5248821 0.57170582
-0.85195357 -1.8535938 0.57737529
0.11398216 -1.7897902 0.574808
-0.92803383 -1.6220592 0.57833821
-0.43548518 -1.617233 0.57116324
-1.0736105 -1.5911686 0.57409042
-0.45071614 -1.5900044 0.57644618
-0.015605621 -1.5890296 0.575212
-0.46533132 -1.5701847 0.57907021
-0.46355909 -1.5642184 0.57988292
-0.95127213 -1.0557108 0.57138222
-0.74347836 -0.5450995 0.57994282
0.055623028 0.63945854 0.57653052
0.31800234 0.68733871 0.57622874
-0.75971925 0.7287485 0.57443649
-1.1509112 -2.7793627 0.58844584
0.026170848 -2.5744069 0.58951414
0.36052182 -1.9779793 0.58477753
0.18501817 -1.9548218 0.5840764
-1.0497719 -1.8688133 0.58193088
-0.92158329 -1.8355389 0.58122432
-0.39568156 -1.7059324 0.58354288
-0.78044194 -1.5470462 0.58085334
-0.5460127 -1.5329151 0.58380783
-0.24829935 -1.43336 0.58911639
-0.62155277 -1.3995795 0.58696997
-0.67449868 -1.3885297 0.58589429
-0.78669673 -1.3707595 0.58393419
-0.26846665 -1.0474945 0.58415562
-0.95430517 -1.0194317 0.58147413
-0.96808881 -0.69513494 0.5892902
-0.13680124 -0.54433924 0.58201975
-1.1400698 0.077774704 0.58172804
-0.65570754 0.21858105 0.58662248
0.23408401 0.22549921 0.58784276
0.420515 0.34247994 0.58171731
-0.81187797 0.38351408 0.58360904
-0.13261622 0.40234637 0.58311617
-0.657767 0.48810232 0.58964372
-1.0405592 0.69690406 0.58534718
-0.97597831 -2.7516794 0.59095156
-0.58563811 -2.751792 0.59305453
0.011579605 -2.7128539 0.59963125
-1.1828105 -2.6620803 0.59577793
0.34831834 -2.6019983 0.59837937
0.34874779 -2.5798149 0.59974366
-0.014364634 -2.3145185 0.59416234
-1.1001284 -2.3059423 0.59657204
-0.9495697 -2.09517 0.59375226
-0.92163235 -1.8045144 0.59527534
-0.24329972 -1.456268 0.59049779
-1.2050902 -1.3824821 0.59313816
0.11414385 -1.0550752 0.59943306
-0.75206184 -1.0477883 0.59132028
-0.88995677 -1.0183166 0.59975868
0.25777701 -0.83975083 0.59098423
0.38196209 -0.72326374 0.59789515
-0.96341336 -0.71966326 0.59245622
-0.46817374 -0.5924443 0.59510398
0.25777701 -0.52280301 0.5975765
-0.21523954 0.07284531 0.59168637
0.32834882 0.073682524 0.59426928
-0.23860215 0.14940554 0.59106064
-0.15223211 0.14936291 0.59092259
-0.12109952 0.30042911 0.59350383
-0.077304602 0.32249147 0.5966785
-0.41138762 0.59628898 0.59505177
0.20418832 0.8646841 0.59923899
-0.5940423 0.87149328 0.5955317
0.077280611 -2.6110311 0.60477436
0.026356583 -2.5929294 0.60112977
0.092895404 -2.4346316 0.60037714
-1.0418768 -2.2786512 0.60505521
-1.03238 -1.9660485 0.60173386
-1.03238 -1.8943297 0.60267854
0.11490066 -1.781565 0.60673147
-0.68833184 -1.7121097 0.6078608
0.16888896 -1.6389954 0.60043412
-1.1103981 -1.5964038 0.60663271
0.38326338 -1.5919251 0.60273379
-1.09338 -1.1552421 0.60025209
0.016368415 -1.0157698 0.60062486
-0.87381881 -0.99717617 0.60515779
-0.024202302 -0.99695957 0.60223609
-0.81507415 -0.96421462 0.60350758
-0.71499419 -0.93690932 0.606107
-0.58172882 -0.93292594 0.60382241
-0.32290486 -0.86239105 0.60552257
-0.80572963 -0.85169297 0.60764885
0.059253402 -0.85920078 0.60609961
-0.84612507 -0.84267402 0.60720587
0.0027579777 -0.84625936 0.60725284
-0.28533971 -0.77423006 0.60800356
0.012619395 -0.77135944 0.60888255
-1.2176501 -0.71583623 0.60254693
-0.56879795 -0.71238601 0.60991025
-0.50767833 -0.7143501 0.60889679
-0.35348144 -0.55821949 0.60635674
-0.1155012 -0.55322683 0.60902482
-1.0351681 -0.11110339 0.60618949
-0.6114049 0.25325793 0.60516196
0.014753707 0.43499333 0.60246122
-1.1929462 0.49070337 0.60112029
-0.23925771 0.8100208 0.60868824
-0.66907328 0.83959961 0.60808235
-0.8179276 0.84194988 0.60650831
-0.59362048 0.84342456 0.60851693
-0.3757872 0.87298113 0.60866898
-0.21619911 -2.7555335 0.61573541
-0.072024047 -2.7560451 0.61490369
-0.95145845 -2.1481085 0.61102867
0.11471555 -2.0963886 0.6161893
0.24996535 -1.2954433 0.6140784
0.3742739 -1.0998729 0.61412859
-0.24948815 -1.053219 0.61844218
-0.28621301 -0.9884761 0.61161023
-0.09062878 -0.76952577 0.61091024
-0.9066931 -0.69077516 0.61001509
-0.80350506 -0.68678379 0.61176735
0.083228298 -0.66038716 0.61074889
-0.94037783 -0.65067828 0.61070698
-0.5546878 -0.63418549 0.61175013
-0.30014598 -0.57466877 0.61145037
-0.018371433 -0.57750577 0.61281294
-0.17958191 -0.56158227 0.61145246
-0.78010494 0.15497155 0.61312479
-0.1568146 0.15812188 0.61929286
-0.61449498 0.28650662 0.6194005
0.40661323 0.67188585 0.61045021
0.057568517 0.80681092 0.61678487
-0.13952807 0.85572129 0.61437541
-0.26520979 -2.7545853 0.62502354
0.35028484 -2.4435635 0.62347466
0.16796644 -2.3476901 0.62834597
0.054814711 -2.2635484 0.62068892
0.11875044 -2.1458333 0.62567782
-0.11292705 -1.8622642 0.62216246
-1.203594 -1.4758179 0.62510204
-1.09338 -1.203609 0.62514555
0.24481784 -0.11511654 0.6268158
-0.046159107 0.23784444 0.62300009
0.13520525 0.2748445 0.62060791
0.24629812 0.42710853 0.62858117
-0.46806115 0.52566129 0.6239872
0.2578558 0.77513111 0.62669379
0.04656411 -2.7591999 0.63928729
0.13205351 -2.5477066 0.63683283
0.189879 -2.0363984 0.63800216
-0.76363391 -1.8641427 0.63111264
-0.46227735 -1.8645916 0.63197225
-0.91697502 -1.7371368 0.63338459
-0.92070818 -0.93852103 0.6388706
-1.223639 -0.37417358 0.63251138
0.16636068 -0.089226387 0.63886851
-0.016061205 -0.027038852 0.63626111
-0.14584219 0.16635668 0.63912278
-0.60072005 0.39116856 0.63496023
-0.13965905 -1.8675838 0.64865243
0.36069208 -1.7544076 0.64500439
0.12752786 -0.93298215 0.64161015
0.33474514 -0.056389745 0.6471554
0.0065659788 -0.029264458 0.64507675
0.41658255 0.035187099 0.64599627
0.24293095 0.36175728 0.64954543
-1.0391976 0.37033972 0.643345
-0.60071999 0.38979775 0.64333355
-0.122543 0.40114149 0.64003265
-1.0796006 0.41446608 0.64353395
-0.60210758 0.5064978 0.64872658
0.23201357 0.68302441 0.64957458
-0.31547299 0.69173884 0.6441769
-0.31138721 0.86567855 0.64309645
0.031932615 -2.6434064 0.65420651
0.22670935 -2.5622239 0.65504271
0.35241914 -2.3439682 0.65642029
0.00024052872 -2.3116927 0.65066135
-1.1271785 -2.0675373 0.65984893
-0.9628222 -1.9222976 0.65018058
-1.0184314 -1.3505793 0.65892208
0.28939062 -1.2440413 0.65312719
-0.7548188 -1.0591067 0.65027881
0.37874639 -0.89179426 0.65000772
0.25777701 -0.88540781 0.65496552
-0.3054879 0.16874273 0.65369374
-0.31297529 0.27930737 0.65343201
-0.13115074 0.39550033 0.6525861
-0.15928651 0.42476919 0.65148783
-1.240823 0.59753174 0.65975326
-0.47942552 0.77080721 0.65648216
-0.49211764 0.78860515 0.65228802
-0.3390722 0.86405087 0.65474826
-1.0427024 -2.1903522 0.66640973
0.11953307 -1.8893669 0.66725028
-0.97249746 -1.7673376 0.6645937
-1.0606023 -1.6579859 0.66518569
0.091240197 -1.6518689 0.66773182
-1.09347 -0.17134596 0.66181874
-0.85878098 -0.022573963 0.66361141
-0.42291361 0.078196891 0.66400361
0.35438898 0.22406363 0.6649431
0.40392283 0.2620779 0.66522491
-1.1416231 0.35221335 0.66109759
-0.26039711 0.74487841 0.66189241
-0.46491605 0.76111305 0.66454291
-0.93803984 0.80045068 0.6621806
0.10222673 0.82317531 0.66776186
-0.2175806 0.86829752 0.66907537
0.17276265 -2.6627827 0.67038536
0.19445038 -2.1651461 0.67307556
-0.18426268 -1.8731822 0.67348564
0.26450765 -1.7919724 0.67164057
-1.14395 -1.6256902 0.6789965
0.17352547 -1.3638494 0.67859638
-0.24372962 -0.95042491 0.67995501
0.25777701 -0.66407984 0.67518646
0.38925061 -0.28491417 0.67266285
-0.46663278 0.69793624 0.67067194
-0.72693014 0.83603501 0.67243445
-0.51456225 0.87385964 0.67263627
0.058129355 -2.3357635 0.68208075
-0.97817707 -1.9718866 0.68797874
-0.88511908 -0.94147992 0.68850935
-1.0737613 -0.088555068 0.68054742
-0.67030627 0.15199727 0.68526453
-0.441414 0.40076825 0.68205202
-0.63101053 0.4570629 0.68914187
0.40485865 0.56998616 0.68975669
-0.50313061 0.58334804 0.68134546
-0.44070035 0.62088633 0.68888795
-1.0298605 0.83048058 0.68494308
-0.7265383 -2.7531898 0.69518995
0.34670973 -2.6717896 0.69812107
0.026858829 -2.6039958 0.69948262
0.023268208 -2.4817905 0.69452977
0.30851573 -1.9935484 0.69553506
0.3366881 -1.9750488 0.69797581
0.17014977 -1.9239182 0.69863123
-0.67173702 -1.878822 0.69999927
-1.012511 -1.7631741 0.69317007
-0.70094407 -1.7269616 0.69757551
0.37401608 -1.1243771 0.69175053
-0.8387773 0.021196472 0.69920862
-0.088725649 0.080564141 0.69599289
-0.6686185 0.17734933 0.69556731
-1.242395 0.68665206 0.69124711
0.070111655 0.8066076 0.69752622
0.21348897 0.83049953 0.69981396
-0.049834501 0.85738909 0.69581383
0.34223637 -2.761375 0.70851856
0.19002686 -2.6682913 0.70966798
0.34945995 -2.5135603 0.70422357
0.25408566 -2.4814019 0.70162529
-1.1788758 -2.2318547 0.70248127
0.35969475 -2.2161183 0.70669186
0.36198491 -2.2182293 0.70071328
-1.0103147 -1.9667544 0.7027173
0.08793018 -1.7375571 0.70630777
-0.31917617 -1.0698817 0.70268267
-0.48090464 -1.0150183 0.70658958
-0.32506654 -0.90989721 0.70738125
-1.09338 -0.48724064 0.70695305
-1.09347 -0.11529526 0.7016294
-1.1064149 -0.066989601 0.70080143
-0.0035292534 0.11472589 0.70268691
-0.41865596 0.19538182 0.70003629
-0.14133452 0.31044972 0.7027868
0.11839297 0.3311308 0.7080487
0.19438416 -2.7773542 0.71727109
0.18321802 -2.6685202 0.7167033
-1.0435326 -1.9850905 0.71739751
0.13167146 -1.959295 0.71103781
-1.0339006 -1.8234155 0.71480614
0.36562574 -1.6164297 0.71650267
-1.203927 -1.4542019 0.71071619
-0.86350411 -0.94500244 0.71508253
0.25753701 -0.21844359 0.71931022
-1.1895055 0.016958078 0.71478158
-0.0049711643 0.10782318 0.712538
-0.64216518 0.26461914 0.71228731
-0.48285425 0.27462205 0.7174114
-0.21528441 0.41902918 0.71479815
-0.35260138 0.43063831 0.71116143
-0.24649394 0.47826406 0.7198922
-0.21043733 0.57379532 0.71741915
-1.09347 0.66405761 0.7176733
-1.2427692 0.70714998 0.713211
-0.93343282 0.83047158 0.71791381
0.34879005 -2.5744042 0.72650599
-1.1261353 -2.1253219 0.72633547
0.30036324 -1.7108328 0.72671485
-1.2052222 -1.3748665 0.72091758
-0.68663943 0.082611218 0.72365552
0.10834961 0.32706681 0.72785807
-0.39206022 0.3752473 0.72851336
0.019670177 0.45524025 0.72187769
0.25753701 0.76589298 0.72829181
-1.09347 0.80116785 0.72034752
-0.18186668 0.81546521 0.72596478
0.056111515 0.81449258 0.72102356
0.16830228 -2.5981193 0.73016453
-1.11036 -2.0330284 0.73510891
-0.91401333 -1.8852979 0.7338056
-1.2227222 -1.7767134 0.73426622
-1.1557193 -1.7159008 0.73628449
-0.16353197 -1.0766871 0.73373961
0.37608421 0.08884345 0.73886085
-0.55951583 0.34974989 0.73388493
-0.49355596 0.34813097 0.73352993
-1.1394192 0.59245259 0.73093212
0.21482073 0.60290861 0.73363453
-0.093183078 0.84997511 0.73542887
-0.76274544 -2.7726579 0.74718219
0.21739221 -2.6819696 0.7441231
-1.1862515 -2.170996 0.74073112
-1.1072471 -1.9767957 0.74310327
0.38219646 -1.9739487 0.74139154
0.027994372 -1.8884301 0.74906152
-1.2161421 -1.8724722 0.74780369
-0.80220222 -1.7366903 0.74226522
-0.27873489 -1.7366974 0.74182558
-0.085728228 -1.7369237 0.74225271
0.31222412 0.0097712167 0.745713
-0.95573217 0.027493441 0.74643981
-0.50028503 0.26139742 0.74902457
0.022352755 0.2881729 0.7487129
-0.035659026 0.30786195 0.74382496
-0.43310356 0.3763217 0.74398685
0.040023189 0.44336611 0.74918872
-0.62807894 0.46078601 0.74544269
0.16232421 0.54798096 0.74933481
0.20998912 0.58388746 0.74999642
0.25753701 0.62492424 0.74468762
-0.44279176 0.84552884 0.74733549
-0.48899341 0.89383197 0.74652195
0.24786696 -2.5798044 0.75199521
0.2889716 -1.9094741 0.7503258
-0.92296654 -1.756338 0.75843537
-0.85092556 -1.7396946 0.75320435
0.10599348 -1.5230179 0.75654632
-1.2043498 -1.4225876 0.7567963
-0.73635912 -0.97834563 0.75553977
-0.3574599 -0.94972408 0.75819486
0.25777701 -0.2748321 0.75140166
0.22089157 -0.063619338 0.75575793
-0.35625255 0.084894754 0.75451356
-0.84252697 0.15862124 0.75013441
0.11843292 0.26269603 0.75241339
-0.018312853 0.40685797 0.7562651
0.20738329 0.57252008 0.75747389
-0.15006481 0.6112991 0.75983906
0.40549982 0.61287147 0.75721604
-1.09347 0.71335101 0.75465393
-1.09347 0.78404832 0.75749624
0.092338361 0.81385088 0.75854921
0.3457453 0.83705926 0.75545752
-0.14720631 -2.7720008 0.76627225
-1.1828845 -2.6606512 0.76352477
-0.018259859 -2.4960077 0.76007169
0.066021144 -2.3619709 0.76388419
-1.1924149 -2.1385684 0.766949
-1.1927332 -2.119776 0.76213294
-0.88186616 -1.9436685 0.76288301
0.07052613 -1.9480693 0.76689148
-0.0073157549 -1.9390155 0.76342463
-0.67360425 -1.8925916 0.76666868
-1.166732 -1.8842978 0.76623333
-0.32178682 -1.0835953 0.76500952
0.2501291 -0.79263741 0.7647599
-0.98002553 0.048734356 0.76514888
0.12872732 0.072016284 0.76940084
-0.86663169 0.17015496 0.76107931
-1.2371991 0.23389304 0.76221031
0.13421631 0.26609051 0.76418364
-0.99529529 0.51389748 0.76738459
-0.29490823 0.58485287 0.76617807
-0.72125471 0.66013908 0.76698774
-0.50668341 0.79687756 0.76740855
-0.89518917 0.83062232 0.7664932
-0.51300508 0.8786487 0.76923788
-0.4244391 0.89352739 0.76650202
-0.24072787 0.89088976 0.76612896
-0.97910935 -2.7769969 0.77977812
0.16210222 -2.6578016 0.77794302
0.34881866 -2.567111 0.77381796
0.22563103 -2.279078 0.77599448
0.36082986 -1.8436589 0.77696794
-0.15119213 -1.7469358 0.77518994
0.3700344 -1.3443478 0.77228338
-0.53584152 -1.0868601 0.77988893
-0.62098598 -0.96645415 0.77680373
0.0068520866 -0.96112943 0.77649558
-0.95681143 -0.91967136 0.77672791
0.25753701 -0.1563434 0.77029485
-1.0007329 -0.0096281935 0.77486694
-1.2302973 0.0099608786 0.77661592
-1.0546954 0.011811693 0.77702588
-0.98608005 0.076917231 0.77929008
-0.91163725 0.14643396 0.77332783
-0.96386403 0.26373151 0.77407336
-0.87651539 0.43481904 0.77576345
-0.87582159 0.46535498 0.77630806
-0.98767579 0.48101214 0.7778424
-0.43210825 0.5541721 0.77015305
-0.39057609 0.55239922 0.77837634
-0.38106826 0.57494247 0.77029163
-0.24952747 0.5705533 0.77211344
-0.71430773 0.77329695 0.7717163
-0.15318774 0.87627625 0.77484822
0.064405836 -2.6617627 0.78871912
0.20681222 -2.5745242 0.78123343
-0.87975305 -1.9630162 0.78358442
0.071099386 -1.9632716 0.78040171
-0.92162979 -1.8319259 0.78808165
0.36709067 -1.5220145 0.78358591
-1.0494769 0.044372208 0.78891522
-1.1376355 0.068724476 0.78482586
-0.9525739 0.33060592 0.78308398
-1.1978657 0.36424822 0.78499997
-0.441414 0.38764799 0.78102869
-0.36210328 0.54112947 0.78432643
-0.11702245 0.5475738 0.78165162
-0.4792102 0.90520507 0.78941762
0.30657238 -2.8284857 0.79844701
0.13489114 -2.6343117 0.79643738
0.094315529 -2.3369908 0.79665232
0.35489517 -2.2255268 0.79532218
-1.02242 -1.9314036 0.79288328
-0.070025429 -1.7535722 0.79528159
0.36634901 -1.5770123 0.79113364
-0.91131628 -1.0903641 0.79531091
-1.0671117 -0.92012912 0.79281378
-1.2173833 -0.72383535 0.79015684
-0.87331945 -0.097340487 0.79918802
-0.21634379 -0.082173459 0.79769689
-0.86732018 -0.07233531 0.79673553
0.026045866 -0.041415576 0.79698646
-0.22544114 -0.035601489 0.79528296
-0.03287147 -0.023467941 0.79193813
-1.09347 -0.013138648 0.79439318
-0.82667285 -0.016300153 0.79123932
-0.53033584 -0.016659519 0.79127306
-1.0987049 0.030670637 0.79575372
-0.14139879 0.06174669 0.79055476
-0.20304206 0.1225923 0.79489744
-0.97194695 0.14971112 0.79565501
-1.2339401 0.21472818 0.79739451
-0.034007967 0.24211389 0.79853141
-0.93010384 0.321266 0.79610622
-0.53881484 0.4218362 0.79501301
0.15582077 0.43170175 0.79658699
-0.54906195 -2.7826104 0.80788922
-0.41611022 -2.779459 0.80095935
0.34775653 -2.624475 0.80366045
0.040817309 -2.5515602 0.80784929
0.17984116 -2.5364029 0.80899835
-0.5402928 -1.7574109 0.80368513
0.18824467 -0.91959441 0.80728853
0.24455127 -0.73140353 0.80818093
-1.09338 -0.6079492 0.80745023
-0.25550926 -0.20555902 0.80973816
-0.028952792 -0.20561273 0.80971634
-0.11138727 -0.16629297 0.80589163
-0.66335702 -0.10757019 0.801597
-0.31681061 -0.084086478 0.801597
0.20683388 -0.071257949 0.80154902
-0.90378141 -0.052336201 0.80297601
-0.91051495 -0.031080605 0.80147862
-0.42076284 -0.029538803 0.801597
-0.34482098 -0.011391282 0.801597
-0.76814914 -0.0040721297 0.801597
-0.76115137 0.02966667 0.80297601
0.00082311546 0.020753631 0.801597
-0.79589802 0.030528728 0.80297601
-0.64886189 0.039947048 0.801597
-0.94166648 0.047153454 0.80054581
-0.6134457 0.058769826 0.801597
-0.46842134 0.076895289 0.80679941
-0.041442558 0.076511636 0.801597
-0.92411846 0.11937042 0.80297595
-0.69641638 0.13106099 0.80495501
0.023794163 0.15045856 0.80456907
-0.11891305 0.22522086 0.80892432
-0.96163845 0.30447501 0.8091799
-1.1700244 0.36091405 0.80224717
-0.034455709 0.37365067 0.8044607
0.098804653 0.44400695 0.80388057
-0.52556789 0.48702773 0.80239892
-0.46819383 0.51359499 0.8067444
-0.090101004 0.5874868 0.80544424
-1.2439295 0.81874228 0.80689383
0.13199182 -2.6458611 0.81430066
0.35048524 -2.4350214 0.81135261
-0.58770299 -1.9070125 0.81626177
-0.092443928 -1.9062333 0.81488597
-0.41841713 -1.7615285 0.8129251
-0.25250673 -1.7626474 0.81580865
-1.09338 -1.1787369 0.81704891
-0.81493318 -1.0955805 0.81816107
0.2096677 -1.0061048 0.81910199
-1.2228712 -0.39809814 0.81898427
-1.09338 -0.30057541 0.81128448
-0.98567855 -0.21512407 0.81074083
0.10436618 -0.210428 0.81016999
-0.54291362 0.16354789 0.8161661
0.18928418 0.1681236 0.81720591
-0.4983874 0.17961842 0.81774902
-0.49565828 0.19477724 0.81774902
0.12962271 0.45127875 0.81276
-0.48918578 0.47242585 0.81960553
-0.36309868 0.51447707 0.81952655
0.25753701 0.61709821 0.8187536
-0.40861404 0.67625982 0.81947023
0.33952388 0.81353056 0.81469619
-0.91981161 0.84359467 0.81281483
-1.1341565 -2.8437798 0.82043982
-0.18921389 -1.910141 0.82697034
-0.91760767 -1.8499193 0.82893431
-1.1987913 -1.7352872 0.82655835
-0.92687511 -1.6615112 0.82602113
-1.0203887 -1.4047511 0.82228172
0.25778699 -1.3645926 0.82203132
-0.89536804 -1.0964619 0.82180339
-0.48461062 -1.0297492 0.82672799
-0.71958673 -1.0011164 0.82521713
-1.2179508 -0.6812098 0.82991529
-0.58604294 -0.11012866 0.82702225
-0.11452621 -0.10987775 0.8249988
-0.44151884 -0.024075918 0.8217234
-0.57109737 0.059670791 0.82727826
-0.46542075 0.16556361 0.82104236
-0.9758352 0.33423626 0.82163215
-1.0425413 0.39060622 0.82374287
-1.0385166 0.4027527 0.82060516
-0.98810494 0.4344762 0.82677943
-0.49015447 0.44393152 0.82400417
0.23642336 0.4424178 0.82541072
0.25753701 0.54996681 0.82534456
-0.68971252 0.6573509 0.82403779
0.29726574 0.78621292 0.8240667
-1.0494041 0.80005157 0.82870841
0.081073336 0.83874381 0.82705164
0.39094758 0.85671788 0.82881641
0.33205849 -2.8015456 0.83411652
0.048808828 -2.651449 0.83854049
0.051896155 -2.4509666 0.83638471
0.15669848 -2.3851881 0.8315981
0.3568579 -2.1218703 0.83715844
-1.2068344 -1.3157734 0.83029622
0.25778699 -1.2869915 0.83574665
-0.48629889 -1.0889187 0.83107322
0.25777701 -0.62618303 0.83173734
-0.11123616 -0.27103701 0.83445442
-0.60001147 -0.080702782 0.83800888
0.014035471 -0.083344266 0.83590329
-0.61140102 -0.0048000254 0.83038741
-0.35212904 0.0077779144 0.83479059
-0.35120934 0.14274096 0.83321565
0.096116513 0.15923811 0.83235025
0.054716907 0.17545423 0.83516717
0.10094544 0.26537278 0.83741236
0.12454741 0.27737576 0.839858
-0.95365894 0.30857775 0.83985794
0.11175068 0.44974443 0.83903325
-0.69078308 0.63914347 0.83268273
-1.2426834 0.70158482 0.83000606
0.25753701 0.71901631 0.83603752
-0.26415983 0.80139577 0.83280104
0.3693327 0.83244848 0.83520508
-0.46221262 -2.845901 0.84670216
-0.1046407 -2.8286572 0.84412825
-0.94480664 -2.8001034 0.849962
0.067213997 -2.3849895 0.84836972
0.36308464 -1.728519 0.84606743
-1.2023467 -1.5681103 0.84090799
-1.0936 -1.3775479 0.84072363
0.25778699 -1.3032669 0.84535313
-1.1092254 -1.2435586 0.84886551
-1.2144667 -0.8851825 0.84837496
0.25727984 -0.72818458 0.84633917
-1.219232 -0.59142709 0.84346998
-0.71304595 -0.58872151 0.84200966
-0.32405496 -0.087839216 0.84496689
-0.55779314 0.076874696 0.84761393
-0.54249209 0.27888566 0.84762764
-1.0985496 0.34697777 0.84447181
-0.94221073 0.53631324 0.84292829
-0.42003393 0.91488636 0.84722966
0.08373443 -2.8035812 0.85807931
-0.9776932 -2.7953405 0.85520148
-1.1887498 -2.3292546 0.85287416
0.35858551 -2.0290842 0.85816967
-0.62386274 -1.9179366 0.85236806
-0.012979487 -1.919215 0.85806739
-1.1972679 -1.8172964 0.85179353
-1.2037623 -1.4660891 0.85052669
-0.16763674 -1.1038454 0.85411668
0.37568176 -1.0499235 0.85573244
-0.16464612 -1.0105057 0.85103869
-0.73064047 -0.55337691 0.85598838
0.21566446 -0.25244713 0.85786664
-1.2262661 -0.21694529 0.85957265
-1.0628777 -0.10415763 0.85044658
-0.5692445 0.069957107 0.85609847
-1.0972565 0.26374739 0.85077417
-0.46701652 0.28121862 0.85752589
0.11783522 0.41943634 0.85084665
-1.09347 0.67059135 0.85226059
-0.2719636 0.77946305 0.85009587
0.12677425 -2.7974029 0.86087024
0.24853316 -2.6366661 0.86459029
0.21457893 -2.5814493 0.8633101
0.34974992 -2.4851389 0.86863571
0.076011971 -2.3808527 0.86887366
0.087624885 -2.3846629 0.86883217
-0.73624802 -1.92272 0.86890829
-0.68374836 -1.9212871 0.86381096
-0.44984195 -1.9215819 0.86300921
-0.17861459 -1.9213748 0.86389858
-0.91736871 -1.8060224 0.86358726
0.22510876 -1.554131 0.86319721
0.27597755 -1.243445 0.86535943
-0.88128793 -1.000158 0.86842442
0.10569834 -0.96442509 0.86302686
-0.66253662 -0.58426225 0.86278629
0.38485867 -0.52023941 0.86800313
-0.72557116 -0.210233 0.86387396
-0.66259003 -0.21539384 0.86453092
-0.64222503 -0.2104696 0.86209381
-0.67260957 -0.19411676 0.86972451
-0.94255263 -0.10863732 0.86222136
-0.90972257 -0.098374002 0.86485863
0.11145078 -0.07260523 0.86359608
-0.61140102 -0.018608436 0.86271679
0.11911312 0.14515853 0.865978
-1.09347 0.17339857 0.86248511
0.1782555 0.45033514 0.86799622
-0.58312637 0.4809489 0.86807442
-0.61877513 0.89563394 0.86808747
0.063443668 -2.7085328 0.87169546
-1.1845227 -2.5840304 0.87583435
0.34977663 -2.482862 0.87505829
-0.99900675 -1.8878869 0.87648833
-0.98527282 -1.8814129 0.87646627
-1.0874451 -1.8667985 0.87662649
-1.0676997 -1.830933 0.8765645
0.21218979 -1.8306465 0.87651527
0.085752137 -1.8266771 0.87424666
-1.0357128 -1.7914855 0.87648213
-0.34502384 -1.7884448 0.87495989
-0.95493609 -1.7312526 0.87642395
0.14248461 -1.7109048 0.87642401
0.25715211 -1.7059708 0.87656379
-0.9704622 -1.6878542 0.87642407
0.1594741 -1.647795 0.87642407
0.093265131 -1.6048449 0.87542832
0.18686932 -1.5717191 0.87349147
-1.0812514 -1.4517798 0.87644625
-1.085222 -1.4401742 0.87641907
-1.0936 -1.3675213 0.87484658
-1.1622844 -1.2441368 0.87913954
-1.1196094 -1.2439424 0.87571508
-0.93421173 -0.098374002 0.87773526
-0.37185782 0.080228589 0.87295252
0.39716363 0.15457425 0.87089062
-1.2346679 0.25759065 0.87236941
-0.12243682 0.26918089 0.87443769
-0.016531911 0.49741709 0.87874103
0.40571785 0.73179424 0.87872946
-0.19694409 0.80440772 0.87888151
-0.35269189 0.89048833 0.8786369
0.15328734 -2.5532854 0.88844234
0.35014448 -2.3064957 0.88469493
-0.91255665 -1.9272507 0.88428485
-1.1976963 -1.7187835 0.8801176
-1.0936 -1.7107021 0.88930231
-1.2036415 -1.3559799 0.88211298
-1.09338 -1.1496217 0.88122082
-0.90497184 -1.1111563 0.8857305
-0.80127418 -0.55273706 0.88010651
0.36328042 -0.2456453 0.88385642
-0.96586573 -0.12377825 0.88971138
-0.23896705 -0.12852815 0.88459998
-0.52375215 -0.11309355 0.88893133
-0.92045271 -0.098373994 0.88131201
-0.37510517 -0.05009437 0.88533539
-0.54512173 0.00011464395 0.88167822
-1.09347 0.19808432 0.88517129
-0.37634096 0.29961431 0.88532114
-1.0560318 -2.8225143 0.89861774
-1.1785491 -2.4795482 0.89519089
-1.0936 -1.766258 0.89037025
-1.1931981 -1.6270121 0.8983233
0.36065105 -1.5941483 0.89095324
0.35909671 -1.550701 0.89698005
0.047696408 -0.12378801 0.89062989
-0.87878156 -0.11379269 0.89343536
-0.67285609 -0.098374002 0.89226234
-0.44225168 0.034378629 0.89340746
-0.75014281 0.131061 0.89481872
-0.12989685 0.3272149 0.89677739
-0.31412879 0.39642039 0.8906033
0.25753701 0.39304659 0.89137596
0.39734739 0.54788703 0.89381886
-0.13771372 0.70834881 0.8923769
-0.40112227 -2.8329635 0.90363008
0.20369381 -2.3125162 0.90405065
-0.47812656 -1.93484 0.90498704
-0.69479591 -1.8034956 0.90529656
-0.26593682 -1.8032558 0.90482491
-1.192095 -1.4708276 0.90807748
-1.09338 -0.74675059 0.90458572
-0.69885093 -0.30500868 0.9095158
-0.46392262 -0.210023 0.90507084
-0.50941437 -0.1765642 0.90419412
-0.12906624 -0.10393546 0.90948218
-1.2224544 0.086023733 0.90316534
-0.024025725 0.19706449 0.90090191
-0.38601461 0.34208119 0.90294802
-0.061965443 0.47635999 0.90508938
-1.09347 0.49964213 0.90541339
0.21273965 -2.7852759 0.91870385
-1.1710159 -2.6432428 0.91068232
0.0683484 -2.6058054 0.91412616
-1.1711373 -2.4409549 0.91832387
-1.0210721 -1.9385272 0.919375
-0.67267936 -1.9370372 0.91404635
-0.65451837 -1.9358962 0.91003197
-0.48803109 -1.9375168 0.9141323
0.052955646 -1.9373244 0.91656709
-0.11368755 -1.8081965 0.91307116
-1.1855245 -1.6804729 0.91631305
-1.1907265 -1.4176456 0.91490388
-1.09338 -1.1235104 0.91431767
0.20091428 -0.16239214 0.91670263
-0.92770433 -0.123776 0.91535151
0.03402108 -0.123776 0.91313231
-0.057097748 0.32466477 0.91305959
0.0029645991 0.46242228 0.91087466
-1.0458014 0.81197923 0.91886532
-1.2168915 0.86703151 0.91848707
-0.48329541 -2.8255715 0.92077768
-0.65814096 -2.8173184 0.92009962
-0.82201242 -1.9409218 0.92844224
0.11083421 -1.9400299 0.92517209
-0.71467513 -1.1202558 0.92542237
-0.17867367 -1.1199751 0.92415679
-1.0803972 -0.69823581 0.92403197
-0.61331928 -0.49707755 0.9274556
0.173034 -0.123776 0.92082071
-0.95822972 -0.1123841 0.92976588
0.037080862 -0.11575664 0.92526507
-1.09347 -0.068177566 0.92374349
-0.37513089 -0.057967201 0.92791593
-0.54333419 0.068216302 0.92664236
-1.2148222 0.12907401 0.92839116
-1.2188573 0.3698163 0.9230727
-0.17885542 0.51749593 0.92726535
0.38562942 0.60360813 0.92259747
-1.09347 0.6958096 0.92894995
-0.22412547 0.69586521 0.92768097
-0.13938318 -2.8020568 0.93882751
0.25775898 -1.8634387 0.9381696
-0.15937069 -1.8211616 0.93467927
-0.046303332 -1.8228474 0.93858445
-1.1822308 -1.4293039 0.93858981
-1.09338 -1.1190696 0.93862671
-0.71718222 -1.0532411 0.93734145
-0.33923164 0.19673517 0.9377113
-0.017222688 0.29538193 0.9314031
-0.06447421 0.41550711 0.93034804
-0.19401594 0.5198493 0.93295872
0.25753701 0.73512173 0.93629384
-1.1687822 -2.1199226 0.94250607
-1.1714468 -1.9905781 0.94154704
-0.34956133 -1.8290795 0.94616455
-1.0936 -1.7628245 0.94998419
0.2488759 -1.4556638 0.94032866
0.34393591 -1.400406 0.94710273
-1.1820793 -1.3802299 0.94217169
0.10975576 -1.0405762 0.94474167
-1.1893517 -0.86834943 0.94694245
-0.5049637 -0.50717735 0.94884133
0.3652356 -0.28046131 0.94434506
-1.09347 -0.20165372 0.94617963
-0.4893961 -0.11574262 0.94424546
-0.9267695 0.131061 0.94285488
-0.73408812 0.131061 0.94683111
-1.09347 0.38317189 0.94550741
-0.023153896 0.73726058 0.94488925
-1.042769 0.83351529 0.94466943
-1.2005579 0.86739558 0.94249201
-0.68997478 -2.7965364 0.95318639
-0.28153414 -2.7934968 0.95796674
-0.14628781 -2.7841916 0.95854807
0.022144169 -2.7725601 0.95493078
-0.25883612 -1.9497429 0.95637125
-0.90504086 -1.8347042 0.95273238
-0.60406291 -1.1271975 0.95684057
-0.56662375 -1.1278188 0.95969629
0.25777701 -1.0638818 0.95013887
-0.18012631 -0.18113394 0.95808947
-0.56439012 -0.17346999 0.95946795
-0.56741381 -0.15012117 0.95880008
0.017441023 -0.14316015 0.95784473
-0.69048846 -0.1298053 0.95862901
-0.59106266 -0.11676522 0.95489216
0.12284437 -0.055153757 0.95559561
-0.57395881 0.0275621 0.95756716
-0.37419295 0.028603729 0.95208395
-1.09347 0.15658262 0.9536404
-0.98673415 0.47924834 0.9517895
-0.37573245 0.67435116 0.95347869
-1.0411907 0.89304441 0.95736635
0.23165137 -2.5567048 0.96883941
-0.87682396 -1.9508023 0.96230567
0.25776213 -1.9484777 0.96241498
-1.1689235 -1.5776323 0.96853602
0.33872148 -1.2441099 0.96641093
0.35789844 -0.36211786 0.96101683
-0.66689897 -0.25628439 0.9618355
-0.61066914 -0.25540298 0.96181089
-0.26390049 -0.25336462 0.96155393
-0.070601925 -0.24502814 0.96900958
0.068622395 -0.23243202 0.96049094
-0.84237528 -0.20175855 0.96031004
-1.09347 0.077957019 0.96346205
-0.25250632 0.19088627 0.96320283
-0.49509156 0.74784178 0.96003079
0.2086564 -2.4511931 0.9756856
-0.20686993 -1.9556619 0.97689235
0.33072945 -1.546966 0.97639203
-1.0936 -1.4239159 0.97822607
0.3432382 -0.91595435 0.97386712
-0.66557431 -0.31028992 0.9714523
-0.27463961 -0.090305224 0.97906691
-0.61140102 -0.012396909 0.97216296
-0.5853278 0.37910426 0.97755331
-0.59958583 0.44163567 0.97214842
-0.28150427 0.57946199 0.97107267
-0.39667356 0.61824065 0.9767679
0.25753701 0.61167717 0.97471547
-0.82742465 -2.6832919 0.983621
-0.16896717 -2.687304 0.98920953
0.14956221 -2.62852 0.98790783
-1.1464671 -2.5208869 0.98292011
-1.1676522 -1.3391261 0.98282135
-1.1123258 -1.2433844 0.98492026
-0.021905918 -1.1328928 0.98321724
-0.10028384 -1.07342 0.98131895
0.25777701 -0.97229791 0.9858008
-1.09338 -0.5344826 0.98919535
-1.0871894 -0.36037639 0.98212808
-0.66558671 -0.33406013 0.98585701
-0.22019032 -0.26396099 0.98469651
0.038464833 -0.26508433 0.98204118
-1.1830341 -0.21899597 0.98836118
0.00070822239 -0.08578223 0.98822737
-0.25780773 0.18135159 0.9822669
0.075276226 0.54966068 0.98617655
-0.36567894 -2.6929426 0.99160308
-0.84066367 -2.6462841 0.9904784
0.11913561 -2.4851649 0.99932444
-0.20470099 -1.8572047 0.99451303
0.010298455 -1.8569539 0.99227488
0.25529253 -1.4149102 0.99307394
-0.93614966 -1.1018133 0.99548078
-1.09338 -0.88830942 0.99247527
0.13937724 -0.11592388 0.99409461
-0.16702116 -0.082132682 0.99587643
0.25753701 -0.04533378 0.99852073
-0.41724595 -0.022154953 0.99578267
-0.92331362 0.13106099 0.99820697
0.16794653 0.43411821 0.99108154
0.26531014 -2.8154118 1.0022386
0.11081498 -2.5040874 1.0007855
0.31250781 -1.9266313 1.0094143
-0.46189409 -1.8657455 1.0073805
0.25778699 -1.4783432 1.0087752
-1.1580436 -1.3885674 1.0037297
-0.93396688 -1.131009 1.0074754
-1.1679198 -0.78227007 1.0011458
-1.0873098 -0.11373553 1.0005642
-1.0450608 -0.11519045 1.0037516
-1.1727669 -0.10593609 1.0085588
-0.6595248 -0.06959372 1.00693
-0.935148 -0.013852529 1.00693
-0.86858821 -0.014058492 1.0069087
-0.6724478 -0.014936399 1.00693
-0.75523543 0.045790844 1.00693
-0.85781199 0.10458605 1.00693
-0.80438751 0.11652866 1.00693
-0.83668828 0.12419741 1.00693
-1.09347 0.23092075 1.0079072
-1.14992 0.524813 1.0091023
-0.020405667 0.53254551 1.0086299
-1.1310147 -2.64309 1.0101519
-0.3567991 -2.5392437 1.015685
0.22981495 -2.5317545 1.0138321
-0.84687209 -2.4998221 1.0175064
0.010538608 -2.4920464 1.0188669
-1.1394186 -2.3418295 1.0139604
-1.0527391 -1.9663674 1.0126771
-1.09359 -1.9581432 1.0116637
-1.0935898 -1.9240601 1.0144808
-0.60665387 -1.1396188 1.0144264
-1.09338 -1.0525396 1.0191556
0.24820952 -0.92402238 1.0151416
-1.1631945 -0.50835717 1.0176485
0.25753701 -0.11659529 1.0121945
-1.09347 0.26849139 1.0198047
-1.1623029 0.35214779 1.0156188
0.095872194 0.39966506 1.0164011
-0.20289771 0.58191538 1.0185587
-0.84152269 -2.4645071 1.0237855
-0.82742417 -2.4636776 1.0243284
-0.11366661 -1.8767512 1.0241389
0.25778699 -1.5566529 1.026698
-0.64197278 -1.092697 1.0266862
-0.81171948 -1.0898296 1.0232862
-1.0923584 -0.81713694 1.0202975
-1.0934701 -0.11084567 1.0238606
-0.20273457 0.0048171049 1.02837
0.042773534 0.15907159 1.0206989
-0.93383938 0.33133766 1.0282547
-1.09347 0.34352675 1.0278285
0.19968364 0.34569269 1.0248911
-1.0932419 0.62460023 1.0285594
-0.19978723 -2.4436593 1.0313164
-0.56969112 -1.9741459 1.0382981
-1.1397122 -1.8495896 1.0354002
0.3126961 -1.2331895 1.0304855
0.25777704 -1.0794742 1.0310936
-0.83615565 -0.05531498 1.0397017
0.020636726 0.010883203 1.0348431
-0.046715587 0.096459925 1.0361421
0.18729252 0.13642807 1.0373074
-0.94558197 0.25478137 1.0395103
-0.72347641 0.47900155 1.0324917
-1.1194985 0.52505726 1.035318
-1.0939597 -2.4732032 1.0478802
-0.42326596 -2.3943086 1.0403558
-0.75565362 -2.3815861 1.0415068
-0.80106837 -2.3675938 1.0406425
-0.23149723 -2.3635504 1.044629
-0.60510331 -2.3408821 1.0478421
-0.70168877 -2.3225665 1.0489368
-0.59052002 -1.9754865 1.0427148
-0.29033002 -1.9749146 1.0406353
-0.26755539 -1.8860878 1.0400712
-1.1391493 -1.6027794 1.0431472
0.25777701 -0.96630073 1.0488582
-0.19712016 -0.26396099 1.0428045
-0.68549877 -0.25365999 1.0472586
-0.11281569 -0.25822073 1.0438852
0.032978944 -0.24624693 1.0420356
0.31635484 -0.24880189 1.040669
0.3095884 -0.18761867 1.0474935
-0.64235902 -0.02458358 1.0400722
-0.67707598 -0.016204961 1.0400058
-0.28736475 0.48453838 1.0418051
0.28786135 -2.3416705 1.0567474
-1.0939721 -2.3222222 1.0595558
0.16748801 -2.2752144 1.0504768
-0.017027501 -2.2650869 1.055069
-0.2758919 -1.9798238 1.0564756
-0.029478349 -1.8963261 1.0571418
0.016432293 -1.1507807 1.0548964
0.040606923 -1.1493944 1.0500249
-1.1388655 -0.39133877 1.0523546
-0.25084066 0.065143973 1.057421
-0.35674718 -2.2216542 1.0655937
-0.19341083 -2.2155781 1.0650476
0.28574479 -2.2139888 1.0695696
-0.3356429 -2.2033374 1.0684372
-0.13434181 -2.1908073 1.0676885
-0.90864795 -2.1587486 1.0680648
0.2930938 -1.2614806 1.0608177
-0.90707594 -0.46186364 1.0663612
-0.78725314 0.25675839 1.0640934
-0.56556875 0.36642805 1.062338
-0.37876278 0.37051833 1.0654068
-0.54540741 -2.360949 1.0736494
0.27692461 -2.2122869 1.0703773
0.19645345 -2.0831912 1.0761912
-1.0963731 -1.9380425 1.0766712
-1.1015764 -1.9214606 1.0767305
0.26514614 -1.920996 1.0767652
0.26592159 -1.8377284 1.0783443
0.28809828 -1.837152 1.0736938
-1.0917418 -1.8146616 1.0757221
-1.1163535 -1.7878468 1.0781052
0.25775388 -1.7760626 1.0754199
0.28173393 -1.7729738 1.0781081
0.28810304 -1.7011151 1.0730402
-1.1092921 -1.6323543 1.0796705
0.25782469 -1.4138725 1.0704204
-0.87797087 -1.1576818 1.0789798
-0.04527637 -1.1235294 1.0764811
0.2879566 -0.7395646 1.0778668
-0.9255209 -0.4799563 1.0737493
-0.31369692 -0.25775257 1.0732067
-0.098313451 -0.25217661 1.0760405
0.2746875 -0.13178635 1.0767395
-1.1028264 -0.10159759 1.0761285
0.020631501 -2.3078537 1.0822163
0.2397621 -2.2393343 1.0826625
-0.78709996 -2.0879331 1.0810064
-0.30506214 -2.0836766 1.0853801
-0.20142686 -2.0733469 1.085319
0.058945939 -2.0641966 1.0822345
-1.0175555 -2.0518012 1.0811367
-0.89604372 -2.0490553 1.084422
-0.042934984 -2.0321388 1.0888263
-0.22293581 -1.9901069 1.0879369
-0.25953627 -1.9895296 1.0865011
0.26906788 -1.2705128 1.0821048
-0.75636911 -1.1594605 1.0848925
-0.11498342 -1.1598467 1.0862325
0.049173117 -1.1566713 1.086328
-1.0913879 -0.834647 1.0854617
-0.51620162 -0.46448636 1.0863848
0.26583183 -0.37104213 1.0857973
-0.21226123 0.082634792 1.08637
-0.059122466 0.1382367 1.0837519
-0.7410481 0.17851287 1.0801059
-0.64162099 0.19207214 1.0859817
-0.91004682 -2.2805598 1.0918856
-0.95391124 -2.2632177 1.0942814
-1.0122597 -2.2442415 1.0930686
-0.54187477 -1.9920425 1.0942881
-0.12514156 -1.9145665 1.090076
-0.50788945 -0.43311888 1.0982605
-0.10573202 -0.23264539 1.0901026
-0.5203948 0.14725716 1.0974249
-0.72135305 -1.9214721 1.1026437
-0.37426519 -1.9243503 1.1075786
-0.99651098 -0.19529504 1.1044822
-0.42440307 0.12541193 1.1026348
-0.45842794 -1.9272456 1.1126592
-1.0857692 -1.7503779 1.1172447
-1.0864429 -1.6400917 1.1146665
-1.0868673 -1.4674356 1.1164563
-0.17623225 -1.1612039 1.1131918
-0.097363681 -1.1600565 1.1144962
-0.78805149 -0.19735804 1.1168268
-0.42951155 -0.1467649 1.1195638
-0.042132612 -0.06806349 1.1126446
0.071104646 -1.9960474 1.1242447
0.14019129 -1.9965552 1.1267164
-0.8224113 -1.9383163 1.1273643
-1.0852662 -1.9113183 1.1281447
0.034958601 -0.19272539 1.1222203
-0.40400189 -2.3006186 1.1399463
-0.11304185 -2.2855532 1.139226
-0.97995907 -2.2135174 1.1393993
0.14514503 -1.9605461 1.133626
-0.34410679 -0.170324 1.1387396
-0.061713181 -2.2727938 1.1498277
-0.87537646 -1.9938953 1.1401303
-0.80617863 -1.9976348 1.1404654
-1.1388972 -0.38961592 1.1405745
-1.2746686 -0.37476143 1.1471742
0.11256871 -0.23056871 1.1469383
-0.17550083 -2.2820024 1.1540409
-0.70137781 -2.2762334 1.1553097
-0.9084549 -2.2345159 1.1515484
-0.83118385 -1.9563645 1.151588
-1.0821145 -1.3020259 1.1568331
-0.76605475 -0.13144597 1.1561588
-0.57674038 -0.10755716 1.1504489
-0.57109773 -2.2799184 1.1659334
-0.07272058 -2.2638996 1.1649953
0.071811035 -2.2278676 1.1614121
0.14047025 -2.1952181 1.168111
-1.080305 -1.8271769 1.1711646
-1.079996 -1.7742918 1.1737231
-0.88203466 -0.4278062 1.1707327
-1.1973703 -0.34663641 1.1775044
-0.64352453 -0.19978531 1.1724011
0.00034951512 -0.18372937 1.176948
-1.0790282 -2.0650842 1.1810586
0.24290596 -1.8340018 1.1828693
-1.0787606 -1.4256525 1.1841559
0.13419539 -0.18862176 1.1818118
0.24128035 -1.7455864 1.1960427
-0.73884642 -0.23516873 1.2095277
-0.42816108 -0.21141632 1.2017112
-0.51182991 -0.16055408 1.205525
-1.0743949 -0.62611401 1.2119734
-0.56811392 -2.2436237 1.2205015
-1.073323 -0.82156837 1.2200204
-1.2171806 -0.38976899 1.2209935
-1.2857281 -0.37828228 1.227672
0.2360604 -1.2261883 1.2381842
0.064113744 -0.27824396 1.2305951
-0.78546208 -0.25768396 1.2345433
-1.1868764 -0.36744192 1.2444099
-0.25684851 -2.2163632 1.259848
