# .PCD v0.7 - Point Cloud Data file format
VERSION 0.7
FIELDS x y z
SIZE 4 4 4
TYPE F F F
COUNT 1 1 1
WIDTH 1616
HEIGHT 1
VIEWPOINT 0 0 0 1 0 0 0
POINTS 1616
DATA ascii
73.478394 52.407661 19.03693
71.156769 91.090073 5.6421099
59.697594 135.07736 26.001514
57.266602 34.606972 9.9261808
40.800659 61.710571 21.274282
54.576542 117.3064 34.79438
65.309303 42.034439 11.522851
17.339708 74.330017 5.6421099
59.304123 93.480042 19.638687
44.309525 125.6619 24.724604
73.786591 119.3832 21.461052
37.51725 126.50504 35.832714
9.1502924 129.84238 19.403482
61.169472 10.416782 19.468473
4.9631348 142.29572 23.476124
43.183308 104.90707 5.6421099
58.598419 143.73616 24.749817
8.4914274 93.244522 12.443126
6.8026543 81.244026 21.004246
9.0603991 160.88892 11.646459
16.912701 37.981728 11.92942
3.0447648 28.298302 5.7767196
11.139303 147.10992 16.967562
7.826582 28.992672 10.269106
69.489899 75.756454 8.9276237
63.41864 90.19313 37.810722
62.499386 158.43878 31.895876
73.79863 122.78589 12.816334
7.571311 24.657545 9.7256804
33.72298 21.995569 25.461613
57.266602 36.935223 24.76347
38.719337 95.134964 9.1313896
40.445667 86.690941 6.0318799
65.309303 39.513187 12.314024
40.429081 96.223473 42.619778
71.156158 45.780457 5.1860309
72.891052 59.332809 20.155994
55.328793 159.59702 9.5458603
59.736179 57.815117 27.930397
52.413445 91.866508 5.6421099
34.285152 81.013618 5.6421099
16.912699 26.180216 5.8640718
67.084259 126.38652 17.969715
54.248775 19.552347 25.391125
0.50121868 62.106899 34.838135
21.763792 108.614 15.077475
32.051403 161.80667 33.45459
19.560043 104.75511 41.016563
22.752113 105.88205 32.355629
36.775223 66.597801 5.6421099
16.407318 77.638992 11.921445
43.802505 48.044159 30.379715
66.715118 90.799713 19.598415
16.912701 51.028755 6.9046688
69.124847 55.698181 10.214229
68.1856 36.703941 10.002462
6.5858407 137.07103 20.882158
68.302353 139.86159 12.496321
52.211311 68.766586 7.4556298
16.4398 125.4825 11.394989
57.566017 153.48674 34.468781
41.939579 158.16147 34.490005
48.852226 1.2593223 6.9327769
55.729141 108.56209 5.6421099
41.094807 97.811127 43.91098
41.557026 34.718655 5.2305589
22.33396 75.957352 6.8485246
27.063387 51.39679 30.123587
53.242294 52.682594 30.32782
57.744564 92.022552 33.047951
8.7924252 87.032043 13.161745
38.585808 67.364845 43.150024
11.174069 16.795046 23.038898
27.829615 84.816757 44.753403
28.195776 82.544998 5.6421099
22.418751 60.235153 8.1200132
21.883942 59.475204 18.954943
53.525356 139.3701 36.932949
8.2030964 111.95084 5.6421099
16.397352 52.474571 14.381605
40.881622 7.525281 6.012557
2.1571271 24.53533 12.215296
53.004425 153.32187 34.794395
67.967903 57.588753 23.918049
40.415741 124.00998 26.376938
59.266277 100.53078 19.893131
57.266602 33.654335 9.2820482
70.198746 54.667713 19.478146
66.642555 77.430389 33.149315
27.173649 137.94904 34.052559
16.912701 32.900757 16.689766
47.249672 23.817633 25.961464
44.928913 162.78397 13.883955
68.155296 45.272934 14.514327
64.07666 60.652313 25.264414
72.226486 34.219528 16.637054
47.945511 147.95105 6.3827124
68.978127 27.214209 15.948245
16.912701 49.704987 7.0423503
20.023397 2.1212976 5.6421099
58.406815 26.514545 28.073917
28.748177 162.99481 25.968161
0.93929064 110.20146 14.552843
16.12709 123.85011 7.3412042
58.86591 43.618706 25.009933
32.277321 62.709442 18.746445
38.122353 107.60013 40.577507
12.598631 160.94269 13.341249
56.42057 4.3147087 5.6421099
43.206684 79.217453 12.272974
72.371384 84.423622 5.6421099
23.86837 75.225403 44.024586
31.299967 80.399742 5.6421099
7.035574 131.61862 9.727726
55.451607 109.56999 35.898651
36.407051 108.86582 39.262356
4.64715 130.92969 11.255612
18.201143 159.8537 17.474045
71.380974 33.361855 6.3357677
59.526001 157.92784 17.092115
63.461075 138.42126 16.919548
21.276306 88.478989 44.301876
14.537422 113.09351 37.0051
55.519314 87.076248 44.197632
65.942886 95.520676 11.098978
7.7112427 98.324219 24.454868
1.6620076 95.365578 5.9808083
30.385242 70.99942 42.303848
61.864517 108.4046 38.044037
69.931137 92.959206 9.2025242
61.137711 25.452015 6.6485224
39.867081 120.93671 30.169701
37.51796 93.482277 16.987413
65.299377 11.813573 21.00367
22.075565 130.44177 35.542088
22.691507 5.2983885 5.6421099
41.857208 60.839798 18.443167
3.7278886 127.33231 14.747525
22.821095 105.39734 31.189821
17.790359 153.68497 7.468091
29.087912 139.59596 34.675316
73.116707 87.948868 17.409876
69.981255 104.90445 26.991711
67.529755 44.167717 21.033398
43.41291 62.517578 21.240847
59.435619 119.78433 38.254181
0.38650197 121.18724 20.990313
16.136353 119.65013 5.6421099
72.328056 47.868587 20.18359
44.84417 52.33519 37.315105
68.435577 47.433525 7.1770372
69.2304 51.532639 17.772587
52.912365 35.745216 28.765305
46.098862 95.709038 5.6421099
0.68953574 145.68517 26.415216
35.362156 108.614 12.538745
65.294212 101.48893 33.164314
29.971235 91.281204 11.993074
17.93874 4.3000498 15.551055
1.4311749 83.219696 8.8981781
23.49505 133.26451 28.166363
29.71007 86.583862 6.0318799
1.4289638 89.33416 7.9359746
27.850065 74.017815 9.6816273
34.581257 30.154854 5.1135044
73.66259 135.87616 1.6311153
41.074459 78.389458 5.6421099
22.751778 126.33986 34.832661
3.6426034 70.217781 8.6468201
7.8068457 133.52499 13.836529
52.051937 115.85516 18.117453
47.547401 130.70877 35.166023
52.995754 115.19072 5.6421099
73.189316 26.472746 22.600538
25.013489 139.411 19.521851
11.910772 77.290062 41.092968
15.421156 109.90378 38.760693
6.4714274 81.585037 31.110947
73.354683 58.532478 15.286411
33.892651 95.006508 45.271797
6.6223965 78.765305 21.490948
33.9944 80.120132 9.3260221
8.1708088 71.616707 26.323864
71.957169 109.95304 22.040916
1.8370482 98.754242 11.988471
48.478413 102.22015 23.814167
9.7443981 32.996777 22.23472
4.3056889 31.789783 22.537376
14.4937 45.150085 11.807599
38.148251 98.686378 15.612156
6.0351157 46.351402 9.2105579
51.047478 3.1822915 5.0032201
64.044853 155.44307 8.0498905
32.702835 125.51591 12.0242
7.3587708 149.09795 10.001029
50.140862 123.09275 35.750542
69.673027 79.337547 8.8229561
7.9574909 95.098961 15.830561
2.8678627 22.183388 16.680006
67.5513 133.15672 14.973702
67.551422 138.09608 24.651642
69.2453 39.209019 10.845767
64.17865 79.202339 37.518364
73.814453 147.14331 10.929839
20.951679 150.75658 35.188911
69.509857 34.859314 23.933994
61.769299 74.262009 41.059246
73.165527 112.72328 31.271255
27.775391 149.64848 6.4357262
65.648361 14.561064 21.753756
66.886963 64.930481 28.599249
29.807381 111.66636 37.002663
66.025795 45.317486 18.030313
63.647343 70.080925 38.871727
70.854851 24.865948 14.774775
4.4160833 101.89597 21.637369
42.145901 3.1978374 5.7616558
72.230591 153.63803 16.532801
72.506187 39.24184 23.91811
69.245522 128.38095 16.7472
65.120346 30.10866 11.472843
3.2201402 95.416832 5.6421099
69.1875 57.345097 28.720947
1.4031515 36.94434 1.4941609
3.5330358 16.171938 14.883835
52.158344 114.50073 17.95253
25.044849 93.52993 38.232117
6.8914514 41.707565 21.976576
19.604889 74.281891 9.1190033
63.447979 14.436296 21.50988
30.32391 86.692528 13.779778
11.860786 157.849 14.314076
5.2184711 54.695557 16.844389
38.06007 90.852859 6.0318794
36.187996 50.09317 30.350403
57.266602 36.495731 23.699606
47.821129 132.08026 35.033806
36.69569 119.52745 13.254284
0.83984238 113.54688 30.927916
58.127457 24.981796 15.255184
29.526068 134.94699 25.735308
72.758987 140.80193 12.129247
43.403496 139.411 21.965195
46.633537 81.448479 11.088949
69.005348 79.916138 30.463594
70.331825 145.20454 21.812531
31.365747 118.27223 33.129982
65.665039 141.73567 23.838097
47.204285 86.588638 6.0318804
70.672302 138.28253 11.084689
10.103751 48.172573 17.778675
46.931519 60.449844 29.981411
72.261505 35.229702 20.616806
53.618118 158.46057 9.1265345
6.9070053 38.287132 4.1493711
-0.46891153 62.106895 35.127777
26.295311 83.411476 6.2191858
19.146915 12.516867 5.0032201
7.1840787 65.569122 22.695057
42.511883 116.4691 36.573215
55.194283 106.92052 34.954674
49.696514 25.117416 26.373625
5.9614186 146.79332 14.330109
32.869202 161.6915 33.826843
73.752167 121.05772 16.249521
52.874367 70.176514 5.6421099
66.393036 90.016205 24.844177
16.511314 162.03801 23.307024
69.942139 43.327797 23.868233
42.866402 7.8579054 6.0171499
2.77578 45.601906 18.127893
7.4936609 54.644844 17.653532
60.4981 132.53883 9.7782459
60.909142 35.818951 19.093557
27.700359 82.255737 43.092747
71.3731 46.378536 11.7141
34.50787 136.40099 33.806171
71.629051 42.826111 18.751654
23.451567 122.80612 12.0242
67.842186 63.936737 10.372903
3.8932126 71.994614 8.6811142
11.973141 157.37302 30.839848
16.922487 77.719437 5.6421099
6.0059938 85.583771 31.123562
6.0958343 135.4288 20.675426
66.3731 137.24037 10.055869
14.725382 85.545151 6.0390434
57.266602 49.425091 19.032867
49.072498 109.70735 12.0242
35.829891 115.35721 29.61799
46.882812 131.09875 35.260532
47.406548 65.908852 30.69725
40.184898 82.016548 11.963851
15.221832 58.772552 18.650867
6.3312407 136.26347 8.8375092
60.136917 59.705864 5.6421099
50.588238 69.486778 43.258106
43.308128 83.679695 45.210541
16.912701 30.550346 6.1691885
24.354897 101.50046 5.6421099
16.912701 28.117979 8.0198584
40.844208 156.03264 33.653824
37.539299 88.089966 47.117813
23.768803 37.034157 28.649494
42.355789 44.85321 5.4904947
32.357624 126.73889 33.769299
18.389475 61.941502 20.454205
2.7016127 86.854156 5.6421099
16.912701 33.006882 19.282206
7.2127848 60.862839 25.06477
50.537193 163.49742 15.99904
59.129662 87.79966 6.0318799
45.449978 78.357841 12.035508
17.798599 6.0159702 5.0032201
9.0115881 69.949814 7.3557329
8.68116 35.88398 12.506569
32.069321 88.158485 6.0318799
10.141109 142.5455 4.2224188
0.32266489 122.91282 16.472778
21.347786 36.123463 28.733389
64.551682 21.30673 5.0032201
41.186024 101.90666 43.363525
6.8152556 45.810112 12.943485
9.5816584 27.664173 20.523939
15.007946 137.89893 24.459446
57.266602 40.139561 20.755398
32.617134 110.712 16.776043
16.4398 140.79672 13.725446
69.025627 37.028751 20.625505
5.9632797 32.088799 10.149576
10.333383 156.59038 8.4363499
51.76461 108.614 30.188702
5.1689262 37.717319 11.18156
22.667234 102.26564 23.919785
69.489899 72.709244 9.3398466
25.729942 83.347855 43.084732
8.8545971 44.957687 4.7955823
27.868841 69.665329 5.6421099
65.87429 93.946396 12.292961
7.5668516 71.493416 13.517756
7.5234795 83.49913 24.123447
73.062561 106.27459 9.2194862
47.394527 49.487431 35.968731
69.489899 78.101646 9.790123
64.828506 58.608097 36.532017
70.590378 16.089981 13.357258
23.159525 6.5319471 8.4406509
40.328773 73.98217 5.6421099
30.59243 89.913025 5.6421099
41.477478 130.95874 28.805801
57.739498 134.98903 8.5756168
63.849918 27.254974 20.035557
6.0557876 81.995331 10.721541
12.104113 138.16685 21.677059
71.743935 22.016785 7.9705257
63.848209 145.79108 35.030613
69.435638 25.259159 7.2180548
54.930466 160.01424 33.434628
43.686089 139.411 32.700199
16.912701 33.693989 11.48421
63.327568 8.4219971 18.954557
72.422638 27.710909 14.912255
9.3124542 90.151619 13.378399
71.73037 19.215818 18.112347
67.009766 32.756294 4.7959032
65.21521 89.23671 34.963249
67.109436 35.240723 30.200247
37.199387 97.912292 5.6421099
56.015762 161.67479 25.866514
62.902607 69.288643 40.210548
67.889526 143.49019 24.886696
28.202946 137.1138 12.0242
70.273834 31.539448 16.197456
22.685181 74.849625 11.864448
4.0777912 142.80856 34.158623
64.597961 93.11554 12.857905
30.253752 139.411 20.709774
35.069405 43.193974 5.447938
6.9043636 127.61028 15.64467
12.56792 162.7605 13.878893
55.268456 110.23685 5.6421099
5.9632802 37.677605 7.0145216
50.862045 131.00127 22.643333
71.543007 149.2782 19.870499
34.886383 147.29109 6.3621006
71.519691 150.62598 16.794359
36.398472 163.21895 29.623596
14.492843 90.223701 14.014509
22.035339 148.46529 6.3987727
30.096302 134.9274 14.983195
9.6790476 87.948036 6.0318799
37.427807 111.41219 13.675817
38.601299 114.19006 5.6421099
36.882694 120.825 13.361956
65.514221 97.755035 23.97814
40.795452 163.32077 28.015491
44.636253 66.672379 5.6421099
49.301666 98.659241 43.536831
23.256405 5.2683372 5.6421099
52.250751 151.4713 35.14817
43.130207 49.70623 30.267368
72.85392 102.7277 20.385948
11.664267 46.456161 33.848526
30.895569 158.74863 34.319954
9.9554939 96.708015 28.603369
70.831795 37.589031 2.6785755
30.840069 108.722 29.83197
2.7964783 154.94221 13.763317
62.989853 35.901772 25.479465
31.286743 122.83987 32.746113
55.390064 92.61042 28.930859
8.9739494 68.468842 7.4807687
16.4398 147.34276 10.772268
21.75827 133.51717 33.215034
44.863174 55.034367 28.940016
2.1620526 46.106766 8.9242964
19.267262 59.048561 8.2118931
28.573965 76.761467 11.99578
42.326801 58.087303 24.183086
21.274246 148.63104 6.4039493
33.586075 4.3070922 8.3446236
69.843964 25.794704 5.860034
57.739498 148.15599 11.889879
34.6315 138.06456 31.439964
9.593483 93.625107 13.224882
72.010269 43.690914 10.041334
37.514175 37.379986 28.416922
29.059055 23.832987 25.944296
65.908951 127.3502 12.481823
27.860401 111.88512 36.916195
0.58831728 143.56427 21.441174
24.34898 145.42723 34.436302
67.66655 142.2756 25.492725
66.774475 128.95654 12.463969
73.111481 33.803795 21.59726
36.017876 110.012 23.563467
62.69038 127.52391 13.818462
25.062122 15.49806 23.355793
59.439152 8.0422487 11.916905
23.910587 11.475554 5.0032201
14.380787 3.490119 5.0032196
54.914898 101.14962 42.880077
44.457264 30.347485 5.1184454
16.457354 8.0191736 10.328598
17.889008 92.307404 26.310513
13.601445 9.9651499 7.7230392
57.570435 106.7879 39.69268
11.813078 123.49271 35.221577
61.50927 25.156002 7.5226908
57.580116 55.253883 28.843714
57.266602 35.011543 22.849886
57.739498 144.7516 21.941704
16.912701 37.443039 24.408318
6.7262878 17.692707 24.187887
16.4398 130.40674 10.285762
66.754921 29.035204 12.331351
20.097998 133.39658 5.9281487
11.866901 6.071301 5.6421099
54.343483 72.961105 7.1014943
52.590767 82.366737 42.920547
23.762835 136.67329 27.379496
11.767149 138.29837 15.281417
12.100705 87.787804 40.355171
13.358156 158.78479 32.774277
69.558792 145.64996 13.21299
64.769974 159.94635 26.961084
0.92001712 115.79082 8.3427477
51.241646 126.16949 21.725485
7.3091278 160.52179 11.824989
55.663067 126.84562 38.485245
8.3609505 42.176014 4.9206982
8.5589504 95.319641 15.123139
66.9356 34.811752 8.5132236
51.618019 121.37848 27.47942
13.8643 135.60252 9.2362576
23.347204 151.22931 34.245552
44.547657 108.614 20.762264
14.022936 143.86325 24.678965
1.5747504 123.43032 33.344975
3.8826194 17.729067 5.4819646
14.760515 89.972725 6.0318804
4.8215475 41.485661 0.36671132
26.152855 94.005554 35.750195
38.39817 118.38354 30.169701
9.6914549 151.79802 34.184017
49.774189 40.824547 29.525837
50.134468 125.03944 12.0242
52.932755 161.74365 17.926466
54.63932 34.786968 5.2323108
67.596649 100.98671 27.453661
61.156174 158.11462 33.167698
15.78827 7.0285511 5.6421099
69.947975 149.86638 6.6170521
6.4669971 75.542854 22.154427
58.533035 36.497936 24.494305
58.479324 25.468191 16.767597
40.184898 84.820465 13.449643
12.260984 80.059944 6.5021501
66.6856 139.72856 11.503222
51.123634 96.182297 34.88406
48.19651 93.908142 9.1313896
23.724566 126.1852 35.027439
64.1203 133.37274 35.399994
30.864017 150.97247 7.7056437
4.7954459 151.11697 32.753384
57.60577 61.167805 25.240326
34.707928 59.991241 8.1388988
1.0969 131.04266 31.86937
6.9362431 78.797691 30.046032
66.704865 94.024986 11.147224
63.76416 97.919693 35.217228
10.230652 35.659157 2.4966793
58.780804 51.293884 6.9361506
37.72966 87.914436 5.6421099
16.912701 43.791908 14.620305
55.273457 63.459538 24.347073
42.223526 88.522575 44.758736
8.8230324 128.98665 21.663803
30.488655 75.901901 12.917456
2.6119928 132.18163 23.644588
4.6893806 80.654076 10.142025
2.7519882 50.759022 14.35144
10.6451 156.87401 7.829011
8.6716347 124.16154 5.9770041
15.636948 137.41849 26.335629
63.552204 29.760017 29.064804
1.8951902 49.346443 17.796944
37.160255 63.87262 7.8383617
35.811626 92.18438 5.6421099
7.24366 47.690628 12.313329
49.954491 136.35529 12.0242
29.457207 135.41568 34.868004
72.781586 136.88017 24.34269
33.893795 128.71315 26.3102
73.125832 42.251198 22.3633
61.555756 57.328999 8.3450384
71.746475 36.947388 16.052288
47.927586 104.82018 29.849813
33.880234 30.833389 27.896799
19.400698 23.544098 5.0032196
0.11030859 144.83316 18.614239
5.5809259 134.60637 12.631148
14.067169 115.99124 38.521957
26.317972 87.486809 10.994942
18.968414 130.74713 38.021545
55.396729 51.411037 36.576721
65.210091 44.568047 32.281292
32.532047 31.659195 27.904966
71.618866 115.36864 22.01746
61.397854 149.04341 20.171024
30.979937 129.04321 29.359037
33.444801 114.21014 12.5853
8.0107803 145.12436 14.713799
11.824863 11.075907 6.2482243
70.207413 43.593719 0.99190962
58.209259 162.4187 14.22905
0.9875927 40.517666 22.582567
49.481956 104.05588 28.075874
4.8966818 25.861191 5.0960732
66.297737 51.265274 13.316218
39.435226 68.463486 43.459423
4.02595 145.30045 33.487946
16.198809 9.900959 5.0032201
9.1827431 114.87134 33.255085
1.5998442 34.173531 27.736332
1.378049 61.978168 13.396354
64.408447 81.542885 36.933937
0.26515064 138.9182 28.164623
50.723591 132.76395 16.941111
0.87596226 70.024704 15.21727
68.633301 143.38065 14.426586
63.218498 134.14891 3.8592472
8.0632696 64.371346 25.049339
16.4398 141.34483 9.6033573
57.266602 26.195583 15.388485
10.6451 154.9655 7.7702222
67.00061 67.681549 12.627867
14.144966 161.26949 12.686763
5.9632807 43.638775 14.094772
1.7008493 43.374977 1.8623216
68.128494 32.802231 24.457098
57.266602 44.083645 10.349964
63.351051 97.087334 11.900418
8.8159475 64.352554 35.282913
66.497658 17.498547 22.755968
31.455582 94.615334 9.1313896
65.309303 36.17548 10.012578
39.427147 35.072205 27.878954
42.326801 58.029236 27.08617
39.139984 126.21634 35.854019
65.920372 126.75259 35.091873
53.699619 3.5207953 15.308699
7.5066881 123.32633 9.7968607
10.986488 128.4754 5.2074947
57.739502 133.15518 20.290522
9.5058975 117.18504 33.162426
60.8731 121.76923 12.729301
45.855629 83.979462 5.6421099
32.286068 113.85 17.1642
17.603951 162.03964 17.27076
50.207806 58.387062 5.6421099
57.266602 32.173862 11.418425
35.608292 110.174 19.156019
65.49118 26.927921 13.388922
42.162037 113.41579 17.901033
21.761547 57.08342 39.196369
57.262718 9.1739159 6.1198192
3.4455309 103.1237 30.196121
20.126579 2.2087846 5.6421099
7.5565596 19.668804 23.565956
1.0111287 133.20116 9.7706451
64.606377 93.645607 35.461231
13.484838 124.60569 17.921524
0.66377169 115.79433 12.882785
65.384041 88.501289 34.750946
8.4614019 56.860584 26.607706
61.93586 160.90376 24.421207
62.364471 25.594431 6.2846203
65.974007 88.177895 6.0318799
1.2450036 74.533821 16.107376
69.617989 29.550102 22.402088
12.806361 59.237473 39.378727
8.4251432 16.245396 23.586666
66.045776 42.135239 20.20813
36.989975 14.376065 22.805061
14.063538 89.450027 16.76038
5.9632797 32.894035 9.6585712
55.051399 67.838486 26.595499
13.757887 137.36392 20.944555
8.8761024 124.32083 35
57.931473 157.849 15.356032
0.71139258 112.58449 15.667517
5.9632802 41.059441 8.2248945
56.060886 93.949196 5.6421099
6.8943295 159.27151 10.718192
72.827171 149.7428 19.548498
15.341831 158.13412 33.474907
30.432697 152.72961 7.6410189
14.832634 83.98703 6.1705928
43.315826 9.9707108 20.924128
45.91 161.743 32.690781
47.793579 118.51787 20.626648
4.4986467 141.63481 23.749834
1.3896425 72.090569 12.258583
47.743786 164.19237 17.443523
28.885029 110.39796 16.94939
8.7313061 31.037125 21.713772
17.997776 111.79763 41.00013
54.906376 59.279697 5.6421099
5.9632802 35.628483 12.619916
27.531738 41.455784 31.568743
4.7553601 132.5146 16.013597
12.655578 161.88219 21.908834
8.5232115 45.182461 4.9680514
46.780354 64.496017 5.6421099
16.912701 47.896305 7.3902621
40.184898 89.128502 9.5878315
52.690178 27.332188 5.0411077
3.7992101 113.63532 32.269688
65.899933 96.720657 13.554881
30.178898 108.614 20.26313
16.912701 33.140736 9.8438396
36.828712 94.243668 9.1313896
66.6856 139.65407 11.223834
5.0664759 130.17226 22.573576
42.370567 97.664001 43.904915
67.159836 80.367714 15.079628
31.789577 5.8740311 8.1097202
25.709755 92.047188 46.400536
60.490864 38.113712 19.736069
46.684551 3.0070412 12.149633
1.3937254 33.189034 27.134567
6.3973889 31.671057 22.446272
64.456795 8.4437037 18.718645
68.332527 143.60512 18.011818
1.2460814 87.860489 24.61216
44.352676 72.000687 42.11731
9.2781296 9.051754 19.145954
6.9391146 132.17978 5.7241831
63.430462 144.05115 24.598328
42.644905 38.022751 29.572224
41.993359 47.270607 35.054482
0.82716733 131.26108 2.501626
8.4549017 81.10231 29.097694
31.787546 109.905 14.281986
44.489685 87.28186 44.894627
5.07833 111.26729 5.6421099
14.077875 109.16649 34.836807
9.4386806 28.524326 6.4965825
44.844883 130.71979 23.978188
66.334045 46.538609 6.0107641
66.496643 60.491966 28.039877
64.454262 93.044479 29.534973
64.239113 128.76422 23.133377
3.9397042 30.850254 2.9335473
38.072453 85.650475 47.292675
23.51897 133.56905 28.120922
41.904411 97.0513 42.502777
9.813818 45.896004 3.8523166
5.2149343 48.723961 19.466028
71.849808 103.11591 5.6421099
50.484352 98.24308 14.583149
8.6642752 34.747879 3.3967271
72.830788 104.13194 11.544294
14.345217 81.98629 9.3983898
67.288506 147.5471 22.120377
50.724525 70.768593 5.6421099
40.625359 108.614 25.271854
57.266602 43.911541 20.510658
34.844078 94.647766 18.708271
8.5667963 87.683197 13.145098
31.221031 127.07919 18.666409
69.557312 13.445354 17.929708
73.355415 59.343094 20.89687
20.583185 93.165062 5.6421099
6.3312397 131.60187 11.989524
64.717361 51.768246 30.086487
30.148018 139.411 28.471687
71.083076 141.93542 0.99462485
7.5714779 98.474945 23.99678
43.125557 3.9265554 5.7960625
23.038572 127.45373 31.198839
14.542072 25.320789 16.363876
52.23484 159.51788 16.207016
38.652328 152.70515 9.4341393
57.266602 42.33197 6.5958858
72.243111 38.197281 14.881084
38.937698 123.57387 33.240582
28.845106 109.893 12.0242
25.317482 52.052181 5.6421099
0.83465105 101.60543 26.628529
34.489765 86.831161 5.6421099
29.367359 91.25032 44.610157
34.360046 69.785957 14.154995
57.739494 149.5377 11.676355
22.894239 31.805695 5.1558461
63.534203 159.66833 10.08239
8.8244457 37.639885 21.163094
4.3046737 30.694315 21.696775
7.6361852 90.229156 11.623647
7.8932505 132.30304 16.319473
9.9186783 120.53596 5.6421099
34.745518 139.411 29.140427
70.585533 137.68314 34.423752
57.266602 46.115067 17.498896
31.507463 137.53297 30.169701
7.0373049 63.283092 12.593351
48.172562 148.73181 6.4070969
14.708837 37.701572 15.916562
61.034168 3.7643583 5.1320934
7.770359 45.127632 31.523251
62.605896 141.83368 3.6577234
7.3573408 68.686638 17.015249
38.681206 115.7334 32.051834
35.928246 19.29121 24.629269
42.289757 57.03067 22.537575
58.714306 106.88073 5.6421099
9.3246746 41.657585 0.82552528
23.57147 8.3068171 20.13303
30.827238 98.958557 43.713249
40.629734 71.026016 12.813659
72.334198 51.19828 18.53437
37.247707 29.232815 27.542559
23.984612 34.078339 28.270466
72.762306 64.51825 9.097374
26.417606 110.03759 5.6421099
40.789192 164.26697 22.264479
1.6129602 27.323284 13.205204
27.411386 28.228203 27.150133
1.341602 67.965599 17.379614
9.6941271 98.119255 35.124123
57.213379 85.051773 42.79863
21.69725 91.180199 10.611952
17.769596 160.6346 31.305927
16.912701 39.011028 6.6524878
44.532928 136.96164 30.169701
24.738972 130.77435 5.846252
71.415077 31.672367 16.577147
6.421401 71.957054 21.376667
45.775852 157.44907 34.503075
6.5879889 46.610222 8.7309856
69.879333 123.39374 13.876299
26.136333 114.37087 5.6421099
52.704552 6.7531219 9.0909176
68.155296 44.363163 12.854597
62.856979 112.23705 5.6421099
49.309292 3.8732443 6.0155287
65.850166 82.794518 13.378288
67.237968 69.646225 31.691982
16.4398 133.41133 11.704322
23.820723 159.49829 9.509428
66.947556 37.597111 11.646263
0.41579258 138.19579 22.057451
9.5278673 97.998642 30.49984
34.007324 139.41098 29.14086
69.48024 13.273371 14.425344
3.163444 139.96936 2.975141
43.890785 151.1097 6.713686
30.86783 139.411 18.667168
21.568262 152.06711 6.9450712
17.560682 106.4445 33.763329
38.52562 129.71959 31.330751
14.803218 89.148117 23.020477
57.709393 157.30176 8.6988678
51.852142 118.39836 25.929092
14.407655 80.137489 42.535366
54.568558 34.516975 29.109371
72.678627 49.979832 15.380802
71.566765 41.45216 16.638723
56.63448 105.31326 40.959305
57.739502 137.57919 10.983906
40.795544 62.985092 5.6421099
22.535135 121.04565 16.952358
59.46711 39.56366 29.745136
28.387264 38.194996 29.658894
69.175598 144.65829 34.328602
9.7995977 127.94128 22.456783
68.576912 11.817381 6.3522844
70.644707 31.088268 15.108164
47.281387 162.70526 15.320206
64.840782 61.048805 24.88842
71.845177 31.476561 6.0278811
34.612728 34.114693 27.876879
29.761131 92.808029 16.525677
35.986931 16.473934 23.639915
44.586166 108.614 22.019348
66.902466 36.079395 24.363598
38.425781 44.711998 33.553719
59.343552 159.186 30.983862
44.058887 86.196808 16.428337
26.347557 65.684143 5.6421094
63.372635 9.7997293 5.6421099
54.924583 96.934853 5.6421099
73.051582 36.237911 2.1622243
2.0440977 37.439098 4.6704388
39.02549 100.28798 19.329617
67.082947 72.589027 23.1124
68.957565 104.95654 5.6421099
15.156334 39.518826 25.865055
6.21141 56.65139 22.976036
22.260374 117.54826 12.91317
8.9554644 127.11297 13.082712
46.935757 96.948746 11.578768
70.915054 38.535427 24.686966
69.513138 39.008762 10.830982
7.0207772 48.159279 31.249266
66.163086 66.349487 19.842953
16.912701 35.244995 5.898025
14.112305 153.48035 7.4003754
72.603493 93.264008 14.293839
5.7873392 145.1951 10.698517
7.4192858 49.894188 7.338871
9.9843998 47.215134 5.5739937
4.1031961 145.77885 7.693202
15.052242 132.57693 9.1081753
4.6893802 85.449051 9.0020723
72.497093 64.813599 5.8962026
38.413105 165.2439 21.316601
49.382687 70.688919 20.897066
27.45031 119.24475 5.6421099
72.470428 128.69933 12.424768
60.488144 141.50531 35.493149
29.922813 139.41098 27.411135
54.071758 99.625153 43.14584
57.598049 60.408802 19.381575
17.067089 3.1364281 5.6421099
65.036026 92.210548 19.78961
7.9082112 160.20349 17.657707
33.394711 80.07502 6.5008779
11.138864 7.6431351 18.375786
42.093822 128.53336 17.835461
4.0124335 145.49861 3.4040382
73.032684 78.422775 19.357653
41.380096 110.712 21.212143
3.03088 36.970936 20.659222
42.326801 60.060631 24.963295
1.9599807 107.44411 5.6421099
66.598022 142.65865 1.2941618
55.872604 156.29832 8.3329239
22.683458 122.93346 27.612986
64.994827 150.37695 6.5695868
25.251625 50.678883 36.468002
26.838364 131.48514 5.8684516
50.804249 128.91008 34.960503
57.738205 36.873348 23.966183
1.4629072 145.60078 14.439749
52.174431 114.29599 16.20503
70.555984 140.31503 26.08284
15.65306 48.340656 22.326818
33.4263 59.412945 10.64159
26.768764 118.15915 35.802597
16.248339 49.101826 30.308224
18.787807 102.633 42.652878
33.9944 78.602074 6.6795311
9.0097008 10.828477 10.202106
7.8657775 46.096077 7.5140977
67.817703 140.67401 16.3563
65.976021 61.59993 25.581272
49.873302 18.051756 5.0032201
26.974777 162.92358 28.916061
69.468208 134.78589 25.933998
10.185891 43.850601 21.771526
20.082523 114.60582 36.710678
63.73436 22.104437 24.731138
12.144018 84.011795 5.6421099
53.319622 38.241692 29.583431
29.577297 143.65349 6.2484913
65.562325 127.59367 14.347944
58.646591 99.615669 42.398441
16.4398 143.56517 10.1148
44.838963 53.757751 5.6421099
1.1121109 39.676003 1.8736
7.279758 89.405014 21.785576
73.704849 30.805771 23.635851
65.082657 90.309464 14.396091
33.878479 84.408943 6.1349716
16.912703 47.366329 8.6749935
18.037209 68.297157 42.554676
72.700668 29.170094 13.675171
16.502308 162.95015 15.916624
57.266602 32.982018 19.542902
49.826588 152.78613 33.893269
44.87616 45.31628 30.492449
43.775017 4.252944 5.8101254
46.539711 139.411 26.725645
34.458412 75.281937 42.563938
56.963848 7.6045556 10.691893
52.046925 92.860962 15.447041
37.273087 114.44293 5.6421099
27.797428 92.372528 46.74453
6.5906911 75.15284 5.6421099
65.021065 98.278076 32.724113
2.7359738 111.3063 19.03639
3.9344406 152.66994 30.626637
16.912701 29.367989 17.226095
31.588411 61.977745 23.919964
6.5822411 17.954643 23.694799
51.284508 95.149971 29.816481
32.058586 104.31879 43.032463
31.093973 104.83023 5.6421099
40.184898 95.05278 13.523651
2.0066726 141.7272 19.382826
9.5683861 36.192612 1.1537995
42.843861 128.57884 32.982719
14.001256 109.3529 34.81588
32.004082 57.521759 21.004307
30.318007 90.758438 24.084463
73.143242 146.35951 10.945505
6.8158288 133.694 8.1390944
73.937912 129.63852 5.587532
39.719044 83.297165 47.244694
67.439781 43.361065 30.581692
23.79439 6.770956 6.8355527
65.2854 123.53663 5.6421099
17.195608 152.70264 34.656136
70.434402 142.67133 1.299407
42.599136 64.75824 38.202278
55.3857 66.886414 7.6050014
64.65097 28.120163 28.564774
15.267057 21.621807 26.47299
17.837521 60.734421 25.186544
68.633301 131.92938 16.914597
25.16728 68.668251 5.6421099
65.047684 27.318947 28.305016
69.949013 148.0135 32.985958
44.015301 115.01943 25.138762
66.61129 144.9588 2.7488878
51.191105 78.838341 6.6052885
57.971588 24.509167 5.0032201
73.991219 127.06358 23.469982
34.12677 121.42265 28.298859
40.712566 119.39999 5.6421099
18.827259 95.635208 43.553947
3.4267666 33.167744 4.2392511
49.086498 35.133934 5.24121
8.9906244 145.66368 17.531723
29.729683 70.958328 7.2705851
22.058643 35.768929 28.663017
2.1953201 97.633591 14.939387
27.453461 162.77165 14.108604
57.266602 50.61496 7.3690357
59.975357 100.78473 20.482491
30.923866 87.25943 13.296331
23.588203 134.45032 22.382786
55.225288 50.471626 36.177216
11.894222 36.702972 16.320833
63.676399 134.26442 21.944527
66.294243 91.681282 18.992672
73.585457 119.93525 9.6813831
7.8475184 132.60194 19.581738
38.377689 116.57691 14.222732
0.79333949 134.1429 3.605969
7.8704376 150.60193 6.6123772
7.5526614 125.05213 18.761778
55.270691 123.58466 39.280064
29.207752 105.06462 42.755348
0.84354967 75.647087 21.286606
32.713356 110.712 13.018337
41.413322 98.141464 14.34726
16.091143 7.7395153 11.510921
8.0071287 56.789433 23.753664
57.625675 90.630051 9.1119328
15.883965 53.330147 5.6421099
72.87439 88.473061 9.1437073
24.220835 107.33418 35.989998
16.382839 123.96153 10.984496
35.829964 122.6576 12.755824
69.237198 26.837341 10.869732
65.821037 97.800972 32.706753
58.887024 90.61322 43.533363
49.778519 94.844734 21.124775
66.6856 134.854 14.423615
55.303734 49.148167 5.6006536
27.697643 147.4845 6.3681412
38.190449 159.37247 34.246784
6.112659 55.21917 10.352607
67.173943 9.4538956 8.4983606
45.419617 163.29968 24.778387
66.785858 57.000153 15.127978
6.3272233 47.063515 21.42244
40.62384 96.080139 9.5625134
28.974728 76.224152 6.8260007
37.136444 52.186462 30.289116
26.513115 3.6422963 9.3127413
73.064034 79.323883 20.98807
50.218674 97.968376 13.945478
10.129183 96.554214 29.790871
55.383175 108.10866 34.512501
28.859039 113.47742 5.6421099
59.809303 44.656254 11.538463
7.9944935 70.953384 16.608212
38.602436 112.14071 29.394096
33.219952 77.143921 6.7483454
12.890046 142.10701 25.59812
9.684988 97.355255 22.80057
6.7269835 76.349037 31.641474
25.98868 85.462006 44.679649
70.431824 137.46941 4.1108422
4.7428699 55.429527 10.209044
1.7748587 40.552719 0.93271351
43.824802 92.258865 23.180523
73.353714 60.390423 20.884722
51.973019 93.308533 5.6421099
27.566559 163.75729 17.639915
66.594177 91.196251 17.000849
6.3312402 138.32686 9.2509766
72.963715 123.85696 7.3112001
51.955219 162.33484 29.111149
14.104881 89.912102 41.871735
58.091038 58.799416 18.662476
67.440353 77.651863 10.637591
16.912701 26.640198 16.248981
57.739498 126.61608 6.41957
40.104401 118.90352 36.393593
41.3955 130.45079 16.961048
31.015102 39.174965 5.3448567
1.389369 66.425377 9.4164591
28.664013 165.18314 18.17338
26.853678 164.15033 13.296444
42.808193 101.80702 5.6421099
33.034851 161.95248 33.134342
33.41375 110.91633 30.169701
13.364244 136.455 21.532713
52.346542 112.1051 22.524874
11.351969 127.51846 10.72561
48.287674 7.5283079 8.0656233
31.852503 56.731087 25.69117
2.835459 79.162506 29.416941
19.997755 66.926933 42.413265
61.818584 84.204544 41.245934
14.892801 61.367142 5.6421094
66.593201 46.666939 30.472807
31.65044 110.25636 33.533226
11.896924 160.10739 15.730329
72.596115 145.74921 10.114101
16.875418 162.49203 11.685696
36.20052 128.28 5.7683492
29.324463 122.15285 12.0242
31.686211 116.56865 29.042562
66.9356 40.815086 17.472336
72.47979 30.169004 19.689875
60.21336 77.717361 13.726105
71.919563 36.416698 17.518692
6.3312402 132.07767 15.882687
15.397197 81.638878 43.874458
14.753725 94.144989 5.6421099
19.895086 69.896431 7.3602395
26.504585 115.49261 20.4559
22.983833 164.40582 19.558979
1.9126072 134.87607 14.830734
29.126139 81.133202 6.4115372
55.491116 92.581779 28.422636
56.226013 65.910782 29.663404
47.658714 142.50818 34.320068
2.9728281 150.87039 10.555393
0.94336945 114.6261 31.359447
1.97578 133.10307 10.022203
10.23978 29.447906 17.244568
73.087601 28.546383 13.31622
29.807373 87.50956 47.159374
7.4097099 70.640282 12.977505
66.68779 11.169928 10.749758
19.040779 43.467285 32.522606
39.898705 76.451523 5.6421099
19.134937 53.769463 37.625031
29.868599 160.1584 9.746068
29.160431 68.593864 7.4702129
68.092941 85.108078 5.6421099
66.407272 25.330086 7.0085959
3.6287611 56.101639 8.3749628
40.885437 107.49268 40.585716
65.929611 95.53894 10.771314
1.1540508 91.104156 24.325922
25.938049 59.079018 18.783489
1.3723729 65.23877 13.944263
72.03334 137.03732 32.762386
32.937004 41.327885 5.4000754
42.048416 149.37959 34.144714
28.226089 111.68555 18.392097
32.636715 135.02777 30.169701
9.3326654 12.861175 20.749548
52.17868 37.059566 28.725447
1.41032 73.409447 12.036863
6.6602588 76.132828 22.991459
22.523031 6.7288303 5.6421099
72.18956 117.67305 25.633888
25.985001 131.4122 34.645725
27.534634 110.72365 5.6421099
38.579884 48.038067 30.380096
69.2481 38.816959 9.5741053
66.248451 27.388323 16.368586
26.915352 108.21275 37.261372
17.327587 81.429543 6.3865166
5.9376163 28.239613 5.8532019
22.265221 7.2688589 5.6421099
41.947723 108.614 19.604404
8.5553312 116.94245 33.043175
1.3975989 38.806019 23.630894
64.041222 62.595123 5.6421099
31.813156 102.22095 23.816034
4.8542666 125.61665 16.868948
66.207985 50.828297 19.191275
21.767241 3.3475392 5.0032201
32.197197 90.076393 43.102852
72.66468 88.500809 9.0072088
48.305294 64.97551 42.118446
51.94154 17.782816 5.0032196
23.877722 138.13579 18.774525
71.626183 45.137123 1.8102926
32.678169 103.24596 43.18187
57.685734 87.18631 11.055077
22.052853 93.561157 43.979404
8.3731241 42.694328 21.567844
66.243332 94.532242 14.969059
42.772484 78.068153 5.6421099
16.912701 34.146652 9.8314123
57.266602 42.330154 6.1444254
7.3810167 127.75389 22.259111
43.499683 3.1678314 10.307291
14.630764 162.40573 11.874504
21.012192 86.391357 10.478823
26.57935 149.18185 34.15921
24.874746 139.411 14.473939
60.605194 51.735538 5.6421099
28.03858 94.104156 30.528097
45.336864 86.929039 47.200996
65.498878 30.358242 17.496557
30.273052 152.19896 33.936596
50.189289 27.028639 26.888582
6.8498535 56.209389 8.4317312
34.989338 84.673874 14.300838
15.127888 51.277668 6.8965063
1.3923641 68.090332 9.2308426
45.127388 86.452148 45.580296
59.441132 38.130661 21.090443
63.337601 124.16066 5.6421099
61.441986 159.95593 16.372478
57.567673 158.91681 16.18058
5.0727029 26.649042 14.834645
50.726181 132.73071 24.504642
1.9669224 28.125116 17.796183
26.800201 80.897629 43.004288
1.4973233 136.25992 4.7166538
19.282246 162.26155 17.046402
41.845516 66.375603 38.038414
20.919518 164.14607 18.265476
72.965637 118.97494 5.6421099
60.788521 61.599556 24.329292
62.514915 109.60725 5.6421099
72.776657 103.05946 7.5501966
65.59034 128.3649 3.92957
68.633301 133.50591 15.601082
6.0825605 141.98376 1.1446915
4.3456731 30.934958 21.88143
7.3859339 150.93756 15.220027
63.825912 131.58646 20.566063
4.2067356 39.53698 2.6011133
43.194862 139.89056 34.523125
48.825108 139.42854 34.635448
3.709516 15.655518 14.905734
49.415493 89.435791 17.325251
60.068638 83.777504 12.390213
42.264366 119.62631 26.828922
33.38221 43.847694 5.4647045
57.739494 124.40631 13.296762
68.367043 144.4959 8.1312037
35.156242 94.809586 19.019352
0.53764582 52.082409 24.36701
16.912701 34.758518 14.938112
55.212826 160.13481 31.917772
43.436653 90.601601 20.104435
3.6776588 159.20686 11.559111
2.0801549 107.9313 20.75609
6.9886923 42.975388 3.530462
38.222191 61.475266 8.0239906
59.427364 138.30696 28.318836
62.461624 68.840546 40.846363
23.990723 75.401581 44.051819
54.936665 53.645767 5.6421099
3.4256105 49.647209 6.7425823
55.728577 68.0877 26.588131
1.6579552 68.199379 25.12826
43.50914 98.356743 43.790146
15.331373 161.50078 16.711758
8.2780476 55.696896 26.082724
7.3606052 88.720581 17.351013
66.9356 41.797836 14.23273
49.834686 93.149506 16.241766
71.740768 24.641724 13.473814
72.584366 73.231491 6.6783371
7.1722202 65.753288 5.6421099
70.344765 55.431122 24.81815
13.95153 139.51808 24.056973
66.312286 97.19104 20.611435
9.3772221 12.272675 20.700928
58.489201 160.18364 13.731159
1.5761833 127.18381 13.620325
62.067398 94.620789 39.435066
57.739498 142.19604 14.797478
40.430065 84.661102 45.708672
43.252052 107.66879 36.827095
16.4398 131.12546 14.265141
67.562103 73.129776 16.803301
13.484393 111.90279 38.022705
57.335777 63.834377 7.8413229
31.189972 8.2164459 7.9291925
40.184898 92.071404 7.6185637
65.365211 87.891418 27.10537
73.49778 114.45635 14.096619
9.7953959 46.330917 18.832644
22.851273 58.894424 39.914124
23.463392 133.20848 34.564556
0.066086866 132.15538 25.738792
6.4698162 116.71927 5.6421099
14.680412 137.23932 28.410851
42.441471 53.103992 5.6421099
0.52651858 121.10892 10.086055
2.877111 137.02966 0.0007036209
52.538486 109.66185 24.449894
2.2033229 148.10957 21.450859
9.2053137 45.578789 24.196613
66.626854 90.525192 16.241131
72.845787 80.469185 23.993597
40.983051 163.27225 27.825779
57.249401 23.611912 27.159914
72.616264 68.234932 23.940407
12.404919 107.42913 38.314461
61.30011 13.88168 5.0032201
71.064621 17.714758 11.433355
64.678215 157.96596 8.944149
16.912701 37.253677 22.806217
1.5054715 69.68866 7.7230296
53.712547 79.141174 11.34464
64.435715 125.97983 8.0171986
55.603138 97.887062 43.262138
66.281891 24.963484 8.1827383
67.763214 52.046814 30.392227
12.840588 24.534376 12.133718
59.523125 124.26765 13.72764
41.273357 64.835213 19.931988
59.919971 36.451115 15.691309
71.224113 109.38239 32.533695
47.813225 52.394875 37.264767
0.49523932 118.23862 17.090412
67.307259 90.358582 31.698996
33.180328 48.140926 30.373142
33.669598 152.0643 33.946663
20.31616 94.801567 39.242088
1.5069884 46.51149 18.597301
44.270164 115.3717 26.572849
0.3974942 146.76309 7.6634064
43.390858 120.17188 26.685108
59.089336 122.60399 13.990716
22.975622 126.6524 33.35593
6.2301064 54.125183 29.313654
47.27837 112.77718 12.0242
14.407842 88.566696 6.0318799
66.127731 135.70639 11.81246
3.5104837 56.336098 27.584381
22.729143 52.601418 30.003189
1.7809008 83.895554 8.9112167
5.8852944 159.20126 11.630519
46.560982 92.095856 45.17577
25.323496 139.411 27.734983
50.516045 69.228844 23.571535
25.940477 93.395271 16.923483
59.467117 59.854435 8.1494923
32.354774 78.97168 5.6421099
7.7689571 91.449768 32.755032
66.55484 48.916283 11.747283
16.4398 145.9028 7.5457811
57.739498 149.83148 7.6343336
4.4621906 26.764795 27.618416
53.160759 67.635948 24.797409
29.444 137.91745 31.340734
5.4471669 41.232712 24.416565
32.002563 85.588127 45.64222
61.14452 138.21843 10.716731
10.479186 67.538971 7.5544729
67.817703 133.41653 13.724589
20.105139 158.85069 9.2704544
19.490578 89.792915 42.788219
33.4263 59.965019 12.350507
69.701294 127.41496 11.990279
9.5960608 48.820053 6.6462035
38.372078 85.428551 5.6421099
43.876732 7.7462721 6.004456
14.075935 159.03986 17.628494
1.8115785 148.92276 9.3494701
47.086643 5.6296964 5.8451209
41.356937 164.49484 11.437028
70.171524 127.30161 5.3150206
31.642929 84.837708 5.6421099
9.6964731 48.717648 18.043995
4.8006496 85.67202 30.821667
41.892845 60.609009 18.68458
0.62220663 53.27512 26.754339
53.393036 163.67215 15.246132
60.080063 84.993469 43.357918
16.118391 15.742263 23.976639
21.494429 41.015114 5.3920531
67.077347 53.21368 30.22599
31.261189 85.620445 45.639904
1.879957 132.11691 1.2722858
66.300476 38.596382 9.7322311
14.880403 6.1568556 17.975838
31.716494 54.936153 5.6421099
69.2481 38.212399 9.9731169
18.678938 95.301765 28.545166
50.481361 148.58084 34.203587
31.469082 86.076591 6.0318799
47.995514 151.25443 6.755168
37.445824 108.614 30.954575
27.89616 72.009247 42.092274
58.527576 125.54632 37.582901
60.996067 124.33043 17.272209
46.292984 84.768372 10.692743
16.881268 78.902725 5.6421099
55.08054 86.731125 44.251282
13.087077 44.725319 30.460878
42.81036 135.96674 6.0084195
73.347946 63.313515 17.823856
29.886175 119.36366 19.949539
33.523197 59.732765 24.138573
68.1856 34.238483 10.860626
22.619755 77.207855 6.7429476
19.528847 106.71609 5.6421099
15.442111 38.073902 29.444641
48.701309 31.789167 28.03763
19.553835 160.8638 17.297491
73.680206 117.87426 26.73777
8.49366 45.949512 13.710931
59.057514 129.73911 23.811047
60.117973 87.645691 41.906628
0.36660016 137.21797 1.6388803
54.645226 59.313416 8.1913843
65.688324 154.15262 7.6228514
72.980904 117.0115 32.468567
16.912701 46.275326 15.067947
50.124588 108.614 19.268227
10.94795 106.33997 33.377518
72.146454 32.047691 11.590132
42.616241 57.139412 27.867386
65.898903 138.80891 0.19219565
23.199621 95.670288 39.247555
57.266602 37.841957 25.108248
10.176817 39.955952 1.9899175
73.123894 33.731125 20.787613
39.817341 74.803085 13.266603
1.6713593 152.64972 18.39616
34.591232 161.51178 33.98362
55.907345 28.868774 28.532951
72.741348 62.554276 21.793768
12.807218 163.008 13.631458
30.096298 132.418 16.638964
23.110455 101.84332 22.939316
54.597019 87.383141 42.889702
53.037655 104.42565 41.86911
26.298895 92.303261 44.895699
11.486654 127.0353 10.2078
5.9632802 36.506367 6.3452673
40.752998 64.561096 9.3893204
71.815941 150.79198 25.851944
14.4937 42.396065 9.8232069
69.08094 102.36803 23.735075
25.164785 24.852173 26.277016
3.4836481 158.37537 10.87479
38.196255 133.42932 25.239655
15.881189 2.6685629 5.1173501
4.5993752 40.561977 24.504877
32.346153 94.09819 44.748161
46.909615 130.04121 12.0242
23.659355 86.592957 5.6421099
71.450653 112.74437 20.679897
18.815475 15.231091 5.0032196
65.899811 95.727036 10.634151
65.344894 102.34798 27.342621
18.93247 82.00074 5.6421099
41.418285 66.07032 16.084532
30.084438 115.60126 5.6421099
9.6675568 49.618813 15.992001
12.24565 125.5034 19.611115
45.239346 88.664597 18.24437
0.53524482 52.483032 22.931425
65.775208 46.478737 16.221872
48.040543 151.53702 6.8236213
46.878685 120.55454 35.861691
11.531044 147.19821 22.418215
38.096092 90.303032 5.6421099
48.563614 108.96829 37.964722
28.175322 155.00667 33.729389
40.770222 108.722 30.155397
37.059448 119.32684 24.688046
39.421394 111.21645 37.246628
62.208736 158.7038 14.15904
1.361276 67.441177 14.234402
64.472305 94.798416 30.463631
10.943836 146.85936 11.153923
60.219292 57.593231 38.925854
48.561615 96.097366 36.944435
2.14976 38.047855 10.995861
14.274852 14.244106 20.567329
32.024483 62.085716 20.786385
54.446663 44.144646 30.30114
1.2610979 78.836983 22.757179
52.485386 71.330002 21.85556
1.1998006 48.125618 22.494274
22.482491 120.37527 30.133877
5.8704863 45.574238 6.883935
73.672913 115.24036 20.44696
16.912701 39.255878 14.633592
54.724213 94.643326 20.626154
66.690941 68.493439 13.882149
58.712486 130.79576 10.458754
47.943226 2.1757691 14.266508
67.047821 28.020144 6.8561139
8.1371508 65.940529 33.918228
67.688148 29.122803 22.034475
4.3221617 142.61064 20.709475
0.59517545 113.14268 29.467621
35.017139 126.40004 33.500027
26.881853 74.696304 5.6421099
42.295834 57.614376 22.671373
68.952179 24.934668 15.059748
1.5794896 60.702881 25.723156
7.3942385 131.00912 13.321572
63.592804 123.05424 34.00383
36.610306 38.583023 28.732443
0.91877443 102.89432 29.030701
55.792385 65.773323 7.6911883
43.890625 119.37489 35.580776
10.03142 152.89444 7.2064853
43.163078 17.888992 24.141403
32.223694 119.15755 17.702599
49.416885 137.62085 34.899612
5.0464587 142.98528 25.129507
6.0031495 39.299213 25.784107
66.115295 35.558968 24.223787
36.990223 132.47928 24.723518
40.329239 41.19574 29.438263
43.349258 108.614 19.947737
10.69789 136.23061 21.40428
36.875664 133.81273 13.357908
13.406011 138.14984 19.239708
63.858074 42.909069 21.916355
72.507812 48.15971 10.900248
15.908642 52.095798 9.1403446
46.852436 108.614 14.92609
1.9474537 148.84427 8.977849
7.4610682 37.686375 20.753418
24.689001 49.678837 5.6142645
21.955454 113.66674 21.374863
5.7687874 137.5603 26.348087
15.078635 96.365349 41.129963
51.92905 117.41942 21.97835
1.1050588 129.86272 32.068592
26.850042 117.67045 20.4559
66.141434 96.73494 19.344418
11.791389 157.97845 15.209047
19.208557 114.79033 37.111935
56.720375 85.676743 44.102642
17.687746 116.03142 5.6421099
49.385342 32.024353 28.08889
22.279148 160.32812 33.715443
10.016815 132.28317 23.436031
16.912701 44.076164 18.161318
45.942867 108.23717 37.265415
21.802282 109.87547 5.6421099
28.004108 155.5929 33.686131
46.752541 58.074326 5.6421099
24.453409 81.616821 11.059917
36.360001 110.25192 22.408501
19.002346 23.531294 5.0032201
68.9384 31.563015 5.9152131
61.095875 12.291168 5.0032201
28.115475 59.952778 40.478153
49.290993 6.4716282 5.866044
45.623123 114.7878 36.697239
64.678474 61.337791 36.82724
73.610062 111.8684 27.608799
49.953213 138.38579 34.158413
69.489899 58.813423 10.213085
54.524139 80.600235 11.167752
6.8848691 57.862709 29.563986
25.416849 139.411 21.459644
39.764217 144.04158 6.260612
4.3862429 55.7164 8.3675652
26.404879 80.703743 44.629307
67.353279 131.37816 8.5339727
66.77269 43.543396 10.455504
71.622391 18.900555 20.264999
67.508675 138.29192 4.2191267
61.904663 148.09468 21.433905
33.097595 75.894318 41.519699
34.311539 58.134285 27.909557
70.782524 40.347221 4.2704854
53.632347 75.352119 43.826866
7.49755 85.828407 32.745819
6.0820737 47.434471 17.312078
15.703535 49.182999 30.302734
11.32275 128.38419 22.861885
10.632402 130.06111 7.0095677
54.012684 77.47049 5.6421099
8.8614235 62.552303 22.921671
53.283894 142.41563 36.489578
63.508923 150.35144 6.5610762
26.914328 86.388962 44.715908
23.27879 89.31424 44.38134
3.8047104 41.549789 25.541153
8.6466351 35.561974 4.5475864
19.351709 39.447819 5.3518543
71.43985 99.973213 18.541426
35.457432 3.3130555 17.185936
21.72921 110.7869 17.00971
69.356682 44.467525 6.1831312
32.96051 9.7623672 20.802629
66.217796 44.448582 14.769703
7.6768398 134.43625 15.077344
25.272158 107.22176 35.708652
3.6364186 158.81929 11.135945
47.960712 95.407265 24.954742
18.976965 164.03201 17.452429
50.929115 96.929222 11.533453
2.6845512 115.3898 23.358377
51.441849 77.181717 5.6421099
48.278236 77.743149 11.527518
31.090021 116.91052 30.169701
1.6206281 40.63401 23.666843
72.05072 36.019043 23.983427
61.841808 83.578606 41.257114
5.5794115 101.37685 22.993832
4.8043203 127.25333 21.722725
0.28963694 127.04812 29.077759
19.200911 160.8127 17.443718
52.405693 147.81419 6.3784375
39.823082 100.33614 19.441376
8.1778393 21.211039 26.005033
47.646652 102.41908 41.7486
9.6866713 97.056641 21.253529
64.547829 106.28807 34.114685
46.947063 132.7126 23.795958
26.313652 119.30051 20.751352
42.344467 137.87718 30.169701
2.5594182 63.294376 5.6421099
7.4132795 138.48744 12.276377
31.510788 118.6136 17.1642
48.716434 51.71273 5.6421099
69.910797 26.826744 10.950231
72.173103 134.89545 15.024658
71.360176 146.64417 4.3339558
7.6462564 147.49042 18.903494
10.004536 122.39979 5.6421099
67.08712 159.58939 17.595375
59.407654 126.29306 36.902702
65.75 63.688526 27.256821
5.2707314 54.591087 18.522049
67.081833 75.69828 23.353804
16.948244 162.10832 14.565741
66.59079 49.479332 32.165642
16.912701 45.625298 12.007975
72.213974 37.838459 10.038801
51.383602 124.51596 35.367722
29.563244 61.535786 20.503443
15.500324 84.225143 12.840195
1.6512855 90.405487 6.0618286
61.011055 159.55986 16.660007
43.851723 81.994675 46.514957
19.808006 162.7612 17.964081
30.828897 86.772423 12.109912
33.492981 87.901825 5.6421099
9.9110947 157.95786 32.15752
7.9893398 137.56186 11.346957
17.9629 159.63344 17.419485
72.082565 42.675011 20.297838
14.157937 103.42333 26.607754
30.432701 162.78767 11.012362
