# .PCD v0.7 - Point Cloud Data file format
VERSION 0.7
FIELDS x y z
SIZE 4 4 4
TYPE F F F
COUNT 1 1 1
WIDTH 1460
HEIGHT 1
VIEWPOINT 0 0 0 1 0 0 0
POINTS 1460
DATA ascii
-0.13526025 1.7096058 0.20512542
-0.13865495 1.7122799 0.20511407
-0.84045362 1.724052 0.20505944
0.28620768 1.7227936 0.20507236
-0.25111675 1.7669542 0.20488158
-0.063723892 1.8018056 0.20473513
0.092026152 1.8019437 0.20473561
-0.80114448 1.8115282 0.20468897
-0.19579703 1.8200471 0.20465693
-0.20321459 1.8371227 0.20458452
-0.23649025 1.8432275 0.2045584
-0.55914199 1.9084846 0.20427966
-0.90631843 1.9117877 0.20426333
-0.28548351 1.9196315 0.20782241
-0.17442378 1.9318118 0.20418338
-0.011708707 1.978134 0.20398818
-0.61081922 1.9830761 0.20396319
0.31872278 2.0397124 0.20413677
-1.0109812 2.040257 0.20371816
-0.28699148 2.0459585 0.20918779
-0.7960602 2.0548301 0.20365784
-0.820454 2.0867133 0.20352253
0.24790627 2.084707 0.20353825
-0.5697794 2.0916286 0.2035034
-0.68324542 2.1190424 0.20338646
-0.87163925 2.1226439 0.20336992
-0.7320925 2.1242473 0.20336407
-0.50320947 2.1291318 0.20334488
-0.52462023 2.1399841 0.20329876
-1.0530264 2.1676404 0.20317799
-0.72779322 2.1725969 0.20315918
0.1129541 2.1772439 0.20314515
-0.87811399 2.193382 0.20307007
-0.98815638 2.2453296 0.20284918
-0.97748876 2.255347 0.20280679
-0.44530523 2.2572258 0.20280242
0.051427539 2.2506773 0.20283352
-0.041273691 2.2902641 0.20266511
-1.0483338 2.3025534 0.20260625
-0.41536301 2.3594699 0.20236927
-0.18459392 2.372148 0.2023171
0.092362188 2.4132934 0.20214459
-0.41079146 2.4360144 0.2020449
-1.0042601 2.4513412 0.20197596
-0.52030683 2.4512336 0.20197967
-0.45046166 2.4843326 0.20183985
-0.76397449 2.5101047 0.20172852
0.14685351 2.5191088 0.2016965
-0.18374112 2.5534558 0.2015487
-0.83734673 2.5600677 0.20151627
-0.23755859 2.6168544 0.20127964
-0.11509722 2.6217492 0.20125972
-1.0172833 2.6463058 0.20114957
-0.32096919 2.6597667 0.20109721
0.05605619 2.6575 0.20110935
-0.28851452 2.6694775 0.20974748
-0.97635126 2.924938 0.20496219
-1.1287724 3.3394663 0.20650868
0.098119624 3.4258738 0.20867115
-0.38307542 3.4306722 0.2004616
-0.31052017 3.4376965 0.2036294
-0.8510195 3.4463799 0.20406014
-0.45818794 3.7817111 0.20773746
-0.50641131 3.8031745 0.20896119
0.24694875 -0.23665847 0.21916887
-0.99295425 -0.21668863 0.21955495
-0.83214509 -0.15753333 0.21636602
-0.82248861 -0.15341103 0.2158671
0.19562858 0.29502103 0.21699829
-0.6767115 0.39439622 0.21071108
-0.6016283 0.54639858 0.21088681
-0.096848913 0.55352247 0.21996385
-0.40360135 0.56475109 0.21114129
-0.57286239 0.77549076 0.21774183
-0.27644688 0.77539694 0.21960482
-0.12016617 0.77628446 0.21750274
-1.0631324 0.80278957 0.21640612
0.35216475 1.0207205 0.21098718
-0.23725057 1.0845162 0.21887313
-1.1340034 1.2568125 0.2195304
0.35188657 2.7613981 0.21162392
-1.0213608 2.850013 0.21467689
-1.135587 3.2803526 0.21131997
0.44806403 3.3483968 0.21048997
0.13668244 3.416245 0.21884304
-0.9041943 3.4646173 0.2182318
0.13246089 -0.083943754 0.22037992
-1.0321807 0.046333175 0.22947575
-0.43264201 0.1349242 0.22938709
-0.49571192 0.31873125 0.22315252
-0.21954401 0.37334341 0.22490618
-0.16265406 0.6090585 0.22189352
-0.88578558 0.62018675 0.22005843
-0.77490556 0.97103679 0.22227201
0.36491248 1.00124 0.22751418
-0.88128376 1.0359397 0.22227201
-0.85265684 1.0341794 0.22227199
0.10050051 1.1004441 0.22227198
-0.75972009 1.1528434 0.22227199
0.15522008 1.1633279 0.22227199
-1.0646428 1.2036262 0.22944362
0.0099921376 1.2689415 0.22227201
-0.13812594 1.2770268 0.22227199
0.36204895 1.3129591 0.22725536
-0.34864026 1.3895116 0.22586074
-0.13696539 1.4468101 0.22227199
-0.60397995 1.4771091 0.22227199
-0.80192673 1.4839724 0.22227201
-0.82036811 1.5606771 0.22227201
-0.043532588 1.5791806 0.22227199
-1.1374909 1.8200105 0.22303657
-1.1046679 2.0859089 0.22816806
0.084650934 2.1444302 0.22227198
-0.81618822 2.1813765 0.22227199
0.19586173 2.1906681 0.22227199
-0.9093408 2.2305181 0.22227199
-0.90621883 2.2626469 0.22227198
-0.89314979 2.4230938 0.22227201
0.12353678 2.4307289 0.22227198
0.25890064 2.5272412 0.22959097
-1.1491392 2.5773888 0.22351447
0.37730947 2.6348147 0.22950904
0.32226506 2.7596092 0.22189789
0.38831866 2.837945 0.22923654
-0.12398867 3.0032177 0.22961678
0.29503071 3.1136432 0.22453973
-0.12875955 3.1292839 0.22238159
-0.51382977 -0.30149856 0.23101966
-0.98144311 -0.29419178 0.23460509
-0.70344967 -0.29766381 0.23023957
0.32905817 -0.019027725 0.23270467
-0.90628445 0.021610351 0.23239574
-0.99830663 0.031367458 0.23019882
-0.94109261 0.041695077 0.23631698
-1.1702514 0.1057279 0.23562308
-0.56126636 0.33506516 0.23362342
-0.2307336 0.40566418 0.23455934
0.22873002 0.42036697 0.23650736
-1.2058296 0.61265147 0.23602802
0.20170847 0.6772688 0.23464945
-1.0817028 1.1553454 0.23545776
-0.51553464 1.1824961 0.23825842
0.32885945 1.4294238 0.23487547
-0.39877957 1.4835043 0.23388219
-0.35424963 1.5974485 0.23394442
0.3673133 1.7432138 0.23900557
0.32733405 1.8970281 0.23453274
0.33097118 2.0234287 0.23579958
-0.42188418 2.0805719 0.23204803
0.36146027 2.1069601 0.2353967
-0.38124228 2.3974128 0.23425922
-0.32696804 2.4617124 0.23438154
0.30789822 2.5642734 0.23763949
-0.40380451 2.5844123 0.23428914
0.17543867 3.0289903 0.23420286
-0.78822649 3.0844951 0.23699021
0.11414401 3.1380522 0.23693761
0.47754842 3.2978609 0.23195115
0.17887938 3.7039087 0.23289934
-1.1528498 0.00071091438 0.24120276
-0.46584666 0.020852938 0.24076247
0.12590519 0.038857203 0.24643849
-0.23569323 0.21902975 0.24580449
0.19920717 0.27550101 0.24980846
-0.19058186 0.2851778 0.2476666
0.258237 0.34917986 0.24437311
-0.26458874 0.44765586 0.24376215
-0.22638211 0.6001972 0.24445342
0.37415567 0.86520207 0.24220946
-1.0695853 1.051631 0.24765237
0.37597138 1.3420488 0.24587123
-0.45307392 1.3742292 0.24885172
0.3256087 1.3779855 0.24869271
0.3728134 1.6049 0.24467647
-1.1173384 2.7389987 0.2497398
0.26985776 3.070375 0.24822479
-0.80309737 3.0817399 0.24190585
-0.98320973 3.0916901 0.24166292
-0.80306584 3.1023321 0.24192509
-0.83586466 3.1279452 0.24270771
-1.1043304 3.354449 0.24402152
0.16448402 -0.3122471 0.25323859
-0.77774793 -0.26566666 0.25148404
-0.79067612 -0.24088377 0.25095564
0.31770718 -0.18733211 0.25818858
-0.076020733 0.32600075 0.25551915
-0.52439022 0.37263554 0.25091642
-0.31028074 0.43765229 0.25358483
-0.13106169 0.56055218 0.2546187
-1.1498575 0.62418485 0.25158018
-1.1532056 0.74908185 0.2533085
0.3109189 2.2289567 0.25577942
-1.156046 2.2704113 0.25047839
-0.93582773 2.736933 0.25967503
0.26952454 2.8611336 0.25014669
-1.2519662 2.9729438 0.25052178
-0.098864436 3.0579033 0.25324363
-0.95539874 3.1599727 0.25781831
-0.62313592 3.1952634 0.25580803
0.085526489 3.4993043 0.25421154
0.10600807 3.8207231 0.25368926
-0.79531968 -0.24804172 0.2629022
-0.45163554 -0.24821845 0.26514781
-0.41024941 -0.24884336 0.26607567
-0.20060202 -0.24863768 0.26319611
-0.052817635 -0.22789246 0.26329935
-0.88668454 0.055662826 0.2680878
-0.1912705 0.13094571 0.26991373
-0.31829751 0.26857948 0.26781213
-0.11368459 0.46766043 0.26473171
0.38966885 1.0978961 0.26112118
-1.1667973 1.1580868 0.26280132
-1.1666967 1.3728333 0.26421949
-0.73947501 1.5142301 0.26675427
-0.27126735 1.9127758 0.26617783
-0.74006033 3.0993679 0.26887411
0.19122601 3.1278241 0.26217619
-0.40958425 3.254498 0.26846772
0.051356968 3.3460765 0.26315856
0.06795866 3.4842358 0.26630202
0.37983483 3.6079354 0.26235282
-0.63039607 -0.25372112 0.27782822
-0.12037607 -0.25142291 0.27503121
0.071830317 -0.0010998587 0.27427268
-0.97937638 0.26931262 0.27070051
-0.54965371 0.28795138 0.27759582
-0.43808597 0.41875544 0.27467936
0.12676297 0.5775736 0.27858788
-0.44954652 1.3851919 0.27129719
0.32067138 1.9880008 0.27579516
-1.0820587 2.3780515 0.27164173
-0.77785277 2.4993901 0.278299
-0.16439928 2.7365165 0.27690279
-1.2395383 2.998877 0.27329072
0.47195977 2.9992571 0.27439973
-0.11996481 3.1337371 0.27815872
0.0045613525 3.3846333 0.27212906
-1.1305517 3.4017863 0.27482331
0.38103864 3.5056031 0.27951282
0.0077059781 3.71596 0.27212134
0.13135064 3.9014702 0.27651745
-0.78203851 -0.30765933 0.28092453
-1.0760049 -0.2992506 0.2828176
-1.0470181 -0.15876558 0.28589585
-1.2220843 0.094551787 0.28997877
-0.56464684 0.2027272 0.28206834
-0.37761921 0.28506094 0.28904569
-0.46376663 0.47902372 0.28567159
-1.1875117 0.52991676 0.28283301
0.12676938 0.58162522 0.2870526
-0.52981228 0.62299705 0.28772259
-0.53363252 0.7551198 0.28500304
-1.1368494 0.9998095 0.28334454
-0.23715717 1.0508456 0.28315961
0.31723475 1.6698509 0.2820071
-0.4798477 1.9104842 0.28198513
-1.1665425 1.9958893 0.28784773
-0.92610031 1.9921309 0.28638628
-0.57881403 2.1109509 0.28308672
-1.1675479 2.7375658 0.2854628
-0.13972473 2.788012 0.28644043
-0.79633141 2.851687 0.28563175
0.17683035 2.8645978 0.28544515
-0.43674877 2.891063 0.28511602
-0.72919947 2.9280405 0.28922117
0.26968145 2.9596982 0.2852447
-0.81519544 3.0586648 0.28703761
-1.0208657 3.1581476 0.28033966
0.20541193 3.5729532 0.28208494
0.21637599 3.5915306 0.28208664
0.15909095 3.6773689 0.28209057
0.046454981 3.7413452 0.28206712
0.17773181 3.790432 0.28813189
0.207004 -0.37870148 0.29843554
-0.18022248 -0.31242812 0.29263484
-0.68023783 -0.2625348 0.29617482
-1.2021276 0.18815675 0.2983714
-0.63572204 0.20870502 0.29728723
-0.54437351 0.29152074 0.29782942
0.258237 0.36330083 0.29019979
-0.44770736 0.40566441 0.29437011
-1.2201056 0.59725201 0.29757336
-0.7383979 0.66686797 0.29301345
-1.0347868 0.67539489 0.299321
-0.96729141 0.75119704 0.29564226
-0.94710946 1.8099761 0.29188898
-1.0932547 1.8266821 0.29885414
0.34139395 2.2426114 0.2965416
-1.0312463 2.2592335 0.29671833
0.40381771 2.7162292 0.29813516
-0.93945819 2.9315984 0.29123414
-0.53751165 3.0562537 0.29411232
-1.2276554 3.3446329 0.29837817
-1.1961622 3.3599942 0.29593056
0.29602554 3.3552294 0.29053175
0.086469941 3.4170151 0.29961437
0.31748441 3.7896998 0.29693592
0.17753567 3.8812521 0.29842412
-0.11623218 -0.31704077 0.30309501
0.35169721 -0.037791755 0.30362839
0.12591954 0.047702443 0.30146354
0.070826285 0.11227655 0.30828357
-0.084992766 0.15232313 0.30807501
-0.20450564 0.50155842 0.30409572
-0.84234214 0.59110188 0.30236265
-0.08582861 0.66773945 0.30710107
0.18124811 0.66783577 0.30390313
-1.1658381 0.73180294 0.30610263
0.36747044 0.99647242 0.30724519
-1.0094737 1.7143452 0.30831733
0.26368582 1.7181488 0.3084603
0.29656053 2.0051672 0.30853271
-0.48265493 2.1132035 0.3096233
0.26959655 2.9064229 0.30076063
-1.239892 3.1147692 0.30716524
-0.70735466 3.1351192 0.30357733
-1.0207447 3.233752 0.30301827
0.40391403 3.3974221 0.30333641
-0.3240371 3.6782696 0.30316693
-0.37555182 -0.27051449 0.31010187
-0.074106239 -0.19792297 0.31307328
0.28715459 0.023691015 0.31109628
0.12591273 0.043386675 0.31906182
0.44621697 0.082473509 0.31407169
0.070741035 0.21881977 0.31337863
-1.2019942 0.61960584 0.31105852
-1.0554912 0.62881845 0.31785214
0.3127369 0.7648713 0.31780007
-0.51749891 0.96149397 0.31634498
0.31415859 1.3575392 0.31996089
0.10939008 1.5040143 0.31717706
-1.0008893 1.5516188 0.31070176
-1.0250269 2.0302417 0.31851581
-0.87214315 2.9757116 0.31707859
-0.026413595 2.9892478 0.31819174
-0.44266486 3.0078773 0.31956145
-0.35002124 3.009526 0.31969512
-0.52331972 3.1356363 0.31441694
-0.2789036 3.4894617 0.31181031
0.31991515 3.8861065 0.31030822
0.035859793 -0.40971538 0.32467252
-1.120171 -0.3795861 0.32826656
-1.0892413 -0.29698724 0.32729432
-0.015523469 -0.22820668 0.32271168
-0.58823389 0.22209051 0.32667017
-0.29583204 0.28496894 0.32862434
-0.1284519 0.36129665 0.32620585
0.25531062 0.37855649 0.322146
0.40964845 0.71422136 0.32644156
0.10535516 0.74354148 0.32646608
-1.0922041 1.1564965 0.32931972
-0.10981479 1.5029782 0.32018459
0.39781588 1.8036249 0.32616529
0.14839783 2.1151545 0.32155967
0.27548328 2.224951 0.32516402
0.34765691 2.7661161 0.32457212
0.4302609 2.8962295 0.32812282
-0.22545481 3.0295749 0.32122093
-0.80562586 3.0510001 0.32278818
-0.24023834 3.0536475 0.3230384
-0.076074913 3.1373763 0.32529408
-0.79986364 3.1785324 0.32529631
-0.37491474 3.1995156 0.32529765
-0.71393514 3.21802 0.32529876
-0.00040111691 3.2259552 0.3252992
-0.89070642 3.269696 0.32530481
-0.39146861 3.2868512 0.32530275
0.29020733 3.285609 0.32214567
-0.40784377 3.2970023 0.32530332
-0.28463256 3.3100984 0.32530409
0.16198839 3.3222594 0.32530454
-0.52351779 3.3454194 0.32530615
-0.52355725 3.368845 0.32530722
-0.36912146 3.4005723 0.32530934
-0.47300243 3.4239986 0.3253099
-0.12100679 3.4223537 0.32531062
0.033253167 3.4719009 0.32410038
-0.64339852 3.492557 0.32533368
0.042849701 3.5219071 0.32531637
-0.71054214 3.5346289 0.32533699
-0.53763902 3.5600863 0.32533699
0.072989941 3.5667527 0.32531896
-0.43457285 3.6002698 0.32533699
-0.96899271 3.6558945 0.32533699
-0.47460529 3.6745203 0.32533699
0.26878431 3.7150657 0.32525876
0.1881988 3.724237 0.32532811
-0.79942018 3.7428925 0.32533699
-0.30408028 3.7439201 0.32533699
-0.8240813 3.750802 0.32533699
0.3740305 3.7523155 0.32862699
-0.47196692 3.7613506 0.32533699
0.099602714 3.7758157 0.32533085
0.1666209 3.8008289 0.32533255
-0.082653396 3.8283167 0.32533699
-0.66273952 3.8526456 0.32533699
-0.23252448 3.8658152 0.32533699
-0.55659693 3.8788729 0.32437587
0.27156109 3.8773272 0.32492653
-0.92050838 -0.32855386 0.33890375
0.29502887 -0.30655974 0.3318885
-0.34084713 -0.28227824 0.33454984
-0.68606877 -0.27972454 0.33186293
-0.41801929 -0.0076775653 0.33341363
-0.085832626 0.35311654 0.33846909
-0.19429655 0.36176956 0.33039325
-0.30832103 0.66709542 0.3314327
-1.1807084 0.86352062 0.33697516
-0.7293247 1.4985095 0.33535701
0.40126216 1.8109238 0.33554068
0.39886662 2.1931701 0.33803022
0.20747702 2.4703667 0.33507589
0.32725415 2.6573517 0.33571783
0.26940292 2.7849379 0.33676413
0.44890913 3.0545752 0.33985764
-0.99183583 3.0879726 0.33928987
0.26315093 3.0872846 0.33464962
0.29902989 3.355556 0.33626744
0.1210494 3.4629662 0.33903545
0.14691186 3.5977616 0.33541563
0.13749763 3.6010351 0.3370021
0.059563357 3.6586647 0.33458546
-0.10628404 3.898237 0.33580989
0.20402397 3.8979163 0.33368686
-0.021883357 -0.33384502 0.34048662
-0.10867976 -0.28569293 0.34570786
-0.79302311 -0.18857729 0.34149423
-0.66986644 0.2238808 0.34209502
-0.005283698 0.28702921 0.34218174
-0.54122198 0.29092503 0.34789264
0.1263489 0.31739205 0.34034306
-0.21725182 0.63522083 0.34182522
0.22279431 1.3991895 0.34514612
-1.093749 2.0737431 0.34772253
0.30736116 2.1775315 0.34784484
0.35898843 2.2503161 0.34248435
0.41022676 2.3276615 0.3460272
-0.49601895 2.4641545 0.34452891
-1.171721 2.7476745 0.34079587
0.22692946 3.0696495 0.3444154
-1.1409101 3.3409622 0.3442803
-0.75352502 3.9029903 0.34788081
-0.70113754 3.9034295 0.34873343
-0.88663566 0.086221494 0.35075098
0.070836499 0.10410005 0.35534763
0.1261263 0.1776129 0.35532486
0.12646799 0.3921575 0.35646933
0.38752514 0.45327333 0.35650182
-1.1977015 0.54736316 0.35757917
-1.0420513 0.54925871 0.35385895
0.069834389 0.54520553 0.35072851
-0.34236485 0.66679144 0.35243279
-0.041310072 0.66723859 0.35515237
0.37394947 1.0029645 0.35130697
-1.0003922 1.2566006 0.35444492
0.15580285 1.4963186 0.35104617
-1.0932362 1.7568353 0.35029107
-0.93912101 1.882337 0.35520029
0.43046975 2.7672944 0.35751772
0.32565162 2.7705457 0.35318553
-1.1598318 3.8657861 0.35489479
-0.55481738 3.904911 0.35164842
-0.44758892 3.9083109 0.35857287
-0.2586669 -0.34618938 0.36519703
-1.1265302 -0.14076598 0.36550075
-0.886675 0.06155514 0.36305922
0.26395276 2.4525609 0.3683022
-1.0827565 2.6898229 0.36294734
0.27015379 3.2564077 0.36180398
-1.2205907 3.2751322 0.36381966
-0.26975861 3.9103041 0.3621406
0.079139307 3.9111304 0.36218822
-0.1994995 -0.30281791 0.37926644
-0.77174711 -0.18683398 0.3766306
-0.31573474 0.28485751 0.37317768
-0.94460183 0.36155778 0.37056321
-1.1708554 0.41584218 0.37284565
0.22357649 0.5721249 0.37301505
-0.84253931 0.62821436 0.37058169
-0.29285774 0.66664034 0.37175691
-0.14379258 1.4910951 0.3717472
0.22000828 1.7223055 0.37483516
0.41567045 1.814997 0.3743782
0.41488257 2.1295991 0.37933305
-1.0825425 2.478873 0.37561423
-1.0827202 2.5998449 0.37354612
-1.0206673 3.2826197 0.37420648
0.39021528 3.7718906 0.37080801
-0.74520862 3.9139421 0.37171561
0.31642482 3.9386876 0.37626034
-0.76005393 3.992938 0.37776601
0.28624871 -0.43676201 0.38131955
-0.79666787 -0.30249232 0.3808651
-0.73953772 0.1984079 0.38256651
0.17604387 0.33408833 0.38983029
0.19138382 0.33566421 0.38844153
-0.58589149 0.66597503 0.3884525
0.051560469 1.0056489 0.38310602
-0.19726044 1.5220928 0.38201797
-0.22300057 1.5525892 0.38198271
-0.11656888 1.5553743 0.381993
0.21318072 1.6151139 0.38743159
-0.18826917 1.6208165 0.38225222
-0.83604163 1.6440518 0.38234815
-0.77140743 1.7078819 0.38260013
-0.52303648 1.7253864 0.38537359
-0.69722408 1.8463683 0.38219795
-0.06907472 1.8634167 0.3821497
-0.76310831 1.8818305 0.3822841
-0.81643599 1.9497876 0.38611579
0.39278698 2.2775273 0.38320068
-0.77584296 2.4397922 0.388917
0.32752365 2.5928569 0.3871159
-1.0213652 2.8485849 0.38121596
0.35590732 3.1910839 0.38853529
-1.0666296 3.3402913 0.38308844
-1.1779971 3.759855 0.38062698
0.25710827 3.9205863 0.38709351
-0.6964739 -0.43888664 0.39349127
-1.0618221 -0.38775226 0.39464742
-0.78922856 -0.31039032 0.39715379
-0.97302544 -0.037948914 0.39859423
-1.0884318 0.054095417 0.39174968
-0.84241498 0.15452376 0.39199132
0.39862067 0.19014302 0.39301178
-0.09733513 0.2733219 0.39116353
-0.18279243 0.29579005 0.39411864
-0.10665341 0.33585638 0.39148989
0.23747027 0.36146903 0.39818311
0.070594482 0.42496693 0.39306316
-0.57033968 0.73264122 0.39435095
-0.49939167 1.5859987 0.3915745
-0.90512025 1.595229 0.39557627
0.22098812 1.6366203 0.39715162
0.23598891 2.0658553 0.3928237
-1.0824732 2.3955986 0.39346313
-0.30151123 2.4819078 0.39950129
-0.75146323 2.5375681 0.39967024
0.13986179 2.5433612 0.39968753
-0.67314798 2.586822 0.39986449
-0.69658059 2.5915771 0.39988345
-0.58672464 2.6016788 0.39992267
0.12448411 2.6105595 0.39995331
-0.48926803 2.8085706 0.39967793
-1.021085 3.021724 0.39171413
-1.1255331 3.3442562 0.39735159
-0.087882951 3.9975564 0.39665458
-0.53209341 -0.43923074 0.4080478
0.42585161 -0.078277245 0.40339881
-1.1994952 -0.0012798128 0.40086478
-0.18295762 0.045094576 0.40285635
-0.16085888 0.15004826 0.40438738
-0.47796175 0.30848804 0.40972376
-0.50526249 0.32078305 0.40996817
-0.61558509 0.38840199 0.40933928
-0.59366375 0.41842693 0.40953457
-0.30172649 0.66620588 0.40708411
-0.51005352 1.1219298 0.40087932
0.31493434 1.2934247 0.4095962
-0.49895558 1.6341974 0.40624961
-0.30337361 1.7728312 0.40521663
0.18401441 2.0127542 0.40663949
0.19879647 2.0691285 0.40856996
-0.10841149 2.5403345 0.4096626
-0.25966343 2.6283154 0.40002593
-1.2055943 2.6332817 0.40714714
-0.64290333 2.690568 0.40027446
-0.85677814 2.732533 0.40044171
-0.5064922 2.7311461 0.40043408
-0.32635155 2.7303157 0.40042961
-0.25047672 2.7690814 0.40028167
-0.5970754 2.7709153 0.40022719
-0.87051231 2.879765 0.40017241
-0.70553273 2.8821642 0.40018713
-0.60232264 2.8935447 0.40026441
-0.24683328 2.9010344 0.40031207
-1.1419291 3.0707231 0.4071725
-1.1535748 3.1537914 0.40876713
0.4205969 3.5515363 0.4054606
-0.065251812 3.9253483 0.40347388
-1.1499814 3.9743538 0.40465268
-0.32240519 -0.43960574 0.41752166
-0.28628549 0.29067475 0.41494587
-0.4399406 0.30196613 0.41048279
-0.94765151 0.33479095 0.41681397
0.12637348 0.33285317 0.41143513
-1.1180687 0.60254431 0.41836637
-0.20515224 0.66623187 0.41783321
-1.2107248 0.73916167 0.41670144
-1.2116492 1.3855581 0.41539073
-1.2082636 1.84001 0.41049951
0.42580357 1.8752151 0.41177523
-0.89207721 1.9059253 0.41255283
0.42584789 1.912746 0.41222966
0.12097865 1.9768373 0.41881448
-1.1492167 2.7763641 0.41443211
-1.0302848 2.7882955 0.41567639
-1.2147388 3.1904461 0.41389075
0.47658697 3.2822704 0.4156146
-1.0401791 3.3174307 0.4110229
-0.68475294 -0.45954204 0.42448878
-0.49471962 -0.43930897 0.42355984
-0.020407969 -0.36526331 0.42147449
-0.29532853 -0.20537804 0.42800069
-1.0670491 -0.11539771 0.42633408
-1.05932 -0.046527553 0.42601699
-1.123425 0.076847762 0.42298543
-1.0790235 0.42770326 0.42834562
-0.63107067 0.66546637 0.42514122
0.31162682 0.73861456 0.42489657
-1.0715611 0.84491509 0.42236099
-1.0923922 1.0999352 0.42361498
0.4314189 1.3555582 0.42407238
0.43096295 1.3886291 0.42485708
-1.2157979 1.4441111 0.42034388
-0.3045904 1.5877316 0.42739862
-0.51260406 1.7943962 0.42553985
-0.64396614 1.9762533 0.4266648
-1.240486 2.6958282 0.42322376
0.37140781 2.7985382 0.42368788
0.070413291 2.9236021 0.42769504
0.24795467 3.3024435 0.42370635
0.45506501 3.3946221 0.42215523
-1.2390079 3.6653309 0.42170191
-1.0939763 3.9292872 0.42026752
0.030753925 3.9319665 0.42301443
-0.66028738 -0.4389624 0.4388546
-0.49644268 -0.43930534 0.43766376
0.42851505 -0.22846571 0.43064213
-0.2332909 -0.20547685 0.43816555
0.018907394 -0.19602636 0.43458968
-0.71760905 0.030900624 0.43740326
0.22027691 0.13391945 0.4352085
-0.8865205 0.15874439 0.43420744
-0.65043563 0.29064748 0.43593591
-0.40651482 0.29847729 0.43362284
-1.2272912 0.53118837 0.43112573
0.13397248 0.61718428 0.43558124
0.33935106 1.0399804 0.4318226
0.43377823 1.1617585 0.43571037
-0.36768574 1.2405269 0.4313868
0.44099402 1.3130051 0.43803474
0.43926671 1.4968382 0.43627971
-0.47958994 1.603462 0.43945399
-0.91019255 1.6917083 0.43255714
0.43314132 2.2318292 0.43758786
0.2259827 2.4860253 0.4333632
0.42348775 3.5792384 0.43562782
-0.40250504 -0.43950194 0.44266337
-1.1273901 -0.22288246 0.44637966
0.30619878 0.079560488 0.4435786
-0.68276531 0.088837363 0.44200701
0.1261858 0.2150535 0.44131291
-1.2189652 0.78796297 0.44396311
0.4430939 1.1571668 0.44378352
-1.0930566 1.466455 0.4481422
-0.26015571 1.7380384 0.44983369
-1.0936385 1.8322031 0.44187748
0.30946237 1.9622729 0.44775108
-0.75369811 1.9800743 0.44281489
-0.52052045 2.1248503 0.44129962
0.4345572 2.3943198 0.44157419
0.26945686 2.8188846 0.44073164
0.35816997 3.306006 0.44889581
-1.1974318 3.720983 0.44023091
0.20953035 3.935204 0.44851467
-0.12870322 4.0176511 0.44791085
0.15349339 -0.32341892 0.45501021
0.29665279 -0.22080588 0.45939952
-0.62582862 -0.0083779637 0.45313022
0.41511357 0.080584928 0.45162123
-1.0645427 0.18133733 0.45676932
0.32598221 0.43146449 0.45052779
0.36139289 0.46594161 0.45242703
0.14308676 0.60702699 0.45200437
-0.53682077 0.66524273 0.45655656
-1.2118542 0.98384202 0.45066002
-0.32074904 1.6580279 0.45277429
-0.87960833 1.971761 0.45791572
-1.0219188 2.2498498 0.45726824
0.44678423 2.5169547 0.45798564
0.19359607 2.7237217 0.45775136
0.18987824 2.8089957 0.45058006
-0.60889417 2.9103761 0.45494717
-0.30520305 2.9293287 0.45799744
0.46560103 3.2085814 0.45655936
0.19285285 3.9359741 0.45854342
0.026025986 3.9756644 0.45459664
0.16203952 4.0107694 0.45845097
-0.10219919 -0.14021577 0.4618575
-0.70561522 0.038627699 0.46069607
-0.60805339 0.44924888 0.46000671
-0.25693968 0.47274083 0.46752763
0.069549739 0.5713852 0.46178687
-0.10469038 0.66586435 0.46217781
-1.214397 1.1432244 0.46648073
-0.35823208 1.2900071 0.46522388
0.44212902 1.4587975 0.46471116
-0.97143793 1.6720554 0.46656555
-0.43836224 1.7139508 0.46908996
-0.2993218 2.0074296 0.46830431
-0.95287085 2.0777264 0.46580774
-1.2487347 2.7211144 0.46747062
0.46725067 2.7992697 0.46779385
-1.1077746 2.8213136 0.46247482
0.4087055 2.9198809 0.46326143
-0.68877137 2.9320302 0.4652338
0.43352553 3.4818025 0.46538472
-0.37204659 3.9358149 0.46748441
0.085633606 0.034688998 0.47637111
0.070776448 0.10169293 0.4742133
0.34751672 0.20431797 0.47452831
-0.08933486 0.26444408 0.47530589
0.3408156 0.35795134 0.47290051
0.3680189 0.44583562 0.47909904
0.43823689 0.81260061 0.47980455
-0.35405591 1.2904491 0.47810295
-0.92612076 1.7174276 0.47267753
-0.47579753 1.7912211 0.4746435
-0.4526068 2.0183315 0.47763255
-0.72233415 2.1285708 0.47319335
0.27652487 2.7850785 0.47099152
-1.195725 2.83112 0.47141054
0.24371415 2.8644838 0.47875628
-1.2022527 3.7143855 0.47819197
-1.0954689 -0.37235776 0.48170206
-0.46395075 -0.3353315 0.48017281
0.034265012 -0.33332461 0.48227364
-0.27855062 -0.26744142 0.48283172
-0.32436514 0.038431887 0.48492953
0.43887454 0.13313527 0.48901111
-0.4084937 0.3242358 0.48241442
0.07034608 0.51736981 0.48195532
-0.23734075 0.72610044 0.48090294
0.33546758 0.99749732 0.48352632
-0.30212912 1.6613483 0.48356131
-0.46957552 2.1299486 0.48089409
0.32040238 2.7791648 0.48647046
0.43064329 3.1276107 0.48525351
0.34736869 3.1624498 0.48585644
-0.57796621 3.936667 0.48204136
-0.27498382 4.0174947 0.48761481
-0.75908297 -0.33921093 0.4975515
0.22717659 -0.32442337 0.49783069
-0.44125503 -0.20514563 0.49302113
-0.63129342 0.36437762 0.49181437
-1.1257221 0.47308478 0.4923729
-0.48742309 0.66488099 0.4935793
-0.36300984 1.0789281 0.49622101
-0.23731895 1.1090504 0.49579909
0.44074756 1.331001 0.49571383
-0.096016631 1.9951099 0.49935341
-1.220142 2.1156998 0.49299455
0.12842308 2.1332757 0.49963665
0.38067251 2.9303937 0.49997771
0.38556594 2.9595401 0.49670768
-1.0442129 3.0434544 0.49615189
-1.158282 3.1377478 0.49844253
-1.2499024 3.7816887 0.49288875
-1.1970122 3.8409081 0.49643865
0.26877493 3.93859 0.49010751
-0.066816308 3.9826951 0.49172822
-0.11174518 4.0176687 0.49820441
-0.350481 -0.37600148 0.50555152
-1.1121852 0.11096481 0.5031516
-0.187226 0.15375502 0.50333643
-0.88649684 0.17356411 0.50315815
-1.0537665 0.26687068 0.50332779
-1.1557562 0.40331882 0.50076252
0.34720784 1.0353017 0.50516641
0.31584817 1.2218289 0.50674337
0.31401342 1.4378955 0.50274312
0.43705848 1.966453 0.50439417
0.30092567 2.1083875 0.50716805
0.2650283 2.2546697 0.50467879
-1.0830729 2.5474834 0.50819165
-1.0166551 2.8986742 0.5038138
-0.23492946 2.9506433 0.50439149
-1.085403 3.0251074 0.50685716
-1.2505529 3.0666509 0.50938845
-1.2081072 3.1311212 0.50558561
0.41724858 3.1916449 0.50732714
-0.90155607 4.0001936 0.50664443
-0.16348721 -0.34470958 0.5198608
-0.31385481 -0.15659815 0.51278609
-0.25642654 -0.11094294 0.51112062
-1.156355 -0.086605906 0.51762438
-0.1118065 -0.010496747 0.51754916
-0.907754 0.023715191 0.51674932
-0.15183648 0.048894361 0.51911211
-0.68520367 0.14335112 0.51176327
-0.58786881 0.23688608 0.51214498
-0.087404229 0.27250493 0.51019311
-0.082792953 0.32215533 0.51099861
-1.0608823 0.50819916 0.51583374
-0.390751 1.0815196 0.51860416
0.30724692 1.4352626 0.51921636
0.44125929 1.5959157 0.51420158
-1.0869278 1.6416222 0.51967406
-1.222681 1.7205913 0.51699853
-0.12436002 1.9981732 0.5119189
-0.30392441 2.0605917 0.51577514
-0.19124193 2.1343493 0.51216441
-0.0039016679 2.1346312 0.51201367
-0.55974138 2.9531076 0.51090491
0.4168452 3.2519264 0.51435953
0.33192047 3.2826526 0.51323253
-0.49260509 3.978652 0.5162313
-0.057930671 -0.34498674 0.52225566
-0.47452968 0.44690543 0.52188528
0.29705986 0.49521002 0.52870691
0.44585755 0.82313621 0.5299893
-0.51769686 1.0218537 0.5235821
-0.37574765 1.0890896 0.520509
-1.2240241 1.6142912 0.52871603
0.3063395 1.8748362 0.52240837
-1.2249796 2.2213337 0.52537292
-1.2252376 2.4428711 0.52386928
-1.2110021 2.8525462 0.52427804
-1.2020054 2.8576765 0.52807826
0.048358686 2.9624104 0.52915108
-1.0044225 3.0858264 0.52519834
0.086824156 3.9409952 0.5238843
-0.23221932 3.9660454 0.52036357
-0.28152299 0.073461495 0.53600782
-0.16293679 0.10619304 0.53325248
-0.84250665 0.18885112 0.53111899
-0.84282064 0.31000894 0.53894174
-0.92984802 0.3433547 0.53050494
-0.63005519 0.39746553 0.5328809
-0.57369393 0.44581553 0.53636646
0.27577198 0.49596018 0.53547794
-1.2288443 0.55867153 0.53200829
-0.86314499 0.96209317 0.53968608
-0.2149421 1.0756809 0.53909844
-1.2257389 1.7431921 0.53935903
-1.2258078 1.7971735 0.53856063
-0.25417641 1.9487776 0.53439826
-0.95469266 2.017185 0.53518689
-0.45091411 2.010818 0.53390008
-0.61842316 2.1370537 0.53882962
-1.0829365 2.4135554 0.53780419
-1.0830902 2.4961443 0.53841507
-1.2084205 2.9203899 0.53777802
-0.058348425 2.9535038 0.53801543
-1.2302823 3.5841641 0.53235775
-1.1795031 3.9438455 0.53443766
-1.0478196 -0.29580379 0.5413475
-1.1854067 0.47687626 0.54630297
-0.88602412 0.47003928 0.54867101
-0.84238529 0.61303151 0.54795527
-0.87059599 0.67084128 0.54708457
0.2273391 0.74125111 0.54134411
-1.2241477 1.0891796 0.54871166
-0.17724723 1.0963057 0.54625583
-1.2250283 1.4511604 0.5431149
0.44473213 1.5840498 0.54250216
-0.66483462 2.0047059 0.54180861
-0.45002565 2.0235469 0.54880887
-0.29771322 2.1377227 0.54008484
0.19591331 2.1385648 0.54043263
-1.083093 2.4804113 0.54693073
0.22944379 3.0099337 0.54853892
-1.0880821 3.2476525 0.5438183
-0.86536175 -0.31450996 0.55517507
-0.38159344 -0.31657773 0.55513287
-1.160066 -0.093401685 0.5529784
-0.68528342 0.093280733 0.55599648
-0.34278634 0.2792871 0.55813569
-0.82460821 0.9867264 0.55614555
0.20842522 1.0841261 0.5516057
0.12543808 1.0966265 0.55541909
0.16257429 1.0901424 0.55344385
-1.0551125 1.6950107 0.55546474
-1.225791 1.7627263 0.5532338
-1.0940614 1.880102 0.55498487
0.055841096 2.0083094 0.55173111
-1.2282486 2.7189622 0.55378145
0.32835835 2.9374473 0.5576998
-1.1560276 2.9551654 0.55891883
-1.1097112 2.9519796 0.55648017
-0.52970171 2.9724488 0.55312169
-1.0210142 3.0648406 0.55902797
-0.98233235 3.9415929 0.5598498
-1.1573215 -0.12846179 0.56026614
-0.84277356 0.55250216 0.5643819
0.44451129 1.614309 0.56873059
0.26145789 2.245975 0.56645852
-1.0215869 2.9481308 0.56702226
-0.016719218 2.977915 0.56330419
-1.0222501 3.1215024 0.5641886
-1.2046528 3.8267879 0.56160915
-0.6544739 3.9421859 0.56015062
0.10660604 -0.30252311 0.57645524
-0.91489589 -0.056534871 0.57900167
0.44833165 0.16938201 0.57143307
-0.4508498 0.25070357 0.57429487
0.31492704 0.33891577 0.57800829
0.28463405 0.36530674 0.57592249
0.27628392 0.43751341 0.57991445
-1.0201538 0.46245307 0.57524979
0.19675781 0.46822006 0.5701645
-0.70776469 0.67427361 0.57111144
-1.2164735 0.70967132 0.5753262
-0.049568404 1.0663157 0.57264197
0.016024824 1.06642 0.57098281
0.32314441 1.0729969 0.57454956
-0.086457178 2.014678 0.57839072
0.20308471 2.0358984 0.57261741
0.2611292 2.2838547 0.571015
0.34484485 3.0543196 0.57859719
-0.99988484 3.941565 0.57305831
-0.85121274 -0.36059704 0.5846712
-1.0155745 -0.34921452 0.58230346
-0.98045552 0.34463924 0.58657432
0.24457192 0.40239763 0.58391339
-0.48313877 0.68123186 0.58829105
0.4479101 1.1655771 0.58262914
0.22009446 1.7549381 0.58964342
0.31120521 1.8037728 0.58587646
-1.07663 2.0002947 0.58627498
0.30942866 2.0178666 0.5898459
0.27237713 2.0873251 0.5836513
0.33128929 2.2309158 0.58897644
-0.12264784 2.9869275 0.58339429
0.13002028 2.9883752 0.58567977
0.3776572 3.0661213 0.58966434
0.43606758 3.5401912 0.58006585
-1.0492986 3.9130077 0.58907437
0.29647812 -0.17150767 0.59720647
-0.83439112 -0.05490496 0.59211266
-0.44736338 0.24326426 0.59495962
-1.1194927 0.29916018 0.59197891
0.31412172 0.32962602 0.59089088
0.41292971 0.36404049 0.59634304
-0.45119795 0.5335288 0.59560341
-0.60181707 0.68484545 0.59818858
-0.082861453 0.76250392 0.59525251
0.32137996 0.84087354 0.5990687
0.38691443 0.99517637 0.59942496
0.33673668 1.0104537 0.59987152
-0.54577947 1.0238445 0.59888083
0.31176656 1.7388177 0.59204841
-1.0180225 1.7506782 0.59640342
-0.93941295 1.9466038 0.59681451
0.15992132 1.9553473 0.59694099
0.15617049 2.9361143 0.59294432
0.33811453 -0.34272602 0.60248852
-0.29462528 -0.15662862 0.60723191
0.13415253 0.67221248 0.60070759
-1.0934348 1.3876324 0.60741258
0.072953969 2.0219347 0.60669738
-1.2274425 2.6149473 0.60353023
0.33018899 2.7802196 0.60172325
0.32670054 2.9555352 0.60492969
0.32670957 2.967839 0.60989559
-0.8985368 2.9942303 0.60206938
-0.53601122 2.9949608 0.60240227
-0.25520432 2.9955828 0.60279512
0.35618526 3.827153 0.60559762
-0.69277006 3.9421029 0.60806477
-0.36423916 -0.36415708 0.61841458
-0.29469019 -0.18436486 0.61764371
-0.68515944 0.17111625 0.61308491
-0.18804316 0.1848543 0.61731005
-0.42701072 0.22696134 0.61214495
0.44969082 0.94029373 0.61447442
-0.81205267 1.0395873 0.61775053
-1.273911 3.0689981 0.61395299
0.23224501 3.826956 0.61509192
0.41447794 3.8602543 0.61873901
-0.21964052 -0.34104669 0.62562191
-0.098166898 -0.14615846 0.62475795
0.38878116 -0.098675914 0.62503469
-0.93447852 0.072149649 0.62394029
-0.67195779 0.21249774 0.62257272
-0.33406118 0.21664369 0.62298435
0.18193503 0.38735279 0.6246385
-0.51759565 1.0328387 0.62466419
0.040529888 1.13218 0.62967408
0.25203839 1.8249704 0.62641758
-1.0391688 1.8823485 0.62634796
0.20197931 1.997262 0.62767488
-0.17307633 2.0252576 0.62567306
-0.07297983 2.0262175 0.62937939
-1.2269694 2.250277 0.62430274
0.39732388 2.2862628 0.62843722
0.35685477 2.4884319 0.62173444
0.074280545 3.0084152 0.62972403
-1.1579086 3.8247235 0.62781852
-0.92277884 3.94451 0.6284321
-0.85581595 3.9465127 0.62883806
0.21949026 3.9461884 0.62585497
0.19227007 -0.2683199 0.63825256
-0.1490265 -0.25207484 0.63784301
0.19772807 0.074986741 0.63698161
-0.95725799 0.080852322 0.63994569
-0.24635115 0.19003366 0.63190216
0.22373617 0.35817856 0.63872933
-0.4546532 0.53790647 0.63766658
-0.53231603 0.59084433 0.63192356
-0.75097764 0.69730532 0.6312381
-1.0837033 0.97548205 0.63952661
-1.0842017 0.9809069 0.63988638
-0.51780403 1.130017 0.6394946
-1.093398 1.3178726 0.63022554
0.15278794 1.9762645 0.63564563
-0.38211173 3.008543 0.63159668
-0.73321396 3.0106893 0.63750494
0.46429566 3.2846966 0.6370126
-1.2246976 3.4077966 0.6355924
0.12426616 -0.29507804 0.64905566
-1.1405551 -0.23232433 0.64133084
-0.95253074 0.091080032 0.64765733
-0.19187248 0.14429018 0.64084721
-0.84919918 0.15725727 0.64137596
-0.52242196 0.15113065 0.64991689
0.075120367 1.1184491 0.64058316
0.034666561 1.3741975 0.6495741
0.00010733085 1.3989079 0.64109147
-0.95651811 2.0273032 0.64627838
0.35658383 2.6584723 0.64831346
0.44232857 3.4044428 0.64973801
-1.2029294 3.8686464 0.6481331
-0.77866244 3.9385986 0.64215893
-1.0669833 -0.24002081 0.65129858
-0.46682394 0.15984571 0.65357697
-0.78334075 0.50279313 0.65227687
-0.24627729 0.71657765 0.65851128
-1.2153901 0.93984956 0.65016305
-0.12804556 1.1426538 0.65517557
-1.2259336 1.8080769 0.65220678
-0.71563447 -0.3478215 0.66266418
0.29654542 -0.19188194 0.66956663
0.29603326 0.033126928 0.66773194
-0.58528608 0.25226191 0.66242898
-0.3807666 0.30397832 0.66242898
-0.52234203 0.40105811 0.66242898
-1.2077076 0.56244254 0.66341525
-0.03630019 0.7194739 0.66665661
-0.064534739 0.78972518 0.66265857
-1.1430449 1.0197444 0.66874802
-0.30593511 1.0849892 0.6648854
0.4461247 1.3913851 0.66568434
0.20589249 2.0784218 0.66333294
0.20643827 2.095437 0.66239786
-0.95647961 2.129777 0.6660229
0.31831527 2.2020915 0.660007
-1.2276226 2.7522016 0.66527373
-0.99797511 3.9518147 0.66716516
-0.52528071 0.13840804 0.67914534
-0.5498715 0.16616499 0.67753124
-0.84318465 0.44955513 0.67206508
0.19612359 0.63081896 0.67131132
-0.84772587 0.69954681 0.67394602
-0.25287214 1.1404365 0.67784274
-1.0850976 1.2302518 0.67243773
-1.2258391 1.7657723 0.67913568
-1.2272727 2.5190797 0.6761235
-0.78142226 3.9169023 0.6758908
-0.23872997 -0.33854797 0.68216574
-1.0672685 0.041232575 0.68070555
-0.64469141 0.079715356 0.68255848
0.25701788 0.10479596 0.68483186
-0.86446929 0.26217633 0.68204719
0.45161638 0.39768714 0.68776083
-0.51198483 0.59084004 0.68715805
-0.34101588 0.72789413 0.68916446
-1.0347965 0.74555212 0.68767172
0.31337288 1.5825217 0.6824069
0.30914316 2.087224 0.68680233
-0.92996317 3.9449272 0.6807797
-0.0069181435 3.94156 0.68140441
0.20610127 3.9430108 0.68401432
-0.24826741 -0.2690134 0.69972152
-0.67224777 0.05809493 0.69164336
-0.67416155 0.31154937 0.69713122
-0.66047817 0.39673397 0.69727767
-0.37874982 0.72304714 0.69669628
0.26355189 0.80269486 0.69351315
0.30805331 0.80522788 0.69961643
-0.55858326 1.1057848 0.69443899
-0.27718538 2.1591256 0.69566512
0.24228321 2.2586913 0.69686055
-1.2270864 2.3782172 0.69440657
-1.1117253 2.4716306 0.69813395
-1.1065295 2.5707755 0.69090313
0.46111077 3.1365957 0.69984698
0.44130412 3.3624275 0.69468832
0.07061474 3.8266952 0.69262111
-0.13548648 3.9430988 0.69495994
0.18644795 3.9578507 0.69505805
-0.9504661 0.24733835 0.70781088
-0.75751066 0.68695343 0.70486099
-0.79317057 0.72066706 0.70183474
0.10265479 0.72791839 0.70434791
-1.0938386 1.4522953 0.70157063
0.30915725 2.0916574 0.70366335
0.30859244 2.1593325 0.70385605
0.46861759 3.0446725 0.70018566
-0.77810574 -0.30786464 0.71207321
-0.95058644 -0.26949951 0.71961451
-0.91967809 0.32876989 0.71173954
-0.46388757 0.49567598 0.71799636
-0.32338536 0.59079897 0.71074629
-0.98680264 0.71756393 0.71324307
-0.93180519 0.74014091 0.71047622
0.36978197 1.0149611 0.71018213
-0.26443005 1.1338727 0.71664619
0.31094161 1.8824033 0.71261483
-0.66022998 2.0469379 0.71248835
0.43965837 2.2463984 0.71505582
-0.99883896 2.2863302 0.71374816
0.44824576 2.4463594 0.7180388
-0.75948232 3.0461619 0.71521711
-0.06638632 3.0477004 0.71617585
0.42048824 3.7931666 0.71130091
-1.1979609 3.9330664 0.71356326
-0.27399933 -0.26135468 0.72386014
-0.20790094 -0.26370129 0.7274397
-1.0237556 -0.21816893 0.72162563
0.22641836 0.40574521 0.72346032
-0.7212528 0.59305477 0.72049499
-0.18144883 0.59076804 0.72046381
-0.62009501 0.73469031 0.72800225
0.31372762 1.55496 0.7203728
0.44463685 1.5847669 0.7202751
-1.2256964 1.7933465 0.72756368
-0.45057806 2.160527 0.72933406
0.43996653 2.2110658 0.72217739
0.32744396 3.0929656 0.72325635
0.036373794 3.9593804 0.72675121
0.15312992 -0.31327805 0.73558527
0.06185326 -0.28402805 0.73590589
-0.26615775 -0.27144092 0.73855972
0.25841522 0.46095943 0.73292887
-0.54102802 0.73827326 0.73700035
0.39514297 0.9900769 0.73474157
0.31759971 1.1025288 0.73809898
0.18318541 1.1642892 0.73792577
0.44454134 1.5982519 0.73063767
-0.30499136 2.0320706 0.73447788
-1.2266771 2.1179502 0.73816788
-1.0833083 2.3238182 0.73452884
-1.0833806 2.5811176 0.73028952
0.073274791 3.0560837 0.73403251
-1.2031062 3.8622923 0.73319227
-0.29261565 -0.31472933 0.74156237
-1.1293714 -0.23146212 0.74932849
-0.34697884 0.24742486 0.74004865
0.29692578 0.41033864 0.74516046
-0.25255114 0.74185002 0.74511397
-0.2439871 0.74934995 0.74763703
0.074119955 1.1900826 0.74032092
-1.2245634 1.2097399 0.74487239
-1.226199 1.905884 0.74090618
-0.24661294 2.0126798 0.74050063
-0.63009042 2.0561857 0.74967587
0.25122109 2.2974839 0.74112844
-1.219033 3.3622448 0.74011314
0.042363182 3.8862166 0.74394155
0.32842129 3.8818164 0.74405295
-0.36118138 -0.27195352 0.75727451
-0.94706786 -0.26086426 0.75703537
-1.0786853 -0.23513941 0.75477582
0.27108064 -0.12753493 0.75431454
0.30802953 -0.096816413 0.75785828
0.28414518 -0.078067727 0.75038218
-1.0874828 -0.064455748 0.75789058
0.40465215 0.12732634 0.75873739
0.41206959 0.23505726 0.75707442
-0.56824225 0.25405231 0.7598508
-0.069856718 0.7445879 0.75148308
-0.26475513 0.75038815 0.75043374
0.035439759 0.82553303 0.75102735
-1.2243052 1.0693226 0.75800204
-0.46637851 1.9873064 0.75737
-0.87952191 2.047574 0.75788271
-1.2270746 2.3998673 0.75787681
0.30077434 2.9915493 0.7501387
0.42170113 3.7426219 0.75187838
-0.89752495 3.9522772 0.75986737
-0.1027513 -0.23254037 0.76833338
-1.0851814 -0.01591889 0.76945812
-0.64155442 0.24132349 0.76126516
-1.0759233 0.31902194 0.76431513
-0.38155928 0.42564905 0.76111376
-0.32819313 0.59080023 0.76171589
0.047057237 1.3016002 0.76806515
-1.0939713 1.4107366 0.76342654
0.31379032 1.5646253 0.76511586
-0.78805304 2.0590246 0.76216012
0.32828504 2.733712 0.76274759
-1.2132835 3.5172496 0.761383
-0.50585538 0.42981189 0.77014488
-0.94105756 0.72478199 0.77439016
-0.86874932 0.75664288 0.77446687
0.084474586 1.2257495 0.77612293
-0.0059549361 2.0639477 0.77702886
0.18795955 2.1713474 0.7775225
0.43989864 2.2138357 0.77419066
0.32780829 2.7721844 0.77439493
-0.58351982 3.0731754 0.77371043
0.3137114 3.2943673 0.77846617
-0.46982169 3.9529564 0.7763074
-0.033118717 -0.17454064 0.78447396
0.31291032 -0.033383835 0.78118771
-0.72155058 -0.012542174 0.78242993
-0.094497941 -0.0056790765 0.78381479
-1.1835957 0.32989496 0.7890532
-1.0190568 0.73074853 0.78780699
-0.071339682 1.1750269 0.78356725
0.44523108 1.5210323 0.78586036
0.42808157 2.2945859 0.78925723
0.31348097 2.7141354 0.78013289
-1.0688179 2.8262415 0.78091812
0.30106679 3.0234041 0.78616261
0.18710595 3.0467265 0.7874738
-0.051050238 3.0776227 0.78159595
0.14123391 3.0779641 0.78167266
-1.213214 3.2585478 0.7836796
-1.0646107 3.9520078 0.78495133
-0.27705824 3.9532628 0.78582078
-0.39672542 -0.13769501 0.79455048
-0.37819886 0.75945127 0.79144824
-0.52411282 0.76076633 0.7954759
-0.32826582 1.1745765 0.79945922
-0.65212369 2.0679231 0.79726148
0.29464871 2.1190705 0.79788941
-1.0022153 2.2458079 0.79688656
-0.3769969 0.10143416 0.80264413
0.30054635 0.12708512 0.80911815
0.38226983 0.15179804 0.80767328
-0.97979623 0.51958901 0.8077212
-0.67519289 0.64069515 0.80769098
-0.19497147 0.64371115 0.80769098
-0.2845192 0.66143692 0.80769098
-0.68295455 0.67634082 0.80769098
-0.56387323 0.67656529 0.80769098
-0.491698 0.72602522 0.80769092
-0.35484555 0.77104563 0.80649555
-1.0766643 1.15063 0.80200577
0.0070539592 1.1691884 0.8033585
-0.06650231 1.2056618 0.80708927
-0.33692572 0.18846095 0.81666392
-0.074222617 0.2087121 0.81951535
-1.0769689 0.29804271 0.81587809
-0.60962027 0.6010685 0.8109501
-0.18904684 0.60057652 0.81123817
-0.93604094 0.77682197 0.81501782
-0.52639407 1.1730103 0.81823695
0.43664205 1.3753173 0.81249279
0.11730959 2.0739977 0.8168593
0.32412246 2.3066397 0.81815159
-1.0743062 2.5918815 0.81341982
-0.7667852 3.0931919 0.81815284
-1.0939656 0.057094153 0.82006288
-1.0942276 0.20044395 0.82436436
0.43330252 1.0808048 0.82215619
0.22375065 1.1202497 0.82784909
-0.089286603 1.1946335 0.82605433
0.068917274 2.0747998 0.82041246
-0.94576544 2.1116514 0.82193244
0.4292734 2.4175699 0.8238771
0.42712009 2.4509192 0.82636207
0.21025591 3.0301936 0.82112783
-0.1790098 3.0984762 0.82767242
-0.96665776 0.13882264 0.83315533
0.14433905 0.15757008 0.83686024
0.22241166 0.15185645 0.83506548
-0.85483992 0.16119394 0.83802992
-1.1415514 0.21378577 0.83809209
-1.0838081 0.46467337 0.83083063
-1.1754707 0.53736222 0.83984458
-0.12902111 0.59075707 0.83322418
-0.69078159 0.60091549 0.83589852
-1.1902007 0.73116624 0.83017147
0.3287861 0.73633128 0.83370864
-0.51323158 0.78015643 0.83106887
-0.60430145 1.020334 0.8352679
-0.99016297 1.0481193 0.83526599
-0.983953 1.0491461 0.83526599
-0.81592798 1.0508893 0.83526599
-0.77332151 1.1149838 0.83527172
-0.80273902 1.1730351 0.83140898
-1.2009034 1.8239162 0.83778882
-0.13794309 2.1790404 0.83479571
-1.0745499 2.7449572 0.8317405
-1.0747153 2.8488064 0.83438873
0.34211209 3.9481261 0.83894444
-0.083403654 0.12945037 0.84472561
0.32855639 0.25758681 0.84485459
-0.29204261 0.3929643 0.84288234
-0.030932084 0.39153337 0.84277022
-0.57082409 0.59085345 0.84111118
-0.1573088 0.59967214 0.84354824
-1.0643712 0.72899145 0.84426379
-0.21249548 1.1747143 0.84340632
0.41224706 1.6370173 0.84987777
0.3192949 2.4565663 0.84026909
-0.1079511 0.48899302 0.85344499
-0.38783544 0.49381328 0.85392553
-0.018148944 0.52502221 0.85741162
-0.35965899 0.59409058 0.85843283
-0.27178854 0.59249449 0.85851508
-0.71348178 0.6046741 0.85779232
-1.0072882 0.75494146 0.85701001
-0.59870565 1.0017644 0.85621333
-1.1895033 1.4323618 0.8557409
0.40569672 1.8738511 0.85761034
-0.24856704 2.0419459 0.85665858
-0.77857673 2.0831325 0.85954487
0.41013217 2.576436 0.85045409
0.39344364 3.1422794 0.85968983
-0.55462903 0.25884658 0.86338484
-0.31633317 0.25410444 0.86278194
-0.84703803 0.63159257 0.86884999
-0.7933386 0.63876665 0.86884999
-0.78859413 0.63034832 0.86749542
-1.1648759 0.64061749 0.86913848
-0.47352284 0.76633096 0.86906701
-0.22356676 0.77601337 0.86906707
-0.481471 0.7859059 0.86073363
-1.0767925 1.2314136 0.86446792
-1.1841066 1.344672 0.86449337
-1.0671548 2.7644527 0.86824882
0.39360964 3.0304627 0.86306089
0.067786224 3.1137192 0.860165
-0.84450746 0.34821483 0.87493497
-0.75738847 0.36869723 0.87719607
-0.69796765 0.78960156 0.87125039
-0.51111853 0.79234964 0.87762851
0.39945912 0.84317201 0.8707304
-0.47269857 1.0493845 0.87940246
-1.026343 1.0613875 0.87908161
-1.1812658 1.7318883 0.87049443
0.39865291 1.7772934 0.87073553
-0.13940114 2.1843381 0.87176585
0.24326129 2.2619083 0.87973869
-1.0671347 2.7483246 0.87173927
0.38338208 3.1075764 0.87751514
0.38033646 3.48611 0.8702237
-0.42420891 0.41560513 0.88239759
-0.64150345 0.4396967 0.88500226
-0.81603724 0.79560375 0.88736242
0.31201655 2.3769052 0.88311493
0.31070644 3.1968672 0.88102436
0.1026351 3.945071 0.88639361
0.33695862 3.9401817 0.88386458
-0.44927743 0.62174499 0.89995766
-1.1155386 0.94862711 0.89893061
-0.85917795 1.0094459 0.89209652
-0.4151805 1.024448 0.89186531
0.37358081 1.7406121 0.89633197
-0.93025607 2.1689472 0.89310259
-1.0695673 3.1303658 0.89571953
-1.0994295 3.3840435 0.89617306
-0.56452006 3.9374721 0.89474356
-0.74731767 0.77476633 0.9077189
-0.72526634 0.79731476 0.90890634
-0.42272392 0.95653474 0.90514278
-0.60250962 0.96824801 0.9057883
0.045575015 0.97658861 0.90409207
-0.49501103 0.98591423 0.90480715
0.061939236 0.98271716 0.9047237
0.39217994 1.1250576 0.90139234
-1.1376485 1.6272465 0.90393925
-1.0777261 1.7968832 0.90355349
0.35157803 1.8405561 0.90530646
0.34385559 1.9333451 0.9082337
0.32100976 2.7900875 0.90667391
-1.073293 2.9648132 0.90354383
0.32183152 3.088372 0.90360254
-0.94509006 3.119745 0.90260208
0.28426534 3.2185657 0.90479243
0.35235116 3.3311756 0.90575546
-1.1188669 3.8052754 0.90592611
-0.94790995 3.8849511 0.90836167
-0.64978045 3.8890014 0.90812802
-0.82814515 3.8904796 0.90801269
-0.4006117 3.89816 0.90904343
-0.44758534 3.9035039 0.90869313
-0.40468991 0.82547176 0.91170514
-0.80931532 0.8371616 0.91295564
-0.27492934 0.83167887 0.9123683
-0.077482924 0.94856012 0.91888887
-0.42005515 0.97404838 0.91027248
0.15629745 1.1627016 0.91900563
0.30137298 1.2109473 0.91314483
0.29938287 1.3945591 0.91203898
0.30848163 1.563365 0.91497493
0.33441737 1.9969438 0.91198659
0.33452749 2.0677013 0.91426206
0.34497702 2.3152227 0.91040659
-1.1111698 2.3588996 0.91548109
-1.1108538 2.6151762 0.91578412
0.34197319 2.6108613 0.91404766
-1.0929809 2.6285312 0.91462517
-1.0860415 2.6262791 0.91794258
0.34371185 2.9241748 0.91112137
-0.096491903 3.2352617 0.91592127
0.067890942 3.2358472 0.91568983
0.067363709 3.2474229 0.91524011
-1.112568 3.2591591 0.91598761
-1.0964808 3.2593369 0.91378987
-0.53817832 3.2554007 0.91093427
-0.05709843 3.255774 0.91092241
-0.5248332 3.291419 0.91201448
0.29616582 3.3071954 0.91580427
-0.037173934 3.3838153 0.91476423
-0.1197768 3.3925133 0.91502911
-0.57638204 3.496479 0.91817117
-0.044729553 3.4923549 0.91802192
0.042994108 3.7294378 0.91900057
-0.3371788 3.7531781 0.91910553
-0.98857522 3.8258755 0.91221976
0.010849014 3.8273869 0.91326606
-0.069321692 3.8640323 0.91046739
-0.048301972 0.90266752 0.92781663
0.20221013 0.93302959 0.9244976
-1.0141342 0.99028218 0.92300117
0.092222653 1.1285043 0.92732024
-1.0931767 1.5166583 0.92929041
0.33227056 2.317997 0.92847115
-0.40003568 3.1469324 0.92057776
0.34229851 3.3769355 0.92814994
0.2336216 3.4137421 0.92326891
-0.58095551 3.5057616 0.92247367
-0.71984518 3.5664196 0.92027622
-0.25345269 3.7864518 0.92219901
-0.21213676 3.8012042 0.92219901
0.2092554 3.8181701 0.92219901
-0.64469516 0.94436407 0.93940395
-0.25015545 0.94323611 0.93332529
-1.0649065 1.0946199 0.93699378
-1.0688659 2.5828795 0.93800241
-1.0691631 2.62532 0.93761349
0.22020757 3.0798759 0.93192208
-0.99189615 3.3338907 0.93528974
0.33629754 3.3680508 0.93431205
-1.0395744 3.4483025 0.93440956
0.33502316 3.4480302 0.93726313
0.27553943 3.6350193 0.93765527
-1.0675362 3.8506994 0.93496126
0.33186775 1.0534517 0.94902658
0.018433861 1.1184652 0.94557691
-1.068253 1.1884255 0.94077188
0.36041248 1.2076173 0.94874358
0.31755212 3.1758931 0.94541699
0.31144619 3.5974092 0.9490366
-0.053344071 3.6813662 0.94196826
-0.26083052 3.6901183 0.94096994
-0.40730751 0.91946858 0.95353013
-0.1113008 1.2243272 0.95009565
-1.0637833 2.4410501 0.95222908
0.31389984 3.1373477 0.95573729
-0.2094211 3.2072225 0.95957804
0.28869343 3.3613937 0.95369673
0.096424006 0.84736705 0.96288872
-0.74996066 0.94628972 0.96936941
