# .PCD v0.7 - Point Cloud Data file format
VERSION 0.7
FIELDS x y z
SIZE 4 4 4
TYPE F F F
COUNT 1 1 1
WIDTH 1602
HEIGHT 1
VIEWPOINT 0 0 0 1 0 0 0
POINTS 1602
DATA ascii
-14.788424 191.66527 7.69098
-8.2783651 113.28148 52.230591
-30.67952 274.73016 51.690788
-23.128244 94.914207 26.781931
18.622032 208.44849 36.256725
-30.611099 263.44037 27.419308
-39.356926 192.24109 17.293678
5.7164326 125.41001 28.990488
-31.125568 85.111176 7.69098
-33.925903 234.51981 46.732368
53.814457 163.94731 29.086203
-26.136858 202.22928 13.741682
-30.422361 232.95464 43.773376
44.950554 140.32265 24.86441
-2.9786572 208.04332 6.8379202
38.730927 251.45093 39.849121
44.482384 203.31184 6.8379202
-34.19109 132.40012 27.478579
-48.050499 208.04076 37.606316
-33.066879 87.644867 8.3773909
-3.5252512 131.18137 56.887749
40.316299 126.05795 29.551594
54.839802 219.64926 29.702
49.792187 98.445496 23.632084
-4.9260821 206.79044 30.816914
-25.903156 80.596436 30.450178
6.4312696 247.39207 71.5718
43.266243 221.66119 19.507664
28.717918 73.177902 23.653011
-6.6303129 86.82354 7.69098
34.518837 216.76147 33.051891
37.129501 108.86682 22.803009
33.073799 97.89077 31.579475
59.551975 137.12347 45.23262
-30.352699 287.26404 27.400782
20.570612 168.733 39.677711
-20.3986 100.84203 9.5227308
-26.087091 77.547142 36.197056
-29.652884 140.4968 27.649872
60.7257 201.90579 23.717789
-29.560371 131.71173 13.718492
-23.164351 248.63977 43.909489
44.295036 81.155731 38.125561
49.986301 286.86426 58.291748
-9.2380562 177.5009 7.69098
35.713947 236.73428 71.011124
33.073799 100.74447 13.437293
13.521541 237.28371 6.8379197
52.843208 139.98154 19.406597
33.073799 134.80937 18.763968
39.037228 198.26918 14.075094
21.36931 124.65229 23.79254
-42.352474 137.57703 29.832954
43.893841 256.02545 24.284895
27.596905 233.57632 42.79071
38.1021 242.40521 22.382578
-40.80093 157.42404 45.79847
36.030827 95.600418 37.251221
41.33728 219.57912 10.834141
-3.9324193 231.97375 71.5718
33.073799 261.53934 26.437424
33.073799 242.72182 26.52841
-29.137228 212.91469 70.28775
34.900005 106.72471 0.45971411
-26.284798 111.82326 25.071672
21.96319 96.18914 48.421768
40.197643 98.800217 40.568611
-32.458244 253.44638 52.898521
46.293697 217.76154 65.255653
-31.459145 229.03503 45.01873
33.073799 117.86418 16.50449
36.259495 274.67218 51.697918
50.509209 124.15659 48.282314
13.791523 218.32304 53.293655
-23.31929 93.972916 13.167814
23.844883 118.58247 36.686272
39.759789 245.666 8.1562347
58.481743 159.48439 40.653709
54.66127 256.67819 25.852926
-46.467358 158.85251 35.260818
19.789104 226.63368 54.515324
51.578362 195.08734 39.2994
-42.772327 96.337021 11.841497
31.933083 112.77688 51.404953
34.536388 130.45647 4.8340554
36.794556 243.50604 53.334541
49.910889 289.31104 43.145363
24.610153 139.79507 54.225498
39.703705 101.00301 30.211792
46.716507 156.72733 56.006256
-30.909058 99.160065 9.9951878
40.2892 235.91188 24.515081
4.341455 236.65256 53.51223
-32.302097 222.91869 67.240829
8.0669403 79.706703 17.366583
-27.36684 134.97871 13.564776
-25.718025 244.34088 40.376762
58.971695 239.57031 48.142319
40.104469 287.14774 18.055103
44.632008 129.51953 51.686108
-9.8375292 72.651993 11.338779
-7.8225961 124.13 42.316635
-10.476227 161.4895 7.69098
53.381233 261.19485 28.892479
-21.80789 262.75165 16.412703
30.698307 211.21973 53.166069
22.760349 140.16466 7.69098
-30.08149 237.72406 0.82973611
49.694839 260.32651 31.754982
-5.4262552 97.37487 19.87709
34.607597 104.36722 38.279057
-2.6640172 224.0162 71.5718
-27.656956 287.13873 27.740299
-1.2379456 76.159958 21.4828
-36.610016 243.48154 1.3657153
40.999325 236.62622 19.764908
24.444307 164.43103 46.725945
20.099863 211.241 24.146208
51.006435 256.06976 27.573833
52.180099 283.38596 35.767414
36.444466 248.37784 46.048985
-25.271099 106.47832 21.123468
12.647076 264.37607 61.185848
-15.835359 193.82268 7.723628
49.109123 208.1037 49.470467
-29.8083 112.91991 35.171661
41.160995 144.55452 7.69098
-16.815214 91.504608 46.650661
-40.339245 218.56032 10.380614
-38.55917 286.96072 22.088554
35.569336 111.35764 38.229206
-20.398598 231.47383 44.924034
-10.465903 119.14999 32.474991
56.117943 224.5535 53.762196
-41.491116 252.06424 39.378456
45.625496 162.04123 61.76281
-48.050499 213.74023 45.579308
-32.275681 211.241 21.850788
-37.634762 198.59927 13.427035
43.081989 250.13599 3.808605
-26.254814 98.33844 6.712038
50.559887 126.25008 36.125931
38.436401 242.84531 16.328039
40.910839 112.62887 44.241852
-25.272011 82.859474 7.69098
-9.4735041 152.75238 68.869324
-20.3986 215.10982 17.612831
-1.0058434 171.51003 71.5718
4.9016171 143.27205 55.737076
-11.124125 143.11282 63.650444
-23.2227 112.73866 41.096127
-38.669853 128.54924 48.438519
-39.825146 231.15063 46.434341
42.199608 229.25438 9.2726297
1.4094172 136.54742 7.69098
51.046738 265.76437 52.358204
-7.4121103 204.49168 36.784084
-28.108597 189.02086 16.379608
7.630754 235.74887 71.5718
47.774788 196.77017 9.8582649
-35.465832 140.22296 28.293867
-18.781506 212.59973 50.768158
-8.3762083 76.704315 20.754299
0.56338596 205.10461 71.5718
38.723099 218.60205 37.35453
54.607971 156.36163 13.520008
-37.549297 103.89151 8.3581209
-8.3511219 155.44983 7.69098
-4.081974 124.25219 46.096001
8.3384495 220.08041 53.854603
-4.5023346 283.51367 21.272194
51.97879 215.07654 17.672016
58.794262 202.24722 9.4362411
32.762608 91.850624 7.69098
38.712715 88.526527 45.221062
43.110653 262.17111 15.209939
45.625637 242.33957 40.992085
41.352192 129.83716 32.06118
3.0943732 76.577202 7.69098
47.138042 242.11115 3.8587508
-25.16853 123.58425 40.448059
54.772682 258.74625 27.18763
48.390713 167.13065 22.662041
15.838636 198.19031 7.4487519
45.704693 225.57784 64.551537
-21.712215 140.14273 7.69098
36.109539 217.7999 34.15086
19.695992 165.33331 46.33527
-8.0043879 241.94226 53.402962
-17.543818 136.42609 53.721947
-35.171005 183.68176 62.476116
-45.159546 153.98991 44.609337
54.261864 154.6573 46.123199
16.962381 180.52267 23.013103
-16.731976 250.70914 8.7688465
-0.39397946 174.42142 71.5718
-19.37921 194.28404 18.895004
-0.17558193 251.76523 52.972256
-14.640707 178.4566 14.476284
-4.3298092 188.89658 16.534977
-36.694824 114.62595 41.831306
4.4176965 263.7049 52.448494
14.735323 195.30745 6.8379202
-2.2977767 82.347908 7.69098
34.095291 262.92407 28.89422
-30.159203 258.06219 30.296045
35.713005 143.66653 7.69098
-39.687 162.49821 18.336672
27.609886 103.55814 50.296658
44.311527 99.525871 46.991299
48.523438 219.36076 30.993605
-32.158001 123.70036 37.06987
35.001118 222.30341 53.919685
-10.268727 269.30243 16.409836
-20.3986 240.64481 9.5814762
-5.0620365 263.55408 58.874489
-39.270725 165.55984 32.096115
14.950054 172.11 18.106644
48.470562 160.24989 56.910305
-33.399414 169.48026 65.809372
-24.731852 171.14679 7.69098
-41.360516 255.79753 19.022707
24.546394 166.47408 71.5718
-30.64975 153.74396 51.4911
-39.14513 236.5961 3.6516936
-28.642826 112.01186 4.474894
-41.917347 140.09344 21.197851
33.599304 191.09398 7.69098
2.3062654 136.77348 62.815456
40.829079 187.06284 21.430872
-35.62933 290.45123 47.683647
-36.154243 169.50662 52.729065
-16.062416 218.79326 53.501152
-29.708763 238.42676 31.072258
-1.1271949 75.904556 38.035419
-4.0527549 182.19556 19.827768
-44.282001 146.02496 49.523205
38.61396 193.60307 6.8379202
52.347946 165.34946 30.546326
49.745445 256.71854 38.239994
51.099998 287.46851 39.725971
46.910393 178.59399 66.373718
-40.094074 222.27312 36.306656
24.595436 194.5488 18.860626
-22.656149 242.17899 53.392757
-29.985172 224.01262 38.567219
-25.7279 111.2892 26.518187
23.85874 188.67287 7.7754688
37.182526 136.11343 16.747654
-0.074062347 211.241 12.981342
36.964775 127.11684 7.9947948
14.577085 289.17374 55.727753
38.415218 255.60138 39.696121
-15.965891 252.22827 52.951939
14.702264 246.46188 58.085155
-26.226938 123.54516 -0.4740732
-26.437614 112.51743 29.037491
15.300717 104.24774 41.869011
-34.952831 129.17831 40.500992
-39.687 170.93495 31.880486
43.789631 99.70945 41.334423
45.871922 112.23094 38.41293
33.073799 126.70718 43.824169
-40.856216 134.116 48.065933
12.402761 168.23259 41.391422
37.588543 232.28304 46.364098
4.0108547 115.36812 47.625229
5.6138 175.03973 7.69098
-30.083271 217.65704 33.806004
-47.865643 204.86819 39.787609
-35.649918 110.13461 5.1363583
-7.4272189 143.01527 7.69098
36.752472 214.49083 27.03252
24.901899 261.06976 55.731758
-35.045776 191.47318 63.587421
34.624298 122.82434 5.2688904
35.898899 117.86 20.026772
-23.222702 123.32538 38.835121
-23.136919 95.638718 13.587667
0.8454566 187.20572 7.69098
-29.541004 217.99158 6.8379202
-39.98032 255.94302 52.788982
-19.196308 147.67268 53.573586
-29.8083 236.45511 39.306793
60.665611 154.21289 36.060043
-42.766441 263.29077 25.028227
9.4362602 211.241 22.366198
41.2099 129.58902 29.161503
-18.476959 160.70013 7.69098
4.0629301 273.32581 13.838282
13.490858 278.72079 19.632311
-23.342075 224.58438 5.9313326
11.266823 159.83939 7.69098
8.5814466 167.00598 44.137749
-28.672684 92.166016 29.221882
37.808701 230.92268 29.124689
-31.182278 234.00021 43.99052
41.689743 210.88354 70.419601
-31.373573 139.27246 22.421032
44.647003 139.38318 21.580029
54.089806 124.50479 3.0027952
27.273966 242.9194 53.360275
38.264797 202.86023 8.4032984
21.347492 106.42136 23.449265
-37.332184 92.869339 21.331223
-38.230251 261.27359 32.753067
-39.054787 227.90167 38.269981
42.074177 115.18331 38.801582
-31.000044 113.95227 47.803097
32.472664 286.03851 24.230103
-15.115677 207.46205 24.784012
54.22644 216.79846 16.25083
40.316299 129.41414 10.322054
-38.45792 231.43098 46.500977
-11.506406 292.798 43.353729
52.362202 185.3549 33.816765
-37.565796 243.1631 41.361057
-24.707094 215.98538 18.740341
-8.5372324 75.448097 23.885605
47.008545 262.75388 16.447601
-32.679447 224.21611 38.723366
44.111275 226.1095 68.605087
-30.135683 139.93256 18.621122
-48.202385 140.29704 24.454803
38.323883 105.04876 1.044063
7.8861461 132.55675 59.804813
24.931627 194.93417 71.5718
-39.687 187.77396 18.823683
33.073799 251.92429 34.609348
10.306268 251.84952 52.96854
50.047153 163.90125 43.251595
50.798725 225.16934 53.749477
10.794545 94.552536 15.21174
37.597118 81.220024 41.189491
45.192856 168.44066 7.69098
-17.369446 98.43811 48.490337
19.103041 211.241 48.878983
17.957481 76.625862 20.025902
39.012772 115.82162 48.247353
-22.90097 263.14166 28.385538
-34.326153 207.25684 66.128899
36.527267 162.57344 68.133919
45.17725 224.52255 66.24939
14.643351 175.50543 71.5718
-32.57093 232.84311 46.511585
43.698025 247.31529 5.5092626
-18.669605 292.798 30.365517
53.067963 136.06615 48.284039
-27.072914 96.650375 8.5887413
33.51442 225.29379 43.54697
15.482712 132.99358 54.930302
45.741692 170.61656 7.7566204
-39.83009 122.94628 46.637016
-2.962796 242.24377 54.629673
49.082691 186.66031 49.778446
35.340477 103.34594 40.704536
-22.309803 206.2513 6.8379202
-22.613068 78.038445 38.336777
39.490234 119.21078 22.365324
38.024868 121.1123 51.575386
14.328842 101.04369 7.6909795
-20.801373 289.64404 54.765213
-27.631025 86.916031 41.184242
41.194054 221.63455 40.464844
21.68182 109.05814 24.161076
-25.565065 199.82381 71.5718
26.782494 274.09372 51.768665
45.025021 117.60064 47.907455
-25.738171 142.29883 7.6909795
33.073799 239.44116 14.036755
-35.778908 195.31561 6.8379202
-36.292091 230.51041 39.430977
-41.792683 270.36005 52.156624
41.787331 261.2912 13.705345
17.173637 75.610214 19.297501
26.217949 222.69231 53.723808
-5.6774378 92.306396 26.037384
-13.476748 149.80516 7.69098
57.016624 256.94144 52.198902
-25.444939 72.38755 14.280954
-30.206661 94.83416 30.313343
25.858728 82.453224 7.69098
-14.14028 232.91772 6.8379202
19.201807 160.14671 7.69098
40.496559 182.84058 23.43051
-42.450699 98.798195 15.715193
-19.12574 241.73038 53.407341
50.502098 288.89148 32.001186
41.967968 109.22813 5.5118198
-26.065121 247.62004 22.509211
-45.272346 122.23378 44.581261
36.889336 215.0616 17.910686
37.686401 121.85539 20.5345
50.140518 182.75534 43.251598
-31.790829 92.120422 17.653633
19.09034 76.515968 14.1984
43.349522 136.52164 19.852386
-36.406132 216.66269 16.578598
-29.342573 207.26572 44.079502
46.609684 191.93388 9.0726147
49.205124 252.09061 12.342875
-23.147665 105.84254 2.9455788
-31.483799 256.26978 13.513268
-28.121487 120.70982 1.4327052
40.543579 247.3282 56.632904
-31.579802 241.85963 58.535385
40.222198 238.3869 48.15403
-36.716576 256.30215 25.807453
33.073799 119.51245 15.429198
26.838905 202.09265 6.8379202
-15.802507 150.94835 7.69098
-11.50036 113.8119 40.641369
51.582645 105.01961 1.0561398
-41.376701 94.13118 28.616192
60.220436 224.10699 50.905945
9.0658216 100.42462 7.69098
14.044162 132.42097 58.587276
-32.830666 75.450989 14.709882
0.10657978 163.06691 49.027241
-8.3330212 77.446915 16.383699
-24.105057 246.91107 68.463326
-9.852602 76.801102 17.840599
50.461754 223.12061 33.134953
35.374298 231.15541 6.1482487
39.771313 106.755 0.33730862
37.686401 118.46797 14.668192
12.301681 99.192787 38.113602
39.277935 263.44101 27.429495
43.45591 229.927 46.14349
6.5597258 146.92984 55.846058
49.209557 275.27774 51.623848
-5.2724686 168.6438 40.087975
-45.023785 135.05339 39.000965
21.803345 269.9256 16.623051
24.908133 248.79324 9.3926525
48.940548 219.05518 38.292374
-46.420471 229.04955 53.669289
18.318981 237.03317 71.571793
-29.333303 110.14689 50.494217
-35.16227 136.20068 25.447803
-42.609379 138.44653 26.703297
-5.5456762 204.27475 42.463486
-35.94664 129.96661 43.285164
19.057384 252.56516 10.683193
-31.658176 227.35617 53.704304
33.808365 155.76897 51.954094
-23.29483 235.74852 53.530884
60.7257 207.47189 42.897358
10.390427 124.45123 47.7369
47.184269 201.53999 65.636551
-23.940411 163.72144 46.275749
-35.531364 211.86005 55.889652
54.521252 198.33626 25.826509
20.974628 72.708389 27.5986
-24.512863 243.44183 4.0339274
44.743492 292.798 22.934296
48.794449 101.8076 32.03751
37.879501 243.66226 16.502289
-34.21912 233.43829 4.0674744
45.310905 289.40079 54.608009
35.382126 130.06607 11.09617
-16.977331 183.11601 21.213913
12.392992 288.42029 55.281528
-42.751766 230.45006 43.242241
-37.307247 250.73312 53.017517
-36.546139 221.11899 27.990267
-32.75687 114.01184 4.2116203
52.861519 150.89606 47.726521
32.737179 203.13162 15.993517
16.606636 218.76311 53.48785
3.3662291 185.68193 71.5718
-26.154072 251.23871 4.6307459
-25.076979 185.47302 13.809086
51.800831 133.99454 20.598749
50.416248 96.310677 26.951527
34.582867 205.41043 35.120605
-29.8083 130.69785 27.529184
-48.050499 209.20891 36.093513
38.094128 215.30977 24.111622
-14.997116 287.43024 54.796059
-20.3986 258.42407 29.456089
42.653568 235.28232 46.832779
-36.434944 191.4726 49.458675
36.603123 215.82066 27.992393
4.3254738 131.35321 55.394165
-16.071625 219.52205 53.822838
34.166515 73.196732 10.097976
-10.456622 137.27502 7.69098
38.209675 107.74197 25.507608
-27.236197 113.1953 1.2160223
-23.404293 194.6232 6.8379202
52.648895 99.331299 41.015919
-30.349377 136.50548 32.533829
31.031799 259.78842 10.563447
31.547176 193.94734 7.722373
-18.230198 166.52383 7.69098
35.904411 195.70293 71.5718
-28.9147 225.71007 15.718183
-20.683628 174.48721 7.69098
-42.275791 104.73055 4.4330544
38.111 211.241 22.223333
33.073799 237.69736 16.074963
-29.596943 241.55057 27.561396
60.941219 139.35995 30.311714
24.452507 210.61057 6.8379207
-4.4268484 142.88499 7.69098
45.166492 105.88881 0.69610059
19.298555 196.43559 6.8379202
32.108471 135.89119 53.552315
47.507442 215.62833 58.621147
12.200212 98.131927 7.69098
-30.576576 224.62868 34.322369
7.6647744 113.81918 44.54818
-24.464287 202.77383 18.119118
51.270618 118.41217 44.40229
46.043507 106.13757 48.451813
35.887276 231.66452 8.0749931
-43.660538 201.78366 33.753872
47.795601 122.47166 37.594578
-20.890968 226.17352 71.5718
-45.333061 107.37907 43.134361
50.525398 244.806 7.2876973
50.442455 104.52205 1.2622383
43.612064 241.57175 47.666622
38.07262 247.96989 38.642124
11.716801 264.39728 61.325058
54.839798 222.47363 13.967535
-29.8083 235.1468 36.877445
-42.886734 162.27637 30.427628
-10.466574 115.5521 52.231712
41.188393 253.01056 14.319212
51.157852 95.586792 32.130333
22.338243 211.241 11.603891
41.9599 240.93484 35.95137
22.020388 86.388062 7.69098
29.647434 73.76593 23.17046
-23.678732 224.63582 8.9385967
52.452362 128.05031 44.899097
-48.050499 206.07217 18.366776
30.218357 273.24438 13.8174
-6.5040922 247.93753 71.571793
-29.8083 229.15227 10.436493
-29.715076 123.01807 11.468449
37.195984 185.09515 8.5892906
47.794426 191.00404 62.935604
-15.876894 172.10999 28.865185
-37.87067 147.53073 7.8170605
35.639946 219.58365 38.737473
50.055824 138.98276 18.23727
-37.465355 236.26938 47.650791
-11.251094 292.798 29.641399
-12.631199 103.9017 50.569389
-24.79759 73.021477 12.857405
51.17469 158.30876 46.614269
60.223267 156.19452 31.234076
-30.647951 224.28528 38.776443
39.682739 199.28375 16.555412
-16.383745 176.66765 16.364151
-29.8083 102.43619 26.548811
3.8491979 77.19754 13.469999
35.437195 168.55531 37.663151
-37.286629 138.78348 16.723663
-29.580486 111.95746 25.602131
55.615486 266.2381 28.628651
-23.565926 72.2938 21.911928
8.9070396 211.06879 71.5718
25.624468 206.59628 7.0553141
28.704241 211.241 26.969246
45.402435 168.45096 30.955952
20.466774 127.18306 44.277748
-49.180466 148.88171 39.039551
33.073799 244.91537 36.473309
16.407921 268.66772 16.192667
37.915794 96.583298 27.609711
54.405056 243.51277 47.205284
3.159843 169.53366 71.5718
-35.648647 89.705032 10.385168
2.6129754 249.56244 71.5718
41.239738 235.64648 53.53299
-42.728706 136.98697 21.531549
1.1221651 129.38614 54.899185
0.31961018 102.71583 39.533768
41.785046 99.882362 48.131947
45.0993 139.89725 18.056503
43.295151 221.86893 18.976051
40.406971 218.26132 10.891768
-33.210411 292.16797 34.819721
0.050610065 77.544998 22.59901
33.801968 233.5462 54.620327
54.065159 203.11789 6.8379202
23.23637 252.35915 52.946182
12.0035 292.17175 23.18932
42.914124 125.8754 35.816833
-23.2227 99.085777 13.044149
43.408394 133.09811 17.418562
22.046654 125.41 34.345268
40.945179 111.33727 44.071804
-26.023602 215.55997 21.971876
-20.3986 240.00853 17.307407
22.816704 233.73642 49.947739
-35.830887 202.17601 56.496414
57.150509 160.75732 27.453623
-7.875052 186.68927 7.6909795
20.063549 79.701126 38.993164
-35.13271 77.250412 26.182562
-36.021843 233.86621 53.569794
53.116375 274.76306 51.686798
-29.138128 216.22095 30.338924
37.125374 133.21155 24.578564
22.942371 182.25644 7.69098
42.769451 264.9317 11.720301
31.931007 211.241 8.639369
-40.390816 279.56024 30.062061
14.898205 106.57717 41.701263
-0.6100865 240.74817 71.5718
-21.523161 152.54716 52.541649
17.95973 290.55438 55.531036
45.343246 261.31482 27.981266
25.413273 77.544998 16.698498
25.698723 210.08115 55.32711
30.56391 289.67844 56.063625
34.662487 134.06174 39.836208
54.769165 217.01636 16.433928
-2.2981739 130.80029 57.01009
-16.725914 143.98434 61.321228
51.592533 152.20093 43.251598
35.380795 190.26248 7.69098
-18.521263 231.56953 45.507198
-31.928911 137.59529 29.902784
-6.9838614 91.9618 35.351807
40.316299 118.52351 31.024462
12.733409 90.093826 7.69098
-20.398602 123.24021 32.415878
14.600883 127.69321 54.227085
60.174065 156.41493 21.545683
29.569832 231.73178 71.5718
-31.678688 100.16222 8.6889925
7.338798 119.13067 42.457077
-23.165361 254.83263 37.00988
46.773186 79.943092 13.19107
-12.693658 149.91251 53.84346
36.703514 221.28888 22.331753
32.414665 249.342 8.5438976
27.407026 104.10128 7.69098
-38.869549 96.559341 27.551861
45.832329 236.96986 41.278408
12.059163 196.38257 71.571808
-7.1945953 146.75694 54.6511
8.7877064 79.706703 16.368061
-25.45005 292.798 47.437042
-11.717705 77.146904 13.47
18.97127 134.96259 7.69098
27.998957 230.07986 45.507198
50.047668 133.80096 36.303013
38.873543 260.70377 10.769437
33.073799 250.10086 9.7130623
36.434612 195.29327 18.763968
21.872 160.37292 50.63121
40.2892 239.57376 25.030628
35.613678 219.67085 6.8379202
18.536501 100.95001 50.102646
41.216366 228.42157 53.682236
-27.516464 126.76486 39.012535
-36.215061 189.02129 52.020485
-37.3111 285.32004 57.263481
51.102787 232.43327 1.5576397
49.986301 288.30011 58.554264
-20.599766 292.798 33.201263
-27.141163 236.22421 6.8037567
-26.570063 190.27373 71.495567
-21.728161 292.798 36.723427
18.742544 76.127419 7.69098
-28.9147 251.84293 13.084684
19.890419 186.27792 10.999888
-28.19775 111.38823 -1.219527
14.068487 114.00365 43.521
23.715767 159.61176 70.365768
-33.456398 291.99341 38.649868
-20.3986 95.028076 32.135326
6.6140089 79.978394 30.031502
37.129501 108.30328 17.237932
-28.762543 225.32864 35.235321
12.649103 208.26646 6.9771423
-33.289268 211.89856 67.819778
44.890717 114.87492 44.53756
12.407129 149.93782 55.00227
-41.950001 114.31609 3.6009791
-10.183343 232.11292 53.505608
10.572971 186.10596 7.69098
35.132248 164.48718 45.715576
-39.687 174.40819 26.670185
44.198174 238.53156 3.3968563
45.033691 174.12396 7.69098
7.6743693 249.65932 53.064621
30.979782 233.36685 48.881065
34.764755 179.49547 11.109265
37.938332 221.34657 21.894175
46.562836 97.207436 8.1859846
-50.254559 146.02042 51.537521
7.9041338 190.96277 7.69098
27.09606 292.798 33.211845
-16.81271 283.90359 17.006416
-14.738388 232.43356 6.8379202
0.37443566 96.533119 7.69098
42.60273 255.7746 21.792976
35.316658 256.37878 10.633652
33.073799 103.08262 15.816832
38.573402 232.7493 26.274202
-41.173157 128.16216 47.214573
45.207756 95.475281 36.958656
-20.879238 227.69684 53.223587
50.764664 216.55675 16.834343
-48.050499 204.11681 22.116283
-31.560471 133.07239 25.635925
-36.488075 135.94669 38.248665
3.1373363 80.905273 40.260357
28.280785 196.27504 7.6989417
-42.766426 247.68684 43.007717
-29.123325 110.43318 1.6827261
47.496708 269.02786 52.215057
-1.5095639 190.15344 7.69098
-30.959108 292.79797 34.667645
41.300358 197.33167 23.932972
-17.789021 141.18968 7.69098
31.164017 166.63873 42.829903
51.77084 143.78265 51.165432
40.691261 221.6676 35.517612
-46.029903 138.63605 45.631176
-28.9147 101.83334 26.064041
53.769661 244.00748 53.31255
-4.4811001 210.69565 6.8634458
-0.9667058 76.733566 22.211201
-10.918673 214.75394 6.8379202
-25.7279 108.38048 23.428991
-6.1460967 141.08182 64.140694
-27.724398 95.686249 10.237618
-6.897294 271.48248 17.155741
53.502125 97.92038 35.602146
43.556931 135.5412 27.936298
-20.3986 234.38432 8.9562149
-42.227673 270.48834 16.243303
23.545521 168.94215 39.00087
-38.79385 136.16415 17.13349
-0.02449286 204.01846 71.5718
41.238617 248.74692 45.961266
54.57869 243.68875 1.4765676
17.930794 170.7361 35.990112
3.5154901 121.2589 38.6339
-7.7610874 108.85194 34.551624
45.791405 214.34018 6.8379202
-33.764709 161.10309 60.165634
-41.868965 93.195641 24.006344
16.056299 150.06055 54.650932
55.975311 89.99231 20.041805
-29.8083 238.52321 32.265331
36.443153 140.24075 23.552706
26.600105 149.05179 7.69098
13.131144 92.573761 7.6909795
60.188187 156.35165 33.8955
32.067368 232.93472 49.798744
47.700626 100.07819 38.197113
-27.844877 171.18626 69.317238
-35.117344 225.95404 7.9269876
36.535366 220.34991 6.8379202
24.27857 79.151794 40.479874
15.245462 212.4781 71.5718
-26.284801 114.04333 12.885046
35.77742 107.73112 50.776581
-47.832745 154.91922 36.939121
31.903458 222.94691 54.620754
28.548527 209.40848 71.5718
-5.7026258 290.65814 55.657227
-36.383636 255.98221 23.370539
-22.651112 179.39857 21.41391
-25.469597 205.23898 37.903763
9.041069 77.16507 18.569
-30.323273 285.02124 50.43211
-3.6534665 101.77614 58.43362
49.802757 118.84174 47.612419
49.093872 231.52257 43.180283
-46.630188 158.44507 18.907764
35.277073 93.2043 24.072113
9.6575527 125.41 12.027184
22.464321 111.61762 44.985859
5.6381793 140.75818 65.670807
-23.144529 170.13829 33.453983
50.341736 176.20578 14.73084
33.073799 238.38861 32.781372
0.18792763 275.38568 18.491211
2.3299055 260.25427 69.200043
-29.477928 253.2948 27.938192
51.394909 286.35391 17.832129
0.60026801 96.16011 17.830524
-43.863342 145.05679 49.64312
33.02409 72.485489 24.918144
43.220116 246.04599 43.000557
-12.419043 83.349297 44.583267
-29.648109 101.74454 43.048504
-26.235229 263.09277 21.863911
-21.574768 199.02635 7.4096222
41.818459 252.29878 5.4441752
-31.326332 215.04929 18.107521
-41.969585 85.979309 32.248013
-26.256428 198.81697 7.4194217
21.855251 241.90242 7.359436
-24.404413 125.94849 35.760735
-5.0094008 75.448097 12.738249
-22.747726 205.29709 71.5718
-26.750895 213.19588 71.18782
42.789494 239.57822 0.85187006
-42.688202 241.75989 4.2164588
56.121136 90.432053 36.168846
-32.358124 123.72086 2.4675405
40.908028 283.63617 24.230099
16.791374 278.54062 51.224762
29.572519 132.65033 37.189137
-24.260067 179.20013 71.5718
52.841957 269.80658 12.935616
47.613384 250.98956 40.203167
-40.498722 98.329979 20.104321
-39.687 169.76114 22.491751
48.181595 216.21606 31.776897
35.908848 218.51068 28.121193
-48.286755 143.42815 44.569069
-14.848772 162.1608 7.69098
-41.272156 117.98001 3.6989512
45.972404 261.43365 20.90564
37.310143 221.28046 25.588346
7.4042091 76.861313 17.840599
44.499588 166.16187 65.369148
48.207893 194.79944 59.266411
30.036665 75.460312 13.47
-15.652481 170.05548 36.390209
17.352325 203.8757 71.5718
-23.13796 99.155205 35.358898
-26.2848 124.52956 21.107605
12.973166 111.19553 37.710789
-29.502949 216.46155 17.064188
-37.712433 81.571922 15.542175
8.3703651 86.913551 47.358936
-36.811958 108.43042 46.49081
10.620289 250.08842 53.045799
46.92561 191.48552 9.5515976
51.483757 95.642929 20.570263
-33.77066 263.15149 22.802681
-16.053316 232.79703 6.8379202
-39.569649 139.82405 29.226543
52.853821 249.03613 53.091976
33.073799 219.85622 25.191565
-2.3842993 76.352272 13.470001
50.906776 158.49393 46.522583
-18.216097 178.5412 71.5718
-47.124664 229.76431 53.079773
-7.2060456 255.96213 11.845475
19.962992 251.29242 70.864197
1.1097927 92.296432 7.69098
33.197323 78.978928 7.69098
-30.776773 226.99884 7.1252079
-20.719254 273.2951 51.86631
21.297701 99.676056 41.838913
-32.198048 218.97153 30.053919
47.78175 88.622353 41.60635
-25.621964 265.43646 11.833812
33.804672 221.60522 71.5718
54.780624 259.25415 14.390751
23.625263 84.480347 7.6909804
43.239758 137.48254 12.249308
34.79948 198.51367 6.8379202
41.734692 255.50476 28.241268
0.93605232 212.15695 50.572773
-27.563427 251.48123 12.326513
-33.491898 214.04678 66.66375
46.68082 120.62144 -1.2523822
42.187302 227.08551 44.211201
15.715226 242.83934 7.4863024
-33.988762 81.75631 37.80241
-5.0629568 133.92056 58.70797
-11.286366 116.89716 24.297321
-17.392647 159.56696 7.69098
-35.016735 175.94484 63.84515
-21.760876 215.0952 6.8379197
-40.458759 214.52821 26.434763
15.820722 163.59061 71.5718
36.652016 133.08795 25.517746
-8.8129711 194.72969 71.5718
-8.5087147 216.99361 6.8379202
17.009872 125.41 25.214638
-27.031364 152.95636 7.6909795
24.216671 182.96852 71.571808
13.150035 93.152023 31.598053
-28.681051 244.53708 4.3584218
-37.971268 136.56445 10.46755
-36.324203 215.36722 23.435875
-1.560122 286.80685 22.979702
-48.050499 211.72238 14.265272
32.898232 233.58952 49.111526
-29.305252 99.326096 26.192154
-8.8412476 81.117065 35.361328
-30.813648 245.49171 8.0840244
55.748341 195.74864 18.367638
47.807652 181.30923 62.818268
33.771534 172.11 22.384165
-36.092888 175.25996 53.443924
4.6344657 238.92918 6.9568357
-11.757854 188.13133 7.69098
42.755825 211.10275 6.8379202
-31.211651 96.016762 25.127935
48.545601 256.09692 23.120918
-31.568569 82.027122 39.211636
-25.9505 236.57883 28.137783
-23.931667 74.549507 31.424137
5.9177475 76.012039 21.4828
33.783966 159.1683 67.80957
40.584663 118.20211 25.602203
-16.552265 287.70047 50.104408
36.117393 229.58356 9.0200481
50.678596 100.53486 12.512754
12.148083 131.2309 55.043877
12.0035 292.6153 24.647345
-2.0795054 83.332138 27.870142
-45.487556 197.67953 10.666218
54.056061 96.731911 9.3519363
-28.435287 200.61554 28.603771
-41.194988 134.11543 39.790878
42.818787 138.72787 16.3013
-26.044498 121.7316 21.680937
44.442654 206.6936 69.490128
50.351379 239.47647 53.453899
35.374298 219.17548 27.367188
8.659977 76.125519 20.754299
48.8564 250.04681 10.338552
33.073799 132.00539 26.307133
-3.6508174 221.40625 53.827213
24.872856 75.867172 11.996545
27.552845 83.536179 7.69098
-20.860935 153.53134 52.410923
-30.253212 216.08179 29.975975
-29.8083 231.47327 26.27142
56.815853 231.07022 46.415184
6.4712129 277.14215 14.939448
-6.965858 199.11639 7.405407
33.073799 226.15952 37.180901
-46.418335 206.20175 42.20985
42.083122 280.88815 50.93763
-21.402981 253.49867 42.800865
-12.236807 167.49667 41.710274
48.052799 190.28905 60.642738
-14.193053 259.92468 56.743736
42.293518 218.27637 12.682882
-9.529232 273.44067 17.825733
-48.897686 150.14851 41.322372
1.0419786 251.08502 71.5718
46.25222 234.83122 46.773376
30.545147 129.70416 53.234718
5.6298428 75.448097 23.693312
-36.165775 211.00798 46.996288
-25.814005 231.97391 43.367214
2.6323195 127.47617 54.782738
13.325857 240.91342 7.2255173
-35.778702 290.34515 37.483833
30.583809 88.484665 7.69098
54.11013 163.66461 26.964523
-31.732082 168.30185 34.08691
12.555684 229.01923 71.5718
-40.863426 128.83994 8.7210951
52.72163 98.299187 22.52083
49.516289 221.82932 35.728336
-19.681475 230.76837 44.402058
-35.49287 197.28976 59.619858
-28.9147 244.8999 28.820351
52.362198 157.29263 36.025433
50.727898 92.092316 18.102974
17.138628 199.95013 19.160849
41.066299 249.89975 11.351008
-20.3986 229.60934 36.559975
-20.398602 236.96664 26.415272
52.058487 283.84558 48.495117
-37.021351 214.91158 20.308159
3.1574011 231.15283 71.5718
-6.0979981 144.3526 7.69098
35.105202 257.90155 39.092712
-27.098421 286.05038 50.306232
-38.092865 127.36417 35.270935
1.5324432 208.35394 71.5718
41.004013 139.93845 28.959087
36.334805 191.37822 19.272282
17.920444 181.30295 71.5718
52.851051 163.43291 39.798943
41.115917 234.48122 19.360151
14.48119 130.40974 54.748852
45.263535 223.09631 37.379379
-10.184105 110.3956 43.408348
15.647713 235.90897 71.5718
-26.382191 258.51251 19.021374
-37.073544 122.49351 -0.909688
-28.286074 96.914696 47.316113
38.899712 114.52225 1.041339
-24.781521 123.41316 46.526077
19.687149 156.89496 70.273537
-1.8643707 129.66223 55.224129
-3.5787663 86.990479 46.676964
-28.698116 119.35379 18.249187
-25.190533 266.87286 12.183115
53.469315 98.990753 15.250322
-28.959946 99.205917 25.781895
54.089806 135.07782 15.103512
-14.93593 201.79721 19.044121
-9.346055 125.17833 43.783615
-27.052483 108.14478 5.9605489
7.1284027 253.71985 52.886505
41.741993 114.93935 16.89793
-14.531961 168.2114 40.103889
-31.112461 96.061234 25.465668
49.032242 257.89542 39.097878
46.584282 220.19727 37.95557
51.91169 234.91434 41.485256
22.004929 124.37172 24.849003
54.570526 261.6582 14.332489
33.073799 118.88997 23.717176
61.988197 141.13681 42.009838
47.467781 112.94904 48.544292
-1.1555797 227.8403 71.5718
15.72436 135.49081 60.559517
49.424946 114.2663 39.15826
-24.118736 231.41063 53.82621
-42.726326 233.48476 45.937534
18.232128 196.17599 13.963505
29.188198 238.82053 54.181747
46.109669 171.93909 8.3145161
32.397987 156.52475 7.69098
35.938843 131.97401 14.351747
-5.4712038 262.86743 61.951633
7.1280642 76.501785 39.171005
-8.7930183 100.88819 44.551598
57.291359 210.61865 6.8379207
-12.769133 177.31601 7.69098
35.042763 176.72443 16.257891
27.47838 222.14246 49.649643
-46.803989 234.07794 51.607231
61.722172 143.55408 55.248955
-11.513357 109.51106 19.463673
46.224972 213.05692 66.797035
25.69754 75.807724 7.69098
-32.948929 218.4595 37.021278
19.804821 155.74654 53.215633
-7.2779274 203.27858 6.8379202
-20.754923 83.188843 7.69098
-36.515766 239.60655 53.451206
-42.867218 96.151512 40.806221
9.9756603 234.87552 71.5718
54.872963 240.96127 46.329819
-29.219307 233.78795 20.095396
-42.333755 256.92242 14.936443
-10.878512 117.47227 26.464088
-23.201777 136.29584 17.132139
-21.508957 133.68259 53.323242
37.879501 245.16444 18.470139
-11.193624 187.91666 19.923565
-25.999676 231.31265 23.381813
50.01403 91.941475 20.514864
52.362198 181.6853 27.821873
53.392353 113.90646 41.736599
-7.7730856 220.63387 71.5718
-21.338203 226.32993 53.647964
17.048719 286.18701 22.529028
3.0286458 94.710991 60.606049
-2.2356825 143.13142 55.096294
-32.736305 224.33516 9.1693153
-27.633018 136.3784 10.361126
37.323334 218.63646 37.43494
-29.8083 105.88382 15.415804
51.030396 135.18983 14.074434
-23.134762 121.84528 0.10705369
50.036114 205.76218 26.044882
-28.808975 153.24208 7.69098
36.9137 286.61948 51.518726
37.831932 235.18039 32.14344
8.375494 95.099037 51.52739
-3.0798275 91.129601 7.69098
35.374298 230.20129 5.6356349
49.986305 290.25143 58.854286
-35.261539 215.33031 24.267792
-16.471478 74.355721 8.4280186
-36.128422 139.96756 19.182314
42.458946 242.12173 46.797298
22.354542 76.167206 21.4828
40.007858 245.48531 43.232803
45.48457 139.01286 24.393057
46.602776 130.21115 3.1505313
40.316299 113.54586 33.427029
-28.9147 248.76517 29.285112
42.242718 103.72179 9.1046391
-40.916981 132.35393 28.827633
52.362202 181.21027 18.25803
-28.291821 239.78247 53.447571
25.252619 107.49751 31.9839
51.499039 252.00822 5.22122
-12.531003 145.34077 7.69098
22.525951 212.80623 71.5718
3.2329569 149.49171 55.35466
55.950733 215.0549 18.017879
17.920994 256.37701 11.987428
37.129501 112.17285 28.872355
23.558151 188.65437 71.5718
-7.5141964 284.21201 21.511131
47.086739 211.241 11.235628
-42.783318 106.8662 1.7935374
36.45343 143.14236 54.313015
2.2878857 258.8002 52.663643
19.690876 286.86414 23.021332
-8.62251 116.28917 41.648003
-40.733067 141.64871 48.123901
-7.0118427 77.103943 21.4828
50.239349 251.45831 11.518711
36.376274 292.79797 41.090061
26.572889 74.090706 23.964191
-9.4002857 75.748566 17.840599
7.4290051 82.820641 45.555202
-31.765162 241.60324 3.7918882
27.849199 271.91977 16.721199
-5.6174641 155.3203 7.69098
-42.688202 106.82935 4.335731
-42.688202 249.2202 40.913361
0.94082743 171.51125 71.5718
-17.245764 191.61084 19.242079
-39.978661 117.86729 46.577198
31.070726 226.91946 52.272114
-25.798016 211.24101 27.262754
54.089802 96.143967 24.985176
49.818649 209.04103 35.019787
-32.620033 139.46063 15.632033
3.824738 233.63965 71.5718
-23.2227 237.03035 5.6721644
33.073799 124.52792 19.671961
-38.428055 243.16846 47.287132
52.362202 175.80177 30.291994
-21.394493 103.09313 44.184361
-16.102648 259.25443 10.443363
-8.9326935 102.70035 7.69098
23.607233 168.24509 71.5718
28.384102 262.27402 52.511314
33.073799 106.41223 23.757284
-17.445686 210.70096 48.031208
3.1740479 265.93671 11.946322
-0.99974966 169.15121 7.69098
36.459076 260.11392 32.268253
-23.8853 171.64767 70.368843
44.462208 97.581024 7.6991167
39.507442 254.42909 31.028149
-28.12966 225.94525 36.038651
0.97958016 232.3893 71.5718
41.765251 110.85056 4.8398132
-39.687 189.09055 37.592911
33.073799 227.05391 38.222271
-20.3986 246.79849 19.249893
-30.352701 284.2254 25.509026
-24.948244 103.48485 37.470264
-2.1265771 75.448097 18.037918
11.927453 74.878967 8.0773888
-29.852001 292.798 40.041344
-42.755104 216.35748 25.155119
-23.279297 260.15137 31.361217
52.362202 160.36235 26.266829
-29.750351 117.39256 16.921524
53.684769 124.78829 42.797623
-39.608707 282.99359 40.419205
-34.518963 220.19688 57.009712
-48.050499 209.59631 23.624763
54.909019 118.21597 45.559464
-26.634212 218.19766 6.8379202
43.923241 133.12393 25.244221
26.382534 209.99976 71.5718
50.209991 219.45955 31.232071
-10.229684 72.2938 25.685266
-43.79348 200.27109 30.498692
-33.533077 218.35408 21.052139
46.042946 139.08795 23.822542
13.636271 82.500153 7.69098
7.2955952 231.44455 6.8379197
38.553417 100.34657 8.4487038
44.236744 128.36122 51.725544
34.624298 98.154922 24.896814
51.263752 157.85802 43.251598
19.396992 146.20641 7.69098
11.633236 213.8306 71.5718
48.556267 133.17834 26.836571
52.151146 198.13348 23.641636
51.447472 131.50658 34.939533
34.550312 135.20683 12.612693
20.451275 171.91403 33.455956
59.696373 118.12872 43.323906
8.9609623 108.86306 44.944214
31.592762 248.63062 8.4268494
-42.778671 258.27789 31.980892
5.7352071 159.27924 52.962044
0.27115506 103.09012 40.952896
47.669998 126.10094 49.846008
19.321657 72.2938 9.9752283
-28.653603 246.71228 54.448753
-38.238605 105.6814 35.874115
-28.571369 257.18936 10.35775
29.631466 211.241 44.284248
57.520332 144.819 52.74939
37.879501 231.19952 19.499462
53.817818 261.12952 29.388763
-30.255007 128.85597 33.340107
52.479561 130.65193 3.4887495
-45.924423 236.54483 47.716373
45.290665 236.94002 57.619835
4.1759562 95.011002 26.773483
16.185093 211.59976 6.8379202
-25.727898 237.95151 29.602753
-23.038469 117.78276 47.864174
51.978737 105.78278 45.580772
-28.823204 240.25111 68.933945
26.198204 235.88132 53.950294
-9.2803717 117.76807 35.265156
-25.9165 221.09308 71.1763
40.675472 211.241 46.185352
1.2980217 212.27907 50.626663
13.971234 227.69353 53.697311
33.073799 115.39223 27.446518
-31.447309 225.33716 42.924461
-37.781734 288.92361 37.607552
-26.2848 232.5526 20.293917
49.137974 232.5755 1.5076238
41.157528 253.66823 32.807858
-2.9049006 147.1595 55.036228
59.568233 110.23321 42.66737
-12.662959 245.16374 53.261833
51.565918 258.71176 38.410347
52.709614 245.72014 7.6663504
26.310476 73.030991 28.361366
-17.731602 210.37485 6.8379207
8.3146791 248.93204 8.4764853
37.739136 156.73134 7.69098
0.68490076 94.616272 59.998848
-24.736088 260.76172 33.949055
-25.165823 256.72028 38.237724
52.032497 115.73506 -1.7917595
21.593504 207.27151 71.5718
-25.608513 215.05859 17.95845
-24.087021 253.90186 6.6742702
34.624298 116.13029 40.180744
-19.306648 237.30289 71.5718
49.465836 191.69142 45.314541
-23.138994 257.22394 35.752491
-23.082466 215.10358 51.873016
-38.271488 95.22802 36.380619
5.3251925 171.40286 35.633701
-25.7279 108.26968 24.529099
5.8954334 173.82916 7.69098
-20.398602 102.28237 35.633995
-29.356691 214.65762 24.366886
-43.121811 265.15549 20.984039
35.374298 224.45068 37.296528
46.389038 95.242943 7.69098
31.291058 275.07382 51.648788
33.073799 105.02203 35.163765
29.496426 74.556023 22.935764
-25.652496 106.13562 23.544979
-22.488493 290.90491 24.230103
50.201466 164.29236 40.034908
-25.497837 269.99997 12.985212
-24.446154 106.79026 36.128723
32.592476 106.90599 7.69098
50.524685 283.83798 55.085938
13.650093 211.241 28.072262
5.6865292 268.68427 52.230103
9.6725121 263.61533 52.452419
20.939667 77.544998 19.428411
-18.984352 135.41115 7.69098
12.997825 195.40161 71.5718
-29.90905 284.43231 27.740299
33.073799 129.88876 26.655519
19.383545 88.105247 7.69098
-41.16367 107.01202 45.041145
-26.691904 192.31299 20.855015
54.089806 107.54668 4.2971025
-41.717182 219.95273 15.56135
-2.4022102 80.509438 42.604103
-20.203541 237.77411 53.540459
-30.584854 140.08459 21.054388
-15.305513 179.46695 8.2616196
51.226353 236.89362 0.93907583
-14.545328 222.36687 53.810345
33.073799 221.6273 16.92387
-42.216667 270.55396 27.321371
-42.31765 97.898651 39.809265
32.671619 229.92406 47.138573
0.83671439 123.5267 45.004791
-39.036064 133.74371 6.4814067
-26.924181 200.61264 23.369482
51.141106 263.1048 22.056244
-28.607288 254.25287 52.86314
49.536301 254.8309 16.689512
36.555191 198.35883 71.5718
-46.898907 232.80103 53.112862
-23.132498 136.56979 27.641041
37.784122 139.16342 23.249325
-5.2434521 72.766762 24.744463
4.8888664 290.48346 55.455681
28.382877 203.99869 28.161404
45.419151 219.33942 30.942106
24.60047 258.1936 66.710602
-40.470242 240.40706 41.723866
-47.005066 231.37331 47.588238
-32.860695 258.94318 22.292336
-25.799759 217.82939 71.357422
-33.815418 273.08456 51.892036
18.47164 196.61792 71.5718
16.024546 105.30127 58.755531
10.943639 292.68298 20.574856
-7.5762815 168.1953 71.5718
52.496578 262.95599 19.677748
46.82193 232.05585 46.649426
29.951038 118.28862 51.92831
-18.842928 256.66696 55.427567
36.079521 251.48912 39.819801
43.458633 133.16994 24.894739
-26.2848 247.24634 23.997776
-38.795387 92.208832 41.228745
-26.750031 114.97446 44.550667
-40.563202 99.275459 15.552622
33.073799 229.71527 11.939927
-32.234097 99.037018 32.703445
-14.04237 259.84839 57.577427
14.129114 102.24264 39.990459
-8.2823896 96.734573 48.636829
-39.687 162.44507 24.179733
43.543835 218.38322 20.830818
37.961773 105.84827 35.405758
30.993464 100.43256 7.69098
33.073799 100.57689 25.191238
36.804417 225.39777 54.307201
-4.1677237 137.9604 7.69098
43.572636 136.44284 23.605965
40.316299 101.59653 26.307524
29.505283 253.62143 52.890812
33.073799 105.66076 36.508427
47.755203 128.93573 2.1718428
-13.657918 178.72992 21.279734
-7.5565715 98.896774 7.69098
48.545601 245.12215 40.502018
-36.140358 227.48506 6.7520895
-15.822905 74.392578 32.806969
50.788525 258.51251 19.021389
31.158644 219.18562 6.8379202
23.124767 243.68938 71.5718
23.604191 198.21957 71.5718
35.622032 211.241 23.965611
-40.786732 114.71266 41.842724
45.29364 115.48624 -1.7590048
-47.166985 222.74615 53.799534
2.5459528 83.233177 34.601471
-36.739479 136.32271 24.519642
48.621681 245.84589 53.231915
51.606522 137.48697 12.694678
-6.3963432 79.699692 39.258892
-8.0035305 172.11 22.603622
-48.555099 151.6832 27.319492
-33.564983 227.24216 3.7078843
-22.490667 164.59537 7.69098
-30.485161 139.34152 20.962614
25.847483 270.88721 52.133492
-15.930909 81.071579 42.018078
37.609669 136.30859 37.446316
-28.2348 237.23715 26.472326
-42.282459 138.67911 16.074966
47.297462 218.75845 18.444475
-40.036583 120.09692 46.752491
-2.5683897 76.739891 17.1122
56.332676 261.96033 47.690548
-23.762537 72.940811 25.629232
53.800381 137.68877 29.503006
35.277546 217.97572 17.460028
58.496941 200.85986 31.832417
51.785816 148.81357 9.2016869
-30.740803 239.01476 23.969433
-26.12941 254.98663 41.547691
1.9547441 76.147469 7.69098
-15.796925 256.77139 52.75267
-29.364584 242.83139 7.0566468
-23.177673 259.8038 31.172749
38.021042 111.13545 -1.1862512
20.353886 219.70445 53.862354
-15.454096 292.798 44.926571
39.74575 136.6032 10.561072
40.411728 221.48059 8.3557196
-40.188766 95.539062 21.3592
34.970673 217.28615 52.836151
-10.419579 244.20087 7.8213768
-40.242695 118.2074 44.429253
-36.600655 164.6494 40.050503
40.2892 241.60858 24.893261
-10.305216 229.08551 49.459301
-12.663519 206.31006 6.8379202
-23.379631 93.533928 17.777378
-9.460578 228.81778 6.8379202
49.681149 129.37024 33.446918
43.410995 244.64389 4.4026723
-29.350309 220.46936 39.483505
35.609348 149.30746 61.261627
-39.277279 194.04846 6.8379202
-15.996983 157.27257 68.93042
51.033398 258.2869 38.768166
-39.369888 128.27129 44.712997
-45.796173 238.5331 48.188782
-34.102402 217.76894 34.076118
38.165466 180.98137 71.5718
-3.8624511 110.75554 55.201027
-23.679741 101.06924 30.298115
-20.3986 135.70456 20.934151
40.386398 239.97014 22.576754
-36.440395 216.91776 15.962811
-25.7279 234.53702 16.594536
-36.077995 208.69424 53.617355
52.986877 139.91438 18.331455
-18.901958 220.24808 6.8379202
-19.279119 186.45845 7.79776
41.066299 246.79076 18.152882
-40.221771 82.766701 31.160704
-29.045074 86.781792 7.69098
52.260921 261.37064 20.426792
27.929546 75.740768 22.979935
2.05883 126.90437 48.87833
-6.6509681 292.798 43.384533
-16.323975 239.59531 53.451439
-40.875343 137.27968 30.664761
40.424099 120.66823 13.568734
36.649937 112.11133 4.4618011
19.732956 107.33017 7.69098
56.878975 257.98248 42.286652
35.587982 292.798 34.251877
48.545601 223.22682 15.444002
39.017712 224.13028 38.657505
-5.3686533 288.40918 50.017727
-6.846055 276.70282 18.941868
41.193462 284.73941 24.523438
-23.127983 216.75423 23.316261
-12.151558 165.10619 7.69098
29.603964 146.52356 63.215424
42.149979 74.523529 29.023418
-35.859638 232.35336 46.393234
-27.750565 186.80228 15.014352
-9.2321367 291.73755 48.46973
28.161282 288.55145 18.53911
48.838875 87.012138 11.587866
-6.4907112 188.51971 20.805035
-8.5942011 127.89714 53.809299
27.646881 205.67218 37.476723
51.272873 220.9614 21.191761
36.731434 190.34529 7.7586336
43.900818 80.883408 37.969002
40.584053 130.75552 39.290775
-20.3986 259.26767 31.635746
41.907288 105.8427 42.143768
20.456284 182.01022 21.418922
-36.691566 196.5966 46.468845
12.506556 120.67547 50.957973
38.361454 224.49429 5.7061548
41.52755 140.36385 25.523464
25.983528 245.80434 8.369997
-26.625771 182.24536 14.044968
-32.163979 229.19122 65.792542
19.198744 183.09752 13.833384
-42.742653 243.39372 45.843689
56.465233 151.5547 45.865242
41.014526 81.022491 7.69098
-39.687 155.07922 39.869118
-36.248089 162.93452 51.635674
11.444159 292.798 47.438328
-47.170414 132.09366 41.493576
-38.382416 287.62909 31.88306
45.821754 187.04065 7.8780026
-24.084671 120.19429 47.291058
38.266968 245.16656 25.852692
-14.453876 230.70392 50.636166
18.767548 92.946487 33.747124
-15.167513 232.17972 6.8379202
-8.0836248 261.24652 52.556366
44.985237 166.74756 37.771095
-40.731781 228.073 38.401463
-39.687 193.42398 35.470871
-47.806961 218.8367 42.138435
-21.18066 266.29965 52.334732
-38.824764 225.6864 43.192387
46.337925 181.64755 8.6605778
-11.897823 138.60281 7.69098
7.6870937 211.241 48.863476
49.957508 137.95686 13.829133
25.471914 112.67203 32.759731
48.952061 192.35373 51.300453
-22.295597 139.5713 53.295353
41.642136 136.82744 31.756542
-35.278297 133.03313 16.924768
41.717503 73.761673 19.544538
-41.365406 96.671402 15.036585
-27.906017 247.40736 5.5474052
46.837639 196.57614 66.56955
16.779713 141.30103 64.723267
-31.45747 227.1682 68.242584
-6.0039172 189.18356 7.69098
-31.536156 237.36594 53.49749
13.478354 125.41 13.646029
-44.049858 139.56958 29.821545
-20.3986 111.56863 32.91787
46.856949 220.08185 15.249591
-41.74654 120.18141 44.169315
-27.702356 129.1255 43.993561
27.509651 136.05869 55.056305
-25.898365 219.96915 39.06218
-40.369678 228.11111 9.5532475
-7.5271835 160.42514 71.096962
-35.975807 226.74648 53.716888
-17.909203 168.65718 38.927269
-35.808014 131.35864 12.866112
25.532669 225.58755 47.007984
38.326485 291.15594 27.740299
17.182083 265.06119 52.389004
22.332603 261.28549 61.497017
32.307392 292.61224 25.001915
-8.7029715 96.322594 35.666996
37.995449 199.50302 6.8379202
12.602722 86.231956 46.795738
28.61064 245.43187 7.9006224
35.485756 223.76668 71.5718
1.98613 77.485092 17.840599
-35.06015 199.73471 63.459877
37.304504 113.42763 51.060898
-21.707066 292.798 29.31089
25.172335 257.69827 52.711983
-32.769054 232.50101 60.483551
48.0467 154.82385 49.71405
-40.750732 277.84976 44.88662
6.3955698 107.00801 47.757904
-35.986862 205.65265 54.679184
-46.279602 202.3045 9.6754227
13.054455 92.929962 48.486389
33.497162 211.241 37.633625
47.01487 108.73064 48.372391
-19.141346 231.22485 71.5718
-18.008154 222.68945 53.916115
0.79636377 121.61559 39.72884
-11.78257 193.7558 6.8379202
37.718147 135.71048 53.048702
25.056202 158.33087 52.194321
22.125347 239.74924 53.448257
-38.175957 153.58221 47.99826
36.235157 278.4585 51.234802
49.805359 120.03478 47.328873
61.443867 150.7265 31.747665
-24.214735 73.552437 27.710121
-3.5375884 107.89955 45.041973
30.613159 163.65775 46.872276
54.860992 265.42352 52.373161
-45.401783 248.69885 48.795479
26.91787 114.58437 51.892471
19.001303 266.33035 15.39295
-40.394741 124.93509 39.888611
45.405514 131.06641 12.400089
42.034782 292.798 29.024874
-11.709772 232.74388 49.419937
-42.688202 124.45325 4.0777311
45.32328 135.93271 9.3338223
43.027802 286.51294 25.548252
-31.041779 169.19565 23.623861
37.748966 211.241 37.373188
13.841052 76.492378 17.1122
33.073799 222.3793 38.218246
-28.288128 120.1963 -1.3083587
47.516266 254.7612 30.226822
-39.609947 282.98886 44.52187
-39.687 192.48372 22.533161
-24.497299 239.14844 21.451441
20.438761 173.50636 71.5718
46.548645 267.38419 52.287155
33.073799 233.92476 42.534
12.531806 129.57698 54.832726
38.436401 244.17139 19.792917
15.017666 121.8857 59.34343
-37.938942 133.30302 5.9071569
-34.695915 168.0675 10.227015
44.014915 227.05762 68.585434
43.631615 120.97237 1.4672723
41.064648 119.38089 33.563675
48.300983 167.05518 58.440353
28.788034 74.475304 23.173626
-30.479877 241.37227 25.174
41.829056 261.37158 20.434074
-28.973185 240.48003 47.013439
47.528477 224.26627 14.134023
-28.833164 138.85434 14.595232
36.345352 97.913422 12.038035
50.993576 287.87085 29.620937
-28.1376 241.35248 21.56823
60.004311 203.54202 14.666479
41.1814 287.45685 54.808178
38.159214 244.16653 28.265455
-23.225117 252.2307 39.250732
-25.9505 114.84781 16.768497
-35.410603 185.65662 60.349922
