# .PCD v0.7 - Point Cloud Data file format
VERSION 0.7
FIELDS x y z
SIZE 4 4 4
TYPE F F F
COUNT 1 1 1
WIDTH 1780
HEIGHT 1
VIEWPOINT 0 0 0 1 0 0 0
POINTS 1780
DATA ascii
212541 91366.781 4905.1836
177733.05 52237.516 0
178436.17 105013 8498.1318
172163.08 104692 8626.3721
179823.8 56424.047 0
212550.52 58602.836 0
189398.44 88180.938 4927.4609
162767.5 115815.46 2137.1001
250873.45 33214 4467.8101
177494.03 113371.02 8551.3496
234408.11 66250.898 2459.8611
194023.91 48307.605 0
203417.05 107603.17 0
164586.84 94863.398 2569.1001
183060.38 76653.602 3579.9907
235902.17 29221.984 2137.1001
252397.23 18854.713 2137.1001
215541.83 77997.102 15963.042
217075.88 79895.602 0
214980.56 106777.66 6077.519
190304.59 77455.391 14469.9
177021.69 80939.5 7615.4189
227289.28 23895.676 3397.8501
187166.25 97420.492 0
177513.03 76868.203 4035.5459
163256.92 86184.406 0
208178.95 117584.64 2137.1001
167092.75 31175.736 2137.1001
237135.25 43857.836 1119.9393
216206.91 33268.5 840.01794
211082 84619.617 7537.2461
223265.62 118065.02 0
249712.84 28573.602 6836.3369
189319.7 42176.43 0
212786.55 75300.797 2137.1001
243050 44988.75 10940.596
167071.19 84757.422 0
202520.53 21114.67 3672.6001
206887 87159.734 8653.2207
245751.84 41084 4601.8301
248597.19 35978 8474.3281
208317.2 106600.52 2642.7515
197746.23 28348.594 12184.881
160418 87208.234 1741.1003
213647.3 100773 4568.9995
228823.34 63649.258 0
230226.66 41951.375 0
183981.12 20250.301 2137.1001
212824 66084.656 0
177578.28 101118 5447.0342
243653.38 108770.49 2137.1001
210897.28 62520.781 2411.6001
178951.8 85589.602 10161.156
235612.33 18439 137.71399
179424.94 108529.2 2351.1362
253074.02 43596.012 12047.85
228883 27723.086 3123.0332
164583.36 30081.898 2343.2605
231329.59 25778.336 2137.1001
182919.47 98174.102 8785.3545
202371 93924.203 2676.6941
183793.69 101203 7801.5122
195886.58 88553.672 2137.1001
214072.14 23348.199 11464.787
165913.27 111201.67 8340.457
166479.25 114702.37 0
237395.97 33941.516 7544.5996
216838.95 53970.793 0
176150.94 94048.172 9391.1768
177433.42 106773.97 10578.39
165000.77 31727.1 2923.3069
176008.61 69028.781 0
210045.34 89209.625 0
162304.42 58923.93 2137.1001
173397.44 70238.016 7849.6006
170900 85962.336 7602.3564
215577.7 85995 3661.144
213293.22 82017.602 15127.477
195343.06 50783.664 0
169411.45 111430.44 8992.5098
203181.28 89485.562 2137.1001
237611.31 34441.672 6599.4072
167890.25 68485.43 2137.1001
218553 85060.594 1469.9709
212447 79226.938 4182.8574
170947.39 76394 6485.7178
221421.03 25705.465 2825.6001
244607.69 97606.531 2137.1001
242014.73 31839.898 9075.4736
172465.69 80107 2201.3547
176462.64 111260.01 2137.1001
213413 102848.25 14600.108
214209.91 73462.953 0
167231.28 84596.5 8031.2212
240807.83 42929 2574.8733
176879.94 109165.44 0
178955.8 78914.445 0
220054.69 110768.02 0
191492 26062.266 15604.059
198783.59 111948.97 14586.337
237686 58871.289 2041.5216
242894.31 41113.602 5226.7754
238895 45601.707 10309.061
198669.33 82308.68 0
253043.91 42851.801 6795.4507
219483.86 85887.484 0
217322.59 109048.41 0
222042.2 44368.891 0
198408.44 50329.062 0
197852.38 18989.984 2137.1001
190955.61 75380.297 3770.3896
182614.58 33268.5 1922.5614
238501.02 30039.732 2302.0586
172481.52 99029.594 10381.336
178238.31 45035.156 0
237823.34 103827.84 2137.1001
190088 107410.08 3190.0391
164054.11 99198.75 8613.0996
228041.16 56149.711 0
190531.81 75380.297 4203.1514
194236.61 28076.303 6155.1885
174788 100120.71 2578.644
169510.64 55496.996 0
173695 107494.31 13960.415
207300.94 73734.438 2137.1001
237686 75834.383 74.183319
202004.62 110287.03 6123.7075
169207 105358.9 4866.6514
192517.97 109606 2211.4182
212750 95544.875 2137.1001
236215.78 33687.539 5457.3662
180440.31 95022.703 2137.1001
216653 84946.797 9700.5117
202137.84 80804.797 7913.4658
186021.33 47232.023 0
237042.53 100594.42 0
199644.09 91031.703 3554.1816
224056.19 69696.102 3807.7837
217970.75 66308.062 2160.9373
247029.11 43207.656 12048.633
171380 111985.49 5469.4492
253426.03 67049.539 2137.1001
164486.2 25439 2802.3748
230487.72 116053.05 0
212275 84671.008 5771.3657
198856.56 107580.98 0
183403 49801.5 2527.9565
166844.61 103917.97 2137.1001
186369.14 81277.922 0
185904.97 108876.3 2845.6599
195362.5 43018.516 0
222485.44 19881.41 2137.1001
201232.34 24323.898 2216.1543
242091.5 26408.797 2137.1001
217103.52 59253.895 0.45768026
247604.7 22816.494 2137.1001
184082.66 109689.09 2137.1001
236126.34 23131.617 2137.1001
174968.91 106221.52 0
207778 96911.336 4353.0786
220016.16 114666.59 0
226275.62 107698.06 0
204306 77933.039 3223.1553
208942.03 78122.312 0
169804 70424.523 0
185830.08 117504.33 2845.6597
215152.19 93685.203 12538.922
166781.69 66832.227 0
183432.5 89268.375 0
183044.25 57598.301 1328.4974
216427.78 66293.344 2137.1001
182844.16 80497.898 4447.5449
208104.44 67571.812 2137.1001
191492 26683.404 8863.1523
189491 78202.781 9606.7402
189134.02 112765.58 5109.1567
238895 46360.676 2885.793
167762.19 27552.277 2137.1001
236208.53 107279.44 0
236177.81 117111.02 0
201525.17 92796.328 7498.8501
167008 20647.719 3508.2717
164070.27 72969.602 2178.4189
164482.98 74363.492 0
168285.31 75450.5 10063.247
212211.69 26121.617 11789.1
219403.67 24734.264 2137.1001
224354.75 68779.312 2549.1001
203030.88 101805.48 0
215705.2 113410.7 0
214281.25 53561.438 0
212447 78484.008 9854.5293
176813.33 102827.36 0
177785.7 102605 6656.8364
237715.23 97017.062 2137.1001
207143.34 72742.922 0
244309.02 31610.207 2808.2417
209945.83 109305.22 0
202939.59 57598.297 988.18958
192827.25 28076.301 10722.988
241572.08 38011.078 11609.737
214548 26923.266 5355.8857
170124.97 71047.141 2137.1001
181730.12 101203 8149.1626
167203 110539 13794.371
178831.17 108661.48 12366.154
163613 64047 3598.4485
249642.83 80457.805 2597.3501
178854.8 57598.305 1446.5476
213662.75 82281.922 0
223528 20225.002 3312.999
197016.22 111443.53 0
175158.25 117651.29 0
200599.81 82263.922 0
203821.52 23482.086 7035.2881
242741.72 37696.898 7001.854
187745.55 18439 937.03265
253210.94 63813.035 2137.1001
216792 104191.5 3222.2061
183477.73 94342.703 9109.8008
228637.42 69111.477 2137.1001
237686 107948.88 1118.1436
253026.48 23208.281 2137.1001
177029.09 22113.041 3705.8501
251117.62 77897.172 2523.9333
210498 80407.125 3950.4595
190796.34 112813.38 2137.1001
170093.08 28439.207 2137.1001
174326.84 99816.609 12723.762
191418.03 67777.688 0
251824.03 98961.844 2137.1001
202399.91 52089.488 0
200071.73 72280.648 2137.1001
255168.02 96247.359 2137.1001
189449.8 43198.766 0
221583.38 88633.781 0
216149.06 87371.055 8133.7578
174984.09 111659.66 0
202574.81 107472 9969.4053
179050.66 106752.89 11876.001
179427.84 74895.602 6412.2661
228668.34 50608.461 0
214183.72 83834.742 4005.7273
172758 99764.945 7199.252
215829.67 58360.293 0
214503.72 28673.902 10171.889
216539.7 111210.83 2137.1001
182502.39 114080.01 11052.715
213134.59 70858.164 2137.1001
245671.45 74909.633 2137.1001
163064.36 97603.297 5392.2124
185890.97 80539.875 0
235003.58 63249.086 0
182241.88 42465.031 0
182562.44 57977.113 2405.8501
173861.11 88689.156 2137.1001
234937.31 91514.867 0
193006.34 65515.102 2319.4475
163423.36 85155.391 2137.1001
204306 80562.102 14728.79
181254.03 119292 664.07574
195219 106599.88 0
182618 92840.875 5289.3901
195265.22 73184.234 0
204893.31 90768.938 2137.1001
189026.17 113563.92 3942.0664
180770.84 96458.469 2786.6602
233179.58 18439 1287.7009
180963 113652.25 9062.1484
216653 85199.727 6053.4316
244957.25 37649.199 4644.4453
230046 79139.898 0
174009.59 98289.102 3912.0671
199584 95700.547 4453.7739
160503.75 87463.438 0
199872.94 74134.094 0
210327.5 115146.26 2657.3604
180540.41 93279.562 0
234248.06 75115.453 0
248000 26103.523 2511.2754
241645 23405.855 6849.0073
192992.84 106332 7448.2979
208539.48 24729.949 2137.1001
166474.7 112930.53 2137.1001
228865.09 65981.641 0
237284.09 35299.234 5837.1079
194238.23 88440.461 12074.907
168535 77156.75 8046.0278
172488.95 26337.053 2137.1001
226246.02 34155.266 1119.8955
221319.48 109571 0
232895.58 72855.656 0
215559.38 105998.02 2137.1001
224702.09 41389.211 0
220297.14 23302.953 2137.1001
197604 26407.148 6657.6885
161936.84 91006.266 0
227372.53 80648 0
196837.06 23586.1 7975.0957
175406.62 63426.07 2137.1001
181067 44063.992 2480.8606
251328.67 75341.906 2137.1001
181076 100428.74 3568.9307
191039.44 80831.5 8278.7344
170746.12 31014.744 2908.8501
196913.91 81104.016 2137.1001
183632 112623.89 9810.9531
179324.61 104976.2 2137.1001
199323.88 118196.19 0
243696.28 88653.258 2137.1001
212758.06 46215.02 0
227997.02 69605.047 767.91742
225395.56 114383.31 0
162853 104273.55 4201.2085
192547.86 59337.309 0
196565.31 51603.5 0
192736.28 23185.99 2137.1001
233891.09 48506.387 0
222059.44 109467.55 0
201065.88 84373.297 7684.8013
186907.06 70866.023 0
172717.59 107284.27 0
168970.62 112193.19 9597.3291
216423 91216.445 7592.8643
243183 39061.824 5666.2598
215863.14 98930.547 2137.1001
185888.33 72500.141 0
162604.61 74525.883 0
203001.62 23494.299 8032.3501
251947.28 40485.812 2137.1001
237685.98 80617.203 1850.9348
243722.97 18439 1267.8269
205907.19 92424.391 0
202805.22 104534.95 11159.6
163835.5 84501.516 0
171380 112454.27 5596.5249
171388 72094.516 5183.4521
174634.45 115433.59 2137.1001
195439.47 88091.453 8507.1084
243634.56 39968.156 2137.1001
187762.41 58726.484 2137.1001
190197.09 63078.25 0
224482.53 88989.672 0
235439.41 99082.336 0
176614.38 92846.719 3563.5176
160718.27 54043.477 0
192347.58 118310.16 2137.1001
163897.77 67080.227 0
225730.03 57469.219 0
240089 39878.055 5350.0815
169141.22 83170.391 2137.1001
191513.02 119292 464.68469
176391 100029.59 6189.1133
172022.75 108380 12849.736
177256.53 54385.621 0
221069.97 50293.633 0
187336.84 105795 9385.2529
179116.88 37288.41 0
198894.53 111423.62 12913.836
197219.06 98528.68 0
249635.31 84556.906 2137.1001
193898 108570.78 7490.3428
212842.67 96229.656 2137.1001
237686 75747.5 509.06949
173251.2 90955 4379.3623
184140.38 76653.594 4041.6968
227948.98 113685.7 0
252636.88 55728.445 2137.1001
189359.33 113616.42 8081.542
191657.44 18439 615.02075
222376.56 73967.773 0
160418 103288.17 469.49234
186306.17 104035.53 2137.1001
176440.73 113672.22 0
188152.41 62850.164 2411.6001
208693.69 87990.383 0
172093.17 114519 5523.1406
235315.78 77407.031 0
166772.92 112690.7 12149.904
175993 72916.82 3294.8518
192435.75 28076.301 8376.875
185783.06 94852.203 2137.1001
176709.8 26895.49 2137.1001
184452 108145.35 2756.832
233124.81 41056.32 0
172632.02 99573.062 16655.59
171395.66 56406.91 0
166331.97 110271.09 9682.0381
211090.72 24627.52 11789.1
184726.5 105381.54 2137.1001
195296.5 75380.297 13941.324
191684.33 28388.682 14927.319
202667.12 23463.438 6898.1694
206539 79505.547 8417.167
188124.7 111958.82 12102.437
188666.06 105795 5839.0303
165154.31 52522.023 0
212299 96342.758 3567.8506
163685 75654.969 8471.627
210910.77 60521.434 0
203391.91 106298.58 0
213413 102879.78 11690.063
209445.22 90544.898 4878.5938
240466.78 47083.5 15700.559
180179.78 94933.273 2137.1001
222363.09 35739.938 0
189491 76499.461 5679.2749
177427.84 57598.297 1764.3329
233647.62 56028.809 0
222162.88 65810.875 0
188364.39 114402.86 2137.1001
254054.61 23285.229 2137.1001
174380 103931.91 14916.633
166934.95 25666.602 2137.1001
184944.58 117395.14 0
195455.03 119292 1346.2157
237126.25 39527.148 2137.1001
172140.31 111632 8266.5273
193470.66 111365 12177.576
165873.53 111132.84 5855.5308
241570.31 33330.5 7960.0415
164066.81 84097.859 2137.1001
218553 67633.203 1514.3168
216162.31 77997.102 6150.4331
223497.84 23528.336 2137.1001
236850.41 28620.301 5011.0879
243164 30830.873 2789.6694
177684.34 102791.85 0
203446.38 98667.391 11618.6
209542.59 107258.81 6033.8086
223252.67 18851.146 2137.1001
169889.25 28376.617 2137.1001
201498.34 55542.668 0
226406.16 94814.953 0
179009 76976.984 3025.082
168027.31 114488.43 2137.1001
189289.95 88115.242 14947.1
199903 21401.645 3268.2959
252160.95 73582.055 2137.1001
178668.75 107343.02 0
249456 43547.133 2137.1001
212252.2 96090.5 8667.3848
172188 96657.828 2845.6597
192630.38 117675.6 2137.1001
199671 85225.133 8307.501
212626.17 89346.797 2137.1001
229559.27 35633.852 940.01117
241707.61 37696.898 9369.7139
252456.91 92970.625 2137.1001
203076.44 116518.69 2137.1001
176365 103352.06 10699.452
199742.81 115020.16 8154.6626
182555.19 102941 4089.8179
213137.92 73553.766 0
172361.88 31185.682 2137.1001
195813.14 87773.18 8073.1494
167095.5 68525.453 0
172758 99397.672 3702.7549
198812.78 21921.324 2137.1001
218959.98 82854.164 0
234882.41 74899.773 0
163620.48 94224.148 2425.1001
212557.16 43815.969 0
228445.97 66895.555 3334.5166
172853.81 114519 5593.1162
197878.55 28212.562 4738.7485
178899 112053.56 5136.2017
215601.28 110932.2 2137.1001
167557.25 52085.496 0
203431.66 103653.96 4774.6084
238683.64 114970.17 2137.1001
177843 104764.03 9405.1025
201322.92 117783.71 2137.1001
197994.02 90957.141 0
182639.11 88995.906 5768.3325
171232.97 76394 6728.5537
181219 108352.23 7173.5186
182702.02 44830.199 2137.1001
206507 74110.68 4019.6099
242813.25 29894.1 5639.4385
178665.69 108526.16 12534.264
228681.03 105889.09 0
212236.89 68549.328 2137.1001
242039.64 104607.44 2137.1001
175230.84 94078.117 2137.1001
207528 92817.648 3943.2168
165957.25 93970.094 2137.1001
173270.14 62430.258 6305.4897
212275 85471.047 7992.2842
204093.23 66420.078 2137.1001
214742.72 108646 2872.2275
210220.58 87471.312 9733.8496
182871.77 74004.031 0
176633.61 21925.91 2137.1001
161949.09 39282.91 0
229430.17 48263.672 0
182618 95633.898 6944.2065
211205.5 96090.5 4293.1226
195714.89 96563.062 2137.1001
200031.58 109553.44 12272.528
163144.5 110628.78 7777.2729
172465.67 103984.67 18348.383
250581.84 40904.824 2137.1001
244085.66 118337.48 2137.1001
181079 85540.453 5615.5923
168598 85927.031 3331.8984
212806.5 93685.203 7275.6255
210940.02 89656.25 0
201084.23 24516.916 3739.5454
251747.81 42851.801 5081.3672
176309 88331.859 9658.3896
210498 80847.836 9469.4209
171793.03 95503.203 2201.6299
199584 100594.7 4094.7881
237686 72753.109 530.70129
165110.41 112505.91 6176.8311
246559.16 52167.945 2137.1001
251169.23 88523.164 2137.1001
250944.31 24159.1 7438.6636
202488.88 113029.22 2236.4924
215668.62 71115.344 2137.1001
233150.53 115977.34 0
162284 20485.783 3284.4392
203791 100171.14 8488.9707
250818.66 28573.6 5770.6694
185660.31 48218.727 0
202561.19 59253.551 2137.1001
215518.47 116414.02 0
237686 60583.609 658.15619
199864 78252.484 4758.9746
246308 35040.602 9448.3818
186628.11 48380.797 0
197885.89 23645.26 14417.457
193195.86 75380.297 2930.7542
190807.17 69903.125 0
220611.45 35452.09 0
195776.38 28076.301 2223.5366
255827 63511.258 1814.3895
220567.2 113897.62 0
187751.56 33268.5 824.72583
230448.25 64145.531 0
172664.08 67400.227 0
161698.09 119292 1820.4562
168197 71081.578 2227.4817
237686 59467.805 22.844778
242930.81 75806.094 2137.1001
211098.5 104109.07 3348.9448
174521 91074.164 3713.1123
214158.84 89803.703 7297.4512
199584 97659.219 5279.4712
165963.22 110872.55 0
200474.3 63825.945 0
168286.42 67063.938 2137.1001
165300.59 55632.969 0
164478.36 104369.01 2137.1001
195199.45 119209.59 0
183435.61 88995.906 5998.4268
240983.12 49841.699 2596.6926
207483.58 106090.79 10582.175
201620.48 119292 28.105747
212130.22 92258.297 0
242809.78 37696.898 4653.7837
254296.03 25644.396 2137.1001
173235.31 95503.203 5154.168
202244.06 96967.023 0
228783.31 66250.898 3586.5417
246065.34 33250.301 2576.4492
194556.05 33268.5 1755.8842
225132.41 50825.25 0
255826.98 19418.908 207.91858
240579.31 67293.562 2137.1001
190109.14 80831.5 12486.912
178752.12 49362.234 0
246695.27 43146.742 9358.4443
246264 39161.594 10797.613
215043.88 39620.695 0
206507 71763.156 4048.3418
184340.31 74521.891 0
247610.05 46385.59 10783.877
163569 88046.047 8357.3975
210498 79846.703 7959.3945
185164.25 103647.49 0
172004.41 88545.703 10952.577
191875 107276.58 10301.592
196131.78 85508.172 3499.1685
238526.59 41976.387 2137.1001
173615.8 87217.844 2137.1001
178157.06 30805.301 3222.6001
205808.84 59748.852 2137.1001
218553 79913.062 1941.6938
165660.56 110077.16 2137.1001
183275.03 60910.281 2137.1001
228932.72 80986.266 0
206015.97 69308.5 3542.7939
176391 98321.711 6024.8784
185014 22502.986 2356.9734
187739.42 18765.969 2137.1001
202309.66 23568.188 2889.3784
255827 74464.758 2077.3054
235915.23 64150.156 0
178785.84 70138.656 2137.1001
177646.5 59319.898 0
207771.62 76966.703 4893.7046
186387.56 21430.943 2137.1001
247688.02 23278.779 3165.3301
188820.69 78484.695 2137.1001
196536.41 118840.55 0
219996.69 67632.273 2549.1001
212814.34 93685.203 8711.5684
248939.75 24159.1 3910.1797
187201.45 93761.938 0
196220.94 19735.301 3393.3523
176727.56 101118 7686.6118
231951.16 64829.918 0
171344 93046.875 3982.9102
245402.33 87105.344 2137.1001
168876.77 44991.223 0
208951.2 119233.53 2137.1001
199452.52 34574.43 0
177220.78 95325.023 10449.615
182629.28 86082.656 7737.6006
183144.19 114080 5340.3564
209895.41 101734.36 0
198383.72 113399.42 2137.1001
244501.44 36065.801 7774.9785
232924.72 66250.898 2147.7759
250116.95 29654.301 4764.5854
203398.56 88516.102 8751.8066
207778 98591.242 13986.496
208669 25132.779 9583.2178
196901 108043.33 7120.6826
186438.2 112355.05 2137.1001
233052.34 53589.367 0
204014.94 112080.45 2137.1001
175801.3 109784.62 2137.1001
167970.97 18439 1238.807
182246.64 104367.3 3958.8955
245636.98 74415.789 2567.2998
205088.06 110769.17 0
225424.08 107113.84 0
185479 73817.812 3620.5317
255794.58 20305.6 2137.1001
208669 24329.152 3609.3428
171215.94 83741.375 0
201595 70532.805 6944.2866
170658.97 88338.859 2137.1001
203903.44 76362.602 2757.0161
161601.5 20675.355 4327.8501
202993.52 95684.203 10963.251
194324.83 75953.219 14469.9
178986 86405.477 6084.6416
160605.66 65653.812 0
212299 100500.91 13032.226
225427.25 112605.88 0
177630.56 24874.801 2137.1001
213413 101718.49 10184.203
220170.89 95981.344 0
198608.31 63890.602 2411.6001
197316.66 23605.992 5759.2568
194406.55 111421.97 0
212355.88 86549.531 6407.1123
188156.88 58379.195 0
202163.34 107472 7343.2446
181627.75 93268.203 2137.1001
244468 37810.973 3451.3167
189029.53 84516.664 14558.675
251694.5 39622.191 2137.1001
212299 97674.406 10582.072
170771.16 28773.268 2137.1001
200796.88 115436.57 12605.216
172069.98 104212.82 17199.6
221712.94 70205.016 0
168059.98 109475.99 6213.6255
202435.12 40719.293 0
232510.08 114447.1 0
234458.55 85461.062 0
188060.78 111081.2 2137.1001
249835.19 72596.703 2137.1001
178186.77 106303 2887.0874
220231.7 115581.52 0
235391.53 27373.266 2137.1001
191791.25 87346.133 7988.9209
245067.28 46075.957 4460.9814
188016.16 61125.234 0
241011 40356.859 7557.0479
203575 86905.844 6071.4019
209020.2 114317.9 2137.1001
167862.88 109475.99 3123.3447
215233.97 75602.523 0
188961.45 87273.992 14947.1
206507 73392.328 3052.2998
186976.47 81194.883 2137.1001
187328.53 73838.602 2356.5005
219976.31 113893.46 0
250836.34 47100.805 4457.6895
234614.22 100109.45 0
246795.14 24010.777 3053.9392
254428.22 27314.799 2137.1001
215519.16 84090.836 3194.2642
171436.52 104692 3966.6777
251378.5 62792.211 2137.1001
168535 76777.703 8264.7666
225154.11 29939.4 2163.8643
236281.2 116117.3 0
183271.88 52996.676 2137.1001
212299 97599.375 10564.812
218553 103692.24 2041.129
238642.81 88086.93 2137.1001
241032.42 30584.27 10301.9
245171.09 51614.668 2137.1001
171374.08 96481.953 2786.6599
185752.16 66839.219 2137.1001
208669 28337.469 8958.7734
164883.34 94373.266 2425.1001
202007.66 74220.203 2244.4856
194459.38 84523.562 14947.1
221718 26823.908 2322.2107
197281.66 68500.344 2137.1001
212018 72791.797 3855.6812
181513 53291.906 2418.0654
237686 106600.34 922.89355
165205.61 33539.336 0
193318.88 65244.359 0
188173.61 84540.789 3460.9873
193609.72 77605.867 0
183632 111696.59 11402.418
211055.83 113961.08 0
250498 44347.676 13480.79
175993 70210.258 4373.6182
255827 114592.35 784.9715
164871.16 72969.602 3877.3442
186212.53 69480.422 0
182039.38 39283.445 0
160418 31352.729 2734.8315
207572.62 106158.82 7533.7764
255827 75597.945 244.53827
196243.89 85779.422 9197.9512
202721.38 66387.812 0
160418 71428.75 1937.2937
194620.06 83760.953 2137.1001
212447 78387.32 12240.619
224782.61 104458.16 0
167277.8 18439 2055.9624
251271 34017.566 4334.4829
249741.98 27927.375 9092.5996
227444.19 69094.672 3608.5315
193898 107452.21 7988.4419
189481.17 91826.586 0
219088.17 94748.148 0
179404.81 45090.605 0
190600.7 75728.414 14469.9
172103.31 77340.336 0
208866.42 114754.75 2137.1001
197604 27235.516 15205.585
249313.05 18439 814.73193
212958.47 74387.258 0
199864 78336.953 12203.432
192469.25 85539.539 3161.9275
230173.06 98466.516 0
217150.25 65699.117 0
213413 101382.5 3509.1204
177620.77 98322.578 8749.0996
209293.19 113907.03 8276.375
237892.78 119292 761.99994
197603.59 22115.59 2137.1001
221907.45 55412.883 0
201759.22 110496.23 2137.1001
194983.72 57598.297 720.39972
190827 20993.02 3073.3904
240553.45 26635.328 3672.6001
204133.19 46319.59 0
197568.47 54373.023 0
250763.16 36709.914 2137.1001
163138.8 104451.63 5867.3501
253413.5 37358.156 2137.1001
195159.33 84560.984 5153.2476
237686 87789.602 80.127586
174788 100028.41 4556.6528
236271.47 85200.25 0
180252.42 109798.52 2137.1001
255731.28 101947.66 2137.1001
194438.28 88432.203 9811.7627
179470.19 53913.891 0
183360.19 87224.844 7737.5996
197604 24852.848 15265.1
248058.53 90621.547 2137.1001
248705.48 38957.453 6784.3706
227973.03 67371.133 1072.3198
191751.42 19257.113 2137.1001
247210.17 118486.69 2137.1001
197769.8 97459.555 2137.1001
255827 83131.586 1940.6877
249826.11 84490.328 2137.1001
203791 95909.203 11145.159
179089.77 65515.102 2395.7495
183183.58 44568.512 0
239040.62 31060.414 2137.1001
182476.28 100984.22 12682.4
236133.98 82949.477 0
184737.36 69247.812 2137.1001
187504.84 26494.801 2468.627
206610.62 116338.12 0
200041.84 102720 2911.3132
193913.12 114358.72 2137.1001
183038.12 98174.102 11587.36
176521.45 67595.719 2137.1001
196288.11 85912.492 6914.731
176365 104468.92 4466.2412
164167.45 26743.369 2137.1001
249447.72 80567.062 2467.8557
219014.84 50636.754 0
196753.62 37595.512 0
162011.12 118000.57 2137.1001
250150 46310.051 5411.1206
206486.89 58492.125 0
224587.77 59014.309 0
229852.06 65339.117 0
210700.45 90822.875 0
210498 79454.969 6113.1196
191987.69 22592.891 2137.1001
243262.44 67712.805 2137.1001
180631.45 65451.676 0
169108.14 19257.191 2137.1001
248973.55 93057.016 2137.1001
243046.62 76617.055 2137.1001
215815.11 119292 1510.7358
245656.19 73716.242 2243.1206
181389.58 79921.266 2137.1001
208447.84 89841.555 0
173584.73 115551.72 2137.1001
169698 100240.66 3050.8591
204723.06 74220.203 5639.2861
187821.67 27751.061 2911.1001
186705.75 96586.328 2137.1001
165499.64 95834.562 2137.1001
228708.72 62534.633 0
176309 86137.383 4414.1367
229325.16 51694.695 0
194957.88 119292 1498.7125
180082.22 72249.172 0
235647.88 90377.258 0
212346.8 85492.453 9845.1895
191250.55 23368.133 3788.4885
163569 87414.859 2536.5283
197784.03 93627.461 0
208516.73 106809.34 10140.521
223888.47 43843.859 0
234488 27696.908 2824.0503
244687.42 41084 2276.0864
218553 110502.37 1429.5486
245954.17 46694.645 10171.741
218922.42 18439 601.77722
166412.88 112067.04 10175.982
192643.28 84193.367 2137.1001
168097.95 102762.91 4294.1001
199065.22 19374.305 2137.1001
205161.34 104742.03 0
239638.55 49872.891 2137.1001
173637.25 99029.602 13699.766
232051.78 41854.16 0
228307.22 72865.938 0
181219 108797.15 4477.1377
169033 92935.508 3146.7759
203522.31 71737.477 7172.1001
220896.22 96522.055 0
255827 52311.777 341.10184
255827 104275.2 1992.104
191864.28 75310.352 0
186213.66 111246.92 0
247688 31201.193 3532.8037
206764.81 40508.199 0
255827 41228.219 1405.8965
179938.28 99502.164 0
172740.27 117072.05 0
164888.08 38365.438 0
182557.62 45694.801 958.93085
250172.34 43779.711 10310.1
250250.44 21982.1 3872.5486
182718.75 113228.98 2137.1001
216819.72 118003.9 0
160418 76894.617 2127.3005
208997.81 92889.211 9380.8496
224071.94 89418.516 0
182304.38 70857.406 4058.1287
203791 98157.109 2964.437
216561.56 119292 1164.6022
237070.84 69670.93 2719.2297
170061.39 72808.812 2137.1001
167396.22 110962.95 15398.156
244774.31 45545.566 12641.718
252885.25 31780.891 2137.1001
200229.84 85881.57 2137.1001
215673.97 82729.109 0
255827 103818.85 113.86684
248158.31 21982.1 5750.4707
242953 33399.23 7153.2402
192124.88 87340.641 7268.1846
187346.91 85014.125 3759.1411
197376.47 23410.578 3865.0774
246029.3 66380.492 2137.1001
216579.88 70111.047 0
186655.3 113057.98 2137.1001
175673.7 75778.609 0
197149.86 36555.852 0
203807.55 76362.602 12417.544
195225.81 95747.883 0
167329.5 112722 5795.375
177641.2 114645 2138.4221
242953 35356.969 9019.8018
160561.5 104671.45 2137.1001
160418 20977.541 1957.2485
194609.58 90810.914 2137.1001
251271 34584.344 3659.0596
234695.69 39991.914 1046.8899
242652.12 29894.1 5421.3828
206731.84 64147.828 2411.6001
176938.25 71751 2137.1001
182632.75 18978.312 2137.1001
168253 111303.76 13819.241
202032.56 110283.7 0
162511.52 105007.79 0
172566.97 68694.406 2137.1001
191641.28 19735.301 3386.7156
249835.47 47649.242 2137.1001
226227.67 64371.508 0
249554.88 79840.453 2137.1001
251271 34689.688 6099.751
199238 104372.84 6118.7998
200860.19 107472 7833.0684
212611.41 114173.88 7066.3174
166867.81 75415.359 2137.1001
185158 86975.391 5263.5259
173384.78 88545.703 9605.9297
203400.92 110888.26 2137.1001
187049.08 42889.727 0
203210.19 80804.797 10333.771
182797.66 115448.43 2137.1001
222299.11 75098.938 0
230317.03 85052.062 0
168555.39 107525.56 2137.1001
255557.06 83405.781 2137.1001
171093.38 88245.047 2137.1001
178333.78 80939.5 9918.1328
211094.81 97998.781 0
240770.39 111378.96 2137.1001
199864 76741.023 5108.8813
225586.22 61224.91 0
240783.84 22251.699 6401.7729
163950.38 114948.77 2137.1001
168497.5 24261.1 2588.052
221350.22 107060.58 0
213407.08 93685.203 9854.2646
200797.36 102587.28 2137.1001
248472.88 68748.477 2137.1003
241011 40422.109 3905.1865
197604 24248.816 6585.9229
234130.03 78434.68 0
182321.22 114080 9590.0088
250379.53 42851.801 7122.4507
167044.78 70430.781 0
193649.8 28076.301 13174.707
214982.25 113035.59 2137.1001
169207 105652.59 6654.7852
194209.52 75380.297 9534.4277
167529.45 109209 4448.189
211803.28 21547.08 4042.3501
166891.2 109476 7545.436
208657 104779.21 14533.08
179488.38 108384.03 5385.1875
214580.55 80365.914 0
189805.86 105795 6266.6802
244517.14 31997.898 3351.8201
177835.41 98270.297 4775.0337
204306 80057.164 10166.744
174638.44 104394 10860.506
213939.75 88834.812 2137.1001
176499 111837.31 8393.8896
193248.66 97607.188 0
160418 22176.41 1907.0234
189355 112449.23 6955.001
175579.34 78196.141 0
214298.25 103230.36 14657.9
173305.14 41192.695 0
210490.33 75739.297 2624.2346
209647.77 90544.898 7682.3716
240280.12 29494.25 2137.1001
169467.22 104739.12 2137.1001
174540.45 114650.41 0
235963.33 33859.895 2312.2861
197303.33 107857.44 0
164876.09 111009.88 3937.2002
238895 45635.871 14892.238
172236.09 86993.648 12723.6
212588.27 87101.719 7289.4741
188705.89 19437.623 2137.1001
249832.3 28573.6 2293.2952
199568 91300.672 3008.1018
204306 77004.203 6806.6641
213268.31 82017.602 8916.252
228033.61 69324.961 6461.3501
204358.39 90409.125 0
255546.66 74695.219 2137.1001
160787.02 96226.562 2137.1001
227991 69191.109 2781.2634
174003 78369.078 6868.0737
185452 104526.66 2898.1025
166057.09 34903.953 0
235068.31 40444.227 509.07327
195765 109011.69 8629.6963
190429.94 86815.609 14396.475
180355.36 91539.055 0
188020 27578.215 3433.6812
185528.03 55953.609 0
202855.78 59686.789 2137.1001
203148.16 92452.891 0
194592.34 88600.812 2137.1001
166817.86 88108.82 0
187685.97 78967.312 2137.1001
212654.11 71511.281 0
220285.41 100591.86 0
238404 22782.627 3092.2251
185220.38 82634.844 0
211405.47 80131.93 0
186651 107299.64 4236.2578
185628.62 98339.898 2845.6599
183311.25 60342.742 0
182281.45 57873.793 4620.6006
204996.47 74220.203 4134.2944
203791 97610.305 4982.7588
186137.59 102740.48 2137.1001
172082.67 26797.875 2137.1001
187358 89297.281 0
200415.03 85017.547 2137.1001
203613.61 58975.578 2137.1001
185251.08 111541.2 2137.1001
234599.34 76719.727 0
243050 45723.898 8587.5781
182507 109287.17 6679.895
178710.5 112638.3 0
245946.89 43212.984 9831.7793
176499 112951.17 3290.095
185559.89 112004.27 3011.9099
244396.69 58169.809 2137.1001
188951.66 95712.156 0
199330.14 28508.545 2137.1001
186213.64 32325.938 2137.1001
215191.38 89803.703 9788.1729
169808.02 78862.539 0
246307.98 34677.988 7050.6929
253584.69 67150.594 2137.1001
181983.69 63237.367 0
165773.72 18830.031 2137.1001
243050 43980.289 3869.626
240859.94 42929 3859.1943
167841.31 110746.78 14888.396
163512.56 33702.148 0
175711.81 29889.199 3514.1311
176412.56 87870.336 0
208372.66 96090.5 3033.2075
193046.84 109606 9496.5928
184354.97 106242 6636.0425
168112.72 105468.56 2137.1001
236618.16 54513.211 0
164304.84 75522.359 0
221926.91 88041.414 0
242896 25450.029 2150.0637
211425.81 109493.03 2137.1001
197578.25 28381.688 3091.188
183456.28 96145.68 2137.1001
175712.27 111595.3 2137.1001
182411.25 53203.25 0
188300.22 80687.062 2137.1001
184003.38 39671.336 0
190060.09 87756.836 3858.3501
172156.78 111877.59 0
222500.78 43583.25 0
206887 86136.43 5888.083
171762.38 88465.867 12723.6
163465.91 95494.977 2425.1001
170834.88 96986.18 0
192368.91 79469.984 14469.9
242376.62 31839.902 6661.0156
218553 117553.34 1262.7933
192705.81 106835.77 0
207528 90825.766 9153.5107
246635.94 66975.094 2137.1001
162256 100182.75 5213.0762
210301.7 66091.461 0
183076.95 18519.488 2137.1001
244685.41 64350.641 2137.1001
216653 83865.438 9292.7402
160638.44 113562.55 2137.1001
168702.98 20423.68 2137.1001
178899 112059.87 8128.6182
182699.48 42468.203 2137.1001
242786.28 54032.906 2137.1001
246523.88 77709.25 2597.3501
236480.72 110450.61 0
199671 85922.781 4199.79
215863.64 96639.602 0
193681.7 95033.844 2137.1001
202576.33 106895.49 11159.6
218470.08 71862.602 0
189693.39 43578.824 0
222684.64 85678.133 0
243183 38876.766 9911.3633
187149.41 54589.828 0
240850.47 113846.19 2137.1001
193865 113608.97 6647.9194
168197 70884.344 4348.2881
214367.83 77997.094 10868.282
167131.25 51870.852 0
195340.11 88167.633 3896.5127
164960.06 24969.334 3131.1001
202737.41 108285.37 0
189327.09 78724.445 2137.1001
215361.77 77997.102 14574.818
228922.78 47202.672 0
182971.09 84219.102 7688.7891
170691 104260.24 5044.3516
176499 112160.77 7256.8799
203164.12 106169.62 0
222280.53 29237.963 2137.1001
186920.75 62145.047 2411.6001
205429.86 76487.148 2137.1001
215530.64 67234.969 0
200340.92 56777.676 0
250377.64 35978 8180.7783
199455.78 75986.164 0
237686 93049.523 1335.5856
171313.25 107434.6 0
170900 85715.32 5065.7949
210037.69 69919.281 2137.1001
190931.36 76913.18 14469.9
225106.75 66577.75 0
163272 71297.914 5513.0898
235067.44 45757.68 0
189848.94 112543.71 10619.733
184089.59 98174.102 8788.498
189809.47 77129.273 14469.901
237315.5 35057.547 8275.2324
181899.06 41589.184 0
172308.19 84270.516 2137.1001
199892.14 57598.305 393.02365
215561.67 51110.156 0
171604.12 64091.152 6646.8501
218883.39 64707.422 776.33325
171240.61 84529.203 11889.405
188427.56 84504.664 6879.3857
239864.38 99531.078 2137.1001
191150.95 70752.125 2137.1001
237149.19 111423.09 0
183131.27 62505.234 2411.6001
183008.31 84045.461 2137.1001
210483.52 83576.898 8226.2393
168802.91 28157.643 2137.1001
251013 26995.377 4634.437
161921.48 116835.39 2137.1001
246726.69 31874.441 2975.6001
163629.55 21976.9 2137.1001
177055.69 92576.789 6468.752
183706.06 98171.609 2137.1001
233961.92 39757.051 0
254307.28 109785.83 2137.1001
193960.77 84341.266 0
193060.53 79969.852 14469.9
255827 34837.371 1732.39
194924.12 88343.328 4227.9082
175629.77 99459.094 2137.1001
203791 96722.219 4302.918
176365 104931.92 7215.4434
216254.25 87250.781 4237.9746
179009 79778.141 3460.0569
181586 77764.461 5368.1357
237673.34 46694.094 0
181375.81 89851.289 0
166881.47 116524.83 2137.1001
169109.16 110244.52 6184.29
167461.06 50344.953 0
201372.16 100892 10188.315
203670.12 109518.97 0
255827 68945.312 171.92273
171289.89 86069.953 0
204782 23994.393 6898.4238
247994.72 57692.941 2137.1001
205623.06 118130.61 0
166040.06 62538.172 6646.8501
217880.84 28769.932 2137.1001
165943.28 89830.141 2137.1001
171029.36 88545.703 8798.9951
210181.03 103587.89 11168.772
184652.3 76653.602 9572.0586
231223.78 58623.484 0
201759.67 103803.23 2137.1001
171490.22 35471.57 0
196901 107997.4 6269.2471
206539 79038.953 5406.6479
235176.09 93200.562 0
167525.06 88793.797 6398.6621
253694.38 32353.258 2137.1001
223722.22 27128.199 2793.4709
192428.91 23586.098 10706.429
166547.86 104972.36 0
208457.92 30665.229 3368.3501
186455.25 96582.078 2786.6602
217427.19 44785.477 0
212299.02 96639.797 3249.0466
219158.09 109037.34 0
174380 104546.43 4182.7441
201449.25 80067.961 15296.9
236616.62 113183.35 0
218240.62 37465.828 0
247427.25 18439 2055.415
194812.69 62909.094 0
245334.38 82839.148 2137.1001
200842.3 26920.164 6457.8779
202006.67 18439 278.86423
199671 87273.844 5042.1948
203292.42 113810.42 2137.1001
163147.16 57598.297 324.87988
192039 111903.78 4654.6831
178986 87743.68 3497.4055
191875 106827.89 8589.7988
221974.47 73442.945 0
184532.28 91369.781 2137.1001
226468.09 87573.578 0
186024.77 85364.602 2137.1001
169135.75 92876.523 0
194236.72 118207.23 0
235531.14 103477.87 0
222512.16 115677.31 0
205377.14 43236.973 0
177148.89 64336.152 0
242544.3 47083.5 15883.042
163099.41 113256.48 10118.038
189248.23 101939.65 2137.1001
216467 80921.25 15081.599
197333.98 73551.297 5777.4634
186468.34 70279.656 2137.1001
200571.38 109375.86 6249.9111
184719.44 119292.01 1391.2665
171395.05 35111.551 0
174989.84 93650.844 0
187277.12 87971.094 2137.1001
173553.41 108291.02 7606.5869
179650.09 66803.078 0
163873.84 114151.3 0
176741.12 21886.297 2592.605
185854.12 96041.219 0
174003 79449.586 7360.2324
176155.12 94080.281 8952.1689
187843.3 112364.05 5332.4551
188068.97 32596.477 2137.1001
220854.64 40013.852 0
234540.44 84125.391 0
253385 45299.098 5180.7959
175993 71881.289 7482.8721
162256 100144.22 5639.8486
180453.09 96960.336 2786.6599
182189.11 108564.79 0
216575.05 100773 3324.9785
202678.77 63823.023 0
174654.31 93139 2137.1001
195421.34 29899 2297.3577
203803.69 82906.781 2137.1001
216613.2 61015.32 2137.1001
244420.44 77459.953 2233.2666
235013.3 106629.09 0
206405.77 27455.619 2137.1001
208999 72355.086 3425.5493
209508.52 23348.199 9196.8477
178279.81 99795.625 0
226535.97 101677.3 0
242434.92 106112.73 2137.1001
238775.58 51641.895 967.82764
178910 100118.95 3584.4595
164041.41 81302.5 7090.3701
233324.62 70462.961 0
248145.17 37825.301 7555.2012
167892.17 22814.461 2137.1001
185002 27847.965 2794.8843
246784.81 83266.945 2137.1001
255470.81 114013.12 2137.1001
235444.52 40900.867 1955.8794
240444.95 72354.984 2137.1001
187659.53 109231 4566.7407
200438.31 40184.969 0
234380.66 61693.797 0
217818.38 72682.297 0
172942.77 40108.453 0
182884.72 78169.797 0
191875 107301.39 11083.731
186959.14 85557.711 7316.2891
217084.53 80726.719 0
240815.72 32344.441 2137.1001
247835.81 43716.633 10326.7
181576.31 115925.03 0
184106 100245.82 12565.431
249173.72 28573.598 6269.9131
215145.22 77418.031 0
200826.47 100892 7023.1943
194151.89 80831.5 5606.0693
163431.11 54342.652 0
189491 80645.562 10253.946
198949.25 90724.875 0
216792 102472.87 12010.749
237165.41 34772.973 6794.2207
202976.2 107277.61 8897.4922
200623.89 95623.984 2137.1001
186583.44 89020.078 2137.1001
203990.06 61585.797 0
175616.12 95865.758 0
212837.05 77997.102 19122.928
162131.53 96367 2973.6807
196174.45 102772.59 2137.1001
239821.75 52403.77 2137.1001
196242.22 85775.367 7714.5581
193612.98 94124.945 2137.1001
183193.53 118307.75 2137.1001
171388 72739.594 5268.2139
199060.12 113585 9894.6074
168535 78433.562 3270.0579
187973.5 88183.398 11827.662
213136.34 53644.934 0
184676.34 89491.469 0
168775.62 103694.14 0
253340.25 42851.797 4465.6787
220985.38 18898.125 2137.1001
195096.42 60385.211 2137.1001
251947.86 76784.672 2137.1001
250558.94 50981.289 2137.1001
208806 21579.428 3948.5315
213855.31 87570.883 10656.1
207673.59 57187.738 0
177843 103238.66 11027.753
199903 21195.236 3335.866
180963 113408.66 7881.21
241224 48230.805 2137.1001
189718.38 75380.297 5242.9932
217160.7 74092.711 2137.1001
172441.2 74529.383 2137.1001
189687.34 112522.98 11798.532
251742.72 93773.867 2137.1001
247688 22955.426 5480.0532
179374 74505.555 7554.9629
236461 27343.73 3363.9211
192907.64 23586.098 14703.031
211576.56 78535.852 2137.1001
229064.3 31002.223 3158.3501
237407.58 22297.902 4155.9316
243107.84 80073.156 2597.3501
209635.33 51380.68 0
180281.16 23134.232 2137.1001
199558.94 77113.359 2137.1001
222408.55 57097.773 0
243530.84 18439 857.39417
191318 29899 3037.1746
234026.66 103725.73 0
163959.16 65116.105 2907.0547
165443.88 47707.371 0
183982.27 94251.109 2137.1001
249209.62 74583.461 2137.1001
212493.5 58088.152 0
251664.28 72517.211 2137.1001
202700.03 107472 7156.4678
205354.12 94871.031 0
194704.52 75009.812 0
162256 99447.734 6759.3008
237383 18862.215 2137.1001
167486.36 107080.8 2137.1001
242167.12 47083.5 17147.906
232420.34 84994.453 0
231218.03 58619.367 0
168627.03 65110.734 0
199584 100482.76 9861.3848
254589.75 18439 657.43811
231306.3 66877.289 4146.6001
185060 76748.977 7734.3784
167709.31 82748.156 0
204306 77303.484 9596.7539
176499 113128.3 2624.4619
179009 78536.031 10581.939
193476.03 106440.27 0
180845.11 89325.047 0
253989.97 43652.75 2137.1001
177876.25 109505.89 0
211664.47 109541.9 0
239410.88 30224.371 2137.1001
229453.66 107534.17 0
184645.38 62477.289 0
211375.5 90531.492 0
164560.16 86529.539 0
203791 97712.906 5998.4219
254767.33 75519.852 2137.1001
237740.58 31936.301 5890.8223
174543.39 98289.109 11952.757
214881.28 100773 4039.3926
208131 112451.05 8784.5303
229556.66 93462.078 0
171013.28 69366.141 2137.1001
172015.3 70035.102 4169.3208
244048 26099.836 3046.5884
214103.53 85995 4679.9346
189690.94 72635.844 4161.1001
220636.03 41459.18 0
176883.56 106846.78 2137.1001
175840 65045.203 2298.2371
170532.97 82317.375 2137.1001
204893.66 108137.44 0
238260.88 29860.6 4571.0513
196440.67 109705.34 2137.1001
189096 23750.076 2740.5989
246303.53 99945.789 2137.1001
174072.95 80195.805 0
193330.14 75380.297 3845.991
175815.27 116433.98 0
185037.3 110523.33 0
238324.09 108890.55 2137.1001
218901.73 21873.914 2137.1001
205078.2 100997.87 0
203574.66 33268.5 1294.4954
198820.56 111721.53 4703.75
160418 81408.18 1889.8594
248188.55 18439 1172.6836
190094.84 74245.969 2137.1001
199806.98 117695.77 2137.1001
170333.55 67218.922 2137.1001
199671 85921.594 6827.3242
231410.64 50998.199 0
187595.72 24861.801 4042.1929
188231.53 24861.801 3133.9092
208804.95 110046.19 0
179114.31 34715.809 0
195384.41 119292 1905.2336
173634.98 77261.484 12706.6
205226.92 84743.812 2137.1001
164489.88 119292 1622.114
165525.56 65466.488 0
211608.66 72153.297 5733.854
208669 26566.402 8656.627
220232.77 47644.516 0
196849.67 109606 8309.2031
171317.22 88379.844 0
164246.78 97050.766 2786.6599
227718.16 67849.195 2137.1001
174830.34 117757.53 0
243050 45730.707 10320.402
163685 78776.648 5665.9004
214963.58 95816.555 0
193930.09 116425.05 0
191931.31 51002.766 0
227793.91 35967.297 0
180719.62 37434.832 0
162852.09 36521.008 0
199935.19 119292 2035.9838
188869.42 111852.3 9120.2715
181989.75 53415.078 2405.8501
179009 80811.414 2387.4924
180737.34 91035.828 0
250150.02 45883.957 3959.3835
178942.19 32214.266 2137.1001
161144.28 103550.39 0
169932.05 24849.59 2137.1001
214477.84 41486.324 0
209934.44 112732.62 13273.4
177706.67 102605 6257.2285
192039 112481.84 3933.9351
186356.56 110428.91 0
177978.09 63649.328 2411.6001
214155.09 88150.164 2843.9819
163685 78749.531 6800.5005
195757.73 116528.64 0
195755.47 93592.805 0
171330 106964.42 14205.044
166650.09 33268.5 124.59807
212541 93014.727 5218.749
177811.62 22833.598 3017.5247
164385.66 110461.76 2137.1001
176499 112280 2595.2402
206887 85257.664 2652.4905
239981.28 98536.922 2137.1001
240987.38 118884.32 2137.1001
244795.81 44307.188 10962.564
202657.02 78596.516 15296.9
251590.88 115161.47 2137.1001
202739.58 51191.906 0
185997.88 18439 1999.936
198601.84 78035.172 0
162010.8 117919.68 0
164326.55 75450.5 5798.0464
226004.44 61343.105 0
163688.34 46334.656 0
214548 26206.246 4915.0908
189491 78354.469 12302.168
181316.58 102942 2905.4988
222133.75 70922.602 0
189361.97 114002.48 4177.1592
208668.98 24021.812 10790.743
183220.23 20397.564 2137.1001
240586.62 43919.617 17215.1
171079.05 103209.68 2137.1001
210498 80716.812 3414.894
212998.14 89019.195 0
213159.23 113379.73 10667.093
247330.41 94562.031 2137.1001
190964.17 33268.5 696.3551
185465.53 82289.258 0
253385 44973.43 8055.0806
171632.58 90955 2659.7407
181715.41 95555.594 0
192294.08 18439 1254.8627
176365 103310.7 2327.8877
167921.12 72969.602 3950.7075
165847.31 26609.857 2137.1001
168118.16 114909.46 2137.1001
183744.47 94530.555 2137.1001
177099.19 95623.141 0
244082.2 88813.477 2137.1001
184639.06 106161.48 0
181953.59 85598.5 7737.6001
181868.86 91686.898 5390.0176
234112.22 43197.094 0
171330 108071.95 11098.777
215902.06 30989.977 2137.1001
251654.95 47100.801 4027.8936
243183 38646.945 9417.457
193196.06 87142.078 0
188083.86 86571.688 2137.1001
168199 63475.254 6646.8501
181586 77666.484 7008.7173
167722.89 58988.852 0
185074.12 105339.03 2137.1001
182030.78 103048.86 3176.1287
204298.98 65031.484 2411.6001
184567.14 66623.641 0
217910.89 108166.06 2137.1001
252066.94 41955.984 2137.1001
189247.23 89092.633 2137.1001
239646.67 56158.656 2137.1001
223685.27 69592.844 3442.1904
176499 112588.09 7712.3564
177386.12 68979.32 2137.1001
171399.27 64803.258 6646.8506
204306 76916.734 5039.9971
211555.58 46361.785 0
201115.38 113859.33 0
173133.77 33268.5 966.96832
212080.3 114734.95 3132.8872
173698.31 76394 7354.4478
196780.5 69970 3094.2661
164015.84 59101.434 0
209175.11 26318.17 11789.1
209167.62 76966.703 8461.2002
176389.69 62163.973 2411.6001
234559.14 118802.14 0
200509.03 96718.43 2137.1001
189353.14 112711.76 9202.9131
184771.47 98891.406 0
206103.45 80142.094 0
227973.06 67373.188 131.77786
190276.47 84955.656 2137.1001
195062.94 118122.41 0
197040.84 41833.172 0
177855.64 92497.25 10380.907
212447 80157.203 17060.363
193389.38 71770.383 2137.1001
177714.31 103809 11674.809
174003 77673.875 8015.2788
163677.33 81479.102 0
175048.28 113635.61 2137.1001
237686 68990.859 1627.8251
202462.06 87427.078 2137.1001
170779 77676.336 12171.508
223551 25760.445 2527.8984
169011.09 48459.602 0
209532.62 113116.73 11859.823
177644.75 115211.2 2137.1001
184106 100993.09 12392.967
192888.61 114828.56 2137.1001
253384.98 45871.926 7766.2134
246637.89 43139.203 7654.4399
181586 78711.438 10931.908
201845.75 89946.711 0
200686.62 25478.07 6250.2026
182201.06 85269.516 0
239382.27 62141.422 2137.1001
216467 78103.203 14321.453
231854.92 26444.77 4003.1001
224547.53 51196.633 0
225195.16 27883.975 2137.1001
162802.48 101128.69 8613.0996
253690.98 27222.23 2137.1001
173712.83 104153.9 0
249956.58 35978 3273.1733
187961.78 84628.516 11871.917
191492 24957.787 9881.2529
174292.2 98289.109 10196.436
242450.88 42929 12847.121
181586 77061.812 6825.0366
167810.78 110190 13811.665
255827 45062.504 179.22878
183276.56 93175.75 2137.1001
165418.39 88957.719 2137.1001
244841.05 33200.441 2137.1001
226646.28 46812.078 0
188607.78 115526.39 2137.1001
214138.55 19560.496 2137.1001
233562.41 33087.914 2137.1001
208827.94 106958.46 0
166284.53 84596.5 2348.8467
194427.72 87778.312 2137.1001
177464.05 106750.52 10483.511
202165.7 67762.727 0
168580.19 108269.77 2137.1001
187425.61 84580.844 0
243032.31 36590.203 2137.1001
250845.42 33214 7240.335
208131 113950.18 2588.448
244755 51272.406 2279.8306
224964 31840.309 2788.5935
234286.44 75618.086 0
195683.27 80309.398 2271.4985
208728.19 100611 10127.169
192439.06 85612.609 2855.0024
192810.33 91982.859 2137.1001
189184.09 113297.4 9189.9492
166814.47 111983.64 2137.1001
247453.89 46505.266 4832.3711
178739.34 33268.5 589.23566
248149.42 56915.109 2137.1001
185909.62 116928.47 2845.6599
202344.08 95684.203 3046.814
178920.53 94530.797 2137.1001
171297.88 88545.703 7756.3042
194515 70150.711 6565.9751
165353.59 71409.812 6612.6001
251481.19 46822.301 10982.134
198962.94 71120.984 0
184700.83 102492.89 0
170096.81 97252.992 0
184372.36 57075.883 0
170900 86658.875 2805.3027
245477.72 102552.73 2137.1001
194515 71196.68 7129.5059
203885.78 59485.586 2137.1001
245223 23407.359 3517.9612
177523.08 73850.312 2137.1001
170297.42 95372.641 2137.1001
182122.7 45694.801 1333.4463
173677.19 91121.781 0
189535.75 34752.285 0
238404 22724.703 4049.0269
213715.91 89803.703 4956.2583
203791 96812.141 5053.3311
162256 101133.66 3550.9854
227961.28 25291.164 2137.1001
205127.36 62281.219 2411.6001
248000 27747.121 3268.2952
179309.88 119292 1386.5562
181952.17 106428.68 2137.1001
163682.81 22349.102 2703.0889
177218.67 102605 2786.8767
196897.36 33052 2137.1001
215134.94 83911.078 5480.2363
166006.14 21059.789 3628.6001
203824.17 51480.391 0
232124.67 107777.86 0
220819.03 19227.396 4268.1001
167110.77 108454.43 2137.1001
179142.94 51349.852 0
209498.14 92490.312 0
209680.56 100611 11460.851
211826.48 112973.4 12509.742
182120.52 80497.898 4399.0664
169273.27 109368.28 2137.1001
167140.09 81110.195 0
219049.66 92728.906 0
201142.69 24440.736 4827.0098
186955.98 85565.344 9716.79
195316 75389.445 7200.4648
212570.3 69308.219 2137.1001
251611.81 81417.625 2137.1001
202138.16 88516.094 9429.7412
180650.69 92833.781 2137.1001
166594.69 111826.19 2137.1001
164065.78 108291.09 0
171869.41 103214.56 2137.1001
191884.44 110394.67 2137.1001
230487.61 69696.102 2154.4072
249524.03 25560.1 5852.7603
184772.47 108458.97 2137.1001
218891.81 45808.375 0
192213.89 109498.85 2137.1001
194721.94 75380.297 9132.374
204724.02 114779.27 2137.1001
195187.72 78715.008 14469.9
163685.02 76681.172 8005.4146
172413.16 106004.27 0
184064.72 83051.742 2137.1001
185156.84 115534.24 0
218743.89 109803.66 0
240089 38584.082 7689.7495
184597 30737.152 2788.373
217192.08 109804.98 2137.1001
164147.53 73314.719 2137.1001
251406 23766.42 6294.229
252910.44 26533.711 2137.1001
163685 75570.188 4876.7109
238476.72 66408.492 2165.842
252130.28 43362.398 17378.652
176493 78561.891 11119.377
176139.22 82771.367 0
251878.7 42851.801 2212.9775
216792 104030.19 7675.0918
183632 112480.96 7197.1318
165794 105464.34 5043.7388
204740.11 69308.5 5909.3672
240145.3 42929 5009.8037
220226.98 24725.43 2778.3569
251730.97 50640 2137.1001
241930.53 103930.38 2137.1001
160516.94 53258.652 0
253777.44 59346.172 2137.1001
182039 52689.43 2488.248
169629.28 20730.242 3129.8501
246308 34457.281 9697.5371
169033 93821.906 2916.9146
252327.25 46644.199 15145.786
182588 72405.539 6923.0059
252109.53 80049.219 2137.1001
182134.62 46291.703 2052.501
223002 31635.371 3394.7947
172652.64 58966.75 0
195758.55 84962.734 2589.1152
187782.23 106239.45 10046.4
197604 24426.979 10652.595
248186.55 42001.402 2137.1001
171522.12 90955 9457.3955
204284.67 80804.797 5702.4634
167437.38 107684.8 2137.1001
181925.8 43436.121 0
248575.88 39367.203 4982.9814
167054.22 85769.516 0
246959.77 43181.484 10014.673
210579.3 98916.672 14440.9
250921.23 21982.102 6289.2627
222480.86 47442.586 0
218511.44 117091.91 0
172099.98 83979.188 2137.1001
162237.03 39047.043 0
200481.66 95684.203 4678.4453
172383.86 97308 2786.6599
250117.16 96732.328 2137.1001
198953.06 98600.523 2137.1001
207528 91986.469 8812.292
211082.02 86778.312 8058.0376
190382.94 113343.27 3273.0615
172116.66 76394 4895.1294
249335.33 38342.812 5197.9927
197830.28 99936.203 0
230292.66 112126.63 0
208558.06 83576.898 5761.3301
183845.11 104479.41 5002.5938
222436.3 20825.76 2137.1001
166203.75 68228.016 2137.1001
212619.16 105253.97 2137.1001
201086.75 95684.203 11375.804
174322.69 91851.289 0
218553 111064.52 817.68555
180963 112500.52 3695.9829
216423 92662.781 9616.1611
239307.92 47083.5 9929.4189
165089.19 114476.53 0
253886.84 18439 1621.3087
225990.08 116223.16 0
193137.61 88063.141 14201.291
164281.62 102821.36 2256.6934
191492 25209.637 3524.2559
200818.09 100977.44 2137.1001
246089.02 72936.742 2137.1001
