# .PCD v0.7 - Point Cloud Data file format
VERSION 0.7
FIELDS x y z
SIZE 4 4 4
TYPE F F F
COUNT 1 1 1
WIDTH 1616
HEIGHT 1
VIEWPOINT 0 0 0 1 0 0 0
POINTS 1616
DATA ascii
403.06039 318.24167 176.36633
406.64984 269.91003 132.0513
458.66223 258.09573 76.092766
430.86002 327.31534 40.20229
391.68289 248.48169 150.36565
458.01172 474.82404 88.147438
458.58179 238.03665 59.381622
263.64468 324.91769 52.796551
299.71375 573.41992 135.46773
280.15808 183.56854 92.622589
244.85547 458.39508 122.38722
282.33499 532.18787 54.023415
378.68192 621.13684 105.05313
456.17456 326.44931 113.96291
459.31879 342.90942 58.156097
418.43195 439.73746 176.31824
423.3963 376.70547 85.296989
436.51892 574.30103 34.79158
442.68347 370.37424 138.06804
457.9729 469.15936 85.213203
380.62604 317.70532 64.206467
456.98322 183.7169 76.387695
392.98785 230.97845 140.31003
369.60187 552.32635 32.795681
428.62186 76.974403 77.681038
438.25552 244.4426 85.749657
260.82404 256.14569 143.64619
410.55603 164.86899 69.759933
389.43604 456.24832 81.004227
432.40039 152.34637 4.3697886
253.15054 442.59494 30.400814
362.20459 483.54932 151.26982
387.99176 625.46082 93.685837
291.08704 611.07611 39.931316
323.39862 360.03629 71.106659
305.81766 456.58691 81.714951
331.20419 471.07669 118.71161
402.91135 577.82928 133.92636
273.79987 92.298965 80.382027
246.01915 212.25391 65.04425
446.6579 123.14909 43.341309
336.095 250.68066 86.24118
308.49716 56.867348 73.529327
280.56717 381.38773 102.07168
296.36826 54.646267 42.888538
284.952 155.7646 78.618469
428.51923 522.20453 126.59749
412.32275 384.00916 115.65747
250.16173 134.79001 83.986984
276.11935 360.01358 103.8502
410.59622 134.95296 74.850464
416.46826 518.33765 126.28954
283.73032 104.79634 26.367292
452.46802 519.04755 74.493149
288.96222 88.892593 88.796242
267.45468 287.03226 30.021696
331.19263 472.07367 121.26742
368.79156 337.79877 46.612854
431.59216 332.50418 50.109959
338.43225 313.9903 69.921608
377.24469 123.88786 112.54585
459.57095 385.50476 74.069511
382.32709 229.21718 123.93501
265.03589 291.12347 40.831635
358.76501 322.30975 62.356812
254.32425 260.54465 113.47475
238.48807 209.18738 76.762749
353.0336 372.32544 30.309589
297.47336 240.04364 123.03459
406.86066 495.46136 124.46776
250.17082 366.36835 131.72397
362.54099 475.74893 138.13913
458.49545 127.8688 33.65453
246.32925 211.64618 67.341492
431.44672 346.60599 30.179165
442.52112 439.33289 124.17906
449.70068 140.1888 74.86953
235.70529 492.28879 31.313534
244.983 128.62405 42.649647
331.68774 255.23386 117.0824
447.60181 528.50977 121.44146
334.97659 233.98134 144.58533
282.33499 539.20758 80.389801
453.49533 371.76016 26.806068
277.67419 352.23044 83.776062
389.92233 625.78503 84.117188
242.92641 184.07471 5.0529857
435.79712 294.86398 107.45229
282.33499 505.9776 48.543503
457.74915 446.90598 43.831963
412.58685 605.57117 43.517849
447.59641 130.10757 99.988327
359.83203 385.25916 183.58215
315.61322 372.48422 142.14127
303.90283 279.54562 165.56921
346.93472 359.78241 182.67422
409.8443 626.26855 59.246986
412.98773 624.37488 79.90686
376.11029 344.95044 30.037647
242.4498 436.87195 119.9821
398.26175 271.77258 109.4505
327.65649 465.9563 104.48343
255.28783 494.50027 130.75565
334.3219 349.40448 181.81268
441.59494 225.39261 29.856834
263.38892 205.95032 79.209694
416.87149 412.509 30.34907
262.37601 505.28287 24.996805
408.79221 80.643951 88.514893
274.93793 118.3389 105.96374
457.07257 144.64214 89.223763
366.21588 222.38034 137.21017
334.26199 479.23517 137.61972
444.84497 467.63913 51.39312
280.17236 373.6463 125.79684
445.1217 137.34351 72.744514
330.87338 396.23523 60.150162
430.34418 110.17407 43.558273
276.51978 241.22055 142.26608
269.1619 162.60553 113.34335
285.38617 527.32715 127.00543
310.59686 129.56432 112.98207
460.32867 377.48236 63.552322
457.70828 552.79492 61.229465
272.11484 448.84479 99.536957
381.06082 55.62476 32.068428
341.83154 224.25116 28.020821
294.43878 237.60733 85.82428
260.06552 451.7464 145.73692
438.01593 457.89804 120.90323
298.50467 628.44202 78.943138
377.56781 216.19998 132.24312
242.48578 139.06537 28.599171
397.4502 415.16711 30.438305
253.20233 507.80316 128.22415
237.84927 230.88275 77.942581
297.52588 538.03979 128.13177
403.63281 233.69363 124.2498
322.64572 362.25693 93.146957
399.65756 249.81651 120.17304
288.42438 373.63977 69.944267
236.27623 303.43808 61.897953
241.82832 217.04791 40.228325
401.87134 407.20087 73.121971
374.05429 387.9595 30.509911
342.71246 567.96948 34.369598
434.73663 610.46484 101.22477
413.173 485.95953 53.352425
258.3595 438.31915 30.393459
402.52643 468.80258 30.787613
425.68854 166.50937 114.02855
377.43201 369.0686 103.99275
364.04651 358.75366 51.073647
431.189 185.18761 35.811592
379.89169 529.53052 157.30411
355.47906 141.92928 116.34563
423.0549 85.902161 86.060333
249.0928 109.87415 40.528706
243.03999 488.0769 26.84926
466.93567 264.01392 122.17059
457.93811 442.24438 46.103397
387.28351 490.10254 124.041
335.4548 254.00023 98.5326
389.05243 477.1814 135.18581
443.2514 338.47974 30.157051
389.0376 263.12933 29.858582
360.8345 272.51324 29.066048
444.09125 203.56564 28.012432
441.00284 83.543968 69.713402
260.7207 373.88367 30.257496
374.06641 46.162071 54.849167
434.16422 342.47995 84.06337
310.6861 630.27039 57.763039
312.41644 463.26743 96.19278
408.71155 455.55844 30.49511
426.46338 357.29639 96.855072
410.91287 378.36853 116.00932
414.4776 220.56845 130.42461
273.16479 284.83701 30.013107
386.70316 278.31006 112.49874
263.3475 301.98361 60.335388
448.00488 568.65436 100.71284
457.68246 217.56772 44.405125
434.26526 354.58585 87.246185
426.97852 189.53342 89.821892
450.52502 187.50891 25.387634
433.133 504.33252 7.4239473
326.3183 523.90051 32.133255
262.06924 498.9693 5.476594
439.07394 428.84219 141.13657
263.20728 220.86856 126.59222
436.42676 153.98 92.620087
335.44986 144.83539 116.67929
264.19904 374.18677 50.794418
370.32349 368.72308 101.89566
335.85638 301.02158 29.501392
300.00552 630.08643 75.7258
353.78473 564.11041 131.26694
336.41394 524.48694 160.73114
386.16617 428.32983 68.595634
357.41907 472.3537 121.71314
458.37018 356.22308 41.099651
335.31439 227.77063 140.88573
260.62323 498.55716 139.89832
311.70407 235.02171 29.214018
415.20612 559.49762 136.25049
412.53363 121.02709 72.210594
308.00552 418.25574 182.18347
459.38058 372.07275 61.373516
359.41299 231.91382 57.601387
438.15656 128.32439 61.710144
442.27466 431.26627 30.381329
409.89267 64.278229 31.174763
237.73651 445.13025 92.135315
329.53583 47.597477 67.88649
435.48697 315.71732 98.29306
431.6554 468.85477 110.44096
260.38754 372.6395 101.61403
391.96692 322.57391 177.75955
261.91772 311.38666 75.105164
280.57739 556.13074 61.193588
443.31848 354.66772 118.83479
315.23398 253.80412 29.408295
298.90735 470.92035 119.78665
359.70367 604.50586 132.58513
258.34988 264.85239 139.26883
267.39679 446.86108 160.82895
433.50177 294.35266 78.25898
301.2988 485.73169 130.3186
393.45618 182.39992 120.05057
282.33499 509.8768 69.661331
440.56903 413.73236 30.351173
452.46799 538.56799 25.238049
262.37601 530.5412 27.52199
430.31818 504.85391 125.21575
241.56252 279.02686 26.046265
256.62964 377.11249 144.28107
332.59375 137.48216 115.50491
428.31818 534.45197 127.57283
308.83145 251.39203 29.583515
242.35107 298.19263 25.418663
320.04626 151.97345 27.457527
243.03999 519.57513 8.3948479
327.27667 472.21313 121.7774
258.69217 297.10745 143.61377
423.04514 487.46564 127.42672
456.92422 190.54504 54.483463
327.27042 575.60193 36.249264
272.38043 485.99783 162.54179
420.42255 72.554413 41.433369
356.65472 319.3331 66.550072
435.72598 341.95959 105.07373
403.07843 522.29987 157.05753
258.04797 377.61194 112.98182
273.84048 66.88501 40.904823
385.39807 233.37897 142.57675
237.80423 300.703 102.53651
253.66977 558.79065 54.821457
438.21896 546.5899 55.75227
326.52072 60.217636 90.112869
262.97894 616.26947 69.199821
260.65527 411.32669 104.28989
371.50656 44.630615 57.86784
451.75891 262.43491 29.958271
272.35785 304.77356 73.694885
235.20828 532.49921 36.065041
439.59229 120.14058 70.629135
439.02045 204.79411 50.286209
439.59564 169.94839 82.399055
445.85834 140.61067 7.7174306
431.189 173.09671 19.734394
263.07068 610.79865 106.82745
282.02722 619.69806 107.55704
431.189 163.80658 36.230034
281.88174 485.44037 123.90935
408.05603 572.11127 134.27728
460.10266 209.96376 57.86264
294.92661 56.33149 39.735199
235.6243 512.23975 26.742002
294.19107 605.65265 43.485653
267.46671 326.34998 162.74463
271.42957 621.71643 66.662613
428.66254 148.71098 90.776321
238.47092 317.45007 30.323437
439.74457 471.28265 134.95044
433.133 498.43762 53.93779
284.95026 157.32254 89.333496
444.92957 238.48132 119.93534
235.45355 477.37659 84.389427
360.87115 631.14581 80.889755
342.28452 580.19934 136.20207
303.9166 131.83669 112.81357
437.17969 102.00073 98.9244
282.33499 513.88464 57.664848
443.59729 129.84268 18.852875
249.08304 101.36304 36.224091
346.26077 304.88721 73.914841
359.41299 246.35056 97.550095
243.79187 209.70052 109.73329
242.75525 142.53494 6.3699751
426.42572 593.32483 37.850304
457.57379 509.68564 47.153221
433.14005 541.32684 51.091583
252.65033 87.688354 45.458717
379.88663 48.033592 46.135807
339.53812 478.5759 134.89059
356.34607 49.853897 37.85257
414.47495 381.68262 30.28006
450.52499 199.22293 52.660641
262.55029 361.81354 70.618698
238.54652 255.65269 38.590477
433.26538 394.70392 79.726128
242.11362 216.9549 108.22113
367.27448 623.96442 101.59978
434.93793 518.93134 126.33682
252.6382 150.05901 2.5882704
427.14072 292.06815 30.035248
429.70029 206.26706 118.95823
410.38361 465.59711 175.31699
236.96733 271.70886 84.406731
257.93201 604.46631 115.74879
261.14392 329.53543 85.282867
457.63446 221.38809 71.1772
329.22318 429.40564 30.84272
254.6617 548.57513 48.053593
264.319 160.15823 13.076756
283.9426 540.14691 147.10916
458.14569 422.80258 95.215302
413.17303 541.52026 78.225128
320.45471 323.05148 178.66245
262.21918 442.37473 112.21442
447.30756 586.25085 57.091858
260.59845 453.29303 146.66699
345.18286 625.25964 99.714417
435.71323 244.99783 137.95599
296.45953 441.43744 66.926331
270.83902 526.26282 90.059448
438.37189 117.27795 66.011551
430.75439 606.54358 36.092983
400.85504 276.073 118.17383
433.133 495.47974 47.976994
352.53665 356.05966 30.036631
307.9751 589.4892 39.593403
386.31659 91.968521 27.571161
364.71661 375.83307 183.23788
273.66367 72.693199 78.133003
335.448 314.45117 58.93531
381.43591 201.9953 122.60805
394.63757 442.83502 66.768631
274.51883 71.29792 46.920822
282.61072 292.73737 168.2838
321.30579 50.315269 69.158264
238.08197 239.22565 53.491795
265.0426 449.14911 30.412086
378.31854 241.62933 123.42664
277.79507 415.74728 71.00341
378.3187 77.03186 101.02767
405.41901 272.63184 29.952194
357.21161 394.72125 183.71075
310.51077 478.21417 31.217865
359.41299 231.73668 66.734886
295.9436 369.51208 104.49269
276.55402 417.04825 71.510696
434.92902 263.24658 29.958801
355.707 307.39737 51.1581
334.19305 453.85538 180.47418
342.6073 155.62865 26.850992
244.983 142.53134 13.810644
433.55536 371.00565 80.078705
246.63139 500.90622 0.59544742
291.36307 333.72253 178.47769
424.02829 443.07239 168.29475
374.28452 45.125107 61.730934
357.37134 288.5914 171.23584
427.5769 539.0354 138.85356
337.25616 52.611816 33.691803
294.76743 540.7215 149.34767
258.77103 377.20587 30.267147
238.50658 425.90167 105.45474
335.448 256.11032 68.664665
399.18378 477.87677 109.33363
418.66031 307.81769 30.075171
410.81973 179.00168 48.613873
431.43005 127.85329 80.605682
453.40222 391.17963 120.18831
458.62909 415.724 90.862732
443.04529 555.81177 61.957764
242.40547 165.04968 69.839111
460.06647 519.63068 5.0099921
458.76257 306.90778 50.249237
433.20044 148.33562 90.592445
386.55649 145.9696 27.240776
420.45825 530.67548 127.27207
237.2673 437.66986 53.55172
453.35614 387.67535 26.966297
258.7063 420.52905 30.362864
434.31494 449.07486 87.116768
424.62454 158.28058 92.621658
256.07834 198.11848 65.296097
336.095 221.05499 104.05666
236.59668 355.19299 50.572575
338.59821 123.3079 26.422649
260.23242 270.2373 143.91019
375.64713 485.19788 120.92634
251.51376 115.83772 63.688519
263.24161 167.36137 92.620674
248.51682 184.89832 92.612274
387.67224 489.30157 137.22771
440.35806 196.85945 15.788015
344.3313 383.77618 183.6628
306.10419 56.955448 73.177437
434.45505 382.70166 94.088463
363.99292 520.81128 162.08313
360.36398 96.095062 27.158504
344.02454 329.40466 180.00684
272.66498 93.93792 99.824394
446.50842 361.5246 126.36827
382.16998 202.34937 122.51154
246.97801 562.4043 102.01357
368.95276 621.10583 127.28643
441.12347 127.89717 22.088379
438.28091 358.10016 144.21645
267.88055 265.72894 153.12932
319.37442 373.05984 113.37321
327.50699 540.02106 153.58241
433.133 506.47357 8.1472301
371.30951 45.895187 49.546368
430.69196 243.30484 29.901686
277.43549 424.66321 57.181171
349.55307 322.2442 29.515329
279.46976 371.08716 65.163116
366.98868 614.61554 44.44857
313.44641 55.500393 32.896072
263.37021 310.96729 154.56693
266.82822 365.46027 72.047287
239.95009 216.40627 49.403206
336.57513 525.48535 127.53723
310.82007 421.80557 30.520052
456.82974 362.85822 114.94971
379.383 560.68512 130.8526
349.49948 425.72571 69.0289
412.13834 569.66492 134.187
330.37033 207.42332 28.12598
247.96744 321.16776 121.82017
367.76074 45.553478 54.89806
257.78232 330.63483 144.14977
421.75623 229.14551 134.48816
325.45807 500.61215 31.788515
340.13043 299.60303 60.69949
365.09543 437.51697 182.0218
434.70087 298.69675 92.513649
237.12778 547.82501 48.423019
364.9426 258.89978 111.54536
282.33499 478.76007 51.599182
284.98145 606.11438 36.185547
432.22388 582.28143 126.7019
458.73129 263.06113 71.58976
261.30875 241.77838 100.38855
282.33496 510.00168 77.171204
361.74249 487.25299 123.81407
278.10944 258.07401 104.34453
409.45883 61.344109 36.789173
236.01689 372.51578 66.167236
252.33505 577.14545 31.361042
281.32776 477.82318 172.24496
401.20978 403.28659 30.396753
343.49927 190.7533 118.21043
364.28726 471.83752 98.891663
422.3392 424.83795 172.50995
328.40295 572.5802 137.73737
456.96423 356.14551 30.525803
350.40518 396.78571 30.664209
302.34348 360.83264 73.348175
450.52499 168.4682 14.520456
305.7049 489.52585 123.99507
375.54617 279.85974 111.87476
350.83432 264.1698 28.590515
316.33102 232.89662 29.022919
331.82623 379.47064 99.491302
357.12689 355.70825 30.048283
420.73279 287.1319 164.85611
396.8757 538.61176 128.2272
371.58246 288.02658 65.752243
421.80276 413.83569 175.00185
276.59705 558.24451 56.129871
367.12445 626.29333 103.62434
374.22342 289.08276 170.7863
282.33499 497.29254 58.733742
307.29877 199.70016 118.60767
376.28876 311.95569 65.194672
454.4801 192.07697 10.831317
376.4032 214.06174 130.88382
374.25684 434.99466 30.786972
447.36755 204.30664 52.105034
360.71545 514.21863 164.9482
323.62201 87.412102 104.82742
261.59735 602.35846 121.67346
454.32764 389.47208 27.994701
376.02036 307.55115 29.935238
236.74643 199.16818 33.891937
223.64697 264.89688 123.67331
359.27951 344.17465 181.44638
286.84982 75.530258 94.37619
248.36731 578.58643 47.859982
248.70377 559.02887 54.250862
452.88437 451.93829 112.70125
429.66068 465.37823 155.75784
373.82025 371.16138 115.51849
265.26498 502.42728 91.26329
376.11774 373.9082 126.36437
392.7373 379.31696 154.50246
264.04871 134.71848 107.71098
285.33423 531.96729 151.23717
243.03999 519.46594 56.544003
385.41565 476.35629 106.60842
264.87131 469.88831 155.18147
295.11374 564.55511 137.55183
241.24632 255.47681 29.939945
326.03668 96.388031 27.129206
342.7265 479.86105 134.40378
458.49832 136.05229 32.12336
397.40054 484.0751 123.56099
260.01382 185.69615 6.0583053
236.61276 468.17032 79.96328
460.60663 488.18878 10.943381
309.75385 591.41949 133.44705
347.28174 340.27988 29.771284
405.03372 300.15924 172.33398
337.55655 551.72119 148.52805
441.24399 487.4397 77.539062
454.48233 427.27332 28.732746
385.54596 269.66351 161.61496
262.9165 84.930229 85.41523
434.45068 316.55649 85.050102
458.62814 434.52054 63.001366
458.29321 187.89423 35.620735
357.15411 330.9566 52.176506
409.43231 378.00867 129.61096
267.95343 367.00604 85.316673
234.8985 506.7356 77.654991
296.92041 299.02344 29.998131
238.17111 513.43018 48.251713
421.34393 183.09386 92.620819
378.7854 421.16846 30.551334
370.18524 332.68887 62.008556
387.4584 75.081795 29.259846
359.41299 244.12756 77.298073
256.14734 171.72818 92.61795
279.92966 363.85916 79.016922
357.091 193.20673 116.97917
307.71286 52.074917 40.32589
374.69257 460.67804 90.295357
239.36819 500.72568 13.65487
262.37601 500.92075 15.635462
389.94165 372.6528 137.79771
395.86877 257.47647 102.46025
446.73038 369.43729 128.22679
283.22623 245.7283 145.95338
250.1946 362.28983 130.32292
457.24133 280.83627 34.978424
282.33499 472.49106 39.273235
423.37262 425.37015 170.76616
427.80185 547.69617 74.968582
267.28931 497.91702 152.08641
333.60846 172.51898 27.435282
454.71481 408.32666 118.23881
239.06009 221.72566 45.260677
366.59625 621.80225 107.87997
446.63312 165.14156 82.819618
417.28864 583.30719 37.226452
459.7457 346.06995 78.528938
289.30362 374.24493 151.09723
404.66534 595.20026 131.46739
347.97653 64.449234 30.527916
424.18457 504.09485 155.71631
344.4303 322.73825 73.093307
457.08115 363.14398 113.34112
387.65884 69.734512 29.794579
456.65204 259.11652 124.05513
446.38416 411.69489 125.56992
260.99121 541.32672 61.726151
261.59381 74.241852 46.510555
458.47882 251.75089 72.791618
272.59106 603.3703 40.894951
297.6572 175.04935 118.59433
324.12488 386.90826 128.47504
438.43848 468.41666 28.58659
432.21368 301.11902 57.537537
330.56519 502.61914 31.903446
247.81253 554.88379 112.99313
458.66733 404.94345 52.587944
391.97034 437.3356 30.520224
458.47864 264.87192 82.54985
359.69116 289.20706 29.305813
416.01996 382.75989 107.70854
263.76657 323.45911 51.085361
304.73679 318.38394 64.102318
355.46295 298.2103 58.539551
294.54581 466.49484 91.403549
453.84833 456.68637 114.07866
343.47357 624.73663 105.23373
236.98108 171.34677 10.836557
435.58356 487.73083 76.944069
458.7608 214.73203 49.013832
413.17297 473.39404 59.087387
432.36115 351.23871 61.889488
406.53113 376.79587 181.09021
433.13297 521.37036 27.305294
257.78931 91.897354 90.173019
429.35806 552.48779 69.920616
440.79013 183.63965 114.06009
418.04828 380.89661 134.1055
459.69241 343.00247 81.4328
457.05481 302.58826 108.41611
314.09314 460.48315 31.027136
421.80768 430.53967 61.773834
300.76587 84.083473 102.12479
377.7981 251.13702 93.272964
378.67276 482.07993 134.94518
442.88007 114.23814 99.693413
413.173 541.8974 71.097939
235.81538 323.86502 79.594879
431.189 161.92972 29.187012
418.34271 79.910004 87.150757
278.15781 74.636475 73.824532
237.15092 298.68362 95.93515
431.18896 141.92175 52.709259
418.65732 316.85184 47.232346
319.18839 366.53271 89.393204
406.0687 56.204548 50.485268
372.00616 46.320858 56.156719
237.43372 447.64752 87.854828
458.09375 448.05237 87.503448
452.46796 519.0672 36.743126
431.189 134.30415 50.295757
458.849 191.88557 24.792072
396.36108 248.94699 29.85297
268.33887 351.45761 46.682205
311.51581 467.42068 31.081854
455.21002 512.6416 47.599678
355.62381 306.04163 55.659615
454.78256 500.47321 14.009651
292.18771 369.63928 181.06158
297.46777 495.60846 31.401251
279.87115 240.15088 122.2495
300.81876 308.02533 175.039
452.46799 497.10956 25.633659
303.30594 475.55145 130.43169
431.82083 347.12103 54.548191
251.49112 466.50256 38.796036
346.49854 44.855274 58.932953
333.18631 364.69577 30.217873
237.99875 386.05402 108.42905
290.173 375.34833 76.440002
458.68347 151.56984 7.6631479
335.76431 545.73828 129.48122
280.00797 370.37247 67.508583
387.38907 256.50455 134.31468
269.48834 518.90979 148.44765
280.16138 364.08569 81.479599
374.20447 472.80978 177.08609
378.24939 264.28754 29.5149
335.448 292.91815 51.504166
365.76471 186.25684 122.18947
278.18765 201.88879 118.77477
454.99731 449.13855 113.95351
315.17426 448.08112 63.874641
274.57028 229.00575 122.22197
330.3627 100.5716 26.710846
346.84656 280.02423 158.28003
440.5466 524.09705 91.26329
334.26199 483.31152 143.29482
257.40228 285.79486 139.52362
344.57382 523.44104 127.36732
273.14224 400.10675 58.267406
423.07703 302.35358 73.576927
302.15506 174.48541 118.8532
433.133 495.57037 15.417332
361.2655 592.84344 39.771198
336.18893 296.23883 72.448936
455.76862 439.05823 111.33759
459.34213 467.92087 78.370758
348.35495 227.34569 140.91837
239.55307 536.27576 89.116318
450.52502 150.89343 52.458786
433.133 495.57721 29.392365
382.38821 240.12399 146.6665
419.83005 209.37926 75.517502
239.37404 260.92648 107.38503
300.134 386.22678 149.52745
284.86777 547.7052 32.682068
308.49109 181.87216 120.46214
287.98508 568.71326 34.590424
252.18246 94.401703 82.456619
262.35941 415.95786 30.355
358.76501 318.84344 50.489746
395.52893 313.87955 176.12091
416.58673 407.65845 73.103638
412.76376 385.0976 116.5891
451.31128 250.2142 122.49171
377.55008 239.46638 129.5296
295.87817 200.36821 117.18932
319.55499 380.23587 105.72159
261.1976 538.80347 64.840622
323.41513 328.4563 54.452602
258.02594 457.37552 44.931915
431.35156 171.99557 76.706154
268.21909 449.75189 162.02957
265.62897 339.13605 51.278297
438.97485 186.96568 6.8269763
339.25458 334.125 54.883698
304.14151 569.92175 136.91826
284.50192 125.99474 45.737537
255.34882 467.42743 134.27415
378.19293 376.4216 81.676193
238.32922 461.414 37.274437
300.24164 467.58713 93.026573
267.42331 314.49609 30.095785
284.95798 371.7099 30.261847
336.57227 261.77075 44.844597
411.38025 367.88153 96.686874
353.80716 237.44911 146.71255
246.35173 421.96591 124.2094
331.02478 626.44763 104.03529
399.91492 55.848824 47.188251
386.91577 494.23605 31.412529
248.45137 171.15054 109.16126
256.28281 79.882507 57.947048
306.64993 545.34778 149.17703
445.69067 202.9632 56.47868
425.60992 319.87888 30.110004
431.95935 283.93384 61.184578
369.90149 378.88007 30.48316
396.66797 50.702759 53.430595
268.12811 277.89273 29.996073
407.25485 67.516144 84.13652
236.50763 332.65198 51.262024
458.6106 157.61758 10.642394
435.18204 394.88638 105.76975
355.23721 602.78522 132.87933
270.35065 290.40753 63.269688
262.37601 480.87619 36.452374
428.00885 355.80472 89.974365
317.05002 373.39948 123.84947
433.15714 396.45074 78.518257
261.33374 199.0652 83.760681
268.53284 298.63354 164.18234
244.983 179.29659 50.390823
352.44812 442.83026 31.267342
325.51941 196.11984 121.69245
388.24783 79.518593 101.13425
306.00238 57.001198 72.938232
290.50726 486.32623 123.46294
244.86395 513.47192 117.86952
328.14404 627.32056 44.031616
409.05304 611.16699 44.037605
394.30811 443.8541 66.654221
271.4483 474.33673 163.50378
326.36514 401.05673 74.900322
338.36185 288.47507 29.207981
389.7955 121.03883 111.08366
345.02109 473.92383 145.51244
379.6759 365.06955 85.274628
278.9444 354.43402 86.368225
433.133 511.83685 22.901562
441.5994 94.108147 28.101681
304.32294 286.20047 55.742031
235.44325 168.48723 88.320816
260.56293 257.77667 144.03214
250.52922 505.87701 82.721855
394.26886 465.72336 89.75975
450.52499 177.42673 75.616318
432.34616 236.97284 29.884865
347.46292 77.121269 102.60458
457.00156 182.37862 92.609741
318.83673 603.02496 42.339703
379.07974 460.9313 31.073032
284.68671 143.2872 112.67872
302.55865 630.53528 73.712036
411.09879 122.89187 60.420368
440.9303 584.43719 32.398972
433.133 539.07269 29.875278
443.49823 134.25006 13.231253
351.83414 462.64539 179.50635
419.50516 507.61139 91.263298
246.23343 147.72665 90.292442
419.06937 77.01442 80.120979
249.53931 140.24055 7.9766064
460.4375 471.74597 31.431105
455.45352 467.27841 105.50887
437.9632 525.60486 90.52269
313.90839 488.491 148.8829
277.55527 254.60654 97.004105
454.89447 517.75238 81.490822
381.80765 576.87689 135.83612
263.60516 246.95337 70.314491
446.12354 162.89035 108.46003
404.81479 620.29114 43.89946
413.08408 615.01697 38.488506
450.51981 257.12405 131.45764
350.95837 64.231644 95.680733
354.21741 57.683029 85.021744
441.48242 316.35684 114.68932
440.29871 191.27104 9.9044266
309.82935 506.0661 125.31229
244.983 174.14027 68.687958
431.59418 311.20203 66.975937
396.17493 273.30383 29.91873
343.30234 251.218 56.209202
312.36325 563.44843 131.1057
411.93222 382.79736 132.23883
327.49927 45.945702 63.840618
456.79929 233.03885 92.937798
295.25455 383.69708 109.3533
413.53552 229.84171 136.47472
295.76001 547.61127 129.13916
358.06256 345.75095 57.253334
440.60355 110.76208 85.109291
235.88867 374.92053 75.19162
335.448 312.85767 45.874916
282.39386 607.82349 129.06435
279.54675 387.28384 126.3071
458.56677 293.07635 50.291912
452.57098 157.58058 82.283646
420.59775 74.039162 84.131989
284.89441 176.6209 77.689751
300.69727 224.64777 122.14635
454.60522 440.76062 117.53941
311.25705 443.81213 66.65892
328.06189 446.08823 31.059578
385.64969 78.549606 28.913063
359.32138 625.20288 119.16985
378.646 553.34082 32.820625
252.1703 201.88431 115.52959
438.17752 252.75089 93.221283
267.21674 558.42535 55.696732
388.85941 48.75972 61.598663
284.12958 59.364655 43.772243
334.29449 596.67603 40.562851
455.8299 276.43567 110.52153
404.00781 465.79211 104.2794
294.43677 561.03967 33.009903
266.97134 600.96637 39.253799
438.21246 306.80099 110.84965
412.17004 102.04272 26.683432
410.556 142.47949 86.985954
404.71307 613.3833 41.358788
305.19208 372.35254 182.01692
373.83746 572.30731 137.61569
256.30676 476.02798 136.02444
386.36914 405.37384 73.593033
237.33966 370.22241 103.82074
453.31638 290.49207 115.3109
449.36737 270.0567 29.978317
276.6723 446.71771 60.956024
299.10693 248.46596 120.69841
410.74072 120.59406 34.213669
431.547 296.36884 52.765686
306.53415 461.62152 92.276352
391.37244 427.1608 30.492785
427.57816 353.04407 75.389725
435.1535 158.36259 0.69898307
273.83112 465.63947 115.88406
384.1171 180.0757 120.37428
236.19977 501.52002 53.263542
236.6814 273.2984 66.573051
386.11035 374.7334 128.48868
381.17847 556.64868 144.55786
436.04572 601.11194 37.359238
265.65442 248.52782 44.485554
238.18475 384.4122 110.18745
286.37378 91.74987 100.9969
425.92053 390.30313 167.54135
459.03662 395.01529 57.03521
459.00293 278.95148 70.013313
272.03473 65.40876 41.087791
437.28351 123.89714 49.701347
379.98068 467.2099 177.80299
422.25504 279.03329 160.98622
265.41806 564.14026 33.31181
360.49927 239.6958 28.507799
435.84769 476.25507 67.753876
402.30392 275.40887 29.947876
303.30234 338.99054 61.47657
282.33499 514.49524 45.911476
279.66537 81.205994 90.684357
245.39528 540.12054 15.749565
367.68494 624.414 111.75002
254.58195 244.19089 130.30026
369.29221 150.55769 117.19716
387.36273 95.582588 105.82539
450.90842 466.35361 42.385086
431.18896 183.47289 18.583885
418.94482 154.09531 92.622398
268.35446 533.63556 127.50781
289.99188 212.2002 29.564192
396.98236 550.27783 32.745319
246.81673 191.63776 10.271121
347.05133 624.69849 108.55701
317.57596 375.83267 123.96609
262.37601 495.09955 25.088255
344.98383 272.79379 45.016838
451.69855 237.14532 112.79533
273.61734 85.291061 81.398918
389.48853 225.82013 137.50217
422.28174 321.14081 46.548401
299.43808 543.68445 128.81175
441.5354 313.01562 134.45747
335.29034 348.8689 181.78668
237.45001 250.22864 82.679688
237.30608 452.50177 65.2939
459.3385 517.39996 45.971031
312.93292 594.92108 133.1649
290.81445 456.95871 82.496567
340.67801 215.19432 120.70769
280.70523 80.488907 88.782532
271.48154 523.55939 91.26329
373.00742 241.89253 87.979286
458.15045 202.39206 36.691219
239.42984 504.55331 82.590851
363.09497 569.93823 131.79614
363.54086 50.341919 36.772842
237.25941 469.40802 27.167761
245.09085 141.01257 7.4360023
305.28372 147.27499 115.34921
411.92502 459.78326 176.2283
431.48416 76.673897 31.012299
247.90576 426.29919 30.372786
415.60617 129.46239 108.77423
443.36926 121.36497 72.604202
458.40421 174.33269 61.727989
410.55597 154.85321 81.176094
458.60565 183.86472 72.478615
456.7973 169.10443 20.848236
349.50693 247.77072 122.90686
424.70978 416.2883 169.093
398.65186 489.99548 170.57124
237.97122 410.22137 37.95789
413.84418 500.63654 124.87989
413.93829 213.39041 60.555733
438.95831 588.66394 32.628609
448.42169 566.84271 99.265045
306.53308 454.80011 77.966553
265.81415 99.943619 85.645935
236.659 175.88304 8.7504702
248.94044 196.51561 85.422905
290.44464 333.87653 178.43108
279.67331 625.21094 62.808697
265.51874 411.51514 30.347359
384.50598 487.21069 125.86987
362.12003 288.72046 55.763649
249.91113 284.52029 121.97256
420.51233 485.90076 124.05881
335.44803 309.55417 63.306671
449.88123 236.30414 29.890347
253.65869 266.8576 129.03745
413.173 491.45279 33.849854
277.31958 138.3109 110.15682
326.98486 259.83722 157.87836
433.133 481.77158 39.634003
335.448 300.89722 53.740463
344.71439 252.51845 121.44231
356.41431 312.42053 29.582455
420.85336 301.24908 72.359253
434.21121 544.25159 54.782375
406.02081 101.62199 26.605808
315.52591 373.00549 139.22797
434.22424 370.70056 89.130707
395.51184 97.456772 27.022331
235.321 517.33472 69.850578
314.44601 380.72354 182.82698
298.82874 54.002018 43.610737
368.56445 484.3316 131.03519
259.98651 352.58929 103.99544
263.91141 268.24255 60.857956
261.43982 375.33252 87.710205
389.13525 387.22781 137.49896
319.56931 625.39551 41.917072
264.319 142.29721 52.062859
246.34404 577.33331 61.497616
400.91968 555.1051 142.2182
250.59642 511.96722 125.95578
243.03999 508.38632 14.721908
372.77252 631.55682 57.69548
457.60052 207.90599 80.986725
362.54099 476.96542 140.19647
423.45245 256.4588 29.934959
330.79031 258.91025 111.89689
421.24228 328.51663 62.623718
260.58667 341.63379 30.165936
431.33023 324.30762 45.909958
399.79465 386.55719 120.86536
336.55023 51.582031 29.961452
264.59451 252.97025 56.447353
351.14401 509.74432 32.238113
457.29669 175.72998 35.418362
257.34921 214.72696 120.93493
442.0488 404.36957 119.73978
395.94284 381.20801 98.743317
416.47357 311.66034 53.77409
363.80585 258.77658 122.26085
279.65869 344.02258 61.623356
320.05029 83.172928 28.450727
271.17188 309.46411 30.082224
325.745 296.79321 56.816826
450.52499 152.61694 73.026009
262.37601 505.65723 44.323334
359.87949 369.74054 78.295135
425.31158 400.95734 58.814438
435.04709 391.01331 151.51611
299.40979 243.3924 87.322998
446.90875 376.74829 124.09608
310.90088 231.05727 124.34209
369.66223 368.54724 100.82141
266.96802 339.30194 162.04543
360.49973 451.10977 31.248394
445.41217 579.81122 109.03423
342.88126 299.56079 174.90048
393.38336 227.72096 138.26253
357.63416 386.77246 30.567894
370.3963 186.9792 27.962177
404.1936 566.63281 34.089451
322.64145 262.16324 29.29838
242.19119 300.40881 116.0604
244.983 143.08923 11.024879
278.78345 441.60956 61.649628
418.91016 214.8131 55.285446
310.66342 483.50037 133.34789
351.94788 585.04059 135.35985
263.00342 342.88702 62.862022
377.5452 287.5701 169.98581
278.87958 309.14218 49.263382
257.23596 99.791344 27.173473
432.70538 258.5582 106.59264
428.97131 449.43268 159.01224
261.71597 384.17648 85.293976
236.30038 396.22675 60.95013
325.39111 547.11554 150.20251
428.86719 198.74184 83.899071
264.319 134.78558 59.51265
419.00476 95.115906 100.72928
336.71088 182.50215 121.68439
419.15997 65.522354 41.697121
392.30103 275.00986 122.7719
376.91464 306.07059 29.934612
459.18158 336.3205 90.249184
270.28699 315.93176 169.36026
431.18903 170.31145 57.312431
367.87836 528.55774 127.80283
261.72861 124.0828 76.987984
241.71346 165.70569 34.473137
441.3075 157.03915 109.65892
325.1767 271.39703 163.39906
240.59091 462.52655 110.86227
353.70435 543.01355 152.75368
363.11499 601.95935 41.71323
367.39331 176.77539 27.691071
237.79033 253.08295 51.26841
376.22516 290.56757 68.33329
404.97037 257.07108 101.43323
349.95654 631.8335 54.326004
324.02045 318.59543 60.995945
454.07251 347.15536 26.91777
431.31729 319.28864 45.22514
455.76886 499.3587 68.730095
421.79129 436.14426 30.389721
439.11539 356.73163 114.03714
372.50006 335.0806 49.077774
418.52985 319.39487 174.97243
302.79626 90.40313 27.727699
423.97858 561.8338 42.911175
439.62036 548.45007 48.9132
333.289 487.42981 127.78616
406.586 487.62341 143.58611
269.66342 370.94473 98.028549
410.64038 211.38242 59.611973
244.58948 149.37468 2.9073653
402.39484 354.86664 180.36314
287.62573 404.43512 30.362143
361.83017 387.97238 30.577055
346.4845 247.88487 122.89498
342.68558 487.46652 124.29537
261.05176 350.38751 89.208084
433.133 527.82123 51.44664
277.12952 464.94376 68.379211
253.31912 167.7066 82.5952
297.33246 621.60657 117.29195
293.98071 95.613617 104.49243
452.46802 482.83514 29.72687
358.76501 299.77765 50.364197
328.20154 626.45404 42.657265
237.29959 275.9162 92.115364
424.09579 564.48334 133.15674
262.11014 325.07721 152.63458
275.24551 385.62015 123.31448
306.578 223.74709 29.19858
241.97989 137.02208 90.526581
333.13428 552.88586 147.78696
339.43753 431.4444 182.5977
322.11356 288.96902 54.147247
284.87714 55.504307 53.388584
367.47778 378.32159 89.981407
412.7785 625.49634 78.133232
435.72144 304.92599 103.98045
459.39493 355.69589 60.984833
398.16519 334.12848 178.9425
264.87579 81.027046 84.778656
256.59042 466.67249 36.855194
423.06122 360.45392 60.981079
236.07402 389.20447 64.860153
429.97388 615.14697 83.026741
406.23071 444.87955 66.539078
284.60754 149.62854 58.536415
269.41718 468.53131 75.347443
268.41968 326.98688 65.881294
255.55722 215.43082 53.008255
340.39252 397.4281 183.73151
236.02045 356.6543 65.162811
433.02829 411.83844 79.956848
333.49225 474.29486 127.02672
423.55853 505.49341 155.85019
347.97552 251.21802 71.675102
408.27405 621.02625 104.63848
346.82129 322.76602 45.797707
303.22647 102.3845 26.529556
236.17368 545.06976 74.196739
265.00958 232.85645 56.647484
282.33499 538.98108 63.734818
300.65192 463.4791 86.292877
448.79626 553.88171 106.79002
264.319 151.97464 9.5508823
422.95685 458.28595 107.4008
433.04745 322.1351 67.665405
433.133 488.98102 39.51186
449.88174 559.50153 94.962784
262.55902 283.36707 30.013687
322.3205 468.82794 94.420364
409.8067 116.42548 107.16908
253.84921 321.12878 30.111979
262.37601 508.21857 70.726837
374.23697 353.05621 60.084118
238.45137 245.21736 45.12241
448.49701 580.70343 75.382095
370.43149 368.82077 59.967194
332.90295 234.11237 28.485592
405.51172 357.8056 64.827606
446.7952 98.806793 44.946186
383.93372 382.79504 134.61378
422.92267 360.75543 172.02786
315.15634 422.04333 182.42642
270.7074 452.75446 166.09857
353.21698 308.08734 73.76757
237.56284 447.43103 50.759567
398.41763 382.17834 102.9793
316.69666 534.38403 128.28491
248.7038 254.79593 129.26193
410.16446 183.61824 28.599957
438.41571 208.87842 119.06194
427.60468 456.00598 31.966763
241.34293 455.34946 114.59499
291.91739 469.04172 95.590965
388.27533 256.62823 101.45274
395.06805 539.46228 32.479416
301.54291 453.67041 75.597305
400.51373 629.19629 75.038513
334.97839 52.860229 26.979578
413.17303 478.39377 78.032402
408.95477 436.09784 30.411997
418.44373 379.19711 93.956512
337.80209 51.406292 33.431416
394.61441 277.46683 108.39488
243.03999 494.70032 9.9353714
282.33499 510.3826 41.719479
355.54532 299.29071 62.463425
304.97412 385.21576 151.39713
289.38501 499.11005 31.487337
425.02676 267.36819 155.18445
392.97168 130.83464 112.5277
427.32394 74.769707 47.842274
264.43915 425.50052 66.157028
280.04108 369.16058 70.758484
431.14047 471.1615 110.0686
388.80093 386.36386 149.16135
260.7171 277.33356 99.041748
417.24033 370.99396 115.2687
380.88391 632.09332 71.425453
376.67566 241.61594 87.760605
241.54637 516.68762 1.1061919
289.40802 387.43784 181.39792
265.17267 316.00687 47.771179
358.73413 236.80173 28.400173
379.6347 379.02518 133.24472
359.41299 237.42166 64.745537
423.17896 413.12497 62.879192
309.40802 289.23929 67.989746
282.33499 483.71838 82.510445
235.77701 205.02695 75.066544
290.85507 526.66132 154.8335
371.09927 233.43454 121.71838
339.66684 451.40741 70.850746
407.98254 83.888588 28.554808
264.35999 343.9292 45.605888
445.44592 582.83527 106.99771
244.983 162.11615 58.342411
274.88342 526.03577 126.90259
318.64145 432.53879 181.93474
354.84558 285.72699 74.796631
326.34738 514.43365 164.50494
255.46356 517.5899 91.26329
259.98795 149.032 90.931458
307.82599 411.89221 30.486164
396.92191 217.54861 131.19849
271.05936 540.4856 141.56963
254.66777 96.972443 24.533852
247.26746 457.93271 50.206497
268.76151 329.38068 165.04276
335.55594 359.83469 65.595612
358.58264 214.90298 83.707863
410.76044 205.60953 69.078964
380.8446 338.52753 180.30193
307.98755 452.88098 30.815971
278.42886 623.85364 57.939636
304.29764 182.47617 120.23629
460.22134 329.849 63.086361
421.00403 68.999908 41.934822
383.39908 447.3299 180.27602
262.37601 493.79614 47.971275
236.05319 493.29468 77.867592
405.0722 385.74884 136.36542
237.63318 373.65347 106.2964
410.9054 253.99062 29.922268
321.13663 292.92859 172.63019
238.46713 220.88405 82.914948
257.67957 524.44 79.171555
330.7977 52.849655 71.08358
282.33499 497.83566 76.456841
365.89523 536.89539 32.416306
428.82993 477.02393 96.679916
343.28674 626.02417 117.56827
318.22772 470.95087 177.28918
372.66055 237.61771 125.92741
297.45679 484.08658 153.00154
288.33939 286.22272 56.957001
457.45761 214.33032 34.589722
365.16571 186.11932 27.771852
254.1535 476.69101 68.803154
457.82965 338.32138 35.287064
409.80228 81.634415 80.709137
356.1936 477.84561 132.23828
277.7233 469.2966 76.83387
271.40985 170.55589 92.621765
278.58948 256.63135 112.85037
263.07523 290.15521 30.032024
431.1438 328.4704 30.131943
433.133 490.12286 61.135914
272.37723 593.43732 38.505939
428.81555 553.59851 67.259766
259.68484 257.71506 110.52306
417.3775 250.95682 120.75095
297.94321 387.41534 30.379251
237.1438 147.73454 16.224882
431.98654 451.97491 105.33573
247.20032 420.28787 124.83909
236.49405 315.33163 90.006744
259.94888 375.59906 107.87112
432.22363 611.97046 47.526081
339.25671 143.74573 26.765675
235.17938 345.18616 61.006992
343.48993 631.87122 54.604347
282.33499 516.81873 72.60849
458.849 132.88443 48.891335
277.38928 611.51044 127.76516
310.43475 97.127495 106.37544
245.70837 173.85178 107.20567
265.74548 483.07944 85.516869
435.04074 442.76593 66.762993
458.37994 180.91943 61.535805
247.92087 495.89166 124.35577
236.65836 266.70822 73.951691
412.75092 371.05319 101.53659
430.45801 329.7023 56.581097
430.81714 264.90955 52.078659
398.49268 314.97501 64.609116
323.86536 481.91095 115.70784
240.02011 371.39996 117.27619
344.02795 191.93436 117.16975
276.02335 481.24805 115.85497
435.17029 504.86417 1.4782629
273.2204 85.925552 79.295151
400.42584 403.99503 181.79376
366.14371 111.78027 26.006481
367.25092 633.15845 76.611008
345.93799 483.42865 117.63011
282.534 170.54427 116.45578
331.92953 399.16528 74.912407
458.83243 396.02631 53.112923
305.88736 456.78345 82.127289
428.63538 364.67178 69.730782
298.47131 439.93469 180.09489
459.32556 404.1546 72.888985
452.46799 482.77795 44.051033
256.50919 290.95395 138.08563
251.20602 133.83992 69.240921
340.09308 337.87146 29.939308
362.95697 384.9686 183.53256
272.767 380.35605 122.42666
282.72092 112.33791 105.61197
356.95505 219.49084 28.051796
268.52029 561.42566 48.509033
240.75912 213.13358 61.786171
373.17102 346.00858 52.980282
309.33398 311.8345 29.985699
297.81226 147.62692 114.73417
417.34692 386.87601 128.22906
440.1087 205.8175 40.897614
414.86462 557.79999 57.19479
455.30646 515.66034 82.051453
441.3439 380.08688 30.275253
346.61414 241.08789 148.85246
282.33499 542.50305 63.522354
244.53983 301.87146 118.46144
264.319 168.75923 11.994909
322.8927 374.62039 182.92735
356.30841 540.98444 153.64221
344.73746 272.95102 45.019302
316.92059 234.76178 143.952
432.73322 345.89832 66.100037
432.04324 279.77866 151.6076
443.06976 233.39825 124.07676
256.20721 496.8891 81.280869
234.716 538.55005 57.86499
431.57379 449.93295 65.827148
457.8688 521.03424 80.21772
238.05145 431.2381 39.391037
236.24664 342.16058 56.928314
427.61618 463.80499 97.929413
302.46136 256.87952 154.50955
240.02682 154.07332 92.617256
293.85925 255.67371 114.84548
417.20197 583.70636 131.66118
393.86014 606.69928 43.614868
400.23682 552.85345 32.80864
454.28549 344.64563 117.80887
374.25244 42.754929 61.936584
437.52808 457.70239 48.026226
261.18573 287.99774 90.359886
259.75424 446.5217 116.70107
285.38586 185.99324 28.685698
359.30621 319.22205 29.793118
333.78647 594.36584 133.91551
279.90689 325.86044 60.390106
353.90778 45.885857 55.40649
334.33099 374.49493 87.483444
262.70288 420.20935 84.79538
434.5748 480.80963 70.044952
264.13672 464.99658 152.30873
317.0061 566.72668 131.43623
264.70862 236.90344 59.303516
314.18756 98.907936 107.09996
451.31866 428.9389 122.28387
447.84857 100.15638 75.258804
264.51978 294.30643 46.385391
428.19592 472.12964 90.363441
239.93048 267.99298 27.908396
235.43469 335.63739 59.705612
379.01312 158.29562 27.685768
244.4884 468.55807 28.058786
405.74994 247.29977 147.87048
275.5881 460.41519 59.58316
243.03801 249.67569 123.22063
434.80139 451.63214 81.191444
408.23004 114.07011 26.089149
358.76501 295.70636 50.07943
372.6308 462.2244 93.539017
401.00159 157.96414 115.85555
375.41968 268.39178 161.68887
345.95795 384.60303 30.500906
444.68182 578.48578 114.06954
411.75073 483.19073 170.69507
357.10687 479.36621 132.9397
265.6954 164.51324 92.620987
271.81152 245.24194 120.44971
303.20407 383.24142 182.25308
367.54315 257.09024 103.06719
315.84296 520.6123 161.15361
328.13809 326.34753 46.711365
235.59933 534.2666 54.10746
433.133 534.17615 41.063011
237.54407 364.56235 105.97288
352.07071 624.04193 101.54085
363.47464 490.26382 173.60577
262.37601 490.24756 33.894421
459.38541 315.07452 62.598141
238.93558 255.03421 121.375
279.69736 452.87476 73.930618
413.51575 549.02478 142.23581
294.49756 168.53494 28.055424
284.95016 142.71918 73.592178
238.84068 347.57727 29.792295
430.10263 383.70819 30.285881
429.88589 438.39816 65.117432
271.21939 373.52054 71.750732
428.51865 463.19415 84.938156
362.1416 359.45905 60.47963
455.56555 481.94382 84.965454
279.16748 323.63199 65.323578
419.04944 68.142296 30.983223
446.18219 217.91875 29.838137
424.96735 309.52887 30.082676
243.04001 484.2337 56.179626
252.31772 398.36664 133.84418
426.09247 291.43079 65.397476
355.01361 214.90298 55.771263
262.69406 572.41492 34.516891
281.11502 88.867638 28.206909
312.38058 87.948654 27.973152
401.40457 253.55899 115.22245
341.1767 112.32639 26.026196
410.55597 187.96184 59.474724
335.72968 162.50961 27.197084
456.54947 470.54507 95.464127
238.2327 128.48119 76.658569
397.56039 570.15784 34.938301
262.37601 506.19128 12.739026
333.03677 53.620102 33.006447
278.76627 307.2951 51.648224
270.94312 582.75995 36.023514
244.983 154.00627 46.043365
272.62115 292.89072 47.288391
260.45654 355.72571 98.112495
333.30783 519.6759 32.191711
407.39667 231.17221 123.39675
459.19116 370.77057 57.32724
423.05554 414.81195 72.091476
433.7251 463.26154 116.11665
284.952 181.71228 69.256844
284.91635 143.45866 28.67198
320.6554 76.668571 29.107548
438.35089 202.79759 26.048637
239.91382 174.43408 14.30234
428.32733 302.20624 30.063747
421.61505 312.28241 65.29467
390.03259 147.46283 27.294682
237.30324 359.96881 39.705528
277.0733 112.54408 58.774635
419.55301 59.920494 56.897648
262.64777 507.21576 91.263306
277.6781 558.05249 136.05365
341.18872 257.18069 78.799423
409.16742 60.84404 36.682465
328.07733 254.71515 117.6539
417.55286 228.09589 122.11746
396.49207 263.38528 107.75868
301.69513 141.31746 114.14678
416.729 495.41394 91.263298
450.19913 545.1012 104.79929
327.92139 359.5163 53.398567
287.56647 476.73944 108.07552
365.90042 188.61206 120.80321
281.87674 392.95682 30.31245
260.02896 214.80789 55.314461
331.75452 211.41373 129.96686
341.13092 363.55695 30.168591
449.32672 123.34734 45.609512
423.492 573.64777 34.696449
413.173 540.33362 40.299683
245.36128 522.18402 91.263298
254.28143 595.38916 46.103378
358.49786 45.945702 58.385284
306.7099 420.85028 69.883133
416.75806 476.17169 120.06969
347.06879 362.80359 30.133385
240.58392 453.34409 113.89088
399.9668 62.045197 77.981216
335.448 309.43317 49.2953
458.849 162.2282 7.7913885
394.14215 504.69037 166.10202
259.32816 313.03357 107.82439
299.92667 59.256096 24.935942
339.40051 474.44757 137.28564
417.81723 302.56915 68.426819
316.45111 234.94267 144.02075
287.55692 594.34729 44.727196
263.21362 410.67365 68.938805
418.6315 402.93835 178.537
254.69014 359.21246 116.20726
459.68524 519.24689 53.734589
444.58276 94.376358 77.082809
300.12411 497.93549 31.458462
433.133 503.30554 33.342323
271.12387 358.51556 30.212973
433.133 531.1026 28.047808
397.80713 404.18475 74.097542
269.94272 221.27734 119.90344
265.60901 253.53026 116.63575
403.51184 278.98886 112.53395
274.16217 485.21387 164.78409
410.70706 498.98685 165.30502
354.18549 215.06018 120.68591
396.7355 314.87946 64.622742
387.19589 355.26764 57.683632
454.20493 116.24363 60.12714
305.04953 164.60945 117.71285
430.3815 453.43857 155.85599
338.3317 144.26398 26.805437
252.8055 592.20013 47.516747
386.68341 373.23944 151.11147
432.84698 319.69571 64.847115
257.60205 430.81763 143.45425
433.54639 496.7941 5.303093
262.51514 359.73663 70.853928
410.1026 621.47363 89.633194
428.58322 444.32382 79.514076
308.46506 190.54907 121.94672
261.2038 333.30847 84.906906
438.23914 474.50116 65.985962
264.319 158.89001 50.705845
237.10963 234.78577 57.778191
245.34607 466.28098 41.326851
277.66556 361.96082 30.223402
346.43915 298.20636 174.62926
450.50958 162.64589 104.7021
391.87122 176.95583 119.32793
418.94113 84.463295 90.808914
418.55145 139.93808 86.500092
267.57666 216.85712 45.13192
261.57599 577.38556 126.51163
358.76501 316.6709 68.760818
456.38742 156.12328 32.607559
433.133 510.05273 33.046463
237.20612 521.27246 84.092194
389.2052 71.365425 29.631487
459.26514 307.74533 60.435764
371.66138 394.41504 63.112343
425.04211 450.3486 69.609299
340.01508 65.309448 96.404404
251.36829 333.43344 30.143835
258.30606 160.56992 0.33719939
357.68326 345.68512 181.5881
435.77069 222.24927 119.73261
257.65479 110.17859 43.588257
352.14032 173.38263 120.4878
244.983 166.69049 19.396246
239.32942 200.15927 90.4422
437.13196 76.978523 53.153511
335.42584 308.49649 29.640463
378.57196 141.3399 115.37067
412.58929 594.70129 40.817196
237.48117 174.43033 58.549442
326.38425 313.50964 71.185379
298.13828 385.01392 114.31811
284.48486 148.72076 54.312416
241.40443 470.78662 111.39841
252.38895 349.11237 133.09021
416.18027 358.68744 67.309853
410.51749 585.19385 132.15129
421.10269 110.59586 47.70023
236.85191 293.7677 51.833107
458.43091 149.33832 64.638962
300.9249 376.9621 154.79063
412.26691 247.96349 130.41005
349.30743 523.11859 32.458832
433.26276 205.0459 79.819672
355.0192 402.39774 30.650566
417.78821 356.51996 61.550201
316.72034 502.69843 31.670139
419.93549 97.116814 27.451672
428.22461 168.97182 92.621216
422.80869 549.57977 139.55754
395.22614 261.25717 156.49496
402.43704 371.77969 148.12491
245.56677 110.79786 49.752804
437.12061 524.29938 3.8045506
432.69403 359.96848 67.053383
431.19553 375.81955 49.510941
448.38055 561.97986 103.42343
414.18286 348.96442 55.401501
258.84653 609.10834 101.17999
352.34711 344.17819 181.53549
453.9585 373.77521 119.41397
362.99072 131.01485 114.47478
386.64844 500.45398 31.520378
261.80524 535.32776 15.2274
433.133 480.73401 34.974953
294.4538 371.43445 143.59317
282.33499 524.16479 82.555656
406.41754 485.37466 170.84645
369.05847 313.54327 71.206039
252.52078 288.83087 128.75294
440.79175 442.32904 135.20581
326.38208 358.11801 65.707092
417.49084 371.01965 115.4444
365.95651 318.1521 64.330421
289.1434 257.1524 29.913559
237.70245 352.3396 108.62448
414.71497 258.98575 29.938126
289.97693 486.50299 123.75435
418.36908 355.06848 46.17564
409.94672 70.158783 75.010468
340.27466 60.148315 89.267685
239.95285 208.95334 95.629898
260.52353 413.36945 108.00103
457.89749 502.25174 28.13352
327.37332 60.138844 87.919724
278.42303 466.06766 105.21217
457.30765 220.26868 63.523354
334.23553 253.90834 98.33596
443.60968 401.95175 132.69876
239.21326 250.58786 133.73965
276.43442 242.52963 86.146606
279.68643 458.76147 175.08028
297.00497 169.27296 28.082067
275.15268 245.19727 120.60566
269.83942 305.6633 168.44539
260.04025 292.88702 103.73289
435.35886 370.56409 104.51421
