# .PCD v0.7 - Point Cloud Data file format
VERSION 0.7
FIELDS x y z
SIZE 4 4 4
TYPE F F F
COUNT 1 1 1
WIDTH 1538
HEIGHT 1
VIEWPOINT 0 0 0 1 0 0 0
POINTS 1538
DATA ascii
12.676992 -8.5044842 -13.281157
7.9522738 28.142548 -9.4462328
3.6600237 51.433716 -1.0740634
-19.884666 -0.5121727 5.9779215
-21.168613 27.029993 -15.951109
12.416908 86.743866 -11.26509
-21.623743 -0.87155145 -9.2042408
-20.146318 66.284767 -16.943722
21.550684 18.30957 -12.025444
16.956894 49.828819 -4.5732336
-16.059378 34.877831 -5.5764937
12.769886 38.830219 -5.9833503
-22.235161 64.245071 -10.942617
2.5493252 0.016370833 20.872166
11.849129 31.986998 -17.132719
5.311801 47.536625 -3.8630428
19.69025 20.896103 14.354309
-15.438772 66.329781 -13.932081
-4.8460865 -4.6537189 -10.514606
-5.6028814 48.240829 0.18255475
-15.57828 77.789413 -25.156097
-4.98489 47.576073 -2.3157475
-21.523315 3.5022743 -4.2846937
22.242897 33.034367 -11.409847
-16.710941 49.076664 4.0611491
-1.55904 75.44545 -4.3616548
-11.430479 49.255241 -4.1996489
-12.063535 36.050522 -12.74402
25.298512 85.288773 -17.963566
-11.6455 1.2248237 -12.877502
0.1824398 84.992805 -11.3331
-17.585247 71.162544 -23.328772
17.332676 11.868587 20.644556
-1.1330328 55.183586 -10.837215
-14.519753 76.389015 -5.2136297
17.156162 -0.01633466 -11.260917
22.442535 80.836273 -10.067872
2.380861 48.374996 7.6538754
18.117775 -4.1742105 16.044762
-17.409964 74.440788 -2.393558
-15.155518 53.984863 -8.1109343
-13.2558 53.85392 -15.906377
18.20536 49.280426 5.4981995
-8.1813803 48.572838 4.4754071
11.780144 -9.5410385 -0.20014364
-15.273986 49.815437 1.7864764
-3.4753914 -8.7388697 2.1788962
24.231651 4.5576339 -23.848568
4.0017524 27.581127 -9.3037739
17.680372 16.171566 -7.5169272
-9.0607815 48.375206 -0.043747261
-14.588053 61.637764 -9.5873356
-4.8387651 21.570114 -14.928246
-20.116217 75.303177 -3.9511478
10.995474 40.312725 -7.1697669
12.943808 47.529781 -1.2500772
-12.07884 92.646255 -13.834447
12.512668 57.570724 -1.1461488
-15.403039 70.920509 -23.440147
-19.217054 17.165716 -8.8310289
-21.623322 66.742599 -14.340881
-12.147728 32.564701 -7.4264517
22.259958 24.996239 -7.3214297
14.491028 33.229668 -9.4652071
17.721294 -8.8707123 -13.855307
-3.2326615 -8.7512245 -14.056397
5.4661293 4.7534032 -7.9318771
0.6485303 -15.462515 -5.7700448
-13.885754 63.679504 2.7887812
9.9168243 44.798088 -12.081257
9.9003162 -9.6647644 2.2718265
18.208088 67.362991 -20.459932
1.2459869 -12.447029 5.2440395
-18.134949 28.64732 19.038828
-15.011494 70.779999 -19.07552
14.194098 80.066505 -19.462191
17.829243 37.909245 -12.768108
-2.9300508 49.951073 2.8239455
-15.28159 59.33255 2.672009
-17.050402 22.976833 2.2741156
22.552704 19.189121 -16.90317
15.670382 5.73421 -7.433393
-12.2254 91.194603 -18.386791
-19.39053 -1.7175462 12.874197
13.05628 57.126572 -5.3654695
-16.406313 31.824938 -9.6296253
-17.093613 1.2655123 -7.8812656
-2.8193727 4.8436441 -8.2712555
17.398495 57.105896 -3.341311
18.648434 37.598301 -11.955586
8.2860575 23.725237 20.804068
-20.180248 66.852364 -14.166029
-15.364361 50.731285 -10.614097
21.686249 14.09873 11.159657
25.386087 3.5845501 -21.452236
-3.2652969 50.860382 -0.89790976
15.296913 4.6634932 -20.852003
16.651903 23.594746 -9.4220524
0.099450588 46.250046 -15.215605
-1.8880788 35.173954 -5.2191648
-15.580644 12.306598 18.126215
-14.647755 -4.7520738 -14.16229
-9.1499786 32.689541 20.844057
18.759281 27.410023 -12.17712
-1.5907769 80.945786 -10.898498
22.313162 19.497856 -4.1104965
-8.5383377 28.916 -15.99809
14.743782 84.989052 -18.911079
22.24472 27.157608 2.1779637
22.709297 66.590782 -16.767921
18.017277 69.401077 -6.510241
-18.293438 43.986282 -12.846158
-15.741896 66.299187 -9.852108
22.23868 38.648396 -15.06883
14.687782 81.119522 -13.911754
-20.472839 10.653255 -12.441201
17.200104 -4.8199072 -10.513882
12.009671 -13.093588 0.14060129
-20.036198 7.5090671 -1.0248381
6.7835898 1.3963637 21.100052
2.8727713 15.557134 -6.1317587
17.060682 48.969898 -2.2320659
18.771885 25.190477 -6.1342812
-3.2641995 94.521011 -11.766817
-15.956686 73.706818 -24.583279
14.452564 75.777443 -19.764034
-15.547895 34.149956 -6.3365126
5.5280809 -16.15855 -4.0566082
22.604952 -4.4710612 -14.046966
-16.670027 -4.3277931 8.1344261
-10.826511 39.037262 -15.138689
2.9754629 2.425631 -13.428267
8.1064339 -7.7611094 -0.93670177
14.964243 35.977531 -15.105389
22.226986 37.403175 -11.165653
12.033792 7.7158546 -13.759342
-0.87580848 83.977379 -0.2375592
-8.4707804 24.855606 -4.9510474
10.090057 39.127621 -5.9407549
25.342657 79.129532 -27.449255
3.4574516 38.838997 18.0091
-18.939962 -1.0929185 -12.942691
1.8017838 -5.6580982 11.450686
-10.474159 85.939255 -9.272109
10.248312 74.604538 2.9005046
18.730457 63.83741 -13.598453
8.5328703 49.668026 -3.4030182
-13.942798 82.096375 -10.782966
1.5550976 50.0564 -4.7105875
-19.01815 -2.9500699 14.425652
-20.816765 80.218674 -9.4006233
-15.106671 25.144226 -10.287901
-2.7891543 -7.5251036 -3.7019546
9.9961624 57.569427 -6.2039471
-9.0145082 35.832886 -15.103393
11.868046 -9.4448414 -14.284626
18.273907 28.988331 -4.6866627
-0.67018771 66.474152 -1.6695402
21.748676 24.76959 5.8683081
-14.368467 75.856415 -5.4597945
19.754 37.844818 -12.503582
-6.3362336 87.439194 -17.481329
9.0743904 23.075621 -14.963353
-14.542575 86.236725 -13.810016
8.4176397 84.247421 -2.90801
-13.241163 81.250046 -7.354845
-16.42675 52.689247 -15.262887
-11.850691 15.668928 -21.418854
3.6347198 54.200775 -5.7954049
-21.202198 76.660942 -16.688835
-7.7284532 14.718568 -14.441339
14.75675 13.89804 20.640749
-17.446026 53.326683 2.1489861
20.682152 22.747606 -0.44794226
19.873808 43.654808 4.2860289
22.22958 41.095093 -12.026752
8.0171032 92.417778 -4.4410677
21.034723 44.903595 14.004484
10.233026 -12.853695 2.5965042
8.8226986 -6.6116257 7.5753393
5.1969619 47.735081 -15.232349
12.149079 59.412102 2.4807651
-3.6799948 86.853897 -8.7047634
12.154807 41.996716 -12.82067
15.157733 38.265072 -5.9673076
19.973129 45.322563 14.834606
-0.87011528 47.583538 -3.8587098
-2.182039 27.483505 -9.8066702
-21.436829 67.467499 -18.037893
-18.884886 37.415146 -12.704993
15.133874 15.506632 -13.038074
-18.685673 51.385201 -15.257552
21.282063 5.1292224 15.459358
21.173786 89.585747 -7.8390055
-9.6057854 31.673328 -9.4666281
10.540769 -4.5008135 -12.9795
2.1910431 -0.34274334 -13.232932
14.420902 30.50079 -15.045634
-0.57739949 57.57457 -0.57947332
-20.309202 50.898888 -15.263685
1.7106018 42.192623 -15.171183
-9.6385527 54.42561 -7.8379107
24.288042 9.7046251 -20.012278
20.802299 48.548042 7.4870644
-19.797546 54.04895 -5.2921124
-13.82964 2.2041786 -7.8606601
2.7310319 64.958191 -17.0681
-14.304534 34.512905 -12.724169
24.324402 4.7541137 -7.3317509
-7.8595624 55.690399 3.5801349
15.002901 66.164879 -19.941664
2.0584807 16.54751 -7.9217014
14.726974 69.844032 -20.383278
-16.143154 84.766953 -21.350086
21.928417 48.759216 6.5532866
-18.753017 43.139286 14.579808
11.128283 -6.1974635 9.2806177
-18.708588 85.835335 -11.163746
-14.434686 84.419907 -6.3504987
14.506289 63.170158 -19.129196
21.614283 46.735043 9.8032341
-11.384369 10.509036 -12.2838
-10.726244 4.4884968 -13.486128
-0.38804978 -10.627998 -10.451859
5.8770709 93.994797 -9.6297998
-19.93589 28.024553 -13.981593
8.4190331 20.657047 -12.546052
-18.020477 40.360111 16.795439
14.171792 75.034065 -19.841766
22.15913 11.610706 3.7577686
-11.6455 9.9401379 -12.087797
-13.211026 -2.6381347 -12.962446
8.7748995 79.961624 2.5708604
0.80164528 -8.503334 -14.69944
5.1555142 4.1526389 21.124317
-19.901363 53.314842 -9.3701811
-11.028202 50.214569 -10.658997
6.9015589 10.36569 -11.550258
5.6918545 73.267464 3.2242031
22.244831 43.799713 -13.531572
-9.4422426 -4.1625509 17.616348
-21.656786 74.411736 -15.476267
-5.8338242 6.4057884 -2.740998
20.940424 14.15337 17.27305
23.237246 60.140705 -15.321432
-19.41975 81.1353 -13.888067
13.704048 75.597519 -6.2075758
-11.834231 48.054062 -12.898563
20.356331 53.068478 -15.265072
1.0215274 6.7808108 -3.8879535
-12.504213 69.539192 -5.5409698
6.6816564 14.938232 -14.339555
-0.094743043 -15.816792 -13.624986
-21.194157 85.715111 -18.142986
21.579304 43.449959 -15.187787
8.8295574 57.586971 -15.283649
-4.2490993 52.608521 -1.4894943
-8.9789095 92.723602 -3.6165099
17.548382 42.661697 19.882942
7.4664173 83.621719 -0.28558287
9.8602047 17.911524 17.753574
-16.431709 70.981667 -23.353687
-16.738598 21.751503 20.21299
2.8722799 76.638374 -3.1738915
-15.913286 36.190853 18.6402
18.825397 78.870552 -14.509644
1.8698537 56.10656 3.9267433
9.3303957 -15.864056 -5.9750657
-19.365738 2.4971833 12.72595
-14.957926 63.003677 -14.51379
22.225641 58.425209 -12.463406
21.042179 49.786644 5.7237182
-20.400995 18.795769 -16.045729
20.046682 31.291059 0.44879234
25.288082 74.426186 -24.602987
13.610496 3.204741 -13.378763
-5.5813141 25.557001 -9.2970419
-16.046637 63.758816 -5.2070327
20.531324 33.131077 -10.351683
20.606327 18.619452 -6.9443469
7.8287759 30.594543 -15.045641
20.028257 68.517441 -2.6930649
-15.892851 18.575031 -14.115284
-7.7088881 38.393806 0.20063666
-15.456624 91.82872 -11.150325
-11.167377 33.335094 20.559092
-17.895351 28.424397 1.0666326
12.207302 -6.0290279 9.9747334
-13.5115 32.233444 18.696205
3.9655428 71.911316 3.3422422
18.538763 18.398918 -12.242804
0.50130653 41.871124 -9.929863
22.807669 60.182251 -13.006842
-8.541543 23.578213 0.28008169
22.477884 17.473722 -9.4681501
19.482216 37.054466 -0.89638036
9.1532793 4.5163445 21.067848
-14.785804 68.489693 -7.4715176
-19.892639 40.326904 -8.0773182
6.4631095 -9.349534 0.99032974
19.928867 38.436272 2.6989667
14.830863 16.274401 -20.679338
-16.805435 69.313515 -8.407114
-19.557703 62.180431 -15.304616
19.950275 -0.39567775 18.34709
-17.828897 32.297409 0.2448613
4.6516523 -7.6624393 -8.4415598
-12.555479 76.362938 -16.289951
22.248268 -1.3373307 4.0789642
-9.4082565 43.84272 18.128618
20.537184 32.841198 -10.523817
12.34708 51.652271 3.5492907
-13.458535 63.444687 -14.561739
11.005148 49.801868 1.6860695
-13.2558 29.071867 -15.570767
-5.2020721 24.605755 -4.3149385
-15.788492 33.369709 20.165085
16.581455 67.950287 -5.5102544
5.7464013 21.497772 -9.276247
-4.821197 84.838898 -0.4734042
-14.312515 10.292043 -23.493219
-6.0351906 55.849033 3.5984211
20.067188 27.652018 -8.8425102
17.364639 1.6455777 -21.188778
6.8070326 52.40279 -8.7643175
-19.30361 -0.84394419 0.00084710971
-17.83243 8.6363087 19.139175
1.6722784 -7.6094685 -4.922585
18.606785 -10.338951 -5.7768335
-11.360503 45.840015 -12.870092
-15.570182 23.957682 -8.0947685
5.7580996 23.308372 -9.4263868
14.491607 48.217571 8.0774336
-20.444082 -1.4212482 -15.387177
-6.0502729 48.442841 -1.7806404
21.777996 -0.71019226 -15.336009
10.511738 15.420322 -12.059608
17.78208 3.04597 -7.8827114
16.591616 32.619434 18.194351
21.237177 8.7200775 15.741926
12.547644 82.114792 -10.442373
-2.5966647 10.6845 -20.124624
-21.24691 29.529102 -16.465317
-17.783684 73.431305 -24.437269
-13.685636 -6.0117416 -9.2372131
18.098553 1.4351072 20.039589
-3.5520244 -11.748268 3.3191497
15.269591 17.156422 -21.130089
-19.879801 62.255501 -4.1974449
9.2636814 -4.363595 -14.935045
22.151503 57.191124 -7.196291
-18.396732 40.455383 12.118283
-0.9715786 49.085426 -0.34556624
-11.606334 20.627701 6.5640707
-14.899342 81.069016 -23.656219
22.734411 13.94642 -24.368608
5.4628134 37.237316 20.837173
13.966673 44.665371 -15.200155
-20.021824 4.1427298 0.37632027
22.212336 31.197254 -6.6032715
-19.940952 45.24641 -12.146196
2.28971 47.773785 9.0284004
21.920254 6.96099 8.9394398
-14.250031 50.888397 3.1064963
-15.430092 79.617073 -12.67868
15.830287 14.524684 -9.2276449
11.600324 -2.074476 20.718332
-6.4252896 -10.272915 -5.6700153
-20.377632 9.9918785 -23.9821
15.645325 94.122772 -10.440184
-6.8928843 31.9884 -9.3251171
-14.077837 -8.3462524 -2.2942104
-6.100246 48.5788 -12.905311
20.578012 44.804192 -12.63195
-0.16740395 76.113297 -3.3945189
-17.766558 35.765999 -2.7048297
-21.073009 11.040683 -13.908102
-8.1024208 3.5405145 -3.4019523
14.6044 54.191563 -13.246321
1.5039541 6.8937292 -4.2331734
23.155209 1.6984811 -8.4459715
22.405169 85.979713 -21.67857
-4.9509139 25.468185 -12.6078
-13.351762 49.404839 -11.49242
3.6412458 2.6419721 0.40984684
15.1923 -5.6949496 -14.4226
-13.2558 28.596214 -16.417786
9.7671194 -8.7194271 0.57103062
-17.3283 42.274616 -7.2459445
-13.831321 19.942072 -12.144696
-17.339241 25.021351 -1.162847
12.358157 46.140732 -12.217728
22.317696 3.5252676 -6.789681
6.5639062 26.140343 -12.616669
-11.6455 30.99852 -16.916872
10.672329 51.129784 -0.033372402
12.272996 35.942719 -9.533247
15.018817 14.26423 -20.424194
19.647018 -4.9181795 14.598324
-2.2632051 7.3404121 -20.560776
-3.5093608 89.202713 -11.37237
12.07529 32.06966 -12.693016
12.61622 68.522484 -8.8842449
13.269585 16.282036 17.167267
-20.837008 86.234192 -11.228943
4.1313562 85.217903 -2.360568
-11.562692 54.160633 3.3877816
-5.0347176 -7.4936028 0.28921354
17.92057 68.438721 -5.6992693
1.6489244 -8.51859 -13.983839
15.158005 22.187277 10.103327
0.85678232 19.266239 21.110092
-22.24909 68.665474 -10.184777
13.33884 45.582012 -12.328161
-6.5072651 47.898464 8.7802486
-19.252531 70.830627 -6.1827564
18.832735 8.5409155 16.783297
-21.15486 86.296806 -16.513325
12.872156 24.773685 -7.5186577
21.889482 55.32906 -1.6271148
20.634861 41.851768 12.697112
6.8402662 41.389622 -19.86842
-11.988027 11.809973 -9.0343838
-1.5590398 78.373116 -4.8951635
-2.6054626 71.695175 3.3275299
19.393257 26.549494 -15.002583
9.3293486 -5.3660765 -15.3619
-17.371441 67.969681 -20.783001
-8.4563818 36.723877 20.551722
2.4957116 84.838898 -0.87078327
-16.465816 67.81118 -6.5674763
-8.0785074 41.177383 -12.810135
-18.816351 -6.5795684 -12.9795
-16.914024 46.677166 11.660181
7.6528029 50.30891 -10.302153
22.054825 17.198713 4.9762883
-16.766102 31.044104 -12.283649
-18.634594 13.016523 -23.27076
-17.990372 -3.7010543 -12.915828
-11.093111 55.210682 -15.273661
24.904062 71.945618 -15.345833
14.396139 50.240562 -3.6510978
-22.317081 86.093117 -6.7746553
19.550896 24.12484 0.13940525
-15.756004 77.269775 -25.122181
-2.2372766 4.5012445 -6.9804873
-17.535191 81.221085 -6.5939941
22.22506 48.880882 -11.814908
-14.358172 84.765274 -3.6274788
6.6765404 -6.6653261 -13.048162
-12.860546 7.8665895 -5.7443275
-4.4670248 5.9330606 -13.76047
15.039968 64.5383 -12.532088
-8.0677404 27.315044 18.554832
0.95415694 79.562523 -11.557016
-10.829243 42.217327 -12.197647
11.974824 56.629829 -2.8600378
-19.464167 55.058517 -9.9719133
6.1341324 -16.619247 -5.4515271
-21.134573 8.306366 -16.329092
3.3050556 89.501228 -5.1377501
13.461617 -12.803312 -3.094758
-11.548405 20.913363 -20.450207
14.623798 65.13623 -12.839443
-18.311874 57.581993 -11.639524
-6.967514 46.828354 -15.891806
-16.785471 66.736488 -13.082905
-2.0196974 6.9470296 -4.4382334
-11.322321 33.268398 -9.3313208
14.29813 8.8103218 -21.02804
8.5273247 7.4236484 -7.5153141
1.1539185 87.025993 -17.760372
-12.596008 86.341148 -4.4528918
-1.5896084 6.3999572 -2.7234983
19.377661 52.485943 -9.5598707
-3.1436434 28.847467 -12.651374
16.958231 74.176796 -14.496101
18.090145 9.6920328 -25.354237
-15.155149 12.257078 20.333546
-19.914133 41.700577 -15.168711
22.045616 45.053341 -3.5957341
21.870651 14.431016 8.6410408
13.204695 5.5001588 -11.059883
-18.985016 26.23518 5.8436518
-14.72493 24.491745 18.54108
-1.3779163 31.800692 -12.689457
-15.325108 83.801025 -2.6972191
9.3753643 45.287888 -15.206279
18.377285 81.52433 -21.550449
24.335606 66.559937 -20.59757
1.9549189 57.578484 0.73734224
-1.5352077 17.644148 -12.283811
9.5176916 -12.786001 3.1418862
-17.038813 0.1116879 -10.267181
3.8901932 90.845261 -9.6062098
4.5046453 -16.130362 -2.4534945
-17.151102 72.891876 0.24883452
-17.953485 84.59481 -20.698727
17.847244 19.090765 -12.920694
-10.580067 0.39869857 -13.108957
14.21183 81.509308 -19.8032
14.146042 23.199129 1.720999
-14.429407 67.306976 -12.172571
-16.826717 -1.6153854 13.302511
-20.998476 7.4984536 -14.804358
-9.059 49.296116 1.644464
-19.078794 45.952217 11.74412
19.046551 55.341125 -15.274958
-16.402885 29.401361 -15.033836
-17.047297 20.846228 14.75025
13.86951 47.991318 8.5974083
12.032568 -8.408741 -2.2050872
21.819756 0.19346252 1.7693375
17.660877 57.870266 -9.0680704
-0.75533581 49.830238 1.9097383
8.82973 22.13496 11.170663
-0.61166996 32.460026 -9.4694519
-19.912731 30.563015 -3.4332404
-5.4330826 49.393898 0.37043598
-7.9983749 22.275669 6.3246937
3.9115129 65.148689 -13.723295
-17.264862 67.225388 -10.199446
20.320103 27.853165 -15.016907
-10.2499 33.831463 20.569469
-15.627964 61.430069 -15.301313
-5.7695603 -5.5199494 12.042887
-1.8663161 2.9600909 1.1027625
-13.431744 80.308571 -6.213398
-19.757242 47.06369 3.7871556
-15.105627 48.960972 3.2781482
-7.3037415 39.031212 -11.183848
3.3813629 57.572247 -2.9604058
-19.95245 25.41946 -11.496269
5.3655157 29.656523 18.606754
-18.652195 10.148134 -4.7959528
22.597775 10.363264 -24.619862
-9.7190313 42.32711 19.678299
-20.727287 82.915352 -15.580191
-18.607895 13.112479 -23.289967
-15.637958 50.281479 -3.8596001
-2.7325792 27.353107 -12.6002
5.1740823 59.444939 3.611135
-17.079742 22.658787 13.650569
-19.764544 5.616786 7.6541805
-17.197754 73.59549 -3.2810955
24.389566 14.852121 -8.19837
-11.218689 45.901436 13.41977
13.011517 47.30526 10.178108
20.216351 57.383656 -10.067987
24.319496 78.435226 -6.2110968
-18.430195 43.269859 11.722527
-12.719162 24.193371 20.830399
-23.375469 75.612198 -22.805471
-16.386366 87.049637 -15.874406
9.981905 23.333687 -9.281889
-17.045563 4.5979118 -5.1705303
19.131899 92.418343 -13.536764
0.085615456 90.64682 -6.1960888
-6.9820786 36.146957 -9.6076164
-4.6592278 48.216335 -11.388957
-10.82742 49.342331 -11.330503
-1.5138779 50.266472 1.2230142
-19.208883 55.728771 -5.018352
11.997765 12.801464 -6.462492
21.809595 13.593025 -10.887272
-19.253481 54.698284 -5.2159634
4.8331475 16.576019 -7.7966504
8.5069456 48.139557 -2.208729
-18.22508 29.665213 14.878777
-16.74596 74.455009 -5.3702254
-4.4153218 81.506271 2.6107762
18.746597 2.6858668 -22.668598
-6.7188249 39.005318 -9.361455
4.9253216 -13.67825 5.7501974
-21.666912 20.141125 -14.839032
2.460011 -7.6182666 -10.032651
-16.347218 82.857742 -7.6059046
-10.085499 81.346184 2.0329337
13.726862 -2.048121 -12.945992
-9.4909983 23.686697 -0.15860128
0.44115761 48.313267 -9.4165401
21.112782 1.3605956 -8.2811794
-1.3044676 4.4713883 -6.8680272
25.521282 70.085266 -21.584404
19.250252 -8.3651199 -1.3832473
15.062203 2.8403525 -19.868927
22.570471 8.3569469 -4.7079077
22.216022 36.252369 -9.6657076
-17.698963 43.252617 -3.2013705
-19.527649 8.2779884 10.282187
-21.011736 15.081002 -12.876623
18.468321 28.220985 -15.020882
22.248411 27.725655 1.8956852
0.89642197 -8.1972933 -1.5074238
-2.0696094 -4.4003921 -12.9795
-11.073647 -3.1426108 -14.440771
-18.365507 85.011017 -9.6537247
18.195574 1.3349344 -21.097921
5.1203113 4.4648452 -6.843997
20.765598 57.639351 -14.860703
-19.697151 -6.78722 3.8854456
-15.508627 30.140778 -15.04191
14.936651 6.638092 20.589115
-16.453783 77.761826 -3.2941766
2.7471931 -7.628315 -6.4050064
22.154823 -3.7130802 5.583334
-12.413663 83.196808 -11.13619
21.62995 4.97508 12.675166
16.983852 26.373127 -9.433898
16.387636 27.504883 -7.8753242
14.706288 14.822589 -11.712618
-1.2680619 31.177147 -9.4638424
-11.46101 42.056049 20.237915
-19.944483 56.955978 -10.548033
1.9516869 -8.4718571 3.3450353
16.362749 25.437738 20.490299
10.500417 48.928947 -11.48152
23.289972 4.8735943 -10.284081
-18.2085 35.085709 -8.0554628
-15.802244 19.193298 -16.153095
11.60767 12.538334 -14.17915
22.147041 49.435585 -9.1078882
12.874789 -11.506692 -7.1776457
-11.936861 29.467972 18.724911
-19.832928 10.585308 5.1300788
-17.615234 0.50821984 -9.5568676
-18.905003 61.666256 -3.1017199
19.713484 74.220985 -15.429878
18.824627 73.278076 -17.573492
0.91069746 84.636383 -0.23649055
-15.736266 81.195229 -5.8490191
13.497101 74.070175 -10.308278
24.30422 18.523043 -8.4869099
6.5912499 29.061291 -15.028592
10.857819 86.198334 -7.9634075
14.71213 13.546366 -9.907402
7.4436703 44.325424 16.963154
16.206156 47.789139 -1.4309075
20.4091 34.081318 1.6944618
0.47467184 10.752072 -11.589248
-14.843855 1.9058385 -6.9733124
18.499989 38.996933 -5.4896455
-17.863129 86.25145 -16.085169
16.625273 15.025679 -7.2818346
22.06909 49.974602 -1.2621559
2.873064 50.315144 -2.031301
-19.807024 52.348183 -5.5582671
22.058094 47.796947 1.4355114
-22.824963 69.053574 -20.536175
-16.122276 86.794434 -16.203131
-1.9686401 52.429176 -15.260414
8.1095428 48.430737 -12.903406
8.5778522 20.449432 10.695539
-0.080201209 53.749565 -15.266166
-21.822773 77.108681 -6.9206452
-4.2052455 27.113562 -9.30369
16.619446 33.463356 -12.710938
22.297421 15.0357 -0.43103367
10.860816 57.421535 3.7329264
4.1922545 16.898199 20.888657
-1.8386841 54.096508 -11.201427
-2.2984931 21.142262 21.070889
21.693645 7.1743283 11.667117
2.5974941 9.742485 -22.858324
20.4091 30.165855 -2.3604214
-9.3736467 76.885185 -1.6625633
22.111546 2.7066047 -7.4951468
-22.260639 62.657944 -14.602933
-15.431007 8.0295601 17.122679
-10.806996 38.244888 -12.398903
-19.509418 12.832517 10.106936
4.7893829 44.413483 16.738659
3.3869188 89.922508 -11.462635
10.770839 35.970028 -17.657595
21.507938 90.491653 -9.7412796
16.257 49.9338 1.3501788
-18.938583 27.999889 -11.914682
22.223888 21.446777 -5.7477584
-2.4023719 -17.18676 -6.8018827
19.230106 92.647072 -11.995354
-12.968784 8.6498213 -12.63195
-12.593275 22.738102 4.0158315
14.244651 88.366394 -7.5596004
-2.5674062 -10.569576 -2.9916143
10.437054 66.393341 3.367619
-6.887115 -6.7664218 6.9448447
-5.0003338 38.040329 -9.6217003
7.9130964 42.345737 -18.932644
17.540836 12.871847 -5.1829305
-17.098896 39.037472 -12.782416
7.336525 -14.831047 -6.127058
22.148077 47.180546 -10.045023
-2.6576622 22.055349 4.9021215
-12.631105 3.1173875 -10.660095
-12.393432 9.0149307 -16.049755
16.671099 49.1511 -1.5769253
-18.063595 36.425537 16.433022
-19.951836 27.790611 -6.4643712
-1.7720666 56.143696 3.8153322
20.361361 24.96092 -10.173205
15.204438 22.919825 18.7523
-18.200071 17.99629 -2.8627775
4.8318152 3.8284101 -10.891579
-6.3763266 35.594921 -9.4833241
-9.0556297 48.721722 -11.641743
18.825413 73.372726 -22.877995
-17.376448 26.693241 -2.3502469
-17.3283 30.232849 -0.68205082
-17.3283 36.685158 -8.5169773
-3.0387146 41.086578 -10.747034
20.041864 37.570541 -4.3848243
-14.841802 77.534752 -23.201563
14.40556 85.614395 -3.078496
20.235752 77.596085 -6.2100573
2.4087446 49.097927 6.0389066
18.592064 38.402008 -12.616705
-5.5996418 48.816845 1.6302979
-16.420767 49.754383 1.6083324
-12.082704 48.51899 -1.4760661
-19.941492 30.382071 -13.386326
-19.864775 35.603889 -3.0639434
-1.8898227 -12.358775 -13.504612
4.7069721 -16.123981 -14.006482
-10.421747 18.853291 20.691055
-11.510768 22.283585 -14.956967
-14.829502 49.658875 0.64172816
14.06276 75.094048 -19.840265
12.293517 44.599342 -12.29038
15.416312 24.314873 -17.809498
-9.230072 25.090788 -9.2493687
-12.936481 9.1346922 -17.22747
-3.1576529 49.462646 -4.3338304
-20.038494 18.419619 -3.5681567
19.778643 32.152309 17.412174
-19.835289 1.5228531 -21.013287
9.4887533 -8.3569756 -0.047373414
13.738539 73.94577 -19.456264
-0.5662567 54.6698 -5.4688473
2.4826472 -6.8842049 -12.9795
-19.955872 44.901726 -13.058182
13.144753 57.621128 -13.938055
-18.384062 28.928642 -9.1571741
13.202379 75.718849 2.4731987
-18.916279 43.76532 5.5940418
-9.8066158 84.052399 -2.8844814
22.01502 49.66695 1.2854944
12.645952 72.594551 -12.502532
-22.278427 84.439438 -20.848843
-19.053122 86.975708 -16.199926
14.052634 79.109657 2.1025579
-16.798002 67.17421 -8.5208836
-18.232616 17.654961 -6.1570139
-20.051373 1.8128015 -0.85266918
1.6027263 25.080475 -9.4368401
-23.147367 75.745758 -24.38806
8.0461016 57.593071 -12.643347
-13.952578 74.317368 -15.531052
16.651442 2.7799113 20.669178
18.908644 0.11120434 -18.237791
18.219105 67.670135 -5.9556684
13.18955 -16.746477 -3.4748905
-19.559578 77.348511 -25.128632
-19.672333 70.011971 -7.3175135
7.9315805 55.81369 3.6073189
-15.59112 -0.51019901 15.804251
-13.489571 41.049454 -15.160975
-22.643932 84.313324 -16.196062
-18.531727 9.6832619 17.792271
22.272839 11.134495 -25.297867
-17.043793 5.1660776 -5.572494
-20.055172 -2.9251821 -0.15717237
-21.91116 82.741364 -6.2164078
-15.830614 84.219643 -8.080657
-0.54751372 62.579865 -8.4287672
18.464573 49.028816 6.2078252
21.935823 1.9554645 -8.213192
-16.704811 -9.03337 -4.2148361
13.02556 53.344093 -8.5601273
-12.822415 -1.2842996 -15.320852
-4.8740487 93.79023 -9.6297998
-13.62417 57.127533 -6.7517166
-15.053299 49.93504 -11.48439
17.642006 83.239029 -3.0353281
5.9490633 11.220784 -14.04217
-17.188505 75.444389 -2.1603718
-15.228718 45.819824 -15.213258
16.215843 10.497142 20.52211
18.562078 32.097801 -13.08245
-4.1823707 -8.047184 -5.6825199
-18.149179 4.4170432 -5.5906243
12.887336 2.0319645 -13.268162
13.893099 87.590576 -18.200441
6.4394693 42.320755 -11.544678
4.5854216 -18.596733 -12.938898
-9.8536949 38.54789 -12.350548
-19.91717 18.22287 2.1242096
6.3374152 47.360229 -15.228437
-1.5590401 68.806664 -6.387887
12.106428 -7.8222761 -5.6207952
0.8457942 8.5863705 -19.119259
21.734661 8.2732153 2.4129331
-10.071662 21.916115 20.690292
4.752923 -15.989786 -3.2505593
4.187149 64.483459 -10.420748
-0.24796867 21.656311 17.200951
-3.9485447 25.031708 -9.4369745
22.056633 45.520905 -2.4357595
6.1643753 33.602356 -19.611637
15.04194 36.029686 18.181135
-18.541065 27.028339 17.510321
-8.3651495 57.578007 -2.3662131
-17.635284 66.788185 1.0936736
-3.3441422 53.117813 -7.199007
21.647224 52.968849 -4.6623297
-18.2085 46.625793 -2.1094227
4.803782 27.442337 18.4575
-7.8408785 47.218315 -0.43160102
-16.723303 70.021294 -22.930302
16.025534 -5.1074052 13.763794
-16.0072 47.82967 4.2960744
-17.75951 38.191597 18.756693
-22.396532 17.823349 -9.2464399
21.427029 9.9479074 14.196714
-17.824356 32.463326 -1.1174343
10.254107 45.623497 14.029318
-20.075027 79.134369 -17.21002
15.310162 6.0550609 -20.055799
14.707556 86.961868 -4.2541795
1.3940377 85.217903 -1.6000075
-15.076408 22.5308 8.4760456
-17.674536 52.679031 -9.4858322
-4.1981568 93.297508 -1.7789942
-10.712336 49.540504 -11.16449
-6.0542574 89.391907 -15.408541
12.732456 26.492046 -7.2802601
14.611036 68.495262 -15.753151
-12.911905 7.9586468 -13.757875
15.212319 8.6238766 -21.227629
-16.624104 20.766001 20.272306
-4.8659611 30.421391 18.244669
-18.856651 5.6054988 -4.9351168
-10.629359 5.3767834 20.671556
-15.142634 -3.9619656 16.775017
21.650539 66.303276 -18.627649
-7.2148881 -11.691944 -3.168766
-19.730202 49.943932 4.4654965
-12.691159 79.923882 1.918136
15.904646 86.226425 -0.044582762
22.288649 25.660192 -8.0567503
-16.052847 74.501961 -3.7566042
19.881554 49.741905 1.246514
-17.133972 67.069778 -18.285305
-19.752996 17.822266 5.1126871
-0.32471451 48.918022 1.0199392
-12.907237 49.085716 6.0489516
13.074252 -9.7950554 -4.4842839
6.3376784 89.246948 -8.6454506
-4.9264455 66.961624 -0.21867768
-18.757038 73.216286 -24.518312
-19.80748 80.137711 -16.368462
-17.3283 41.188622 -0.17651737
20.478655 19.706192 -16.697256
13.454432 38.69648 -15.134976
-13.567822 22.493515 20.533833
-19.085209 55.867149 -10.605016
-2.7037268 58.880619 -11.352079
-11.882918 41.868675 -12.251793
16.60113 57.468468 2.9328859
13.582 19.119774 -15.175479
-19.664661 40.116947 4.3951082
11.732115 42.133461 -12.012799
-18.902348 17.654594 15.908705
-0.27021295 24.135246 -9.4330559
-17.883423 -0.16153935 -19.144754
3.6462889 43.145477 16.048977
-12.057446 50.314968 -12.466957
13.964467 75.293137 -20.362957
-6.2637606 12.870215 -11.802831
14.02441 65.357086 -9.5054255
-17.832346 10.09632 19.173977
-18.842052 35.744659 6.9707618
-0.16740303 65.309357 -2.8606486
-5.9245844 42.459595 -15.175162
-13.43379 25.363329 -7.0474987
19.744053 51.895874 -15.259929
-6.6554127 93.255592 -14.450504
-21.006231 5.5128822 -11.092981
5.9057822 28.496197 18.535122
-19.846626 43.087551 -6.4404049
13.531477 53.997936 -12.371607
18.547663 52.508858 -11.73355
21.597633 60.177921 -2.7445257
22.327677 -2.6266861 -1.5284896
-12.693008 75.757629 -14.725083
-17.897516 49.110214 5.8455787
5.9002566 31.062315 -17.191402
-20.017195 20.396856 -1.8005285
-15.061353 63.110615 -14.744646
-18.35437 28.17602 -10.379396
-1.8444178 46.860832 -1.1218536
-17.089516 92.719887 -8.0476103
22.198763 41.632999 -10.108992
-15.960899 23.391602 -14.968081
3.8420935 57.593658 -12.671698
8.2566929 83.127098 -5.7735386
-13.009163 29.315271 18.7458
7.9827223 34.785049 18.247293
22.139128 37.287239 -4.0744982
-18.063057 28.312445 -7.8230243
-14.965245 14.60496 -13.638668
-18.313219 75.430351 -6.2073798
-12.42507 30.900934 18.672533
-18.296974 66.519279 -14.07945
20.607811 4.082119 18.125546
-21.636812 73.79998 -16.081619
-17.225573 68.279602 -3.2384696
-18.650856 91.081558 -12.890222
14.053156 45.218929 15.000062
-6.646419 -15.21007 -0.94940251
-15.005233 4.0568461 -5.6972809
-16.791672 -10.554238 -13.882943
-11.6455 0.0043795705 -14.061572
21.372902 89.650482 -7.6197629
-17.934996 49.723557 1.1159844
21.273846 78.502686 -9.2229185
5.1166415 88.483932 -6.3204474
22.356724 10.234366 -4.6447186
-4.4528728 9.1494598 -19.155561
-18.512289 54.377808 -11.10427
12.79538 3.3963928 -2.9637365
11.275814 41.321899 -15.163324
-12.969488 -6.3852377 -1.6138046
22.206554 34.880756 -8.5123196
13.266745 66.204269 3.0457911
19.360596 61.52887 -6.3245401
9.0767345 -7.7902737 0.97566533
11.980701 -13.254411 -10.185374
-22.05872 13.739565 -19.626884
-0.45591402 31.810787 -15.057798
-12.928748 25.376936 -7.0990195
-6.5841537 -11.234625 -4.1440682
-18.011248 25.004963 -9.9767847
4.6617165 19.790167 -14.74555
-12.005836 8.1234684 -13.869398
-15.262824 8.2603168 -4.3857031
15.050894 7.532392 -9.0741768
-11.597032 11.069112 -14.078123
-14.95278 34.657181 20.299484
8.7766285 31.975744 -9.4625816
-0.15604639 74.088791 -10.9088
9.7568827 33.824814 18.486313
-8.1116085 15.216769 21.022884
-18.536163 33.75563 17.704792
-14.110224 6.2564635 20.473337
2.9325237 66.264328 -7.1368265
-1.8069651 72.510239 3.2906342
-3.6307898 37.896534 -5.5713644
-21.223982 12.167635 -23.365278
-10.464623 59.070492 2.7481573
-18.412371 28.800589 12.718614
17.873461 3.762661 -17.63508
-19.973482 27.046843 -7.4799738
-14.962873 74.919327 -12.807192
22.129553 36.675194 -3.184849
22.177364 -7.8336387 -6.9481139
-8.9496651 44.277519 -12.849999
-19.400841 81.766655 -6.4928265
-19.64377 16.43362 7.756166
-19.100899 22.906403 -4.5846987
-17.880817 66.939682 -19.264221
17.408569 9.7972775 -5.1790457
21.990555 38.586346 3.0119381
-17.907549 34.832256 -4.182333
-4.3126836 75.952499 -11.116144
-14.464945 65.143005 -13.176105
-19.967299 31.656013 -10.457138
-21.491869 -1.5470139 -10.069696
-15.135928 72.772018 -7.7888227
-2.5435047 85.217903 -9.3699265
20.086569 -5.3877149 -15.255758
-4.5608211 43.672714 19.164511
-12.642394 49.285984 5.0729656
-10.14572 10.403599 20.958324
-19.556721 9.3273916 0.39101422
6.9667573 -10.001642 -13.2888
21.479023 24.975006 5.2116876
-19.858465 38.077728 -5.1025982
-15.407147 18.346523 -12.589455
-19.773769 42.86795 3.6717381
-2.9238527 -17.584526 -12.00159
17.19692 -5.0470057 -16.868557
-12.544577 76.454468 -16.167629
-9.8694792 50.449169 -10.700695
23.552423 10.805816 -12.9203
-5.6117849 -15.658721 -8.7317667
22.142696 53.872581 -7.5882034
-3.8973947 84.021278 -1.4545
-17.721592 48.408054 -12.61691
-18.033747 70.602547 -6.5373206
19.421753 22.661709 -9.3847342
-11.586775 -1.3314071 -12.924381
20.371487 83.964233 -3.168541
19.351709 -0.63783443 17.434418
21.180916 40.695091 4.7279487
4.2386327 -4.9924507 -10.514339
-6.428503 47.910519 -11.666408
-8.8392963 23.946121 -12.588119
-19.923861 29.765419 -4.2716241
-21.175512 73.736977 -4.2870474
14.534618 26.090176 18.76499
6.9058924 55.32729 -19.00638
-14.697096 16.379896 -6.5323143
12.560997 31.756203 17.8557
10.43366 -11.378268 1.6415497
-15.075894 37.215527 -10.86323
17.597347 48.86824 6.662077
1.4170723 50.265785 -3.0999093
14.766718 59.091236 -13.835568
16.645538 11.644106 -5.6793795
-21.053101 67.040207 -11.078948
-5.7663326 42.420792 18.641375
-18.847748 65.290085 -2.7129607
-20.450445 62.983467 -16.569994
-2.7694402 3.0773876 -1.6125778
-1.2824163 23.700132 21.056974
-19.078341 67.046349 -18.127937
13.5821 -7.0447369 -14.800373
-16.791285 82.043671 -6.8931918
18.456337 38.138958 -11.420771
7.0672698 4.1728244 20.878895
17.477491 37.358047 20.222885
-18.452932 29.032997 17.982828
11.47335 44.177193 -12.243069
-21.913742 16.141779 -20.745205
13.803595 32.446503 -9.4621258
5.9159069 30.383877 -15.042922
22.25391 42.140415 -15.144712
21.817989 17.116564 9.1162519
17.579004 26.825714 -9.2932281
-19.837791 44.104408 0.40871334
-17.124748 -1.2876158 -14.834002
20.465691 78.469894 -3.1426153
-17.942623 70.504425 -7.3002443
-14.015818 52.027065 -15.259659
1.5131817 -10.379184 5.4815454
-8.5382748 22.122761 -12.564631
-18.2085 37.551662 -1.6168091
-18.787451 45.586559 8.7870464
8.488472 80.605728 2.6077914
5.1462789 57.708832 3.6249435
-18.487602 86.849854 -14.528241
-1.9317015 41.601341 -10.114532
3.7643037 49.242691 3.2942281
-1.2816099 47.27916 -9.8491688
19.147087 57.597984 2.2912221
-12.0802 6.5644383 -5.6639628
-14.010571 60.909668 -1.60978
-16.630829 0.22562055 -10.027443
-2.0209703 73.072067 -10.224026
18.376543 48.297466 -1.6426344
19.387352 9.9349051 -25.673182
19.92494 45.660027 -15.211784
10.988328 52.228012 -9.2471714
-3.0472059 57.577423 -9.7422829
18.151701 34.711212 18.546146
-15.552865 82.41806 -15.149858
22.088146 42.319817 -4.1849122
-8.8792686 44.377209 -12.851282
22.365429 78.711288 -9.2837343
-13.203801 59.595367 -15.293167
20.506491 -3.0256419 -6.2302184
24.008615 7.8071551 -17.674185
18.63555 85.663971 -21.899147
19.528799 33.548714 -6.8756018
18.433931 12.368992 16.720459
18.871489 66.264679 -9.9059868
21.426182 10.020791 -5.2810068
-14.487827 19.106997 -13.908111
3.8806918 80.24015 -10.773023
-19.465401 83.918571 -21.977596
19.285316 57.572319 -7.3334641
-12.522429 8.7498493 -7.9021854
-19.001926 78.063385 -4.6906128
14.659692 3.491327 -9.0994234
10.366653 -13.74718 2.2647431
15.315606 77.997498 -11.445868
13.99432 18.130831 -9.2991371
-21.576916 81.869537 -6.474463
11.216392 42.378044 -12.825575
13.26073 -13.567338 -14.66211
-15.93536 85.18676 -9.1123075
9.6016493 -14.544115 3.7179654
-20.292179 51.109352 0.36979771
12.697092 -14.764208 -1.4605945
21.669102 39.660992 -15.146284
-16.130108 74.221893 -6.2058907
17.123453 8.3491306 -5.2141924
-18.202776 19.869417 -8.1691771
-13.650539 47.038326 -15.226393
-15.717634 45.417023 -12.547794
-5.8431568 35.080513 -6.9316463
-5.155345 41.898296 -11.95267
21.975945 30.215719 -15.042842
21.567123 86.30661 -6.8821306
7.1813517 -11.908829 4.1052985
-17.743488 47.078163 -0.2121973
12.136927 64.383621 2.130733
7.7466908 -11.073523 -8.6382236
21.61916 8.9861202 -5.2311978
3.4906607 41.523182 -15.164186
2.6366701 -15.471131 -10.24933
21.69128 50.712769 0.37654978
18.748531 37.043518 -10.3356
-19.594284 81.985939 -6.4751759
13.621344 47.902046 8.8025656
2.470706 58.2248 -13.593756
10.768423 50.625126 -10.328017
20.695637 40.180668 -15.151856
-7.2595024 92.478729 -14.542113
9.7979889 15.086991 -14.38471
11.60784 -13.496923 -9.8765011
-19.759945 46.840492 3.0015025
23.829508 8.3625908 -5.6438446
-19.898857 34.908218 -6.0829639
-19.443634 41.566132 -15.167197
0.52557045 -10.218578 -0.15510622
-17.73324 31.564749 -12.686121
-14.465235 43.507378 -12.412663
4.4780927 92.514923 -14.449202
2.3736339 -11.125383 -10.233064
16.8284 50.17662 1.6473867
-2.3962545 46.859806 -1.3052546
-18.746624 86.174141 -16.595949
-18.875744 25.310501 -5.378902
-19.525833 10.383035 -12.218502
22.365547 8.0619221 -25.351257
17.028858 1.732044 -8.4496851
8.125329 44.648781 -17.982676
-21.510319 72.196426 -8.8439798
-0.15274417 29.858795 20.98587
6.1127949 22.700239 7.7262769
-2.1517701 19.25901 -9.4117365
24.709011 12.659166 -24.326124
-11.6455 70.49913 -12.777564
21.43012 2.8709259 -7.3502712
23.924482 72.72364 -15.7373
-15.90366 48.948376 -12.923802
4.7776685 50.250793 -15.250342
22.234676 38.399731 -13.256669
22.285265 16.409344 -0.051593877
16.830463 34.117615 -9.3252745
14.760991 59.488472 -7.9765625
-14.972914 14.167732 -22.707985
20.670021 22.164301 8.8616543
-5.2915449 88.143555 -17.433552
2.4416995 87.58667 -11.273872
24.599281 4.6782436 -4.8217025
-10.069554 -8.425313 -13.186761
-12.914946 65.791267 -20.058945
-3.4583874 94.521004 -10.053979
16.656898 0.43096036 -18.813663
20.912739 21.354366 14.082795
22.147453 7.4942942 5.1404991
22.11606 40.810204 -1.969751
5.6147351 53.295067 -11.470723
-19.848703 85.049561 -4.4763932
-1.8616347 92.18615 -10.828501
2.6667876 85.217903 -6.2133226
-7.1641545 -6.586957 -13.042652
9.224535 28.973141 20.721615
11.937098 45.621769 14.049846
-15.64659 66.113686 -10.134304
10.587733 86.042252 -6.9950156
-13.599149 70.832954 -9.7412329
-11.538904 15.068971 -20.504612
15.944433 7.1172333 -15.12709
-17.897976 36.457298 19.402094
7.5751057 42.743797 -18.770088
-11.455753 23.719433 18.547911
14.567163 41.821812 19.88203
18.649586 -5.4971876 -17.369753
-0.2868132 -16.565033 -1.1038492
20.042637 37.350273 -2.8715496
5.2084045 59.080101 3.6131711
-17.717619 9.1421404 -24.331806
-13.34076 76.860443 -10.619377
22.247841 23.110378 -5.1898375
18.09359 70.713608 -16.225248
-14.71253 18.406288 -18.20842
21.448853 56.911324 0.47440636
13.438818 84.480888 -1.7226868
21.555103 15.323559 -23.15362
-10.727887 86.356728 -7.7006865
7.3650498 11.396622 -14.035639
8.6024284 -8.0115404 1.9325705
-19.891588 59.921356 -11.607615
-9.6211329 72.311821 2.8170762
-1.3634949 18.925774 18.332399
1.8053228 50.099525 -8.5312881
12.176113 29.004688 -9.4478912
20.668465 25.141333 -10.757773
21.169315 17.154722 0.00084819819
21.654291 14.250587 11.577746
-18.144821 70.587341 -22.569803
-18.460697 84.723969 -9.513093
-18.13838 17.940874 -11.09692
-8.9482307 -6.2586231 9.0328407
-21.124939 84.53775 -20.341673
-17.737772 74.703262 -5.1641111
11.833638 54.551701 -15.270598
-15.447958 -9.7407703 -2.7690544
-1.6701641 60.862938 -15.298764
-19.236374 55.105537 -5.0818396
-12.196162 24.380903 -9.4352093
-20.153168 38.82864 4.0750923
-14.382104 42.185394 20.12332
-15.939369 82.679222 -23.329453
-10.694838 82.490959 1.8732269
-3.3730886 -6.3919449 8.4627666
19.005026 1.7542758 -7.1266212
-11.802109 8.276166 -13.878852
18.755421 26.775318 -12.150213
-17.948162 92.613976 -13.465822
8.1236448 12.12007 -11.727045
-18.41346 -6.7292728 -4.859684
-18.2085 43.135918 -1.5408419
-6.1460214 -7.4615345 -2.8573213
-21.297167 0.48886707 -19.907112
-6.3739753 -15.060299 -1.2793164
8.5924463 12.841336 -14.174771
-15.016991 17.930237 -19.201998
-12.509179 22.709143 4.1561017
22.280903 20.974951 -1.4293641
6.7116208 16.30254 -8.9929056
-15.941177 49.66124 -15.249662
-17.770399 58.057442 -5.5142837
-0.56237245 -10.726379 -14.299027
-13.567421 68.837402 -10.621056
6.101253 21.656805 9.7183599
-19.116383 71.775536 -5.9247308
-16.358932 75.891747 -4.1082287
21.843002 -3.2768564 1.3405647
-6.0352678 86.948639 -5.7374563
12.802879 82.74398 -8.9040394
-12.895309 39.723457 -5.6892514
-4.9535351 40.976929 -11.771242
12.75131 -13.531551 -1.2464381
-1.8372048 37.254642 -15.117626
-16.152819 -8.871583 -13.449965
-19.962156 75.532822 -4.4401698
-10.342096 83.515839 -7.8117733
-4.6199846 20.128086 20.840143
16.006237 0.76963365 -9.9873161
-12.295556 25.683512 18.732094
-17.460775 59.504822 -6.2028522
-2.8446307 90.985939 -8.6525412
3.3905628 66.760483 -8.6524858
15.692127 6.1412129 -6.6655617
10.998575 22.181273 -9.4185715
-17.8922 73.459457 -24.218195
-8.4063158 39.644287 -12.210394
-0.87728024 48.150696 5.2197905
9.0860977 -10.205027 2.9264231
6.6019921 18.457943 -9.4046297
10.777556 45.853615 13.502888
3.9746242 49.721767 2.4494455
22.31531 -3.4864712 -3.2126262
-17.547016 80.675232 -5.7051139
-3.803021 -6.0085835 10.03433
19.94112 0.13781559 -11.059655
20.786999 41.829819 10.809114
-19.71582 49.869278 2.4931321
-13.105665 67.0317 -2.8495259
0.40272236 22.522556 -12.569942
-17.51738 4.4924569 -5.5694332
-18.285849 22.174698 -10.109527
-19.854729 41.94825 -6.4995127
20.951694 84.690765 -3.1947179
-15.347521 85.602791 -11.215948
25.048784 16.764677 -17.99794
-4.6117873 22.588882 6.7175388
13.287815 82.408493 -9.062151
-5.435895 45.123531 -15.668088
21.50909 6.0549126 -5.6923609
4.0567646 17.612436 21.109909
2.4507389 48.245464 -5.0581198
2.1365428 18.543522 -12.374414
-2.3095028 21.169455 -14.877883
3.0714784 70.725647 -11.555986
5.0412126 19.994328 20.858156
12.162883 36.059711 -15.106065
2.8736408 -10.989482 -8.3133354
-18.581964 29.728548 -10.739531
-15.578915 72.804611 -14.347056
-8.9078169 -7.4137588 0.43739343
-10.467621 45.253822 14.893476
20.282408 61.595062 -4.4350376
13.924851 51.455914 -0.60844874
17.139626 80.773621 -6.2139668
-20.866299 74.909935 -5.1197176
8.9158478 -17.630596 -8.8012371
-18.204403 23.68708 -4.0251341
25.566885 70.837692 -24.319386
-18.990025 12.471127 -4.7307854
-20.512327 18.136288 -17.920559
-20.82773 5.1882892 -10.882494
11.357401 40.942741 -12.807117
-14.446285 8.8742638 -24.219511
-3.0095503 -17.593687 -7.9100614
22.270149 1.0674634 1.3559191
0.96944964 -8.6140776 -14.716339
10.128288 28.708054 -9.4476166
-4.5550656 2.8593364 -10.794218
-13.321754 39.156494 -12.439451
-17.491304 49.444859 4.9404845
23.716385 3.8361106 -23.06501
7.8679757 40.205784 20.430958
18.274298 31.329214 -9.6650715
0.25222117 -7.3544645 2.8510284
17.510569 3.3795273 -13.751159
4.9290085 37.771252 -12.766335
-17.540388 34.708405 -9.5246887
20.4091 33.299706 -1.7484865
24.342815 7.1375761 -19.865013
-19.627151 20.155548 6.2124743
13.02636 29.821638 20.847736
10.212547 30.852139 -9.3143997
4.4239392 35.604424 -12.02648
-3.2838466 28.916 -16.189051
-14.494435 9.3706875 -9.4597254
-10.500185 47.44899 -12.890781
10.311372 60.933296 3.4717722
-19.943298 27.887093 -3.0453875
-10.05763 49.93782 -10.796168
-14.161969 85.135788 -16.733292
4.0129204 8.3352098 -11.627044
15.908181 13.230343 -6.4565372
17.859148 5.6912422 -24.770771
14.688606 40.121101 -7.3594947
19.858772 11.775599 19.471779
5.1466675 49.333416 0.74131346
-15.658966 61.435387 -2.9206691
-1.0275605 64.670433 3.5995047
-6.5472674 19.615889 -14.796543
-19.020124 39.504192 -12.595088
-19.822958 45.310875 2.6846848
23.804619 3.6326222 -12.033818
-12.836592 11.808536 -14.117907
-21.053751 84.310059 -9.3241425
4.2236385 82.738342 2.5462768
-8.930151 17.718019 -14.674508
0.6738587 90.620552 -6.0058141
-13.387406 75.259209 -10.847452
-2.3480973 5.6952853 -11.079866
13.031129 18.392183 20.697897
20.028923 1.9055102 -8.280467
13.654272 7.0482349 -13.81568
12.833023 48.436554 -11.881771
4.7987723 57.568417 -5.8412976
19.092546 -10.764581 -14.184228
13.523315 73.562584 2.5928102
9.2942581 -8.7313862 -13.303732
-4.0624523 -6.8660059 6.5246925
-21.272257 76.365463 -11.335679
-12.769174 81.913727 -8.1424751
23.593616 85.486427 -15.07329
-13.367859 72.766434 -6.6200294
17.041485 38.872581 -5.8172235
-8.9322176 41.833809 4.2029772
-8.0004807 90.256332 -13.667287
14.679555 8.5491762 -10.393431
14.862173 0.67388451 20.548742
1.7231472 33.417839 18.334267
-15.418098 82.556534 -22.834572
-16.381426 92.417358 -13.953356
4.5753627 30.400398 -9.4581652
-11.004513 42.838615 19.904276
14.669924 27.291058 -15.010573
-17.023136 68.176971 -20.782892
20.974771 0.25353855 -19.377756
-4.9615574 -9.1035442 -3.7329042
-17.679634 44.430553 -6.3079481
7.5514407 -0.074534923 21.071043
19.098131 16.861008 -8.9860611
-6.1118793 -14.10004 -0.57950675
-18.984438 5.8599157 15.646149
-11.469231 85.673935 -3.0055151
14.513785 22.305309 6.055778
-1.9741706 66.261314 -1.66954
2.5724387 -7.6488562 -0.33555889
15.827661 23.921532 -9.4238462
12.948488 25.436735 -12.746769
-0.0092295948 50.004364 1.5054069
14.109077 37.847698 -6.0747471
-5.0813985 28.182501 18.097626
6.8092775 15.60625 -14.399628
14.631899 38.237259 -15.130065
-19.734261 10.486901 6.7249575
19.324804 22.207954 5.5861344
-14.409503 70.221947 -8.0145664
-7.6651535 59.089897 -3.2551048
7.093441 -7.7114906 -7.0127625
17.871464 64.091309 -11.267441
-3.4478576 86.922195 -6.1208978
13.582 53.022263 -16.965424
11.77816 -13.179608 -0.15120947
-4.1695051 25.83308 -2.943265
-16.298763 19.133909 -12.769827
22.03339 45.857452 4.7530923
2.8722801 58.145115 -2.6597207
-14.151875 38.086735 -15.128629
4.9395113 73.806015 -9.2154446
-5.7324705 62.480995 -2.2460072
14.827021 48.428631 -1.0861001
-15.727346 -0.98883373 -16.876484
16.552624 22.229752 8.7833061
24.33699 39.916927 7.4941549
14.005201 85.062645 -14.232496
-17.466442 58.025593 -15.286219
-17.211027 49.596184 4.0473003
-7.6213779 49.861382 3.1704137
-17.670727 44.54007 -4.2548504
21.153563 88.563904 -5.0625658
-15.331702 75.650948 -4.9436102
18.333046 -5.4524164 -16.87278
12.185398 11.778154 -14.118229
-14.925914 70.948402 -19.489771
18.825186 80.57251 -16.800421
-13.522392 50.401875 -15.252527
-19.891436 33.176689 -2.9658661
-16.622696 34.842201 19.899832
24.99748 79.206612 -24.017159
-16.51918 17.409073 16.674665
-2.4596577 -7.5302496 -4.6630635
-13.982248 79.746201 1.5867684
-13.080928 85.346725 -14.124219
-20.285267 10.576694 -16.034834
12.37457 64.337151 2.2531374
5.8981791 59.998619 -15.294628
20.609402 20.192335 -3.6668162
-4.8571839 8.5863705 -18.699905
18.454147 53.893963 -8.3755674
-17.438446 -5.4311643 2.472219
-18.37328 46.243492 12.884291
-11.893185 30.606308 18.69487
-0.82835549 47.944702 -17.474146
15.08481 59.110985 -10.674127
15.246173 61.278168 -15.081026
6.9851861 -16.332605 -13.544437
19.083656 34.655361 -8.0978394
20.77446 44.425011 10.935473
-10.386035 70.046257 -8.0768642
-13.820564 25.25835 -14.98845
-20.533186 86.452423 -13.063848
15.871836 20.002855 -14.802258
-18.653271 73.365417 -5.8969116
-13.41223 74.442886 -9.9442043
2.8743372 27.66095 -12.636194
-16.59622 66.708176 -17.535223
9.387578 52.234886 3.6618803
-18.994778 24.23003 -12.13652
22.165493 8.9875736 4.2352891
-13.2558 43.643906 -17.678871
-8.6032429 45.269108 14.840658
13.034744 1.2417294 -13.200637
-18.000145 59.887646 -3.512903
-3.2652235 24.574404 4.5635643
-19.911592 3.6102448 5.1394248
15.011765 15.087822 -21.220488
-1.013202 85.217903 -7.3318152
17.457092 48.744846 -2.0792339
-7.8745222 80.674469 -1.1824123
-1.4673294 -4.51898 16.123186
-0.14782286 85.217903 -1.4882243
-19.13703 76.792686 -10.720623
-14.317163 84.61953 -18.495831
11.068018 -10.349897 0.76427948
-5.1200681 -6.6590667 -10.518232
21.558002 53.225029 -11.019442
-17.206318 85.537613 -19.603849
9.4274416 3.5358691 -13.421525
22.276611 65.748566 -10.691246
-18.800999 24.196445 10.183709
-3.6951923 26.581558 -2.3997126
-5.0270305 26.919498 -7.6974506
18.197289 37.970116 -9.4676933
20.818693 85.28479 -23.464706
-15.50629 12.525755 18.086136
-14.689686 38.429626 18.174084
22.097605 40.588669 -2.6359444
-15.044172 25.444023 -5.0460405
-0.86516893 82.83786 -2.0335569
-18.718845 1.3103833 -7.7719178
20.612576 23.253794 -6.8565998
-13.364732 15.486895 -11.121129
-16.155685 -0.36238497 -9.8466492
8.6103745 -0.81597531 -13.108696
-21.244839 77.013428 -16.839769
14.385042 0.80250567 20.81834
0.15256882 49.523075 -0.357535
-20.299541 18.525061 -15.853704
-11.705197 44.555779 16.519272
-20.674341 72.038902 -6.448741
-12.640659 50.097641 -18.205799
16.663305 -1.8776493 -12.907658
22.139627 43.036255 0.21689451
-10.651703 82.514595 -6.2161298
-14.567141 80.646019 -6.0089989
25.515654 84.069145 -17.155954
15.163604 49.659393 -11.380752
12.637761 54.281738 -7.9099007
-13.889083 68.947601 -6.768939
-17.066383 80.208618 -5.8224297
-14.449862 9.9575243 -8.83249
-5.2543054 35.158741 18.774696
2.0377176 -3.6725006 -12.987033
-12.499451 78.811127 -13.659082
-13.577449 64.81913 -12.103746
-20.355377 73.233688 -5.3163714
12.153672 57.127674 -9.0036278
7.1650057 35.713791 20.860157
-20.593042 82.873543 -13.70565
-18.2085 29.796017 -8.4101648
12.58672 78.356674 -9.938941
-4.6595116 42.113289 18.680016
-17.024794 58.237381 -6.9401417
-13.434173 73.646301 -11.292767
16.351309 49.352879 -1.6051189
-21.120701 79.886513 -9.3835201
10.836532 25.589022 -9.4336252
-11.887458 47.468002 9.8045244
-3.2013669 15.622785 20.885048
9.8881578 37.834763 -6.1239028
13.896984 81.403 -19.594841
9.0829706 49.255447 -1.654353
23.786589 8.6483202 -24.970621
-14.277418 68.653175 -8.3569403
-5.8811722 -7.4661598 4.0757122
