# .PCD v0.7 - Point Cloud Data file format
VERSION 0.7
FIELDS x y z
SIZE 4 4 4
TYPE F F F
COUNT 1 1 1
WIDTH 1514
HEIGHT 1
VIEWPOINT 0 0 0 1 0 0 0
POINTS 1514
DATA ascii
-187.74673 104.22303 38.698853
-95.597198 312.625 -13.88166
-111.60845 129.64055 10.769169
-230.66269 290.936 8.4327717
-144.20601 -25.474785 -33.037201
-123.4498 -57.872005 42.455605
-84.140808 5.8492246 -36.945541
-112.35015 33.234371 -32.338272
-254.33794 -141.64055 -38.256165
-165.57593 89.253128 -32.544228
-161.22847 169.03406 48.55035
-250.9037 -28.772398 -3.5221834
-146.56747 -82.149612 25.036217
-111.92157 -155.59863 -36.643963
-241.4801 196.56967 24.93512
-169.2247 -211.50266 -37.319386
-234.90445 -163.78624 1.734987
-157.96951 104.26941 39.285973
-206.81685 67.925285 36.52702
-279.60361 192.16656 4.855958
-97.219292 316.40555 -16.802412
-146.99257 139.06415 -35.993164
-172.1138 -6.3723307 25.149734
-104.90468 62.825958 42.379417
-81.712692 122.69804 20.328993
-111.93518 -40.169308 -21.175959
-225.8309 80.432304 24.231348
-251.28963 222.65062 -2.6009314
-167.28406 -52.944054 53.100292
-275.45929 343.87634 60.545158
-177.49112 222.78014 7.6548138
-96.395454 253.59543 10.199509
-256.37018 -78.516205 38.287617
-53.08094 232.04532 2.4765615
-210.89114 -80.213074 -27.329378
-52.423199 232.62154 0.29074126
-246.47537 301.24011 22.508627
-192.61646 178.89545 17.873148
-257.15567 -172.90514 -39.598656
-136.24626 1.8060417 -36.956211
-223.95724 83.780563 -36.797806
-53.97604 -33.326561 -36.896473
-231.2233 185.54419 31.825268
-163.80086 -23.346159 66.436157
-145.47675 101.99908 42.712959
-205 186.26086 3.566452
-227.05832 -25.523296 -9.7526436
-268.58994 -30.980324 -37.06929
-118.85089 117.53397 -36.655453
-221.48793 224.27103 12.809719
-120.37979 -6.1233835 -30.284651
-94.291542 251.70436 19.500069
-71.035225 85.320145 -32.260319
-244.57076 140.11276 24.141054
-273.24225 105.61943 5.8215656
-238.60228 310.99442 12.389923
-72.836151 319.38348 -18.932438
-176.55627 203.48621 26.88282
-156.92479 19.615709 -36.871445
-216.8826 39.935135 -21.644947
-77.037941 95.447227 -34.611702
-234.12534 -121.81787 29.684484
-137.85683 -164.22272 -4.3498449
-146.08989 96.831985 -21.93824
-162.86253 246.81833 -29.687414
-186.40186 -135.53346 9.625823
-246.75818 269.35141 -11.411177
-93.873573 -11.050901 16.416496
-223.52698 216.96913 -24.961344
-116.82365 -186.55933 -37.894768
-52.423199 211.80287 -0.11075902
-133.04068 37.496967 -13.192554
-73.095139 329.4678 -3.0367727
-132.78217 67.625526 20.29661
-276.11801 -55.549297 28.048939
-69.195786 16.878387 23.200253
-149.54729 30.332022 76.234993
-99.243515 -4.155736 39.818218
-124.70894 86.513329 34.761971
-90.410416 172.58144 30.187426
-275.65247 -0.19410133 9.5280857
-100.58713 337.28983 -17.762951
-57.784279 -137.78407 -36.810867
-81.088318 313.2912 64.066528
-166.04651 202.37219 17.471161
-170.41061 57.632973 -36.453072
-276.41101 338.96924 -7.1641221
-76.947701 140.65056 15.372703
-144.77649 -19.698036 15.680449
-98.326096 192.96208 17.713337
-256.68103 184.8902 -30.378838
-177.59589 114.06297 21.716755
-166.4446 -65.792427 -7.2517262
-105.99518 -83.158951 -3.0123005
-98.049232 -151.94156 -32.941837
-68.997131 227.08696 -18.062908
-47.1502 328.72104 51.430637
-164.47116 -65.330826 -11.007164
-92.052345 95.473129 -36.029888
-193.3653 -120.15083 -4.3702621
-147.68866 323.76105 64.908211
-243.06912 286.20657 33.480244
-105.66153 -177.74776 -34.58857
-173.95155 196.23578 -35.618469
-251.73016 -64.807838 34.116272
-244.65067 -81.043625 12.319963
-211.7538 316.57471 61.003693
-162.69963 79.009308 85.816216
-201.51962 -120.36498 -28.34234
-94.613464 266.28845 31.320684
-159.74976 -110.55499 24.931978
-117.12341 20.657602 -32.595951
-246.60777 183.03807 -13.783008
-53.878643 -45.878738 4.1415462
-174.66348 222.35968 -3.0617247
-84.543304 253.28539 -15.133379
-141.70378 109.51085 -36.63232
-126.94661 196.29483 18.554014
-219.10985 -196.62166 -37.808865
-270.07504 -130.16422 -34.946419
-124.86682 247.90289 -18.815565
-97.961243 248.49094 -25.233471
-95.19574 100.19736 -32.383606
-203.78818 120.20538 19.887274
-168.71805 237.88844 -32.065228
-47.986076 256.134 2.9407194
-276.29791 316.99649 39.077335
-182.18401 -92.299744 18.442822
-180.25624 -199.38551 -36.534733
-158.55261 7.2310896 -32.896667
-53.063541 -101.93755 -9.1693916
-174.21765 98.186188 52.502659
-53.55238 254.32364 -15.643764
-248.92903 -30.69203 -37.039276
-276.41101 145.95346 -4.5447121
-154.08098 202.74586 17.458195
-260.02631 2.6367459 -21.608101
-47.845787 227.14151 37.010799
-92.328087 189.12674 31.465748
-231.02344 4.9844818 -36.957275
-253.72356 230.48923 1.8192362
-73.395279 -179.20372 -4.2511764
-105.38235 191.23651 15.672335
-80.209396 -181.59256 -22.030087
-165.3578 -73.301987 31.052502
-65.675133 248.14705 -42.624626
-95.217278 71.127487 -36.824558
-233.13673 -3.9291921 13.768203
-70.689301 -28.435669 7.8444118
-214.12804 54.620689 49.683594
-195.57941 282.67941 -24.651466
-46.541801 -138.94875 8.362011
-265.34143 251.28081 -41.029812
-252.91843 -179.05917 -34.675579
-52.637302 207.85527 -2.8591871
-46.248604 -60.779137 26.309214
-196.95036 -175.14952 -37.206585
-126.22926 -113.32761 12.650536
-172.15163 270.55383 -21.740181
-270.41003 -100.11987 -16.612375
-232.30705 338.42346 1.7258587
-182.59222 -177.8678 -38.397926
-142.70731 -129.63158 -36.649879
-95.671036 308.8894 -4.111639
-160.62743 288.60599 -3.3201861
-113.14615 64.223106 -36.786385
-278.59399 -65.480034 -27.679096
-260.51025 334.7384 2.4422626
-199.74515 71.43956 46.814842
-118.71937 317.26758 60.95097
-176.25546 1.4636612 -32.776608
-157.76059 -189.86659 -37.772751
-152.98541 245.25949 -31.606495
-164.83006 -110.37908 19.45085
-172.77037 3.5842552 -36.934265
-45.9786 -59.305862 -5.4482908
-59.439575 32.083981 22.71413
-78.748657 242.23486 -18.802666
-278.17535 -122.53714 11.626781
-51.223309 225.25945 44.795273
-52.229401 223.26955 -2.2683401
-47.9338 -152.22839 -29.41584
-274.48834 -35.218277 -8.7017689
-117.63776 -167.06831 -38.497936
-184.74547 -8.6219692 -24.957689
-97.38353 156.20042 -21.765921
-144.61075 -137.6844 5.3258858
-251.08923 219.44864 -0.37239587
-67.667297 -112.76178 -15.074769
-96.92984 -173.87057 -37.399605
-108.09485 224.18845 14.34111
-109.76627 53.549122 59.801384
-74.19873 -33.179955 9.51723
-203.16953 -55.148109 -37.091473
-85.681503 -68.522919 -22.019091
-56.756374 182.95624 6.7627301
-170.42076 -35.921829 61.224709
-158.60803 -113.59837 24.225578
-189.53899 -172.66162 -36.925323
-111.4437 177.72099 -36.911461
-85.681503 -79.431747 19.563377
-173.32832 175.81413 -35.740467
-98.557007 320.72125 -14.031487
-152.11734 -114.92159 -31.849689
-257.6189 309.37866 -20.095478
-104.1271 318.71359 1.4770626
-145.75516 53.423553 -36.541664
-123.08549 -20.917778 61.666443
-181.81662 97.786476 49.792175
-112.36507 161.52361 19.372709
-170.62386 -88.533012 -34.854576
-123.81097 25.619278 74.321785
-155.62296 56.474197 22.13154
-146.40796 241.22867 -32.355484
-118.23083 108.47073 -3.4372308
-221.45851 135.46471 19.388157
-119.49164 -69.541512 19.775269
-174.20613 -9.6530676 71.163849
-254.16974 56.541348 -36.038441
-275.87842 52.261204 -33.57708
-63.034912 128.46213 6.525836
-127.09532 180.5423 21.668968
-81.481728 309.7775 63.784054
-123.41611 228.42207 13.854486
-274.54922 304.49728 0.63403136
-177.41101 -169.51962 -2.6693318
-153.52423 266.43149 -15.597311
-118.85587 247.08563 -0.91642153
-231.50275 -43.690605 -1.0664434
-276.44846 -62.685253 17.061249
-66.730553 219.67702 45.293388
-137.46291 322.15381 61.363308
-163.81314 157.0004 -36.453884
-184.95221 230.05878 -11.479836
-101.86591 -7.0431352 -27.68091
-78.80896 -45.517433 15.270628
-107.6665 -19.044083 33.611706
-63.114597 -55.79517 -24.522825
-55.194801 -89.918442 -31.352835
-63.931351 -9.6952085 22.565859
-141.88274 33.506802 -32.783764
-276.41101 -39.036537 14.409761
-152.31097 258.4053 3.8273463
-207.33194 112.14548 25.006798
-95.660492 335.38666 -9.3359137
-248.33313 273.75287 37.089462
-234.99377 -155.88153 5.2872677
-153.18869 -187.97047 -37.593948
-97.329361 123.56377 3.6240177
-276.41101 128.0847 -2.0573947
-230.6102 305.27853 -0.18480958
-130.45651 41.025192 75.084793
-276.41101 -46.949879 -14.06828
-192.37187 -40.069729 -20.98686
-62.409981 338.10773 -13.60205
-59.082581 55.310177 15.213174
-161.11398 -40.630951 0.91316009
-277.47247 -7.6652842 9.9951096
-225.29343 197.41277 -2.7326434
-142.42389 285.28516 6.7683783
-201.04579 -77.461403 28.838799
-124.88763 51.831657 -32.705025
-66.529099 237.61559 0.21437383
-166.18245 269.58206 6.7397265
-190.58783 -9.077507 10.041743
-146.6541 305.2623 1.7902068
-276.02176 -100.03951 8.6001081
-276.41101 175.17331 6.6167574
-231.92303 76.381012 22.272854
-215.31023 -71.807083 -21.41803
-54.23587 86.330505 -6.1848483
-137.41495 47.543392 75.93251
-48.43972 314.98059 52.949139
-208.68408 71.290596 43.583942
-272.76886 -93.50238 12.370331
-73.471291 -49.21175 28.698647
-84.14048 315.9729 64.282112
-258.32202 -203.12424 -41.056068
-187.96706 99.38649 -36.677307
-84.904083 122.14923 -25.461536
-170.37895 15.973042 -36.892021
-279.69699 241.99188 -37.09269
-156.58603 -144.05089 -33.209793
-227.80792 211.91769 19.532867
-276.41101 147.01424 10.475998
-86.87896 -86.784386 32.367702
-273.27911 75.717606 -2.1099741
-83.339439 322.5929 9.0354986
-156.94606 -31.155596 62.526497
-156.90215 62.494499 47.105793
-145.34036 -71.566734 41.119682
-176.30739 321.76764 0.31120047
-156.59552 44.717354 -9.0033913
-82.8769 212.2372 -45.760765
-251.298 -156.80038 9.7478962
-174.41022 163.22079 43.613243
-134.14735 -0.38071537 70.077225
-141.28723 208.69644 14.523838
-105.64116 -54.419716 28.330074
-177.37288 -170.41687 -3.1089418
-89.362564 121.87344 20.355843
-210.4639 -20.780037 48.11573
-275.38519 294.99887 -7.2471557
-251.94812 -135.78769 -27.336082
-73.008369 335.67703 -3.9066801
-273.33307 335.22272 35.721859
-46.2486 -16.166115 -37.067329
-221.74664 108.76856 -1.440068
-228.85434 -121.32394 9.5761385
-145.16647 47.971176 -32.721611
-130.8132 -84.449875 28.894075
-169.16031 -5.7345738 21.896278
-131.55054 190.99324 -36.237011
-258.009 226.15408 10.41342
-226.87219 31.132549 -36.909031
-251.57191 -161.37558 6.994844
-73.245308 155.95045 32.208427
-275.86307 277.90167 -15.420162
-105.75243 260.70587 -18.181683
-234.47473 23.345161 -28.680841
-201.19839 57.207096 -36.611
-232.69991 -165.20428 -27.305214
-95.597198 276.84357 -24.394398
-272.96985 -70.199661 10.461337
-143.63892 105.50603 -9.7338638
-219.97169 110.66647 8.1571188
-46.4659 306.33859 -21.399782
-224.29454 -48.749359 -37.076672
-46.907799 100.41963 -32.22031
-274.90601 340.31476 -4.7895784
-165.23199 159.73552 15.150454
-247.28377 -109.98173 -19.320559
-189.11618 -108.7096 -33.322174
-237.1581 5.3804245 -36.948311
-189.55972 297.9563 62.83374
-252.87268 -2.1945856 24.539476
-160.05566 -57.390205 32.133602
-52.423203 216.24948 -15.362961
-192.70302 157.77689 9.0190144
-119.77728 184.06583 8.6152697
-72.294502 -21.450623 -36.22728
-256.905 -87.549225 2.5252864
-46.248505 281.80188 -14.888736
-162.09175 -37.491737 -9.7669001
-89.278595 130.95399 -2.9862521
-49.003792 -90.189224 -21.301767
-165.12169 -64.366768 31.638136
-234.52254 -139.79117 21.718962
-72.0979 231.29485 44.029259
-151.37389 -74.772118 11.922655
-87.76091 -155.30603 1.147946
-61.878693 335.27823 2.4113476
-245.82594 173.98329 33.870621
-138.10356 87.595505 28.815525
-276.41101 242.11055 37.698101
-221.26636 -1.2583237 -26.530304
-148.80702 157.55164 36.4953
-74.461792 45.968796 -36.068108
-90.838509 125.23924 -26.113892
-177.25916 144.83711 14.606762
-196.14767 238.95032 2.5606122
-159.91766 -33.705452 62.17907
-213.30994 -75.648964 -24.543324
-46.327816 172.46312 33.663464
-192.81268 177.98866 -24.970383
-176.7733 -133.96149 5.0998316
-106.74155 -38.721642 -37.056763
-236.28123 -68.866493 24.79981
-141.30574 62.838718 -25.054823
-46.349487 192.97246 -31.542116
-126.14569 -88.062401 20.587883
-144.28493 334.23425 1.2061901
-147.41931 178.18587 -36.413754
-46.248501 275.58618 -24.366379
-274.14627 -127.01874 20.78035
-76.990486 73.522415 -36.014824
-233.69641 332.13104 66.059608
-133.28268 50.390198 12.579532
-122.30032 -4.3556948 66.209183
-227.06201 305.48846 -8.6365395
-118.6375 127.22357 -36.626724
-81.745659 -156.60565 13.562316
-172.78401 236.12392 -8.8010988
-188.75862 276.88885 5.821744
-156.02472 -8.4941216 22.038139
-90.130104 205.91307 41.0187
-213.70016 273.64664 7.164341
-224.00818 152.31067 18.384472
-109.401 287.34 -34.774704
-270.48099 243.70654 14.199091
-213.17256 276.46432 -25.597578
-49.606373 301.42279 0.74063492
-54.699593 123.26952 -31.258615
-145.64548 199.12724 13.918856
-68.938965 -169.23148 -39.569572
-128.43451 65.158379 -1.6760893
-159.80096 -151.01752 9.4788513
-163.07407 88.088959 66.852127
-105.82661 182.92789 11.425692
-180.96393 278.91855 -24.439533
-156.92729 84.216919 45.851547
-168.7413 -151.07544 9.4259815
-119.6572 34.33968 -16.161161
-158.26797 94.557701 -9.4412289
-121.97825 122.73806 31.445654
-265.05432 184.39752 7.6581836
-276.19299 308.146 -21.914089
-247.69885 21.968229 -28.440126
-260.62238 269.22379 -14.07724
-134.97835 110.36934 35.6008
-121.82265 266.74185 8.0930939
-148.16997 241.25998 -32.349701
-170.91721 256.01254 -28.696821
-63.822601 134.43835 8.8112068
-251.89719 -112.75999 -6.0813513
-206.68654 260.27802 7.6908541
-184.53857 -31.757607 -29.621284
-132.24164 244.66312 -19.362312
-268.72165 -43.184868 -7.2864857
-226.90634 241.98103 -17.231434
-106.59013 -157.95766 -0.97709864
-239.21675 -135.26006 1.3668898
-239.4409 -171.49594 -29.946259
-192.16069 95.855873 52.779728
-48.023201 307.38773 68.300636
-220.77493 -92.651253 12.141058
-142.38617 71.815964 -36.744385
-269.40689 -172.405 -14.586998
-74.310059 182.07382 8.3428221
-246.81465 -53.050301 -4.8241091
-220.61891 159.35844 17.976212
-141.826 149.08228 20.349695
-88.77298 -199.09119 -37.628868
-262.22482 13.201133 -36.906845
-273.76025 -158.83893 1.7527294
-164.15717 -200.33 -23.13892
-50.038189 260.22723 31.762856
-142.2964 -200.00574 -25.98978
-134.91531 116.77942 -9.8647842
-246.41119 331.2511 -9.1769342
-96.798729 -178.58081 -38.177448
-173.88657 40.361755 77.388031
-89.833061 30.882149 -21.643923
-253.40926 -95.104324 -25.30098
-87.847954 306.17923 0.65416545
-170.86499 -22.672974 -37.009365
-275.77899 157.85623 -27.015514
-250.84268 -187.47897 -40.888699
-81.074295 223.37003 37.010799
-127.41374 66.922577 14.698338
-275.34839 328.51102 -2.6189959
-62.587261 334.66306 -4.9800267
-47.826637 -43.781544 25.958866
-253.15138 6.9936476 -25.822861
-99.732368 118.4715 20.59037
-100.18469 343.83563 69.565048
-57.969891 236.65231 44.83667
-177.82481 -169.96382 -36.572968
-258.84772 -136.97667 -22.126543
-78.388641 -49.321251 21.637045
-272.33582 241.54376 -7.2444582
-222.99585 -24.67428 -13.939445
-127.88063 182.82976 -30.493176
-225.97226 -4.2661285 -36.982998
-161.7606 209.26805 -35.420017
-155.034 110.02035 29.307659
-250.31279 -134.23769 11.728236
-245.8237 274.92422 36.138222
-57.084873 -168.0659 6.9283118
-187.08803 -4.6570921 15.918846
-192.84869 175.81702 -36.135616
-69.311531 -73.431229 -46.290092
-264.77173 48.2206 -25.605696
-86.492554 48.525253 16.95179
-89.585426 -207.55795 -34.500248
-154.40656 -77.143509 9.1419144
-134.45212 -36.818031 -37.052704
-141.73839 -156.74493 2.7069299
-275.59875 325.94012 -3.2988873
-117.33656 -184.7543 -37.898888
-94.405937 -3.2375307 20.220375
-204.78812 78.474342 26.348431
-222.19397 -197.26233 -37.768387
-124.74551 -156.78674 -38.716019
-57.23835 12.83902 -2.6436672
-64.769394 -92.314575 -52.628899
-236.79083 22.098976 15.455037
-184.17383 -138.91385 -5.0853801
-66.529099 232.83838 -26.415718
-153.2944 -191.97812 -15.726735
-197.66493 -118.84572 -30.782394
-46.541756 -61.082474 14.09026
-224.63762 -86.44326 12.125069
-255.70987 122.94713 7.6598558
-115.14589 100.73866 35.280109
-147.15793 -126.95761 8.5276394
-269.37799 -88.654251 11.392237
-56.903835 -180.56345 -6.0386028
-257.31592 -171.44255 6.8378019
-208.13405 32.96508 70.193329
-185.0235 186.70932 3.7583117
-113.65199 -31.472244 31.856491
-58.418949 287.63428 14.639666
-214.6474 266.45819 6.9167247
-232.10077 51.157772 -14.554737
-210.15076 -160.7428 -38.632107
-181.2639 110.12422 36.024406
-265.56332 295.79495 62.584877
-264.32678 -80.331352 30.933018
-178.66917 286.98251 4.9875345
-138.24179 120.59846 -36.192707
-125.65553 -55.156532 31.5443
-113.45917 311.04828 61.424213
-166.55031 211.78638 14.732963
-248.26813 -106.87938 13.471373
-144.11546 -104.86446 26.47204
-45.164856 227.62323 -46.397224
-236.96078 -160.32512 -38.485455
-88.928375 64.859543 -36.048489
-107.32534 178.2578 7.1111975
-276.31244 303.17957 48.796638
-57.579308 329.82034 1.9231944
-234.02112 224.99661 -12.240901
-136.12535 136.78104 27.605591
-70.850388 -27.919022 17.223879
-236.83841 16.407217 22.915979
-276.41101 212.47173 38.603741
-139.20103 66.713356 44.526093
-48.938545 -75.487823 14.60948
-147.74155 -95.782623 18.962473
-207.17651 -23.160353 57.24128
-98.236115 324.9873 -14.292081
-80.728622 -19.137726 -16.795885
-175.66801 247.14384 5.9075966
-181.70715 -152.0067 -15.167372
-230.79701 -161.99623 -37.637089
-271.51398 340.55682 68.266876
-217.9297 79.585587 29.732994
-229.60257 50.901573 2.3942623
-273.95316 326.30295 39.792992
-96.55722 -99.630318 -14.548365
-156.72119 187.10458 13.267561
-269.66272 -37.450787 30.018478
-220.93422 32.858185 -27.100075
-78.76506 194.85655 24.033077
-125.0051 234.3125 13.177427
-238.72865 109.41588 -21.678612
-230.10786 329.52292 -17.063501
-69.121582 -28.656166 -9.141016
-234.623 13.50684 -13.935484
-95.270775 201.73778 -16.264952
-217.75156 247.60661 9.7571297
-190.98627 15.177128 71.901047
-235.1123 321.8783 -1.5604776
-250.53659 155.81651 -35.876995
-146.67004 -41.231808 58.575436
-177.80159 111.70117 10.787773
-126.28294 28.553099 -32.805046
-77.201591 -16.294796 -22.924149
-254.71837 208.01321 10.724011
-248.31781 -153.07175 -39.263134
-55.194801 -110.53354 2.9481027
-163.52245 84.638168 64.011826
-277.84482 205.41698 -31.85606
-120.5801 228.53735 12.319336
-120.5797 -54.491463 -9.867898
-257.55609 -95.92144 33.780998
-239.18579 -175.48268 -23.262581
-255.72302 249.82935 29.647385
-125.09573 321.84344 61.246891
-96.51828 -96.041946 11.531324
-160.67326 -170.69714 -2.0889406
-138.62773 -23.7593 64.613594
-151.61148 257.84586 -14.308887
-50.49239 53.228897 3.5854716
-112.45139 -88.580429 -37.100899
-218.14952 312.3963 -18.090036
-172.87959 -44.241978 -29.818274
-99.547173 -101.17982 -2.3955064
-140.47949 108.11341 -36.249504
-84.543297 242.70738 -31.452698
-151.10652 -62.083126 -31.682402
-105.57889 -186.71631 -34.695854
-87.077393 -176.81352 -8.7840681
-153.73224 266.86902 7.0030036
-236.61342 -110.73715 -12.59203
-77.010521 331.52039 1.85337
-140.68088 -88.298553 17.388269
-80.046379 320.90298 -18.597012
-238.89101 -130.92429 -26.702335
-163.55341 72.693588 73.538185
-243.74796 230.19048 -7.5203629
-202.13315 -185.89565 -38.098595
-70.483673 -107.29456 -26.998947
-245.06377 171.56451 35.048103
-103.72151 263.68634 -16.374599
-143.21068 221.72803 -9.7206011
-276.41101 284.94376 -20.025631
-275.25266 -146.84882 18.768061
-46.2486 135.6187 -23.641838
-158.16368 -15.58391 78.772186
-274.47379 324.11777 68.171288
-186.97832 85.686554 39.305008
-170.98404 249.9558 -21.598328
-273.07712 92.972725 -35.305969
-52.252682 -74.140381 -26.014847
-177.94426 -164.79417 -0.39186251
-54.056599 204.70541 -18.371067
-162.10757 127.35715 -35.936615
-185.12177 -10.182934 -7.910202
-204.46579 147.819 -36.293789
-69.497772 36.453163 22.585609
-75.342651 -28.909451 -37.03072
-60.379929 65.143105 -11.815143
-131.21321 14.549141 72.264511
-182.29108 3.914784 78.587555
-209.59523 -45.346401 30.02676
-101.13164 -172.90622 -34.389633
-66.529099 237.43832 1.6963757
-248.32306 205.97424 10.296211
-51.089653 56.555897 -27.310997
-251.93036 -174.93307 -39.721779
-126.30991 117.89372 41.488594
-161.95059 300.17386 63.012009
-237.18921 59.087746 -26.724483
-126.00925 -58.605804 43.66938
-55.945271 -23.68544 -33.810753
-154.40196 147.83475 36.4953
-135.03955 124.88857 48.501137
-272.82288 5.7338605 -36.948349
-199.48364 167.87766 -4.5166407
-275.77899 112.98729 -6.6379056
-95.793549 -177.97769 -37.725834
-268.02585 -92.274315 33.780998
-183.98558 86.550781 34.556179
-164.935 -57.431595 50.453896
-168.69398 -184.60997 -37.277054
-196.54507 300.38385 0.36231497
-145.95102 54.807983 75.202805
-200.71698 -99.63633 -34.386696
-154.80261 307.6254 61.684666
-195.41493 141.58563 11.225681
-192.81145 -45.907295 53.153496
-93.991974 -13.638453 -15.619656
-260.60864 127.29455 6.6050973
-152.40756 304.41254 63.35276
-220.80673 -17.88821 35.51749
-195.26489 162.07881 11.891809
-59.961929 -187.91197 -41.070057
-197.90384 209.39873 1.5182713
-259.71927 314.50714 6.5116367
-84.543289 228.90108 -38.513817
-230.07384 224.00719 39.905548
-165.83327 317.39557 0.35626361
-213.48494 -144.77477 -36.845753
-85.681503 -65.312904 9.2542667
-89.116386 -110.00769 10.953328
-249.8833 71.142166 19.216862
-48.095711 -35.422943 -13.465158
-145.00343 68.948906 36.244946
-258.009 228.02414 9.2575655
-91.380394 65.597351 -13.574265
-272.11499 236.54124 6.1060352
-269.86038 -106.5061 33.440487
-275.8631 326.33386 -0.63122493
-113.27618 232.72571 -33.095711
-224.75601 266.77893 -21.007294
-47.204575 327.26559 72.316971
-175.00145 -178.61218 -6.8944249
-67.021454 4.0163064 -25.150517
-46.2486 147.15529 1.8633337
-208.17892 159.59128 -22.474186
-131.96667 234.84505 14.848255
-222.92505 69.873421 -18.879936
-68.908989 322.05383 14.305992
-239.995 195.22656 7.7247429
-105.58896 134.32027 11.137539
-118.28165 250.90109 9.0453701
-167.66125 210.71361 11.734419
-95.07254 161.51471 -23.742447
-216.80307 309.58252 -13.503456
-104.17085 150.45844 -8.4512405
-275.77899 122.59716 5.5203104
-159.59845 -91.998154 30.069275
-170.48625 40.299595 -36.611
-247.46931 329.82809 65.395943
-184.62067 36.356194 -36.611
-95.597198 259.01669 -31.022934
-46.2486 137.29407 10.648261
-271.38898 -94.682831 -3.644773
-167.15999 217.41859 30.35817
-44.888775 260.77417 -2.6127632
-276.41101 271.58707 -0.5060277
-242.75034 247.70032 41.527054
-148.0289 -10.404792 -21.375595
-216.23642 225.02596 1.4183353
-252.05856 -96.980179 -14.234187
-279.55817 189.94984 -5.492342
-77.425461 268.79739 40.073814
-268.96838 -80.874725 -49.304932
-61.455517 14.562054 -4.5376606
-54.738075 -73.278549 7.6295147
-180.87299 131.61925 36.235134
-132.20958 253.38504 -30.004324
-159.83852 57.804668 28.254749
-97.855225 302.00113 -19.821854
-124.5208 253.38034 -28.926868
-153.77003 -12.667759 79.27047
-93.047173 195.87129 28.180073
-236.2549 19.814766 9.4861107
-249.04681 -107.52899 -51.058098
-68.52639 -86.829063 -5.8748569
-248.51123 69.317299 -28.993866
-267.9649 22.33429 -4.6946445
-186.43517 233.07332 16.070745
-47.417389 -147.44495 -12.912494
-81.519806 269.74536 2.6999884
-75.920425 -208.25125 -35.097893
-227.06198 274.95901 -22.839149
-157.10968 -128.57829 8.8999472
-121.11099 -39.474052 -37.058334
-129.68018 -138.89764 -34.796417
-272.11499 222.14754 -5.2291484
-223.55951 280.62921 -26.085791
-97.250504 65.571968 -21.758772
-175.2545 91.244942 8.7621288
-223.88068 201.54794 -33.548756
-146.10231 92.859299 -0.10863876
-272.87656 70.800674 11.334421
-269.27075 -172.77827 2.8238626
-87.220863 58.913273 16.792915
-198.37686 210.74565 14.261074
-228.06216 242.66293 0.81243289
-276.5549 239.51442 -11.699659
-235.06227 301.43726 4.5166545
-133.5265 -103.47427 -8.639307
-183.37585 185.92628 6.8612432
-260.77982 3.7036047 23.877989
-264.16049 38.412495 -31.412292
-256.905 -99.615364 4.1745453
-85.680069 6.5811982 -25.750774
-201.1478 -202.64815 -37.781311
-272.76846 -36.87624 25.779306
-106.33293 -34.906967 -17.941357
-184.23796 23.289082 -36.611
-138.72032 224.37022 -4.6421447
-61.462448 -4.6821508 -9.8991785
-226.04819 -111.62817 -20.361956
-143.63574 204.15625 -21.673075
-82.439972 -76.945801 7.9989023
-80.694061 -198.50537 -24.701866
-220.44608 -173.07776 -34.313885
-275.54755 278.17743 -4.5995498
-256.69611 -77.898285 -23.62915
-273.34927 -36.230442 -0.42902613
-135.21977 157.04659 19.619869
-70.680565 240.00592 -17.621674
-46.2486 109.65649 -33.212551
-253.95781 -107.94401 -4.6659141
-269.97134 -170.92574 -16.977449
-84.543297 214.94434 -30.498835
-174.47719 -133.11493 16.307384
-209.35391 52.716206 -28.526596
-259.76953 342.16266 68.869278
-186.68561 -134.71858 -34.152485
-99.660156 68.281044 -10.510827
-112.36635 -121.17636 -32.429413
-166.63818 285.20834 5.2233105
-102.36694 61.469017 32.05024
-97.25428 201.01183 18.26004
-244.90741 -32.41407 -36.257206
-244.77866 -56.728821 -36.318802
-135.42422 183.1035 -8.3724174
-241.13483 297.19128 1.5270987
-166.50534 206.41002 17.961267
-144.06363 -129.32628 9.795207
-83.175117 -98.985092 12.053078
-227.09836 35.936787 -36.116753
-149.35329 67.327988 38.798347
-265.5976 296.04486 62.680073
-268.81659 336.50256 -4.0488849
-231.24028 17.060806 -10.716282
-64.714569 183.83795 -25.768272
-82.504898 215.81898 2.2727468
-275.41821 -57.759792 -29.779247
-266.93945 135.32605 21.56448
-70.303246 7.738308 23.647783
-92.459167 222.40918 42.159344
-84.403076 320.36032 8.5467272
-103.56285 -24.118999 42.447411
-167.55489 202.7047 11.339725
-239.995 200.01106 -21.827068
-208.94649 -6.4890318 45.346386
-164.84308 -49.087379 -21.267555
-133.29517 119.5998 20.575321
-211.88696 -77.360855 -14.333902
-107.18509 161.60176 -28.433517
-247.29367 123.4455 8.3536577
-258.37369 44.478508 -36.839752
-221.29494 75.49688 27.003418
-217.0452 -146.41652 -37.205463
-160.81293 -44.059746 6.3156843
-80.464912 -40.084682 -2.5793087
-252.53186 329.27884 -2.9356139
-175.13441 230.23421 -5.8337636
-159.68045 -3.1841507 -7.5271029
-47.101341 325.17068 23.81575
-251.06615 29.0854 20.32906
-253.72737 208.20786 44.439766
-114.17915 95.79866 -16.260174
-121.5144 -168.21323 -5.7190142
-218.96097 123.43513 -36.611298
-52.649899 28.003164 8.3388481
-165.61388 201.44087 17.503473
-220.50235 11.978063 53.666637
-101.77696 235.50018 13.040912
-276.41101 297.36581 0.10003791
-70.734238 146.07364 30.385902
-123.78278 -101.58229 -10.754029
-102.39909 -188.71646 -34.741184
-155.43024 79.345184 42.728111
-238.89101 -70.807449 3.3949165
-215.76627 71.215652 42.213966
-271.59491 198.95322 16.047443
-275.77899 126.14109 9.1034327
-51.956753 41.863495 -36.046658
-164.85356 128.3031 34.477528
-46.907799 97.965698 -32.951618
-260.14862 83.052727 22.48933
-199.7153 -98.748947 18.166359
-211.60088 -186.20091 -36.920219
-46.2486 153.80118 -30.373707
-153.94614 202.46553 34.334427
-120.83478 50.309357 11.624654
-276.3255 314.79803 58.61702
-95.049271 69.687866 10.826881
-242.40508 157.1093 31.761887
-156.41878 216.11412 -36.390823
-270.65039 -168.0105 -39.302357
-61.520241 238.10611 44.901566
-182.45937 125.38297 54.397961
-145.847 -199.92323 -26.420671
-269.80847 -34.142757 18.355291
-273.62402 -107.57417 32.926128
-66.707314 71.406906 16.403675
-62.847099 300.78345 62.205292
-231.22343 -48.349216 -1.3393652
-241.75314 215.71814 18.899216
-269.8136 -139.12833 -12.699127
-68.072189 -118.52507 -2.1600013
-233.92459 -4.2447166 -21.700392
-161.7296 -57.235607 -37.08971
-224.46442 -8.8326588 36.10236
-166.37665 -177.00974 -32.712715
-110.71144 -13.573756 39.346092
-97.781143 66.948326 16.840443
-120.42 232.07587 -32.449905
-236.73863 339.35602 -4.8252411
-121.47298 250.75346 10.591986
-223.76703 213.32529 -18.786938
-196.00684 248.26128 11.188848
-207.23517 -108.90833 11.382858
-64.028145 -34.030071 13.165376
-130.67374 5.3943882 73.550926
-149.31975 54.497608 -21.157143
-232.56573 4.1999702 -36.956837
-225.49072 -169.8454 -6.9562788
-253.2856 -13.371698 24.958471
-47.072784 -147.52382 -15.486483
-231.27185 119.32991 20.087214
-214.77127 -17.527264 -37.011955
-63.20401 -125.16857 -42.385723
-81.620407 122.70884 20.326462
-165.87434 245.55486 21.513973
-272.21674 173.88399 35.892975
-269.83325 -72.697472 7.9917116
-270.52896 63.449409 -34.321239
-92.493958 65.937866 -8.4292593
-147.55542 331.68677 65.926559
-123.29094 302.40411 63.191299
-165.54568 98.967041 -33.976303
-137.0779 136.32388 23.032553
-108.30774 -96.378036 -10.586743
-165.15594 186.75325 -35.593628
-66.118477 -30.352932 -7.7752466
-46.2486 138.27393 11.02497
-172.39565 -188.0188 -37.851295
-95.98201 274.55676 5.0510941
-271.90051 89.929596 7.5033212
-123.91347 -105.30751 -26.972525
-243.49715 1.8884622 24.302601
-51.909702 -93.660812 -33.947617
-127.53989 128.95491 22.928373
-226.47134 32.039303 -36.907188
-249.3903 119.89877 -26.824389
-131.27954 86.736259 -36.72245
-58.15662 -1.6517658 -36.179562
-168.4115 -56.358059 -24.38352
-76.626221 -35.517838 -3.0275826
-61.308544 20.388487 23.146576
-235.83768 316.13324 61.037285
-203.25281 -154.88673 -38.756317
-251.67932 239.87891 43.663017
-170.99815 -195.12346 -38.268478
-249.2681 277.0051 4.3004036
-273.24802 343.65744 33.72422
-209.22154 278.55829 -24.417189
-178.51073 70.199203 -23.455851
-78.90815 -101.28441 -12.140148
-176.57983 -181.58737 -11.562465
-95.715813 313.1767 -5.0210152
-275.77899 170.77667 -36.61195
-276.24661 114.18475 -36.583828
-233.37839 -0.40176964 -4.8713942
-60.42038 168.32051 -24.77313
-160.80284 -15.942613 -15.581999
-276.41101 -38.492558 -13.614965
-56.110413 127.56621 20.055363
-184.15509 328.83383 63.869209
-57.439468 37.128681 -9.3447533
-125.70399 -69.343094 30.463331
-107.36098 -98.655952 -8.0667696
-98.099777 299.21698 0.60904479
-267.30386 63.998489 -22.229229
-121.0815 110.57072 8.1091709
-220.35179 38.289185 52.548981
-47.260201 305.15302 -12.88846
-203.37712 -90.711327 8.8222609
-257.29465 -51.463036 -36.318802
-46.308304 294.46408 68.674286
-259.89182 241.94611 33.443668
-128.55556 105.68237 -9.0799589
-210.90692 -81.028534 -36.318733
-130.3022 127.91223 -23.392191
-271.92825 -80.152634 36.083519
-186.27388 69.523773 -36.763699
-90.248405 -42.587212 -29.174488
-240.38054 150.34694 -27.128254
-250.7708 -139.55595 -10.825466
-109.70689 -125.36263 8.3701229
-175.18613 122.03004 13.57763
-102.96674 53.406746 47.297485
-244.99074 13.830414 23.524673
-233.20607 4.2285237 -24.669907
-254.7448 147.44785 30.969273
-165.95868 263.75772 15.788044
-127.93693 -17.453026 28.04505
-227.4247 135.50179 -36.723633
-195.23636 144.65474 -3.3793707
-64.852463 -73.806793 35.441723
-183.03403 -143.27747 7.7069416
-125.35434 133.67352 12.865374
-276.17746 -70.649506 -44.131378
-114.2853 333.1073 1.5724732
-46.248516 154.01927 26.508713
-198.94736 51.423798 -36.611
-227.12068 328.39886 -2.8375585
-119.81976 179.59647 9.0988598
-103.55379 201.44659 16.455654
-251.97964 -35.434162 26.686329
-222.48787 -174.89734 -8.8449011
-46.248604 -39.220306 9.1610956
-190.66536 342.086 -1.7335641
-227.40193 -161.90469 -3.2133968
-161.54156 -88.960922 27.331451
-262.88168 -106.94449 33.229362
-117.24596 58.342522 67.219482
-148.69632 217.91086 -11.857176
-184.61722 -15.682549 -31.813702
-99.169434 65.342049 25.663406
-215.68646 -86.193695 -37.100899
-197.58328 105.5238 47.557655
-255.47173 182.3183 -36.283142
-45.496124 197.15656 -35.454533
-139.53186 -24.495106 64.431503
-143.37131 121.59871 32.23856
-192.15222 -184.62939 -37.852692
-227.07664 262.38702 22.904346
-68.662743 -200.54793 -23.333549
-50.182983 239.95927 10.188534
-144.75494 -173.08212 -13.505829
-141.826 139.94379 12.720741
-179.39175 236.68202 -33.076561
-253.42368 96.797447 22.605108
-62.105953 -86.317024 -52.495609
-47.699879 -145.77023 -36.441063
-259.70499 -192.37692 -39.984898
-253.52051 -169.17444 4.8227849
-221.10248 226.61197 12.540644
-257.57471 -17.236168 -1.1289544
-46.998016 -56.748245 2.8705013
-205.58546 -89.253922 -21.62344
-220.64978 311.75586 -12.157096
-136.82658 126.14445 -4.2601833
-223.59557 136.96588 15.912979
-140.89258 -207.37657 -34.471462
-49.693348 74.433807 -10.657823
-93.627945 89.507057 0.83776283
-222.85059 159.16776 -21.004438
-216.83679 -165.2108 -38.537338
-134.74063 73.423561 -32.612244
-54.070641 -173.48595 -37.061935
-133.77676 61.064022 74.486565
-156.60635 -171.93655 -2.6208861
-81.687485 252.72597 -6.4690018
-204.74893 -82.422012 28.252317
-144.73708 199.01671 -35.786942
-269.87112 -187.90483 -41.550842
-189.90353 -171.87224 -36.871071
-59.921265 107.90714 -34.898769
-86.486687 -182.18692 -10.04178
-185.39902 273.95178 8.9835529
-188.64618 -44.295982 -37.068512
-266.95905 318.97626 -18.772753
-134.29739 105.52602 -9.659708
-118.71107 324.41589 64.960861
-182.99203 -159.96777 -34.993248
-268.08295 -135.57805 -28.157799
-190.29399 303.80743 0.34220737
-247.80803 14.131037 23.502163
-72.04364 -182.01422 -37.501568
-258.76974 -14.630491 -1.8031604
-273.75113 228.16566 -36.761112
-56.575821 143.33482 -35.933037
-53.367599 -97.186569 -11.19138
-277.21655 -22.504833 26.123587
-163.08685 172.03067 25.057404
-201.12299 221.32535 13.148303
-122.43993 61.51313 46.523712
-216.90903 238.52802 -27.737661
-242.16827 -109.60329 13.564956
-162.94702 -17.358627 68.818672
-275.75897 -143.4597 -3.9601183
-108.50047 70.512436 -36.791481
-52.735573 226.29776 -36.009689
-125.33147 75.612396 -36.598282
-266.62988 -179.57713 -26.425926
-161.25708 -180.93596 -36.930595
-120.89097 256.39819 8.1629248
-140.64563 189.47639 -36.538895
-166.85184 164.47668 23.106125
-197.12756 162.61024 -36.160915
-270.83325 -104.35341 -51.891201
-182.98315 -52.402218 -37.08564
-99.064842 117.86488 22.154106
-203.92476 -11.468648 6.1276493
-71.50383 322.31116 14.827038
-124.62811 158.76483 17.060505
-80.706329 341.31064 -4.6721406
-136.61014 39.297569 74.185989
-214.46548 145.98206 20.273054
-131.20422 -55.529625 -32.035305
-75.472145 -28.846439 -8.7331667
-94.999733 91.579559 15.526314
-163.36407 279.77405 -21.472094
-196.19751 11.037973 -36.951546
-130.34103 164.78757 -35.991493
-205.03513 -66.975761 27.748884
-234.25415 4.0303526 -24.611259
-272.28033 -163.31932 11.736784
-121.74806 100.53793 -28.152044
-209.86472 61.890915 -30.321739
-131.7666 -121.27695 0.72019672
-274.63998 -35.758518 -21.873877
-116.92844 103.10016 -36.702881
-226.22147 102.29652 22.20767
-226.75934 -111.18394 -26.722599
-255.04372 -86.992607 -7.4205661
-273.10464 182.4252 -0.98351431
-228.59306 170.01614 -27.575806
-103.37473 24.447176 55.021358
-221.5065 -164.48056 -3.9680839
-70.708084 43.657902 -7.7543821
-60.31115 67.928627 16.423752
-220.07884 109.76427 -36.602222
-140.99535 63.632812 39.171017
-49.323647 343.26791 35.543499
-166.17142 -169.36978 -36.378494
-276.41101 132.39305 22.811714
-116.77847 263.06311 -27.116949
-256.81952 127.08899 6.9778042
-50.942757 -55.935955 -25.139683
-51.896755 -6.203598 -26.270935
-46.635284 -135.9296 -35.586857
-216.69568 268.26926 -25.277561
-88.942764 -42.991585 -4.4653201
-45.9786 -135.13048 -2.1131682
-252.14938 254.65347 -37.822453
-204.53038 19.438417 71.846268
-165.79181 77.785706 38.748989
-268.25592 -95.255035 37.830978
-153.37146 31.728994 76.218575
-147.51791 -61.381783 47.456078
-230.61847 318.81601 -1.3182673
-249.90001 320.52029 11.999133
-130.20096 136.14583 26.361656
-270.48026 50.339272 -36.811626
-46.907799 126.2032 -6.6345124
-108.83356 110.59184 10.143502
-228.40506 235.91922 32.783363
-222.6385 304.32919 61.935493
-239.26666 87.731613 -33.947392
-67.044472 195.65585 25.035347
-192.52609 229.93391 -33.935345
-260.72046 38.446663 -28.007246
-184.29715 -99.539467 14.662315
-274.06909 91.917099 -23.886799
-150.49365 247.43524 -16.601799
-97.755463 81.991539 -21.869246
-210.25766 -184.28444 -14.731549
-203.3174 33.133183 72.775612
-105.48447 259.47375 -21.463367
-203.17792 -120.79635 -2.8076897
-270.46039 -119.0461 11.68332
-47.354126 297.26837 -19.804665
-141.22015 198.39575 4.1060658
-221.9117 105.99226 -15.632622
-171.53114 -170.57773 -1.4470034
-241.84711 278.70575 4.1247764
-251.07401 87.364334 -32.664631
-278.59399 -103.49279 29.616964
-244.42099 228.81921 -48.876801
-75.846848 59.393627 22.646702
-247.21548 97.701874 -36.156494
-53.680168 26.300747 -16.919552
-104.15288 16.128153 56.408142
-55.181721 86.227463 7.4323874
-79.077881 194.60924 -35.373669
-219.58505 251.01608 9.3385067
-56.725018 24.688103 20.562992
-85.053055 65.520554 -36.824081
-254.53107 266.12781 38.895962
-171.65649 62.079895 -36.611
-72.999245 -73.699501 -46.419289
-57.079128 38.317791 22.795452
-231.69858 280.52002 15.000254
-103.31598 128.62048 19.890707
-213.98207 123.96078 12.897792
-53.421913 -12.999521 -36.225861
-103.36694 207.92194 -10.81844
-156.10724 84.595337 45.301159
-137.51326 -107.24196 12.818295
-222.68344 -13.152966 39.894394
-155.99324 -193.29102 -16.323919
-88.900772 30.562492 23.927746
-100.33051 267.57947 -25.616224
-57.031239 33.126495 -0.63832825
-262.89182 283.27133 3.0619671
-191.07381 13.020035 -32.147758
-68.699394 197.10812 42.2929
-235.26639 164.29024 -35.816799
-134.48674 53.931252 -36.646435
-188.02307 -194.35849 -37.000099
-226.44037 -198.79248 -37.697403
-261.90668 21.689463 -28.193647
-181.03036 -49.592743 -21.374372
-58.074585 184.53339 -35.723145
-115.86373 74.444702 -36.696301
-58.057701 -25.573116 -11.976453
-123.52583 156.35501 13.03061
-276.41101 -42.458324 -20.270271
-263.79666 -54.628685 2.0912476
-72.154373 330.86279 -12.29125
-82.630371 325.3288 6.1198926
-102.61947 60.562408 -36.846886
-269.43042 -10.472877 9.6912394
-104.18843 -205.46259 -32.57296
-117.72125 -111.08231 -0.84181416
-55.194801 -85.726105 -33.668079
-46.2486 -67.391617 28.413876
-264.89868 49.139091 -23.600655
-195.98512 19.356827 75.281174
-195.7397 139.56833 12.676895
-67.404091 118.22147 -17.581005
-167.77299 55.642109 -27.522135
-180.20093 -18.322092 33.029678
-64.980286 -16.958183 -7.9603791
-247.79797 -65.392769 21.240448
-247.93372 228.77156 43.424568
-250.62726 42.840416 21.689651
-177.81847 -172.3997 -5.4000902
-252.24556 -201.19479 -26.106958
-87.596008 304.94348 18.405327
-120.46091 -119.87427 -28.713711
-242.85046 223.57527 36.795399
-206.15144 259.87305 -27.651939
-240.86964 2.9169598 -36.948448
-249.63618 -201.90475 -28.92557
-108.60078 -46.110386 -37.07238
-77.366875 234.3717 -29.976074
-153.38864 250.6264 -28.26936
-271.02362 220.39883 21.841019
-194.14951 28.628551 -36.611
-45.123047 185.67398 0.36400771
-101.42616 216.51086 13.701693
-111.01965 136.01709 -2.1366167
-275.16638 -34.050556 8.56532
-64.658051 9.8830147 -13.152603
-114.01744 -9.7849112 56.241066
-263.74963 262.54749 37.859497
-84.874077 -187.07764 -9.3711443
-129.74297 -56.242729 -37.093773
-154.1973 198.72099 -36.33791
-254.7366 190.41846 -31.119011
-85.678391 214.2706 -11.486547
-61.493759 248.1666 30.964542
-270.39163 64.577652 -18.464886
-276.41101 322.70416 -21.406851
-269.29031 -34.905205 -36.301826
-274.09238 344.1272 36.623615
-266.65433 -127.85561 34.074097
-234.48163 230.746 42.648212
-45.516788 215.81021 34.759724
-52.935349 215.70479 -17.330082
-192.73579 244.3797 -19.314856
-180.49362 27.511976 76.268127
-122.91132 -86.752052 28.909058
-266.00867 131.3652 6.2700319
-238.81671 302.0177 20.685472
-174.02336 42.827812 -14.7234
-157.05334 -209.08603 -34.750801
-181.88499 80.427689 -32.58215
-97.067009 30.284555 36.697098
-78.57811 137.51039 -11.947863
-109.401 284.62338 -35.084442
-61.048424 176.80164 -36.319916
-195.76967 -112.46991 -20.09366
-209.06203 68.684311 51.739655
-133.78891 138.95341 29.395432
-49.437981 205.2541 -25.149727
-274.05585 -37.379253 -27.559395
-263.51471 -86.897789 -51.891197
-93.22876 79.450722 -36.0242
-66.917511 218.58032 45.208633
-85.310211 310.64081 0.89736438
-275.77899 151.39447 -23.104788
-161.8909 243.02591 8.3291903
-130.52791 205.19836 -36.440762
-81.227913 160.45889 32.418453
-261.56351 32.019962 2.1029654
-273.23901 -44.944027 29.169033
-135.33328 -10.934031 18.089739
-269.98987 51.638268 -36.027508
-228.36972 178.80138 16.613123
-273.94427 309.43405 58.937363
-255.32182 120.0346 23.742861
-63.999969 314.58771 -0.98428452
-227.21017 156.09787 -24.094872
-228.24338 61.576866 -31.152149
-158.96129 -0.48328424 -36.752949
-210.17764 21.15896 67.576004
-185.53796 191.72342 24.023052
-179.19676 -168.00832 -32.828041
-147.21753 -203.34833 -28.603962
-198.42415 -71.977509 22.055159
-224.01535 -102.63095 -10.936884
-64.117775 -184.59488 -7.5666666
-122.5139 149.72797 -11.386865
-142.85574 14.72054 -12.111557
-265.26126 39.830307 14.58844
-200.32065 -99.020279 -16.065353
-63.240303 -83.18676 -50.988144
-276.37073 84.347015 10.231699
-230.77048 32.335907 1.5498853
-210.78807 211.57602 -19.814621
-133.93356 115.33543 -36.266956
-62.274376 36.225044 -36.854053
-254.56718 68.163918 -36.79612
-76.945663 -194.54225 -38.680866
-263.3183 -115.92831 28.903025
-172.52739 -198.33781 -37.874737
-141.55722 117.59261 42.066875
-151.71877 -138.09015 -34.645294
-49.95797 -108.64156 31.842491
-259.37622 91.153435 22.752216
-263.2608 122.47572 -11.228735
-100.27102 282.03452 -14.804308
-72.871635 84.687828 -32.348679
-49.554802 -114.35537 -24.390966
-69.572403 120.67906 -27.094769
-216.75075 197.27618 -28.546343
-88.792259 -48.391594 0.53723907
-226.85997 -174.63376 -37.372337
-249.10663 -183.99055 -7.1988134
-185.43472 115.99319 -36.2313
-81.975624 -168.86839 -39.469059
-156.34351 -189.79343 -14.06485
-148.83347 81.109024 64.458191
-219.59731 209.17934 14.374377
-168.65799 267.96295 -27.387096
-140.6434 -147.66228 8.4944735
-44.840401 263.96591 -5.5266209
-62.093033 18.068724 -13.840328
-117.38171 297.0293 1.0716316
-226.65581 288.32858 -22.814598
-239.98692 -55.421173 -1.2318962
-127.33356 211.7262 -36.961563
-195.18292 -64.230217 30.194893
-217.74469 -76.986725 -37.100899
-175.96429 156.01439 36.4953
-55.194801 -114.19455 8.1244621
-175.30621 97.555717 -36.65662
-84.259293 290.20685 -22.756674
-98.738899 264.82578 -18.494429
-157.73563 -23.483845 65.679367
-164.35715 -200.40536 -38.76656
-231.09846 -18.809206 -16.968935
-170.05971 -64.459099 -5.6247344
-251.3185 320.17007 12.027843
-45.9786 -61.850586 -20.380684
-213.31046 -206.13905 -33.478233
-207.88252 28.037306 -36.915627
-93.693207 219.7343 36.68959
-252.14731 -119.84024 -4.648119
-274.04968 -114.78985 37.375198
-237.01584 43.938225 -20.967567
-49.32325 -54.558422 -32.056667
-237.85992 325.35028 0.45585877
-85.978241 54.095798 -3.9126413
-254.88304 99.66758 -36.691292
-83.221825 339.10248 0.28817517
-131.53708 160.38298 -36.007637
-248.42184 330.1814 -3.0550175
-258.08994 -189.72661 -39.052578
-251.33176 1.2426178 -25.114424
-86.36245 -192.66098 -36.939308
-223.31885 -56.956963 -15.206435
-86.464767 -165.15445 8.2293472
-54.197319 -106.03545 -7.7231498
-48.41893 10.63296 -35.898449
-50.421406 37.185207 8.2665958
-90.43438 80.404335 22.40346
-260.34024 279.27283 31.890831
-267.13925 -14.044939 -36.226387
-228.60217 178.57562 -35.727501
-103.47476 -9.4246511 50.308552
-248.86153 -143.49612 24.587673
-81.343124 -112.43037 -26.675224
-258.42218 316.81354 9.5131254
-237.23857 309.73007 3.3009093
-107.98949 276.51337 6.6534004
-93.707878 71.60743 -30.760612
-187.0444 325.00415 65.008148
-58.693642 49.313606 -3.1649075
-236.55362 317.59241 3.0470197
-73.701401 -109.59986 -20.519445
-159.20103 20.128304 -19.330677
-102.16601 -191.55322 -19.41836
-55.194801 -77.638298 5.5668421
-108.82442 -13.116551 -25.458256
-46.356812 328.63956 38.912807
-255.15573 330.54086 -15.698828
-142.3311 -161.38412 -22.365198
-238.89099 -125.84314 15.770759
-260.65714 2.4989603 23.956181
-256.37457 -176.30782 -39.685173
-143.10837 36.732132 -36.671616
-210.51921 -65.604362 24.649197
-239.995 240.96707 17.737509
-268.33463 70.871391 22.392975
-256.59787 326.52869 9.851244
-218.18652 13.293293 -36.946808
-46.541801 -136.47012 -27.585785
-127.96686 141.13559 13.488795
-167.1274 261.93652 -26.212479
-65.866653 322.77957 10.802668
-187.94565 -82.077362 32.218456
-205.54869 -51.234932 -37.083202
-173.57509 -109.22269 -32.951721
-279.69699 189.43674 10.752417
-202.4102 237.04999 -31.602833
-141.94078 221.45911 -34.717545
-263.37955 -13.223632 -36.217991
-51.256428 237.44917 -34.185707
-54.233189 -42.839321 3.5423088
-113.57868 308.34546 63.668926
-212.9823 254.73169 8.6696491
-47.440041 194.35938 -1.5348091
-50.141464 -118.54126 36.66328
-251.2207 -43.27692 -36.304157
-216.69983 336.23276 66.644783
-264.53348 71.692581 13.410961
-47.968018 257.49994 -3.0201752
-79.510757 182.13571 -9.2398996
-245.45999 202.23978 -18.647812
-126.00116 150.5351 -36.004547
-263.93057 -91.400436 40.041965
-200.98303 297.39484 0.9943406
-217.34335 -124.44376 -34.060349
-242.41257 213.38126 -29.703243
-62.265251 26.896942 10.611629
-73.235359 198.42447 42.376442
-131.55907 98.689529 -32.145302
-248.41183 31.096718 -30.035641
-106.05966 268.40683 -19.0002
-158.73196 -82.859436 22.419704
-169.97336 42.367775 -14.7234
-123.57126 -100.73123 -8.0984917
-229.37178 152.50888 18.37299
-181.70976 83.809265 49.62059
-97.059769 -53.233379 -12.230048
-200.16005 -207.61154 -34.675877
-242.32755 268.74487 -5.6526556
-253.85449 -58.893669 -37.100899
-209.04893 -77.699677 25.869177
-270.40472 186.90164 -35.704651
-229.29393 36.180984 12.805059
-137.40459 152.53468 2.8906345
-124.39279 -99.430153 14.83617
-239.79239 -29.378927 -24.069921
-275.77899 112.50145 -30.014538
-235.98222 125.34653 -36.609787
-128.77234 143.29581 -36.141197
-73.433517 117.26633 -3.3876042
-188.60074 40.038483 -32.755699
-46.248604 181.81543 -23.868925
-127.75832 173.98285 23.267796
-73.271301 -147.37267 -39.022228
-132.13861 -194.27141 -37.842255
-194.57355 -120.97414 -3.4478979
-95.197365 168.49004 18.927469
-85.681503 -130.69315 -16.362192
-240.88815 140.5163 -35.961906
-129.45534 -95.205093 27.032976
-229.15234 97.228912 -24.535852
-88.957527 -119.03928 29.008137
-73.707077 320.76099 14.583466
-48.305473 -98.940926 39.163116
-231.48663 33.900574 -36.897213
-239.93942 -136.51265 -0.95481634
-248.1364 165.29718 33.967953
-228.41501 -30.943769 -36.252499
-222.37596 90.461311 -36.775372
-177.79329 -98.09288 19.041054
-258.29361 107.93585 26.14846
-247.98465 -4.2724199 -27.691666
-168.5979 0.60577011 -36.793056
-236.36298 58.818405 -0.39053154
-72.511505 -30.693665 1.5018277
-206.69054 275.46552 5.6474195
-269.39429 77.983284 7.282001
-169.45355 -188.84515 -15.732669
-147.01886 -12.054981 -9.8036184
-228.71832 223.77689 36.177006
-233.97583 -111.90968 -13.980078
-238.90533 42.879333 -16.020666
-239.48294 181.53461 -36.277561
-177.80991 63.45031 -32.655098
-242.78911 1.1007862 23.961069
-108.88548 30.720219 -31.931595
-166.8206 -29.161209 -36.962559
-65.374603 -205.34192 -40.883553
-125.79501 120.20277 -36.633049
-73.599052 216.20547 16.931633
-274.80478 300.71936 42.22855
-219.80357 -116.24548 10.45538
-174.21806 32.853214 -32.786568
-276.41101 -56.883652 -18.663603
-233.59799 182.92633 -20.237568
-225.99857 160.2636 -36.675941
-66.126114 343.40335 69.435577
-271.89691 -121.31821 26.307411
-125.33118 68.140213 26.220806
-54.056595 234.47421 20.636702
-87.426186 -171.53087 -6.684875
-142.02783 74.560295 -36.444923
-71.478546 203.09944 -15.154474
-126.0095 137.86655 30.185434
-244.78268 -198.9303 -25.556015
-85.920776 -41.625977 -4.2320437
-162.10211 68.365524 -14.001947
-263.64328 -57.437378 31.453939
-203.36415 -92.596176 -13.843283
-178.96066 -9.4026146 -16.430866
-270.69928 -112.85098 -13.732332
-257.39667 185.46181 -35.704906
-96.516899 -39.908947 6.3463163
-97.548172 293.65305 -18.173105
-146.75073 229.72168 -5.7073722
-46.907803 116.74551 -0.85631859
-158.95448 -5.6480894 18.688677
-240.77205 -95.719261 37.473728
-147.3461 87.230911 30.818914
-256.06522 41.695251 -36.066448
-196.13806 142.85861 12.309599
-111.79146 -43.144947 30.8414
-142.62363 -25.241398 37.110497
-83.711914 114.82524 2.5876641
-220.30742 -138.41805 -23.950768
-248.26418 -67.683411 31.801611
-46.248669 -133.82852 15.997173
-198.599 17.960539 -31.804565
-70.446617 -109.05955 -30.087421
-236.15034 195.15941 37.545647
-44.840401 221.67502 -44.14777
-214.46161 141.61189 15.098095
-63.613083 -145.58542 23.62991
-134.48154 196.99588 21.761923
-158.96854 183.32581 13.4053
-66.510994 109.95068 24.237724
-143.2506 39.821434 -32.756626
-196.59599 54.467171 -14.7234
-177.24933 -12.70272 34.449062
-106.01336 45.229202 -36.879295
-240.86853 299.62839 62.293182
-242.86143 -137.39122 2.1999485
-67.703407 -88.343643 37.936649
-103.34911 -47.705242 28.46747
-91.703537 48.54554 -30.678967
-239.75537 20.748827 -28.227024
-98.983047 -19.838802 32.364834
-162.90742 291.29633 6.9375458
-276.41101 130.07764 -10.349354
-135.40311 -95.516739 -5.9608984
