# .PCD v0.7 - Point Cloud Data file format
VERSION 0.7
FIELDS x y z
SIZE 4 4 4
TYPE F F F
COUNT 1 1 1
WIDTH 1454
HEIGHT 1
VIEWPOINT 0 0 0 1 0 0 0
POINTS 1454
DATA ascii
-0.06456098 -3.1748576 -0.16857314
-1.6630682 -2.7310941 -0.1681934
0.84751213 -2.0840526 -0.16722539
-1.2483714 -2.0225639 -0.16217256
-0.66174191 -1.95815 -0.1696822
-0.007937788 -1.1846452 -0.1647082
1.1623657 -0.84194845 -0.16639964
1.1164658 -0.66253912 -0.16685458
-0.46502793 -0.42548877 -0.16945395
-1.1891201 -0.15055591 -0.16862898
-1.563962 0.097377151 -0.16249639
-1.5478935 0.13144961 -0.16832221
-1.6274211 0.34424195 -0.16586542
-1.709075 0.67693418 -0.16402687
1.0550169 1.0908053 -0.16135079
1.0242027 1.2678797 -0.16858932
-0.16094387 2.5921822 -0.16716659
-1.4800316 2.6023674 -0.16717845
-1.6810232 2.8689404 -0.16263728
-0.40624934 -3.1975873 -0.15179114
-0.016950283 -3.1952631 -0.15664446
0.97965121 -2.7309551 -0.15571412
-0.20430385 -2.1439199 -0.15644585
-0.59165007 -1.8418038 -0.15309973
-0.42248219 -1.3800714 -0.15010999
1.14516 -0.19501473 -0.15758786
-0.39084244 0.44504547 -0.15929532
1.0334911 0.67131144 -0.15849695
0.51405621 2.1074319 -0.15989831
-0.37032899 2.5479035 -0.15965801
-0.17365955 2.685704 -0.1533244
-0.10117637 -3.1822793 -0.14626415
-0.43379617 -3.1760397 -0.14174363
-0.40730458 -3.0300255 -0.14157091
0.85007763 -2.1147463 -0.14479105
-1.4629289 -1.978543 -0.14916827
-0.27723414 -1.91905 -0.14889605
-1.4108932 -0.26684442 -0.14116099
-1.4197526 -0.16632269 -0.1440127
-0.3675032 0.69075459 -0.14184639
-0.086848468 1.0160183 -0.14594305
-1.5504329 1.0789268 -0.1431502
-0.53695047 1.9989661 -0.14160936
-0.36985427 2.5004156 -0.14409992
0.099305324 3.1161609 -0.14956084
0.23213719 3.1407001 -0.14924276
0.47591737 -3.4119711 -0.133717
-0.027502125 -3.190424 -0.13739531
-1.1493734 -0.5301038 -0.13966997
0.023415279 0.34013212 -0.13562472
1.0725619 0.40467891 -0.13713937
0.86627769 0.45419532 -0.13366672
-0.86537707 0.52258158 -0.13749859
1.024287 0.67315751 -0.13303821
-1.5825043 0.88563359 -0.13828367
-1.3800976 1.970147 -0.13274206
-1.7629825 1.9898531 -0.13368107
-1.5802089 2.0327969 -0.13189968
0.047435444 2.6540499 -0.13076328
-0.372439 2.6886625 -0.13891624
-1.070931 3.0161242 -0.13418292
-0.8965891 -3.2786388 -0.12714991
-0.87326908 -3.2209826 -0.12581933
-0.7223804 -2.1439197 -0.12621519
-0.65165108 -2.1129012 -0.12670794
1.0330381 -2.0212867 -0.12699017
0.85592467 -1.8712835 -0.12844893
0.72453082 -1.3403196 -0.12768552
0.1903211 -1.1772395 -0.12321047
-1.3673497 2.5936258 -0.12221161
-1.413166 2.691097 -0.12096959
-0.51537997 -3.1801736 -0.11521115
0.27078956 -3.135262 -0.11731748
1.3020511 -2.7305193 -0.11658211
0.29736435 -1.8512602 -0.11035852
-0.32708526 -1.6775787 -0.11754429
-1.1637388 -1.3558563 -0.11141057
-0.49081448 -0.4755446 -0.11391039
-1.2024553 -0.46842724 -0.11574113
-0.99391007 2.2174201 -0.11650555
-0.56279355 2.6243644 -0.11948922
-0.88601601 2.6381855 -0.1178515
-1.0345899 2.646678 -0.11964124
0.44849634 2.9211195 -0.11495823
-0.41698891 -3.1800468 -0.10068129
-0.33429968 -3.1772852 -0.10757799
-0.14936516 -3.1704304 -0.10673166
-0.095246248 -2.0780575 -0.10363543
0.44554937 -1.3626434 -0.10373843
-0.8146733 1.2215431 -0.10145893
-1.54241 2.4496393 -0.10930835
-1.5088201 2.6266689 -0.10646524
-0.17070603 2.7267599 -0.10763147
-0.98922908 2.8405554 -0.10080406
-0.35633904 -3.1804967 -0.096181922
0.98062277 -2.0901594 -0.096032895
-0.40598378 -1.8774768 -0.097548679
1.0717422 -1.3943107 -0.092300728
0.93133324 -0.019606922 -0.095490143
-0.3342123 1.0103443 -0.094606124
0.2786997 2.5530801 -0.099365264
-1.436939 -2.0092092 -0.087803587
-0.22484525 -1.7615082 -0.087105542
0.7286697 -1.3589361 -0.085106447
-0.05122932 -0.41072783 -0.080093212
-0.0036518525 -0.40777749 -0.089249715
-0.344583 0.46973667 -0.089595184
-1.1463861 0.53650081 -0.086898513
0.83898354 1.4913578 -0.080949277
-0.85343754 2.0016646 -0.081816897
0.17613064 -3.1852274 -0.073559456
-0.034373753 -3.1608801 -0.076041721
-1.7805089 -2.730046 -0.074092023
1.1225137 -2.2594018 -0.078655832
-0.63451922 -2.0031533 -0.072806202
-0.0015667118 -1.4090536 -0.0750954
-0.72996235 -0.60649991 -0.079529673
0.53099561 0.53844035 -0.079847991
-1.4762102 1.7081412 -0.077729784
-0.10211776 2.3004308 -0.078696854
-0.17470798 2.4972982 -0.079074815
-0.5723809 -3.1744163 -0.064189479
-1.5225554 -2.7299125 -0.062087074
-1.4839711 -2.1654994 -0.060181823
-0.24272892 0.9372946 -0.063621297
-1.4057282 2.9862411 -0.066315271
-1.2770436 3.0542235 -0.06927184
0.11390039 -3.188288 -0.053670254
1.3496605 -1.4136515 -0.057301983
-0.38354057 0.1593287 -0.05297314
0.76081222 1.8565826 -0.055342268
1.3031272 1.9144189 -0.051163498
0.77993304 2.1356757 -0.054616362
-1.6238436 2.193145 -0.059005521
-1.3091978 3.1834354 -0.052547451
-0.30515438 -2.9972496 -0.04472905
-0.86045313 -2.966846 -0.040624678
0.50201237 -2.2473569 -0.04468181
0.47570577 -2.2160971 -0.043062262
0.95918906 -1.9817884 -0.048751365
0.42305595 -1.95208 -0.040509403
0.86202294 -1.384481 -0.047238857
-0.89179265 2.4551582 -0.04315168
0.04429546 -3.1751332 -0.033139851
1.0599355 -1.9410639 -0.035807315
-0.012174383 -1.0106909 -0.038885437
-0.050763518 -0.40630028 -0.030440502
0.94683462 -0.28825438 -0.034772415
-1.2613513 0.39473948 -0.033342425
1.3077413 1.9976438 -0.031466611
-0.54838997 2.7331266 -0.03557523
-1.1228439 2.9435704 -0.037472621
0.2108314 3.0237663 -0.034736697
-1.0495377 3.0412319 -0.03744844
0.16028237 -3.1688595 -0.024124244
0.78139198 -2.579989 -0.020476718
0.70380235 -1.3752276 -0.02787102
-0.054346286 -0.14433281 -0.024629418
0.2966117 1.2110114 -0.022435173
-0.94452626 1.9987491 -0.021876391
-0.95246261 2.6909361 -0.026857024
-0.70441365 3.0721674 -0.029315066
-1.2920272 3.2568655 -0.027057763
-0.30650192 -3.1993999 -0.01282429
-0.68775803 -3.1878057 -0.016508058
-0.36269522 -3.1632524 -0.012702942
-1.3584019 -2.0923257 -0.017918497
0.94893253 -1.9847817 -0.017748669
-0.3152 -1.7278521 -0.016229462
-0.57168227 -1.3814678 -0.012049347
-0.054623358 -0.28277189 -0.018758014
-1.3773088 2.0558898 -0.010969928
0.77988958 2.406249 -0.011380417
-0.86475682 2.9212391 -0.01011186
0.43185306 -3.3615475 -0.0079851709
-1.52189 -2.2878735 -0.0058896095
-1.3655884 -1.9805007 -0.0066023739
-1.2672415 -0.40259525 -0.0082060099
-0.63964385 0.55859911 -0.0065659285
1.0032055 0.63582748 -0.0025863349
-0.32724494 0.72429836 -0.0020882422
0.84139347 1.3487153 -0.00079860911
0.9200474 1.7595854 -0.00117575
-0.88944256 3.2588389 -0.0043175942
-0.71178269 -3.1813378 0.0096769184
-0.20377478 -3.1737072 0.003180176
-0.99187183 -2.1799624 0.0036023636
0.71286094 -0.56986392 0.0018979609
-0.39642543 -0.36094952 0.0027535185
-0.1475624 0.66804689 0.0062538404
-0.11572616 0.6934011 0.0062538395
-0.12218896 0.71118081 0.0062538399
-0.31603447 0.7450105 0.0028904211
-0.5404827 2.7461901 0.00036223454
0.66594315 2.9140577 0.0072603542
-0.46072796 -3.1691651 0.010352448
-0.35281348 -2.2420709 0.010146696
-0.14164633 -1.5721937 0.017794885
-1.0506914 -1.3865509 0.017626733
-1.3007455 -0.23110653 0.014275059
-1.4276 0.27437669 0.013775812
1.1383532 1.7982966 0.010677828
-0.89271915 3.2211092 0.014762044
-1.3923991 -2.1013565 0.022691101
0.95280147 -1.2688193 0.029675804
0.60469818 -0.60678321 0.028318927
-1.3119183 -0.36197016 0.0215331
-0.9584806 2.0402277 0.020185089
0.77986598 2.0808249 0.023230284
-0.091769785 -3.185369 0.031127311
0.12204409 -3.1838794 0.033636495
-0.63826054 -3.1608801 0.036258377
-0.11943983 -2.2654004 0.030798884
0.093703106 -2.214288 0.031555623
-0.12371883 -1.7417268 0.034690145
0.91778553 -0.3318902 0.034880254
-0.10955511 -0.20491917 0.039036922
1.1280296 0.43099642 0.036758944
0.88886499 0.49141234 0.034628339
0.39087099 2.1885581 0.033009812
-1.677457 2.6236622 0.033771675
0.56286228 -2.4437971 0.041649021
0.56440985 -2.325614 0.044214513
-0.28639281 -2.2829287 0.046315655
-1.3481505 -1.4220079 0.044467356
-1.3827798 0.052570641 0.046033125
-0.13844977 0.14433376 0.045365103
0.25808322 1.9600668 0.046172969
-1.3955555 2.0077467 0.044187482
-1.6296465 2.2413311 0.047279488
0.28796685 2.2814152 0.041550487
0.62999636 2.3352261 0.046282701
-0.58421451 2.3597906 0.049183641
0.079694457 2.3625894 0.049080532
-1.6811509 2.5941327 0.042011082
0.77986598 2.6984556 0.04202687
-0.29708993 -3.1791799 0.058645338
-0.75786662 -2.3337705 0.058801621
-0.8204428 -1.3958454 0.054488659
0.59554738 -1.394444 0.050997719
-1.0598893 -0.60236835 0.05007175
-0.087635927 -0.25548452 0.05043181
-1.3090882 -0.02153391 0.056843981
-1.3768607 -0.015688123 0.057556745
-0.94431746 2.0142627 0.059322383
-0.036572501 2.0288424 0.056127414
-0.76421988 2.433892 0.056129463
0.28775132 2.4330282 0.055404611
-1.6667598 2.4574022 0.052852564
0.72969872 2.7221284 0.056079172
-0.19281472 -2.9892356 0.062793635
-0.4568679 -2.5051847 0.064369231
-1.6933061 0.72727895 0.064393863
-1.6831453 1.8933676 0.064536281
0.14031823 2.4874902 0.060460865
-0.33204958 2.5687895 0.068145119
-0.24650079 2.5606759 0.067357488
-1.5077 2.7459979 0.061179359
-1.4152539 2.9045005 0.068748549
1.0432367 3.2453594 0.063413367
-0.13045396 -3.1954327 0.072642565
-0.34034479 -3.0058951 0.073794171
-0.78503847 -2.3512793 0.074227341
-1.2218928 1.9217994 0.076197788
0.74699926 1.9322339 0.079169504
0.75989872 1.9370332 0.077795967
-1.0518302 1.9430178 0.073106267
-1.1003103 1.9663677 0.076018229
0.77986598 2.1176183 0.070484251
0.085110873 2.6175137 0.07237193
-1.1989609 2.6239076 0.074118182
-1.2041121 2.6607764 0.077520184
-0.92948979 2.6818099 0.079151399
-0.19101244 2.6884019 0.078998782
0.77986598 3.1465981 0.07801269
-0.19371472 -3.1938715 0.086151265
-0.63502359 -3.166683 0.084132522
-0.11590672 -2.9914498 0.089746445
-0.093426272 -2.95399 0.08864814
0.28220674 -1.4539014 0.089007154
0.83558261 -0.13928148 0.089049794
-0.9272384 0.16783577 0.089936905
-1.0736525 0.24646427 0.085721888
0.3435663 0.26576132 0.085017577
-1.2851368 0.39886251 0.081534877
-1.3557436 0.48849568 0.089626566
1.020276 0.64215434 0.088634931
-0.7438339 1.7260844 0.088912435
-0.092655793 1.8451538 0.085754201
-0.62789822 1.8646488 0.082958922
0.79963714 1.8889555 0.082428709
-0.34143141 1.9767777 0.086782575
-0.47990146 2.0146868 0.083000854
-0.4247523 2.7149839 0.081644237
-0.69334215 2.7387707 0.08413507
-0.86441237 2.7445199 0.084855497
-0.23962128 2.8019137 0.089445509
-0.2270194 2.8051848 0.089732774
-0.61335015 -2.3761857 0.09524481
-1.7227379 -1.2755051 0.093173645
-0.4112936 -0.53107876 0.098018683
-1.044482 0.066953316 0.098816745
-0.38942859 0.1320561 0.095943928
0.37681428 0.13367982 0.091667466
-0.79179144 0.15755478 0.090469085
0.52766663 0.15567669 0.090543464
-0.79554147 0.16673616 0.090006188
-0.46470073 0.3875486 0.095446698
-0.60997576 1.7196712 0.099694505
0.59579682 1.7925972 0.098186299
0.77986598 2.6272278 0.09066537
-1.5077 2.6756203 0.093326397
0.31038755 2.8145218 0.090252303
0.54656982 2.8548858 0.093812987
-1.5981323 3.2377956 0.096996963
-1.328872 3.2377582 0.097103484
0.25201601 -3.2085764 0.10352655
-0.63511789 -3.1919553 0.10430564
-0.61742055 -3.1810982 0.10438661
-0.78075415 -1.8802533 0.10847731
1.0199707 0.61929381 0.10300636
0.85137892 1.408897 0.10683791
-0.68290544 1.6917138 0.10770386
-0.51680607 1.6954159 0.10563106
0.3533943 1.7138628 0.10544125
0.38071054 2.041064 0.10969923
0.47099769 2.8672204 0.10474804
-1.0322169 2.9640045 0.10526106
-0.64005131 2.989691 0.10718976
0.62977481 2.992435 0.10633689
-1.22677 3.1463411 0.10503034
-0.68365175 -3.1838779 0.1173877
-1.23649 -2.6767471 0.11259782
-0.021264326 -2.6087837 0.11610015
0.022000432 -2.5973415 0.11855321
-0.13305479 -1.6895413 0.11404544
-1.707317 -1.4424653 0.11772319
0.84080744 -1.4414864 0.11421759
-0.24105832 -0.2191254 0.11668754
0.86445469 -0.015609698 0.11799438
-0.62540412 0.011873681 0.11169745
0.70443779 0.06700334 0.115633
-0.11513731 0.14962451 0.11833205
-0.77108634 0.59961236 0.11477952
-0.13888133 1.1730235 0.11124951
-0.8032198 1.6332817 0.11665159
0.82403851 1.7502156 0.11475587
-1.2110517 1.9453503 0.1127179
-0.36483479 1.9928957 0.11890583
-1.4130616 2.3903689 0.11270704
0.59873164 2.9453382 0.11280508
-0.52936351 3.0753565 0.11495757
0.19421887 3.1247177 0.11869743
0.54272479 3.1380513 0.11968999
-0.35295099 -2.9747419 0.12678596
-1.23649 -1.9075363 0.12822831
-0.27831337 -0.58067644 0.12762684
-0.38196409 -0.41813007 0.12176879
-0.2743403 -0.41200289 0.12476224
-0.23486362 -0.36794221 0.12229434
-1.2161345 0.14177653 0.12443079
-1.0432656 0.58393323 0.12933566
-0.63093996 1.5427752 0.12769857
-1.2792015 1.9311817 0.12675041
-0.71542829 1.9940968 0.12163922
0.010012835 2.0745893 0.1214973
-1.659193 2.680069 0.12943092
-1.5394063 2.8523533 0.12089461
-1.7246184 2.980844 0.12495674
0.34178001 3.2011986 0.12557803
-1.184622 3.5219288 0.12683517
-0.010723154 -3.1957748 0.1307337
-0.64728999 -3.1887279 0.13891599
-0.63252282 -3.1776874 0.13364975
-0.46285516 -1.3038099 0.13278483
-1.7805541 -1.2924198 0.13992932
-0.39565244 -0.56834209 0.13177477
-0.37422955 -0.5657748 0.13283001
0.63642418 -0.10870512 0.13623506
-0.57530415 1.5031545 0.13264127
0.32274985 1.50613 0.13387582
-1.4965174 1.8588659 0.13520786
-1.7237266 1.9498796 0.13036947
-1.6351752 2.6819458 0.13243975
-0.95472723 3.2651713 0.13291734
-0.16614559 3.2618542 0.13173209
-0.72836012 3.2987149 0.13575476
-1.1774693 3.5671906 0.13988487
-0.50919795 -3.1823666 0.14600953
-0.89762938 -0.16243379 0.14795575
-0.32238954 -0.15300028 0.145404
0.45004237 0.39354473 0.1462048
-0.0050419495 1.4033185 0.14926474
-0.9746263 1.4251705 0.14546607
0.7109403 1.5017874 0.14087674
0.53498518 2.0018625 0.14642662
-1.6475642 2.581954 0.14915635
-1.1767516 3.3960533 0.14522152
-0.52387142 3.4319389 0.14779893
-0.44468749 -2.9928637 0.15921727
-1.6036626 -2.6747077 0.15332168
-0.5378136 -2.6351368 0.15553989
-0.83069742 -0.20545223 0.15696612
0.024325637 0.40241963 0.15697633
1.0176591 0.78849423 0.15788436
0.5900712 1.3625147 0.15646611
0.83199596 1.4338083 0.15693702
-1.3056307 1.5170337 0.15022685
0.77986592 2.2092533 0.15262431
-1.0925984 3.4536607 0.15043429
-0.1401234 3.4623823 0.1501752
0.3096568 3.4688601 0.15027021
-0.57538056 3.580826 0.15013592
-0.61585307 -3.1844971 0.16541085
0.13170083 -3.178843 0.16883034
-0.80081809 -2.348974 0.16587129
0.015222791 -2.3498693 0.16282605
-0.33560652 -0.44857308 0.16565251
-0.073828712 0.1497566 0.1677233
-0.047043856 1.1962155 0.1629958
-0.88139427 1.2992985 0.16618788
0.6742869 1.304009 0.167393
0.70157057 1.3377345 0.1638961
-0.200423 1.3420379 0.16414846
-1.2444713 2.0495019 0.16296716
0.02410675 2.110502 0.16636305
-1.3529224 2.3392904 0.16418132
-1.6293795 3.10973 0.16358274
-0.16044453 -3.1924915 0.17617103
-0.25170115 -3.1877012 0.1747807
0.201269 -3.1824217 0.1710244
0.12900108 -0.57516038 0.17132944
-1.3167105 -0.31470618 0.17660952
0.97476923 0.67311823 0.17337763
0.58556247 1.2314929 0.17842357
0.53810656 2.0562189 0.17010641
0.71890187 2.0555167 0.17302699
1.1097462 3.2099807 0.17625512
0.25201601 -3.1652203 0.18228596
-0.013082514 -2.3084929 0.18982175
1.3432385 -1.3064251 0.18783098
1.1089804 -1.2890836 0.1887989
-0.052265346 -0.52934569 0.18167284
0.64934814 -0.3437939 0.18560901
0.56187391 -0.33729592 0.18428493
-0.091189437 0.25771907 0.18643454
-0.27596444 2.1392193 0.18271859
0.16325399 2.1710057 0.18788281
-0.64409447 2.187732 0.18933401
-0.40457886 2.1967402 0.18414965
-0.19859859 2.243113 0.18342647
0.14114395 2.3449874 0.18870591
-0.088093437 2.4395299 0.18653718
-0.38338903 2.443774 0.1866892
0.77986598 2.5141141 0.18726061
-1.3280005 2.5313907 0.18248199
-0.37801796 2.5737114 0.18789463
0.0035309121 2.5733881 0.18855721
0.078055784 2.5913186 0.18921307
-0.055688687 2.9002886 0.18868113
-0.025297623 3.0414505 0.18979858
-0.43504947 3.14042 0.18989137
-0.12613805 3.4898529 0.18592475
-0.20022073 3.5099001 0.18332359
-0.96197134 -3.3666866 0.19818431
-0.4357782 -3.1879184 0.19852412
-0.79637879 -2.371526 0.19533168
-0.501499 -2.217705 0.19514278
1.3482634 -1.3749021 0.19195846
-0.40556112 -0.98431367 0.19520946
-0.011441032 -0.98087311 0.1914483
-0.014954171 -0.44573501 0.19994627
-1.2433933 -0.094637468 0.19025573
-0.060992043 0.016984217 0.195434
0.82462871 1.9903823 0.19372797
-0.65021598 2.1184599 0.19146493
0.36231697 2.1518648 0.19730572
-1.666641 2.1684811 0.19839841
-0.74723172 2.5521488 0.19828764
0.22669691 2.6075611 0.19570798
-1.28046 2.8032126 0.1926416
0.061234232 2.8109856 0.19149336
-0.50889093 2.9708881 0.19270669
-0.51677597 3.00811 0.19299662
-0.53526145 3.0139029 0.19367629
0.21671836 3.3950057 0.19969729
0.20194346 3.5934005 0.19269703
-0.70992607 -3.1614499 0.20833002
-0.38240263 -3.0137084 0.20142576
-0.37944546 -2.9751768 0.2029763
-1.045938 -2.6943085 0.20175555
-1.23649 -2.5988753 0.20637938
-0.72479486 -2.1691413 0.20072779
-1.1424204 -1.4382911 0.20189217
0.90247899 -1.4298332 0.20403115
-1.6480867 -1.2545273 0.20399094
-0.68653572 -0.42681456 0.20783995
1.2057306 1.9733759 0.20332007
0.74013364 2.0268042 0.20656215
0.60346079 2.1294899 0.20311466
-0.20418988 2.1461825 0.20968987
-0.84998614 2.4025011 0.201617
-0.7673552 2.6749494 0.20059839
0.28191563 2.7571645 0.20001169
0.31199354 3.3325272 0.20439202
0.135647 -3.180373 0.21635683
-0.64772367 -3.1723428 0.2133754
-0.71294957 -3.1672034 0.2100006
-1.7438542 -2.65659 0.21914107
-1.23649 -2.4584236 0.21472014
-0.27113876 -2.2801685 0.21177489
-0.10905142 -2.0536227 0.21573777
0.78139198 -2.0206454 0.21131676
-1.376073 -1.9986407 0.21042998
0.59182197 -1.6953192 0.21400435
0.74020404 -1.4334952 0.21742137
0.0051611154 -1.1323988 0.21117477
0.64993608 -0.4492293 0.2111491
-0.37526482 -0.2324867 0.211658
0.01770822 -0.22188494 0.21219911
-0.37093037 -0.10481864 0.21934339
-0.88643247 2.036257 0.21439078
0.12170247 2.0398564 0.21203336
0.77986598 2.438385 0.21254811
0.010918394 3.5995688 0.21006453
-0.55964541 3.6010189 0.21624172
-0.25485408 -3.2903719 0.22294316
-0.38924637 -3.1938634 0.22868723
-0.30840796 -2.3679857 0.22963886
-0.75371456 -2.3475769 0.22649795
-0.16950151 -2.2880092 0.22321492
0.08514677 -2.2177999 0.22528169
-0.3037371 -2.1173263 0.229792
-1.328975 -2.0398366 0.22539008
-1.4123316 -1.4741724 0.22081013
-0.41088331 -0.60658675 0.22555338
0.63128603 -0.55397308 0.22424394
0.093982689 -0.54041278 0.22615406
-0.98857898 -0.51570129 0.22443938
-1.2361232 -0.23793568 0.22329319
-0.085650131 -0.044480439 0.22220568
0.075213253 2.1566191 0.22191437
0.44169149 2.6688747 0.22885801
-0.89065993 2.8627808 0.22544722
0.43533725 3.0788789 0.22725996
-1.6729724 3.1903877 0.22311071
0.43594807 3.6003859 0.22856787
-0.91624653 -3.2280719 0.23290211
0.00086003169 -3.1810706 0.23047209
-1.0545694 -2.9519782 0.23825265
0.59689736 -2.7482219 0.23783726
0.28079769 -1.7917682 0.23296535
-1.797941 -1.3755736 0.23258775
0.010614628 -1.239733 0.23488802
0.083439678 -1.2070866 0.23058107
0.020168293 -0.46292239 0.23753084
-1.26559 -0.23179153 0.23738693
-0.083228894 -0.091170006 0.23804587
0.88709635 -0.080773249 0.23216949
-0.35103071 0.54107893 0.23181349
0.36608905 0.60018146 0.23790285
-0.79668671 0.64446461 0.23669113
0.14282173 2.1640799 0.23095165
-1.28046 2.6158376 0.23468491
-0.64687127 -3.2502041 0.24364218
-0.24165228 -3.162245 0.24194117
1.024994 -2.6420751 0.24135391
-0.30886284 -2.4223228 0.24064195
-0.1054197 -2.0595608 0.24105893
-0.25758529 -0.64272577 0.24136573
0.84635854 -0.38261816 0.24394192
-1.3101327 -0.2826103 0.24895671
-0.58601058 2.1569581 0.24087456
0.082099289 -3.1964889 0.25102973
-0.021385077 -3.1850679 0.25055638
-0.24607536 -3.1759698 0.25820667
-0.30060026 -3.1614499 0.25699824
-0.43219328 -2.7248249 0.25387898
-0.14428547 -2.4835789 0.25275236
-1.23649 -2.3587933 0.2561709
-0.28225741 -1.8706821 0.25993124
-0.88942671 -1.4645925 0.25635535
-0.84036112 0.42629528 0.2583977
0.55111551 0.6560874 0.25988892
-1.4223866 0.67832994 0.25118968
0.70276892 2.0507236 0.25010318
-1.6244256 2.4926286 0.25003439
-1.276238 2.6854362 0.25548369
-1.2936354 3.1662304 0.25594673
0.68651968 3.5793133 0.25153354
-0.4624911 3.6118412 0.25032744
-0.25921473 3.6154628 0.25914666
0.5082491 -3.2441344 0.26895404
-0.66216284 -3.1988299 0.2663722
-0.27055877 -3.1647956 0.26755059
-1.6965868 -2.6273141 0.26157305
0.80383694 -2.6223679 0.26834822
1.3206213 -2.6274371 0.26140442
-0.0086452654 -2.5662737 0.26323086
1.2980635 2.1899328 0.26008037
0.21071908 -1.5543162 0.27731356
-1.8051493 -1.4518497 0.27165172
-0.15412828 0.12707916 0.27361518
0.61343265 0.42751732 0.27553645
-0.099083006 0.56657422 0.27184302
-0.19892468 2.0544176 0.27097908
-0.78047895 2.0691583 0.27918816
0.18763781 2.0690823 0.27460831
0.069042876 2.2037389 0.27902478
-0.94315553 2.6083093 0.27771077
-1.3849766 3.0102015 0.2702477
-0.95155013 3.3305452 0.27279815
0.10242905 -3.1893256 0.28602761
0.073640995 -3.1798835 0.2894873
0.6041913 -2.7791636 0.28406855
-0.66172814 -2.6487422 0.28870144
-0.58923131 -2.4116445 0.28091031
0.60126829 -2.204433 0.28734893
0.78139198 -2.207782 0.2810947
-0.44141442 -1.5507545 0.28437549
-0.98109972 -1.4714565 0.28706366
-1.3492655 -1.2306268 0.28038624
-1.2892604 0.41159332 0.28137627
0.29367116 0.61380398 0.28349954
0.77986598 2.3010609 0.2875497
0.52320987 3.3419709 0.28534648
0.57084483 -3.3749921 0.29857591
0.7778613 -3.2517643 0.2902481
-1.3570583 -3.1691103 0.29404747
-1.3417954 -3.1689019 0.29493454
-1.5729132 -3.0867858 0.29032338
-0.22490066 -2.7548435 0.29515246
-0.92563939 -1.4723252 0.29349703
1.2517533 2.1235037 0.29824111
-1.7168083 2.4302154 0.29875121
-1.3268061 2.9828813 0.29225659
-0.97874314 3.6113267 0.29428199
-1.1742997 -3.2437043 0.30130261
-0.22174443 -3.1613197 0.30737856
-1.5761368 -3.1062248 0.30270407
1.1734493 -2.9915814 0.30849552
0.38693824 -2.9891846 0.30578518
-0.10001698 -2.7209013 0.30089119
0.60379666 -2.420146 0.30693179
0.87170804 -2.021486 0.30982089
0.49799448 -1.7504178 0.30736813
-0.76638049 -1.507152 0.30662543
-0.67264897 -1.2687064 0.30350435
0.61365288 0.62124014 0.30282855
-1.4740824 1.9684254 0.30247867
-0.40872189 2.2165172 0.30476394
-1.22677 2.6468308 0.3062498
-0.96162581 2.6463795 0.30694884
-0.45618752 -3.0746498 0.31430829
-0.41053826 -2.8132043 0.31836
-1.2767631 0.54586613 0.31768408
-0.5595938 2.2191563 0.31591827
0.17375436 2.2311969 0.31215957
0.77986598 2.4059968 0.31986067
0.52227712 3.108279 0.31387463
-0.418275 -2.8385186 0.32527995
-1.23649 -2.4801972 0.32083863
-1.4540284 -2.0673327 0.32135952
-0.32053217 -2.050153 0.32482865
-1.3544023 -1.9895508 0.32607999
-1.8163238 -1.5853581 0.32267269
-1.6125544 0.47963068 0.32760036
-0.84374547 0.62824821 0.32914054
0.95584458 0.66775203 0.32199124
0.21009168 2.0927687 0.32442978
1.1787274 2.1396339 0.32356095
-1.0530405 3.3698592 0.32040703
-0.12057227 3.546695 0.32171619
0.038003732 -1.0517685 0.339735
-1.4623375 0.77768278 0.3316533
-1.6794045 3.1116199 0.33017614
-0.027104771 3.5453415 0.33481848
-1.7342751 -2.7678137 0.34172553
-1.7697065 -2.6638169 0.34620076
-0.822348 -2.2603672 0.34614918
0.8489517 -2.0500565 0.34555641
-0.64613897 -1.4826479 0.34715474
-0.55047429 2.2435727 0.34511146
0.63152838 -3.3209639 0.35457706
0.64465725 -3.3267803 0.35369593
0.70550442 -3.2959652 0.35647985
-1.4886166 -3.1341136 0.35937172
1.1768093 -3.0176694 0.3550961
-1.3057334 -2.0732546 0.35481167
-1.4058568 -2.0174241 0.35236377
-0.89920723 -1.484071 0.35811719
0.3726728 -1.4825302 0.35144079
-0.16148357 0.61275375 0.35774982
1.0429931 0.81288695 0.35827574
-1.5795099 2.1627603 0.359864
-0.19413385 2.2681947 0.35794875
-1.2267699 2.638597 0.35756516
0.24272424 3.5477209 0.35270995
0.24170692 -3.1888943 0.36299095
-1.3435967 -3.138073 0.36155304
-0.6435045 -3.1259539 0.3635118
-1.102494 -3.1162765 0.362353
-1.1941751 -3.1068912 0.36422426
-1.2155044 -3.0881448 0.36529601
0.83416563 -3.0718341 0.36750564
0.74074608 -3.0129995 0.36512786
1.0517364 -2.9702964 0.36191809
-1.6317165 -2.8794854 0.36715612
-0.80653405 -2.6083694 0.36793756
0.80609828 -2.5516233 0.36525089
-1.23649 -2.4058449 0.36967939
0.0094538787 -2.2574108 0.36059648
-1.3024107 -2.0606022 0.36034739
-1.4739828 -1.1974776 0.36484915
-0.75646716 -1.1021163 0.36765897
0.27529734 -1.0957549 0.36214194
-0.90213096 0.63861322 0.36204812
-1.4079509 2.3919752 0.3671478
0.31580129 -2.9894245 0.37434441
-1.4507282 -2.8960924 0.37662396
0.97374511 -2.7983356 0.37145531
0.35327399 -1.8445163 0.37506127
-0.68628401 -1.0895972 0.3789047
0.39995509 -1.0836631 0.37910548
-0.058408774 0.31308606 0.37340009
-0.03182653 0.52641529 0.37049693
-0.25394788 0.57033712 0.37899813
-0.40995175 2.0495167 0.37985906
-1.2237983 2.0528922 0.3739956
0.64385664 3.3335757 0.3754766
0.78123063 -3.0669425 0.38976452
-0.12152275 -2.5823722 0.38202173
-0.78720498 -2.4013331 0.38054657
-0.78720498 -2.2028644 0.38321102
-1.0721042 0.64655578 0.38585007
-0.94323444 0.64657569 0.3873868
0.063986607 0.649647 0.38789275
-1.4577787 0.78193462 0.38449198
-0.43008024 2.0471919 0.38890585
-0.54851222 3.555022 0.3833046
-1.1174232 3.5707953 0.38517326
-0.46100426 3.5847564 0.38592437
0.21985024 3.5939555 0.38692635
0.89331949 -2.9466567 0.39490932
1.0935092 -2.8501899 0.39296213
-0.1620571 -2.3878593 0.39065149
0.6943363 -1.4904653 0.39833349
1.0028369 -1.0942489 0.3938342
0.037516471 -0.9892841 0.39878377
-0.48973477 -0.95016253 0.39767224
-0.78503096 0.50850159 0.3989566
-0.10800073 0.60930252 0.39972776
1.1046282 0.80245364 0.39376527
-1.4046543 2.1900392 0.39339572
-0.42839155 2.2924511 0.39973679
0.52869898 2.3255332 0.39414495
-1.22677 2.7175584 0.39379919
-1.648617 -2.5170672 0.40635023
0.02430464 -2.5175667 0.40647155
-0.093388163 -2.413424 0.40602782
1.3618 -2.4139533 0.40700591
0.8276158 -1.6200324 0.40896034
0.18193989 -1.5651671 0.40760249
0.54960233 0.48293734 0.40840006
-1.4910125 0.81505299 0.40072164
-1.3008591 2.0359507 0.4023231
-0.38730967 2.0638285 0.40330136
-1.4890096 2.7406857 0.40352249
-1.00534 2.8104694 0.40999216
-1.2571169 -3.0866482 0.41502258
1.1931136 -2.9331813 0.4121272
-1.3622122 -2.8714583 0.41252553
-0.034527242 -2.6558771 0.41371971
-0.83102596 -2.5451045 0.41112572
-0.3522324 -2.5134187 0.41208908
-1.0732386 -2.3325944 0.41411084
-0.70406473 -2.0718894 0.41344404
1.3543541 -1.6383466 0.41621041
-1.3213043 -1.1885122 0.41197595
0.5662002 3.0859067 0.41097119
0.60526067 -3.0984018 0.42805439
-1.3774631 -2.9913909 0.42136165
0.87134951 -2.8965302 0.42795208
0.78139198 -2.260608 0.42422998
-1.0738559 -2.2307439 0.4263027
-0.76950169 -1.5402319 0.42918366
-0.52539712 0.6590234 0.4222936
0.67304111 3.3671842 0.42358238
0.07663767 -2.879266 0.43235749
-0.038977142 -2.6062925 0.43210733
-1.4293655 -2.4708862 0.4349727
0.62273115 -2.4697332 0.43098223
-0.67937583 -2.1295359 0.43105781
0.61905992 -2.0665884 0.43024528
-1.7894638 -1.6582355 0.43716118
0.3917416 -1.2968311 0.43151689
-1.0343263 0.4901562 0.43060777
1.0220144 2.0624866 0.4312712
0.18398711 2.1393354 0.43206096
0.31596959 2.1376333 0.4336209
0.52881825 2.1322918 0.4301191
0.86152703 2.2699585 0.43680909
0.53522968 2.331768 0.43570015
0.82922208 -3.1383078 0.44716814
-0.87015152 -2.9667788 0.44805926
-1.3822489 -2.9579616 0.44911486
-0.080734655 -2.693258 0.44091526
-0.028827727 -2.5010655 0.44527251
-0.4421562 -2.1770968 0.44481319
-0.0030176491 -2.1512721 0.4429799
1.0398617 -1.6753538 0.44896126
1.1873325 0.63033909 0.44876063
0.83866352 2.2840028 0.44443819
0.58909917 2.3188162 0.44894654
0.8332842 2.9904809 0.44059944
-1.5785692 -3.0159092 0.45612764
0.9612245 -2.1246157 0.45751831
0.72820157 -1.0351337 0.45164749
-1.1691377 0.45920765 0.45433217
0.66539186 0.50137794 0.45880336
-1.3843527 0.65451759 0.45502225
-1.2267702 2.4493413 0.45668256
1.2284404 2.9539189 0.45893532
-0.63784063 -3.1485817 0.46197468
0.27166748 -2.6495011 0.46251369
-0.75966358 -2.4667506 0.46796972
0.97889316 -2.4259229 0.46284053
0.15558624 -0.99913561 0.46788758
-1.2951287 0.50503772 0.46441096
0.62162107 3.1944923 0.46915179
1.2071526 -2.871995 0.47844663
0.15830848 -2.4477458 0.47653204
0.32666475 -2.3747616 0.4789871
1.1715589 0.54131418 0.47587937
0.93055397 0.69861561 0.47849327
1.0373142 0.81638861 0.47718158
1.2528024 2.1605411 0.47536659
-1.1895719 -3.0997019 0.48470014
0.96551108 -2.9206431 0.48016018
-1.6695333 -2.845027 0.48128122
0.14837642 -2.8337548 0.48262918
-1.0940573 -2.1739247 0.48175713
-0.70661956 -2.1795194 0.48185343
-1.2508068 -2.10151 0.48421279
-1.3061436 -2.0987144 0.48644578
0.44232991 -1.9469827 0.48756391
1.0242684 -1.1022768 0.48389632
-0.97833353 -0.9895407 0.48745269
-1.4579271 0.56428289 0.48137957
-0.060743771 2.1604834 0.48916709
-1.630113 2.908489 0.48171869
0.97630703 2.9037075 0.48411649
0.38239223 -3.112781 0.49605551
-1.5621831 -2.8332036 0.49322951
-0.20713143 -1.9609114 0.49119532
0.017035816 -1.9589928 0.49383605
-0.39905068 -1.6360881 0.49929217
0.26856411 -0.66700852 0.49655414
0.51682514 -0.63670671 0.49413267
-1.1270664 0.51173973 0.49164855
0.63695037 0.51789486 0.49409786
-1.2880718 0.55672282 0.49075246
0.6367715 0.68099982 0.49866492
0.75718248 2.0922689 0.49966744
0.23451132 2.3327143 0.49323538
-1.5080523 2.3770037 0.49495789
0.77986598 2.8076794 0.4981361
0.65931654 -2.8948669 0.50658661
0.17982334 -2.4047766 0.50470304
-1.7354681 -2.3518488 0.50875109
-1.1114104 -2.2585201 0.50805104
-1.3420935 -1.5080824 0.50181395
0.5365743 -1.0244614 0.50653565
0.077131703 -0.96752435 0.50217378
0.44852826 -0.67112821 0.50182599
0.271956 0.68229091 0.50734586
0.17354646 2.336982 0.50200927
-1.1721311 3.430562 0.50519603
0.22996807 -2.3850865 0.51644468
0.25475389 -2.2966547 0.5133999
-0.66085172 -2.1918001 0.51939833
-1.112045 -2.0722854 0.51276094
-1.5763063 -1.7718801 0.51549929
1.2853738 2.4997132 0.51567209
0.39997727 -0.63537788 0.52612072
1.284073 2.4060638 0.52311891
-1.1443599 -3.0463033 0.53397274
-1.5110967 -3.0199614 0.53511631
0.43683195 -2.9342608 0.53029847
-1.5520209 -2.8485503 0.53121305
0.19915703 -2.6878009 0.53489411
-0.015854657 -2.4272327 0.53144622
0.20012426 -2.3382349 0.53236133
0.27332836 -1.579703 0.53755039
1.1157387 2.5606625 0.53216726
1.1707563 2.564157 0.53272426
0.85211778 2.573288 0.53417814
0.92203218 2.6650705 0.53549719
0.91394436 -2.9646654 0.54428118
-1.5087426 -2.9560678 0.54521602
0.30058849 -2.6887393 0.54009265
0.73799598 -2.4716752 0.54362994
-0.88684171 -2.2677617 0.54247522
0.33434683 -1.934938 0.54551661
0.56231976 2.6461987 0.549245
-1.019033 2.6978321 0.54595828
0.57262921 2.9258866 0.54612529
0.47625238 -3.0720658 0.55967307
0.90506774 -2.9194636 0.55255431
0.05069796 -2.4038978 0.55173886
0.30734083 -2.3155229 0.55674875
0.69917601 -2.0576053 0.55910224
-0.8355884 -1.9996867 0.55852973
0.41663489 -0.81682432 0.55248857
-1.5964863 0.79913771 0.55470723
0.69986373 -3.1092296 0.56305969
0.38164124 -3.0859668 0.56664127
-0.011869557 -2.6973295 0.56128967
0.33057541 -2.6760449 0.562415
0.007504344 -2.6106689 0.5637055
0.81994987 -2.467571 0.56370676
-1.1493083 -1.6792338 0.5644213
0.25397074 -0.91933894 0.56269395
0.37242103 -0.68211663 0.56268525
-1.1473781 0.52771515 0.56714571
0.62101364 0.70165092 0.56656349
-1.2606963 2.1263621 0.56712878
-1.0300392 2.9329081 0.56161666
-1.6707857 -2.739466 0.57190359
-0.84729421 -2.6929049 0.57117987
-0.0060299449 -2.350637 0.57914186
1.3252609 -1.9261336 0.57159972
0.71387488 -1.87769 0.57768399
-0.92112178 -1.550648 0.57177657
1.2080572 2.2066996 0.57263887
-1.7224669 2.335732 0.57394338
-0.51215553 -3.0917447 0.58624482
-1.4016652 -2.9693785 0.58332205
-1.4653945 -2.9384255 0.58400178
1.0410018 -2.8744843 0.5842458
-0.011879927 -2.6517651 0.58579993
-0.78720498 -2.5073276 0.58482218
0.28640229 -1.9394271 0.58366466
1.1555288 0.62238789 0.58990753
0.57569456 2.2029655 0.58662206
0.32190177 2.3691826 0.58439547
0.70167321 -2.9365869 0.59022892
-1.6572573 -2.7608662 0.59423423
0.28015426 -2.6523287 0.59539157
-1.4776078 -2.5263608 0.59838349
-1.2162488 -1.8271197 0.59084922
-0.24311975 -0.8731935 0.5900166
1.2472225 2.7884288 0.59030414
-1.2281798 -3.1015935 0.60522413
0.50795835 -2.2619731 0.60803455
-0.94389242 -2.1972976 0.60638797
-0.44998807 -2.1697669 0.60588002
0.40817928 -1.9288406 0.6079247
0.64975268 -1.5466026 0.60014737
0.40541983 -0.64360112 0.60269976
0.16305146 0.5778352 0.60722363
-1.1188904 0.71400696 0.60669768
-0.37648189 2.1419909 0.60691845
0.79210114 2.1498344 0.60074997
-0.28401458 2.1994281 0.605802
-0.69929171 2.380167 0.60989183
-0.33219382 2.3800178 0.60155791
-1.7111325 2.5454202 0.60552132
1.0250072 -2.7940779 0.61408043
1.2882406 -1.8155131 0.61949754
1.0689849 0.81355655 0.61704886
-0.47692752 2.2234344 0.61978602
-1.6509105 2.2320926 0.61855823
0.1889185 -2.9854341 0.62447953
-0.94969839 -2.50387 0.62847465
-1.3505183 -1.6565912 0.62274861
-0.88714391 -0.94261235 0.62104994
0.35573035 -0.68250597 0.62453032
0.52254522 0.71931338 0.62543494
-1.2518953 2.1929142 0.62900776
-0.51658666 -2.9526386 0.6355266
-0.25171369 -2.9546247 0.63841242
0.072563373 -2.9526415 0.63547909
0.50016409 -2.8966017 0.6396668
-0.23297819 -2.8015389 0.63701344
-1.4179505 -2.7838655 0.63473141
-0.25363851 -1.9951332 0.63022292
-0.257285 -1.6926391 0.63665944
-1.7258408 -1.5999721 0.63214439
-1.0909992 -1.5578386 0.63824344
0.51121902 2.2247324 0.63324523
0.38003615 2.3907063 0.63926667
-1.60674 -2.8067412 0.64914048
-0.73750824 -2.7194383 0.64987957
-0.68572003 -2.1266768 0.64418268
-0.12017006 -1.6933455 0.64190906
0.15531388 -1.6364114 0.64336532
0.55565512 -1.1231903 0.64095157
-1.2998924 0.47895372 0.64371306
-1.4970069 2.2005973 0.64293104
-1.1073414 3.2003422 0.64790988
0.66936409 3.2345896 0.64355785
0.75186801 3.4422004 0.64485753
-0.51173145 -2.9056239 0.65252316
-0.5503006 -2.8974857 0.6530627
-0.65040326 -2.0852389 0.6576466
-0.42103645 -1.6830931 0.65250772
-1.4504378 -3.0201192 0.66438591
-0.46531349 -2.8502586 0.66855699
-1.4669261 -2.0823951 0.66940039
0.53778976 -0.95626903 0.66694826
0.26852128 -0.77018023 0.66664886
0.79063439 2.1625555 0.66803414
-0.10586356 2.2328992 0.66767412
0.58675528 2.9015071 0.66141361
-0.34508201 -2.6778874 0.67110264
-0.031465881 -2.5824463 0.67332834
0.093763225 -2.5645025 0.67024201
-0.98939663 -2.50387 0.67050838
-1.7096126 -1.529835 0.6708129
1.0346251 2.2186201 0.67495996
1.2549738 -1.9658281 0.68961471
1.0404342 -1.0473282 0.68130237
0.17921515 0.61243367 0.68496782
0.55448884 0.73882902 0.68915957
0.61292738 0.7365635 0.68117738
-1.5743483 -2.8000896 0.69748461
-0.91221404 -2.6027021 0.69961894
-1.4753621 -1.923533 0.69028431
-1.4960822 -1.0480953 0.69223881
-0.89129895 -0.96177745 0.69279933
0.6318928 0.74056792 0.6941365
-0.52878022 2.2561932 0.69352371
1.1877807 2.8951352 0.69646758
1.1579387 -2.6741991 0.70828837
1.2391671 -2.0985377 0.70984423
0.24492256 -0.97371405 0.70945323
-0.93497849 -0.96701628 0.70757049
0.020515509 0.53450286 0.70206714
0.83482021 0.55037546 0.70664722
0.97427642 0.72886693 0.70088315
1.0314102 0.82212955 0.70182312
0.66797328 -0.71774352 0.71504402
-0.51107311 2.4251378 0.71858346
-1.6147518 3.171597 0.71513373
0.75588095 3.4014442 0.71079701
-0.26646841 -2.6106653 0.72648853
-0.82541108 -2.6005716 0.72868961
-0.12526454 -2.5061042 0.72994196
0.43784073 -1.9271235 0.72779983
0.36582798 -1.1185731 0.72866505
0.65513372 -1.0042496 0.72504252
0.68238097 -0.99716878 0.72385144
0.40338719 0.74887419 0.7235359
0.042995676 0.75852668 0.72595239
0.00047658756 0.77138799 0.72118193
1.0414312 0.82069761 0.72030479
-1.6303703 -2.5484748 0.73049015
-0.07022994 -2.4505081 0.73980463
0.41824991 -2.0540159 0.73088235
0.61956459 -1.1113341 0.73967844
-1.4509659 2.2509804 0.73967063
-1.0328242 2.2658405 0.73095858
-0.36506319 2.2640712 0.73378193
-1.6537551 2.6330516 0.73983216
0.64525843 3.1755743 0.73198235
-1.3606814 3.4042313 0.73507828
-1.6033494 -2.6199365 0.74026459
-1.5035503 -2.0562139 0.74743438
-1.272645 -1.2186201 0.74181217
-0.84051549 -2.4564776 0.75723159
-0.68011361 -2.3384991 0.75967485
-0.17487593 -1.7432452 0.75968754
0.28914627 -0.88304925 0.75675231
-1.0660714 2.9363236 0.75479293
-1.5337692 -2.4080169 0.76944381
-1.6801809 -1.9053761 0.7659862
0.99288666 -1.5405165 0.76009393
1.2233365 -1.487415 0.76501203
0.49845415 0.64408386 0.76650202
-1.2619063 0.72793806 0.76422149
-0.78070623 -2.3914733 0.77253115
-0.58370602 -2.2696056 0.77667516
-0.64700913 -2.2494042 0.77548015
0.49699479 -1.1305891 0.77888095
0.78517425 0.78482538 0.7774688
-1.5485263 -2.519208 0.78301811
-0.074847095 -2.2005875 0.78413999
0.9914636 -1.5480093 0.78597128
-1.6708262 -1.4870272 0.78486431
1.2171524 -1.3942893 0.7804994
0.20369954 -1.1320754 0.78585386
0.649167 -0.70005518 0.78670323
-1.4419526 3.3825316 0.7800045
0.8772468 3.4025347 0.789002
-1.5494992 -2.601197 0.79485273
1.211291 -1.7098787 0.79157031
-1.66766 -1.4170276 0.79270357
-1.2813554 -1.0619169 0.79937792
0.31596005 -0.74464303 0.79567504
-0.41127348 0.56356072 0.7959646
0.71491933 0.61584997 0.7982111
-1.2213273 2.267472 0.79259801
-0.77649963 2.29848 0.79715443
0.63013858 3.0004466 0.79478586
1.2049578 -1.8532853 0.80732763
-1.4561298 -1.0351076 0.80590558
-0.023260577 -0.9697063 0.80127025
0.71829939 3.3145423 0.80107832
0.032224022 -2.1188209 0.8184967
-0.059537835 -2.0401821 0.81673479
-1.5111564 -1.7868391 0.81085807
-1.0086288 -1.6117525 0.8166455
-0.11475785 -1.0389259 0.8155334
-0.16136624 -0.99667555 0.81004637
1.1189246 0.62215304 0.81458986
0.595011 0.66719288 0.81169206
-0.44237334 0.68567324 0.81495917
-1.2116332 2.3961093 0.81685197
0.16032177 2.4661791 0.81690943
-1.6370509 2.5850348 0.81988645
0.66204363 3.1669648 0.81062889
1.1295416 3.1978052 0.81598598
-0.10359742 -2.1211801 0.82087559
-0.34346431 -1.7476497 0.82096094
-0.96799773 -1.020077 0.82214999
-0.31684422 -0.99088919 0.82302636
0.8695702 0.72914088 0.82435107
-1.1699175 0.78428042 0.82034892
-1.2361735 3.4617617 0.82013953
1.0926501 -2.2984612 0.83595181
1.0688126 -1.9526441 0.83877993
0.82273841 -1.1114304 0.83733171
-0.63223481 -1.0194899 0.83333302
0.44289398 2.318841 0.83471107
-0.65408081 2.3257117 0.83381486
0.76669025 3.4162469 0.83241451
0.95265138 -1.15272 0.840388
-1.4162245 0.66891301 0.84168386
-1.2380936 0.80063695 0.84113395
-0.33636621 2.3168011 0.84741759
1.0639238 -1.7337445 0.85265064
0.81453645 -1.0799482 0.85446286
-0.62532055 2.4841237 0.85524023
-0.5495944 2.484436 0.85516655
0.33271438 2.4840744 0.85672128
-1.6105193 2.8229346 0.85460049
0.0816966 -1.8488709 0.86253148
0.52175832 -1.8478026 0.86626107
0.841609 -1.2907271 0.86336279
0.46254802 -1.1475836 0.86562824
-0.091312051 -1.0303597 0.8681165
-0.36843738 -1.0106366 0.86206561
-1.1392866 3.0803764 0.86544693
0.79471666 3.4339738 0.87190026
-1.1837251 -1.6127331 0.88313198
-1.3706167 -1.2390389 0.88399053
0.99094343 -1.2125856 0.88258737
-0.095474653 -1.0587349 0.88157952
-1.0882542 0.79977912 0.88837904
0.34803003 2.4986377 0.88790023
-1.528677 -1.7904744 0.8913179
-0.78459144 -1.3997631 0.89490384
-1.1829693 -1.3790177 0.8928411
-0.80061221 -1.0620925 0.89088327
0.081123754 0.67248893 0.89032382
1.105799 0.7555204 0.89605379
1.1169323 2.3671699 0.89989996
-0.39974654 2.5044732 0.89650464
0.52778208 -1.6381204 0.90791899
-0.1953315 -1.3853523 0.90709579
0.67123342 -1.1445941 0.90354538
-1.0931761 -1.0753837 0.90322244
-0.99280554 -1.2517225 0.91304213
-0.64768451 -1.2358227 0.91540092
-0.16485973 -1.1265734 0.91343677
-1.3104241 0.70806092 0.91248357
-0.35292616 2.352319 0.91210848
-1.1136676 -1.7576716 0.92099065
-1.3147495 -1.1695449 0.92437029
-1.2477961 -1.1551409 0.92465734
-0.6755209 -1.1222979 0.92264849
0.1494084 -0.74610001 0.92336643
-1.2246228 0.63881207 0.92709315
-0.93625247 2.349731 0.92073876
0.20576572 2.5166569 0.92496246
0.70096451 2.8775716 0.92203057
-1.5317318 3.2721891 0.92648101
-0.83011913 -1.4565353 0.93764639
-0.4633829 0.79349184 0.93846488
-1.2135965 2.287684 0.9369508
0.9459126 2.3601756 0.93882072
0.76034176 3.436404 0.9370957
-0.10095445 -1.4938947 0.94220746
-1.3735994 -1.3024504 0.94812238
0.32653764 0.70312351 0.94896686
-0.91622031 2.5240896 0.94323289
-1.3886147 -1.6989095 0.95251739
-0.70810038 -1.4889696 0.95558512
0.1575729 -0.80982453 0.95019346
-0.51720709 0.68092549 0.95501959
1.124011 2.9395621 0.95380348
-1.2844858 3.3953943 0.95920825
-0.74930662 -1.6284481 0.96627825
0.52841449 -1.0330359 0.96154523
-1.4071543 0.76675212 0.96122056
0.98600429 3.3606679 0.96780187
-1.550102 0.62867588 0.97357446
-1.1765846 2.5261722 0.97452354
-0.32371533 2.5411851 0.97415781
1.082069 3.1971407 0.97446734
0.77100217 3.4419703 0.97806984
-1.4500862 -1.2055619 0.98532277
-1.1721137 2.394906 0.98790956
-1.1735407 2.7124357 0.98433948
-1.1897744 3.1657472 0.98300397
-0.56914914 -1.6335012 0.99624205
-0.69894934 -1.5578897 0.99400288
0.60575831 -0.8243764 0.99723452
-0.39390081 2.3927228 0.99844551
0.075394996 2.55112 0.99730521
-0.52340317 2.6641824 0.99642181
0.6186493 -1.5945511 1.001142
-1.3866898 -1.4165759 1.0070912
-1.4118279 0.55820113 1.0076828
-1.4702837 0.56161618 1.008881
0.51329279 0.71810007 1.0029647
-0.43361846 2.5562637 1.0073758
0.19677195 2.5547895 1.0062771
1.0617647 2.6382334 1.0096198
-0.6907382 2.6904378 1.0086441
-0.22984441 2.758471 1.007203
-1.5095022 2.7889829 1.0082769
-0.48330015 -1.6229081 1.017867
-0.46338451 -1.595253 1.0119463
0.50636679 -1.1407818 1.0129566
0.60939282 -1.0902194 1.0137489
0.56385046 2.6293344 1.0154107
-1.4973395 -1.5692599 1.0233319
1.0951107 -1.455492 1.0266417
-1.5271624 0.61618704 1.0293618
1.0753777 0.68746728 1.0207822
-1.1417866 2.3888946 1.0229064
0.35124609 2.616334 1.0221683
-0.36041966 -1.5805445 1.038955
-0.39129704 -1.5618883 1.0305412
0.28860155 -0.7803694 1.034147
0.9971031 0.84422404 1.0313855
-1.2929034 2.425921 1.035213
0.04721798 2.5853691 1.0324713
0.36801636 2.6077197 1.0312725
0.75196368 3.1872392 1.0305729
-0.82862413 -1.5835652 1.0469854
0.94304895 -1.4930021 1.040135
0.3439019 -1.0792905 1.0471942
0.76463759 0.72772205 1.0428888
0.39268965 2.4194613 1.0518725
-0.8109504 2.572612 1.0500327
0.99898279 2.9581928 1.0576894
0.99933624 3.087956 1.0565603
-1.4492632 3.1871834 1.0580256
0.47955889 -1.0538681 1.0657947
0.26022959 -1.0273061 1.0697031
-0.6783675 0.73632336 1.0631291
0.74809623 0.76120007 1.061178
-0.64486361 2.4351645 1.0603629
-1.1422302 2.6557746 1.0692554
0.55881673 2.8603907 1.0647969
-0.59679055 2.9765911 1.0628549
0.12459759 2.9971516 1.0662344
0.64835209 0.8460269 1.0742581
-0.090419583 2.4534826 1.0769256
0.94493043 2.9757829 1.0779638
-0.40212786 3.0710201 1.0764639
-1.3364992 3.1601853 1.0769784
-0.60084307 0.74308407 1.0880123
0.44481501 2.9797072 1.0807371
-1.1955817 2.7587693 1.0977589
1.062242 -1.1300765 1.1068254
-1.3989956 -1.1255744 1.101922
0.46983358 3.0884356 1.1032375
-0.93974686 2.4816399 1.112777
-0.68815851 2.5324454 1.1188357
1.0345398 0.62747312 1.123091
0.45904291 0.80443573 1.121792
-0.96968222 2.5575943 1.1218537
0.425488 2.5654097 1.1227833
-1.2451811 2.6377733 1.1286626
0.92432857 3.184808 1.140987
0.011846803 3.3251319 1.1418288
-0.24345152 3.3432007 1.1492555
-1.2882359 0.76528162 1.1503325
0.7550084 2.8432562 1.1529732
0.37258375 3.3133581 1.1562219
0.90132046 2.8748665 1.1672477
-0.78840089 3.3346233 1.1668392
-0.82058591 3.3453701 1.1699502
0.17970584 3.3836384 1.1695483
-0.37139162 3.433917 1.1695936
-0.88405865 2.4297512 1.1766458
-1.3519306 2.9680519 1.1714768
-0.76267886 3.3994668 1.1759498
0.35390717 0.74442899 1.1808858
-1.0535015 0.86350381 1.1815646
-1.0012388 0.86778426 1.1859984
0.90841115 2.6488848 1.1820554
0.62236923 3.3756204 1.1886022
0.53643632 2.4899013 1.1981984
-0.41585052 2.5082428 1.198024
-0.41595405 2.5349214 1.1989435
0.90818614 2.5559092 1.1943674
-0.20970176 2.5684171 1.1908799
-1.1581906 3.0343528 1.1965168
-1.3400649 0.81351262 1.2148594
-0.64827275 0.86790049 1.2150249
-0.90082335 2.4361854 1.2191992
-1.3748697 2.5168374 1.2137283
-1.3383394 2.7630084 1.2169693
0.14150998 0.82873452 1.2298722
-0.93519044 2.5712323 1.2204471
-1.3045787 3.1661496 1.2371981
0.88216501 2.9158509 1.2445022
-1.3361795 2.9428637 1.2448752
-0.02633098 2.5306604 1.2606897
0.74424285 2.6611726 1.2768282
0.90151227 0.61083567 1.2895954
-1.3961861 0.83189112 1.3187934
-1.1849327 3.1882277 1.3291203
-1.194507 2.5507867 1.3329293
-1.2791668 -0.94541168 1.3541589
0.92307186 0.76096058 1.3576622
0.91087222 -0.95970392 1.3638861
0.71213508 2.6948819 1.3633467
0.36710677 0.79812634 1.3790084
0.31103629 0.81800401 1.387691
0.34826091 2.5616088 1.3819637
-1.2776639 -0.95484042 1.3911011
-1.3590019 0.75824499 1.3972973
-1.1255757 3.0201316 1.4120383
0.89074486 0.74444944 1.4232841
-1.3335379 0.8196308 1.4459043
-1.2718377 -0.58620411 1.4599311
-1.3417056 -0.56193185 1.4714948
0.78912276 2.8562996 1.4791012
0.74512714 2.94801 1.5477781
0.7244727 -0.33444408 1.5786332
-1.2071276 2.5658498 1.5778117
-0.35893813 -0.2606256 1.584789
0.78211105 -0.51738387 1.5937284
-1.1401802 -0.40294296 1.6072727
0.82156324 -0.31022224 1.6161902
-1.1061004 -0.35115725 1.6594872
-0.94926476 -0.33403045 1.6792717
0.55874473 -0.33691463 1.6709388
-0.21231571 -0.31233114 1.677307
0.71643841 -0.30815282 1.6732495
-0.27607721 -0.29401952 1.671752
0.756863 -0.28173462 1.6754154
-1.0097964 2.8641038 1.6727245
0.53503293 2.9207261 1.6718241
-0.81289768 2.9419153 1.688181
0.26296592 -0.35011148 1.6909189
-0.15543087 -0.078965031 1.6900979
0.69398069 2.8177722 1.6937402
-0.32313058 -0.35508189 1.7016395
-0.30769083 -0.1624763 1.7016497
0.49087811 -0.16134295 1.7059836
-0.73725271 -0.065356448 1.7074753
-0.4799571 2.9826651 1.7015355
-0.48341838 -0.2742677 1.715526
0.27998087 -0.2342478 1.7101235
0.70739126 -0.19353461 1.7114797
-0.69249004 -0.17432103 1.7188531
0.44952196 -0.068922237 1.7103144
-0.36134356 0.010424082 1.7174534
-1.1465727 0.32218957 1.7188839
-1.1964334 0.81440663 1.7145815
0.63826162 2.8071306 1.7194654
-0.064547181 -0.28045487 1.7209624
-0.52821332 -0.25281364 1.7279903
-0.55031973 -0.24094291 1.727616
-0.7004087 -0.2218658 1.7259567
-0.14526436 0.038661346 1.7235186
0.43221557 -0.16409643 1.7371361
-0.13575947 0.086442493 1.733809
0.74573243 0.09424267 1.7369294
-0.26588568 -0.18920651 1.7451903
0.55257624 2.8308299 1.7446897
0.098530188 2.8841748 1.7467271
-0.25961101 2.9325957 1.7421541
-0.16634217 -0.18289906 1.7525958
-0.39820516 0.077227451 1.7523223
-1.0959467 0.15943106 1.7530656
-1.1032267 0.59828895 1.7554116
0.68442667 1.4241991 1.7503767
-1.1463537 1.9182379 1.7542598
-0.33231828 2.9176726 1.7506386
-0.43573865 -0.12156572 1.7650514
-0.38070437 -0.10786267 1.7615106
-0.71775818 -0.089582324 1.763963
-0.68202716 -0.078971684 1.7683742
0.47707015 0.080597192 1.7668896
-0.78122878 2.866508 1.7610216
0.61831826 0.31284398 1.7766314
-1.1610917 0.97885031 1.7751667
-1.1240283 1.8909278 1.7794459
0.43581703 2.7346601 1.7754812
0.28429639 2.8055224 1.77052
-0.033569328 0.021591458 1.7827947
-0.76649278 0.084170081 1.7810298
0.59205151 0.39473945 1.7889731
0.702245 0.92420363 1.7804965
0.070972614 2.8570347 1.7833023
-0.17246382 -0.0216543 1.7943486
0.56499398 0.097662926 1.7905777
-0.97199911 2.229429 1.7926883
-0.0061407965 2.777663 1.7936713
-0.33981663 0.033128045 1.8052142
-0.67802107 0.056147847 1.8008573
-1.1356969 0.36615711 1.8053786
-1.1305076 0.50866932 1.8093095
0.3305971 2.6859932 1.8034863
0.53679323 2.7119141 1.8088803
-0.37051567 0.075438857 1.813949
-0.099487364 0.077013768 1.8146827
-0.081657827 0.21847656 1.8128843
0.28025344 0.27722424 1.8110888
-0.82053542 0.30476809 1.811033
0.25199902 0.31474274 1.8162869
0.42988539 0.38286993 1.8130985
0.66397488 1.0333949 1.8155951
0.63701767 1.8342775 1.816752
0.29275823 2.6046813 1.8165202
-0.054959923 2.8079348 1.8147337
-0.64816844 0.19737947 1.8276331
-0.11456755 0.30745643 1.8237236
0.58069623 0.32610187 1.8233695
-0.85354316 0.42812693 1.8208129
-0.89308739 0.56491005 1.8280697
-1.098911 1.1488808 1.8288492
-1.0909075 1.4425976 1.8282896
0.59172899 2.2027299 1.8294921
0.18061227 2.5945303 1.8269119
0.27784026 2.6582792 1.8277152
-0.39192772 0.40719673 1.8318777
-0.16585049 0.41566694 1.834036
-0.037328728 0.45562553 1.8358161
-0.45418537 0.4771772 1.8372225
-0.018301554 0.48617074 1.8382521
-0.85331935 0.53180659 1.8301077
0.63742548 0.6449399 1.8307831
0.44652748 0.65858042 1.8300573
-0.8183704 0.72661948 1.8399401
-1.0632222 1.7367883 1.8392336
