# .PCD v0.7 - Point Cloud Data file format
VERSION 0.7
FIELDS x y z
SIZE 4 4 4
TYPE F F F
COUNT 1 1 1
WIDTH 1560
HEIGHT 1
VIEWPOINT 0 0 0 1 0 0 0
POINTS 1560
DATA ascii
793.14587 -920.2749 63.193371
812.54688 -891.98108 21.016638
806.66449 -950.77881 46.563812
761.22339 -915.1134 39.506638
750.62701 -971.73578 17.344337
803.07568 -907.45673 23.54825
814.25952 -899.85712 12.710192
779.63184 -912.13049 32.05677
763.70428 -914.07349 11.095376
761.39612 -924.74475 60.113403
810.56097 -976.19434 13.839909
791.48547 -957.65564 34.24234
801.49597 -899.55005 21.692266
802.44226 -963.70593 22.632473
785.62238 -959.67358 51.680275
784.97742 -889.74072 68.314362
806.60944 -944.6958 46.434517
789.0719 -932.66302 19.25808
811.64307 -902.14728 16.12714
813.00024 -896.43695 62.88073
808.35089 -891.00659 7.3870678
792.25934 -965.72388 46.493614
816.67792 -890.8399 20.300739
765.44788 -965.23981 10.398402
815.76318 -891.05231 20.537443
758.80652 -943.7478 53.427605
765.66431 -892.68695 63.336914
777.60925 -938.04852 10.574463
773.43463 -965.05109 33.878616
774.547 -890.70105 62.02095
790.37335 -921.3219 18.465027
755.81708 -936.79248 12.899582
753.25244 -909.60938 13.296747
772.28625 -887.19965 22.787634
761.06927 -939.34088 26.008726
756.26471 -890.00256 10.535634
786.72144 -950.73041 34.274216
765.11786 -951.89056 56.095596
774.33246 -914.80865 41.930866
805.87268 -891.85095 31.36334
757.05725 -979.4447 22.940424
800.93005 -923.5943 31.063789
816.80139 -906.26001 10.943984
801.49597 -907.49298 20.186558
777.26318 -913.94257 46.410225
758.53143 -940.04102 26.070042
761.48309 -912.23822 59.131912
763.97076 -908.23102 11.278043
747.14343 -984.23297 19.529446
816.69983 -888.35474 10.82571
748.59827 -890.88965 7.2076349
751.0484 -891.89783 20.249228
811.44843 -965.82953 8.1506004
804.0498 -909.15845 21.74036
804.94873 -987.13354 16.436754
751.63708 -896.82733 23.956673
746.38647 -889.60297 17.886791
757.64032 -959.89319 14.640465
806.03223 -923.08197 47.29705
789.16693 -913.79773 44.947166
804.19617 -965.94623 39.206295
796.83368 -890.12079 48.632149
756.11987 -894.24658 23.178535
802.74805 -891.74274 28.979864
785.8573 -948.40448 10.349455
775.39221 -891.57397 68.733841
758.09326 -922.84662 49.50359
764.75061 -925.24542 62.903419
807.47925 -970.32422 24.150675
803.28094 -983.14648 20.932869
756.32941 -929.8078 31.048693
807.00574 -941.97974 43.907562
749.04791 -897.2019 22.769119
781.40771 -886.54602 14.70831
760.65356 -888.94067 38.417389
749.79688 -971.77686 11.524392
767.51434 -981.29645 32.435497
797.5354 -891.28735 34.09864
806.36401 -897.01599 37.237175
757.21997 -927.08313 45.753098
808.68311 -963.1123 16.758949
782.37549 -888.75464 35.926079
790.3103 -948.69812 20.379368
793.71399 -955.43555 41.465435
767.56049 -964.29871 33.914852
816.05621 -905.82654 21.200642
777.28308 -917.46912 31.338633
797.25824 -963.73376 42.790375
799.6225 -946.84686 58.906723
783.23981 -925.7597 63.375023
814.14984 -899.48901 12.639929
752.41943 -965.36914 20.823124
768.05707 -946.84412 59.743149
791.57971 -934.14978 10.659171
815.40649 -898.14392 23.338478
779.75085 -942.57861 21.184456
751.11926 -973.80798 17.254745
813.83643 -888.59436 18.899393
773.30164 -924.01099 10.879459
776.65137 -888.88196 37.134529
756.18445 -931.54224 38.108162
779.685 -916.81671 32.234039
774.09344 -913.58899 43.176853
756.44104 -931.54395 11.870186
755.95886 -938.60315 36.059906
774.07672 -913.90466 20.74412
752.0658 -905.82556 6.9075937
807.72412 -951.05249 24.102407
761.31409 -886.10754 69.063858
806.62317 -926.80652 9.6613674
786.55255 -927.45776 63.397316
752.79346 -887.67181 13.468997
801.44189 -922.10425 61.445168
785.90015 -888.55579 29.944012
771.37927 -951.09534 57.539501
807.61475 -916.99835 20.50268
797.48669 -961.7467 48.819725
801.14679 -960.29895 48.974743
811.79657 -901.30493 17.31303
807.06464 -888.758 14.066394
765.64923 -897.33081 62.912052
749.88739 -894.71838 22.01157
795.78271 -930.39191 24.276495
806.54602 -895.13141 6.1066408
758.7019 -941.43427 52.925236
756.12592 -972.27155 24.184927
757.62854 -964.3078 41.762711
790.96027 -910.73859 11.190495
802.07507 -887.40155 24.313711
797.08313 -930.18878 63.011627
799.2359 -919.9903 43.689651
780.22418 -930.13983 19.467068
787.02075 -954.87787 41.208603
815.49268 -900.81897 5.9041686
797.20123 -906.87549 62.194
796.28528 -890.05981 48.492775
758.94568 -952.81165 53.254734
798.62714 -917.83093 28.508118
786.2691 -953.36865 44.583221
805.14502 -888.43237 15.516981
811.64301 -896.13806 14.187341
806.72607 -917.44092 44.005554
763.43616 -947.05237 58.632256
759.81586 -895.58539 62.889763
786.91943 -912.91962 48.445179
791.79114 -930.02502 63.220428
773.20874 -918.10144 28.936443
804.33099 -898.37476 39.597237
758.45392 -910.5083 36.746353
781.18414 -910.5412 11.197388
800.10443 -915.23132 39.070988
748.46838 -966.83911 23.254925
777.12665 -944.09113 23.33429
760.43597 -903.69965 34.412682
798.64648 -938.00269 10.575459
783.58997 -924.56201 10.867489
758.50049 -915.86707 50.494232
755.45679 -965.01379 33.854652
765.53387 -910.06909 57.715569
799.92914 -916.58667 51.914047
780.49768 -890.67194 51.072456
751.16998 -905.72266 14.630849
766.25134 -970.388 42.061604
790.90717 -956.05945 41.420475
750.22876 -897.6499 12.218487
783.82068 -958.94104 42.820915
808.59467 -962.24152 13.824507
757.41492 -904.41949 45.10112
811.35797 -896.59674 17.179546
755.83911 -954.45172 25.289059
813.60254 -909.38586 14.709067
754.02844 -896.56482 62.686424
816.09241 -895.34003 20.047325
752.50623 -967.41217 13.236572
810.09241 -889.34692 9.1515894
774.24023 -956.74542 43.509918
774.19641 -913.57507 42.532627
806.33911 -909.98181 44.255768
757.68683 -899.66223 22.981764
756.55402 -977.56818 23.685444
803.31903 -926.1601 18.803349
759.09949 -916.05518 24.315186
788.47595 -919.27649 22.147694
762.12598 -899.12769 23.267288
792.43488 -948.32092 20.352991
758.84497 -972.61023 5.7365794
812.13757 -966.315 7.8319378
807.1131 -963.69067 10.347803
755.97205 -918.65002 12.186043
801.29779 -957.66077 43.138649
801.49597 -983.46637 17.224586
767.5094 -937.62585 19.990555
777.64941 -978.104 36.61348
802.43494 -891.20117 35.963154
754.02234 -983.14478 11.513771
811.30334 -966.80548 22.072569
762.01953 -914.65112 21.649513
813.68591 -900.05096 14.70789
756.57794 -915.91663 35.257332
795.98523 -895.99792 28.926661
758.02295 -971.04407 38.513874
763.08826 -897.89966 62.813026
762.12598 -903.34564 25.91349
798.185 -968.35364 34.496834
781.4668 -886.54462 14.615276
803.39355 -954.30951 40.334583
804.35272 -967.85211 7.8115811
807.36487 -934.41187 18.943766
771.54449 -920.07733 10.96493
807.82159 -956.62634 25.843662
804.27527 -934.12744 24.729044
759.48145 -910.68494 19.305265
772.28644 -926.8476 10.817827
790.97351 -945.75592 39.332138
799.38983 -950.64642 10.300741
802.99402 -910.98376 18.341141
787.2016 -922.27783 23.304831
778.95502 -934.16162 19.74831
798.18164 -977.88751 32.738846
756.18671 -962.55988 42.577408
812.63324 -983.67548 10.265425
807.77075 -980.46899 22.539867
779.6676 -891.19666 36.060486
785.97223 -954.20447 10.223434
810.87598 -968.19733 7.9759912
807.15314 -928.91119 43.386314
776.9054 -980.82465 11.199386
767.44165 -967.20068 44.670937
762.37793 -950.68964 43.373871
765.8407 -918.91718 25.83762
751.16998 -893.49658 15.857753
753.41364 -898.50519 62.246994
797.72992 -980.49402 32.784672
778.37628 -916.77338 38.392536
801.49597 -968.37067 12.676368
815.41736 -901.77856 23.444677
805.54651 -976.42145 33.525665
777.26904 -949.05884 59.058338
746.42554 -889.09521 11.6003
807.62909 -944.96606 28.893921
806.1687 -963.94214 10.067295
758.06714 -890.9519 40.091522
784.90088 -888.75323 34.62841
809.78137 -973.35852 24.316927
806.38568 -897.57977 37.165794
756.505 -954.61865 9.6544685
773.04718 -917.01611 33.026844
764.06061 -938.81891 20.073982
800.86792 -916.1709 35.542522
770.07495 -916.15259 23.231396
796.1214 -896.09338 63.222958
760.0249 -891.1286 40.836285
801.49597 -967.55139 17.034237
755.08417 -891.78131 8.1730595
764.61542 -888.47839 68.097198
773.6944 -902.2337 11.487434
780.56305 -891.32239 33.3437
789.73853 -890.99048 56.017731
813.21924 -971.42297 16.006294
758.09601 -910.01715 14.634773
755.3147 -972.72937 7.0521507
813.51099 -903.57031 22.483889
809.31879 -906.58411 6.962122
756.08936 -892.53101 7.1875877
758.33423 -916.54443 36.810329
810.00928 -892.26294 7.6699762
747.07159 -896.11029 22.888277
759.54651 -915.22156 53.66666
804.78107 -961.14539 36.411179
779.13184 -891.30017 33.822449
807.40509 -935.94196 18.647316
756.01483 -943.96619 20.891954
788.05786 -893.69922 64.809189
759.93164 -929.56616 55.844086
772.3667 -894.66315 64.537369
773.23859 -888.48486 39.80447
751.3158 -975.02551 25.118265
752.04077 -908.19568 9.1898155
808.52917 -959.45905 11.529521
751.42932 -898.95264 64.451859
808.26801 -967.02252 22.573677
798.86768 -926.80286 18.848295
751.82788 -952.53601 46.149399
810.276 -978.97449 16.434214
781.91309 -954.12354 33.610519
768.48395 -888.42688 32.387962
763.68884 -922.8902 24.038042
772.15002 -981.11462 33.304001
778.65894 -958.69305 52.438805
762.92969 -915.54144 61.923809
807.21478 -952.45953 10.200024
765.20038 -910.16565 37.428646
764.33911 -960.59143 34.209019
811.0686 -890.96692 66.940208
788.09924 -969.54968 10.61991
758.82117 -954.86597 51.935188
807.79193 -948.58435 40.592876
805.47656 -938.09576 10.551102
812.59692 -905.36047 7.2663841
746.90906 -892.71729 7.4363542
807.57227 -892.77881 21.540503
815.16675 -965.29425 8.5588417
792.35791 -957.05084 43.32975
791.56519 -982.63098 11.292225
804.41058 -890.04633 68.510635
814.25415 -891.75543 21.259809
751.95667 -889.83997 63.674751
776.30402 -890.56299 50.772743
809.39203 -972.96454 17.111675
749.60693 -900.63135 17.005341
810.56866 -901.93567 23.063374
773.28125 -956.86401 53.523445
801.49597 -969.6748 16.406609
808.57501 -888.61707 67.897522
774.70728 -888.69745 28.532991
755.17462 -909.31787 11.150767
748.39862 -971.54608 23.790384
751.91901 -970.409 12.445891
762.12598 -901.11786 21.174524
778.71118 -963.08472 43.036079
806.02289 -915.5719 46.372215
784.0321 -985.23993 27.548328
748.98517 -908.8537 10.191543
774.8208 -919.09052 23.752953
756.93665 -944.84277 45.998001
776.44006 -908.245 45.104939
776.99707 -907.8714 62.602592
808.15381 -902.24506 22.953682
790.16644 -977.52216 11.029657
756.22845 -891.73193 20.064228
794.58325 -902.77075 11.468687
807.91901 -959.07404 29.793846
782.95508 -972.28351 36.214977
763.59082 -890.89508 42.582741
752.43433 -979.53809 7.4729662
806.10919 -901.28448 44.68961
756.47803 -919.52576 35.420666
806.14038 -909.82013 14.590207
806.01599 -963.05872 19.52655
775.78149 -957.94409 34.392078
784.2251 -950.24402 58.370869
771.46289 -890.13763 64.572807
757.1322 -977.69519 6.7978358
809.39978 -889.72375 18.292597
811.85779 -892.09406 66.728966
790.50415 -928.46649 10.782656
758.06219 -892.14459 43.019051
809.21558 -967.59473 22.982019
812.39575 -979.08484 7.5804052
775.32135 -987.34558 16.435635
770.6886 -923.26135 63.230392
779.29987 -961.73309 43.111572
756.49878 -958.85059 45.211529
755.7077 -912.35724 13.323079
753.94385 -911.25049 20.012838
807.30798 -927.89117 32.551254
811.35803 -901.76068 11.335544
757.30518 -960.75574 17.421991
759.03253 -912.56348 39.154095
761.31958 -896.56158 58.00135
786.21704 -891.57703 28.981934
750.04156 -980.71667 8.6380529
768.15448 -945.53857 60.69561
783.01697 -922.17151 30.581423
790.78906 -916.22369 63.131672
753.95752 -981.9433 20.533028
748.98743 -979.24664 6.396935
815.953 -968.18982 7.6939006
804.94171 -895.11176 50.721359
750.65216 -889.82471 63.340786
790.90491 -960.54364 43.102692
773.18524 -955.01038 43.637878
760.59149 -914.99591 56.348595
777.43237 -956.03943 41.531448
766.92297 -894.50885 63.215515
753.67273 -902.34509 27.428682
751.71973 -899.33319 65.406219
790.10669 -915.68286 37.405426
793.83044 -899.87555 61.344654
786.31769 -907.03467 62.538731
793.98944 -938.20367 62.688522
751.31702 -969.71918 19.686365
810.9679 -982.03625 20.566183
789.93298 -913.8703 49.033222
807.80157 -973.78259 32.961334
766.20929 -888.38367 36.490715
811.29309 -980.08472 12.650923
811.80396 -888.68481 14.603237
762.78857 -950.18652 39.698006
799.78754 -891.1452 63.170776
771.64227 -895.08124 60.848003
761.39594 -911.84918 30.460405
751.61951 -903.12231 22.664707
789.15094 -923.50836 29.285679
805.14502 -909.90607 14.763905
756.62378 -921.59686 22.424545
782.59723 -888.99658 69.147011
810.88647 -894.2113 66.766747
757.82001 -914.97241 31.495798
792.39557 -949.06726 39.624428
808.4137 -895.64337 29.620815
815.41913 -974.21826 6.3652058
799.68427 -888.89722 41.303074
767.85706 -894.56122 60.709595
780.30273 -926.44666 21.090797
808.71179 -974.25891 6.4251223
755.94971 -947.84656 25.108274
780.52985 -954.13397 55.848564
760.93781 -896.12012 62.880745
754.25262 -893.00787 28.051731
748.95984 -968.93884 6.1334743
798.54523 -969.43127 38.68082
755.33673 -979.02722 24.428291
801.49597 -966.51361 22.943008
757.46118 -914.66846 32.903938
801.3562 -957.90247 39.379677
755.8927 -896.04163 5.5145497
755.87445 -951.57129 42.180016
786.74841 -888.53241 33.81432
785.28284 -958.39453 10.132397
751.91901 -977.3692 13.815675
805.37732 -886.88867 23.48181
756.40051 -970.46527 23.89484
772.28967 -966.90753 10.484115
814.13489 -976.48871 19.983088
806.78125 -889.26953 18.165697
775.58081 -957.93347 34.395844
788.92627 -951.58374 57.430008
767.27008 -983.45032 29.203295
761.74982 -890.92169 67.719551
807.41199 -936.00806 25.602083
808.57465 -890.41064 19.822216
756.19043 -936.94189 19.667004
807.6076 -943.96497 19.757193
761.46399 -911.27863 44.635792
757.47083 -902.10791 44.557316
755.09833 -967.61133 7.7642612
759.44519 -891.51184 23.731152
812.55914 -979.04291 23.018679
751.13696 -894.47559 64.225357
810.10815 -965.78064 22.866079
782.43018 -983.80481 11.352554
795.35663 -978.76306 34.911514
810.46021 -974.44305 16.046926
797.80701 -911.25018 62.483898
751.59802 -899.71735 16.828814
747.98486 -893.11865 7.1729002
801.03412 -945.95654 41.790245
790.45728 -958.32196 41.122421
781.74432 -897.09235 11.666939
758.28027 -915.01416 21.537098
807.98297 -953.51196 37.047161
785.50806 -937.37976 62.878326
811.64301 -900.56946 12.791453
761.15289 -919.95087 10.965049
756.92639 -982.6723 10.122184
772.31323 -915.01453 39.938995
755.065 -898.42542 23.219795
768.33777 -889.37231 11.936477
801.77887 -889.35791 43.802185
759.495 -917.31287 22.513975
798.91638 -968.24646 43.20406
794.77051 -964.81659 42.75547
806.60925 -944.09412 21.8818
784.38379 -886.68268 11.380162
771.63599 -888.66333 29.179193
803.9884 -922.23962 31.71265
777.26483 -932.08264 25.144588
758.0354 -908.03436 49.850693
758.35736 -941.96045 24.450785
792.47449 -968.99017 33.738071
795.33728 -890.87854 42.93885
803.71942 -959.35864 48.867714
789.00232 -892.60046 11.82377
756.49957 -925.67871 21.02898
774.70697 -931.3269 19.550087
796.18884 -978.99011 34.133659
779.685 -916.53845 24.930941
804.49176 -901.86041 52.895473
787.58649 -890.02557 25.589399
755.4212 -892.42639 14.161017
801.49597 -967.14056 21.991976
778.4472 -917.11877 31.148272
770.70679 -891.90387 68.558113
792.14471 -909.93359 11.218603
770.39001 -897.8288 11.64123
806.79358 -886.57794 13.075109
779.90112 -966.81903 33.823215
770.99084 -912.83124 26.254032
796.75348 -924.71814 63.107006
768.50671 -891.06342 38.942432
773.02515 -956.10815 54.069584
812.75281 -893.17676 64.32132
770.48596 -911.3941 51.242809
807.32733 -964.45825 11.484417
801.43713 -885.58826 68.979614
794.25745 -964.5434 47.192123
800.88824 -922.3006 33.859303
806.47406 -933.12518 46.099102
755.09399 -891.36426 20.25634
806.53571 -905.84479 32.029713
764.19373 -907.25446 55.42606
780.08936 -942.19751 20.8736
807.85303 -958.98279 22.605263
801.01147 -890.94458 50.494701
768.1554 -914.836 40.515739
750.7876 -976.34998 15.654301
807.22479 -922.4259 35.827667
782.87604 -957.00006 44.664639
797.33582 -913.16693 51.101078
790.88867 -950.37292 58.049393
795.20972 -940.15442 25.448637
812.07001 -894.64392 13.705433
776.25153 -910.96545 34.319408
748.29572 -970.92987 24.011946
771.19855 -954.11475 55.432175
812.67499 -970.25598 6.9222441
775.53448 -919.33252 24.174061
807.92151 -960.04932 29.501724
769.25598 -906.85181 58.349609
785.32007 -958.8161 38.4305
785.84332 -924.59839 30.494144
762.67444 -917.534 11.02019
751.85278 -890.58673 9.5052109
765.54248 -957.72632 10.146915
747.1886 -963.65735 16.634865
789.3443 -919.81287 21.562485
747.54218 -888.92615 12.333946
758.84088 -964.83563 10.725783
791.6618 -912.76917 49.306507
777.88135 -982.51392 11.286213
759.02069 -963.89575 22.834183
757.30298 -897.4223 39.416248
770.26038 -969.13361 34.485626
765.98077 -960.54645 49.75029
803.63818 -890.52722 68.463898
774.99121 -888.4469 11.968787
749.2514 -969.73132 15.4703
810.276 -974.33289 10.046517
807.66492 -900.20233 23.309376
788.83002 -966.68311 46.066246
752.34698 -976.21826 15.362237
759.32434 -933.68414 54.333855
788.13391 -918.22552 39.981789
815.91663 -891.86536 14.901591
758.70422 -897.15558 51.188602
762.58252 -929.17328 62.190453
766.39062 -912.31677 28.473494
755.24469 -964.50079 10.594335
781.14789 -886.77063 20.247728
751.01965 -964.21704 11.180528
806.83875 -913.98828 40.280655
792.06122 -888.91498 42.877544
769.59039 -986.07471 17.603558
781.42767 -950.27161 44.984577
806.53735 -888.57037 12.909452
785.52673 -925.90918 63.382233
810.10413 -895.2644 23.078789
756.86346 -949.08545 45.885418
764.58765 -891.07629 38.662582
750.15503 -972.61658 17.023695
769.45319 -913.30072 24.188295
746.49274 -909.80463 12.190841
803.50208 -976.41333 33.346485
804.37891 -980.72949 28.220566
750.12524 -963.86285 12.72199
797.00427 -962.09375 48.623947
763.17096 -908.40338 11.272027
753.34106 -955.38184 44.928051
808.74213 -967.71399 28.1838
804.32886 -905.79395 39.135925
807.36615 -982.33972 22.273598
771.04089 -910.75952 35.099751
804.55249 -917.96045 30.295069
788.21045 -967.45477 42.636871
803.8197 -959.93018 48.430496
762.12598 -907.64978 12.643025
746.69019 -906.76544 10.758244
781.3844 -925.38007 10.849716
760.36639 -914.45221 31.096031
751.12598 -896.66339 23.05212
799.33325 -888.13654 68.140465
761.24969 -968.41437 26.011835
787.82996 -953.29926 40.149155
801.49597 -977.37317 25.502033
777.57483 -911.89252 45.907784
759.40558 -902.63324 53.713882
762.94757 -963.55902 46.57991
813.76849 -906.80579 8.2693033
764.39258 -909.91168 48.937645
808.35254 -888.86493 15.77119
771.05658 -958.11163 52.431931
755.83948 -949.97095 41.419109
751.63934 -906.05432 14.31872
770.6958 -918.3136 18.640102
765.64972 -956.51013 52.826603
778.85449 -971.90942 35.45047
746.21698 -891.59033 21.59094
788.09509 -925.53693 63.35981
795.50183 -891.35919 32.547054
785.74451 -930.90039 10.729773
752.89526 -889.59473 22.923546
752.90643 -896.45361 26.327654
777.52344 -912.65723 38.754417
752.74695 -898.03772 23.206913
794.69763 -888.72803 41.351376
762.47937 -891.10327 38.079723
807.03577 -917.96057 9.0571451
755.00018 -977.3999 16.528877
777.24591 -953.49133 56.262562
752.81641 -909.61633 13.342022
752.63208 -969.05536 18.634987
774.547 -891.87915 53.387684
756.55585 -944.26727 43.616386
792.29126 -970.4682 34.838634
803.8988 -956.08923 35.539017
766.66882 -926.75421 24.500631
761.39349 -901.31616 58.164757
772.25464 -889.42804 45.973763
760.29663 -898.05457 62.736168
815.50024 -982.48969 10.385646
757.67212 -916.02362 46.832737
791.62592 -901.18396 61.582085
756.21021 -886.21399 15.712729
792.56671 -986.32562 12.202057
749.69971 -902.33527 22.613981
793.2229 -970.95935 39.035126
765.39685 -914.96741 21.728113
762.12598 -898.71521 19.934908
799.45337 -949.51184 24.642378
783.95361 -969.112 44.423111
777.99243 -904.72925 28.81749
771.10138 -953.87549 34.655331
805.9668 -913.43463 46.45808
758.18835 -918.20349 49.837017
803.8877 -898.97266 27.089781
754.40466 -977.85645 6.8550415
793.87958 -893.19873 56.387249
810.13135 -905.2301 21.982964
796.33752 -893.05652 63.120956
751.82715 -896.39038 16.326427
751.43274 -971.35107 15.264363
768.1109 -893.70844 63.528805
801.79846 -968.49084 42.356853
758.67004 -955.39111 51.473911
815.05353 -975.93494 11.565033
775.78809 -888.68091 34.030697
751.59802 -901.02625 11.897479
755.97205 -944.85132 42.206047
805.79126 -906.87262 7.1515083
766.10065 -893.61536 63.007568
801.49597 -968.13623 21.258177
807.93445 -983.81628 16.728241
786.521 -923.52673 23.454351
812.07001 -899.80115 18.472918
810.64771 -910.71613 16.260752
778.50757 -969.27527 42.587833
792.67395 -940.00116 62.410351
786.58704 -926.6131 10.822924
802.14392 -890.41211 48.079823
767.26379 -986.13782 15.374489
814.26459 -903.84296 22.770576
782.4729 -961.33093 43.078991
811.20471 -899.66724 16.599867
751.16998 -894.71704 11.151246
754.94092 -978.58508 7.0212445
750.62524 -965.68524 7.940752
771.52087 -940.5271 62.351898
807.2569 -930.32031 19.426579
814.30029 -972.60974 24.545387
806.96234 -886.05237 68.341537
814.565 -900.65698 14.395264
808.35492 -902.36627 5.8975258
757.81995 -916.34265 24.91045
782.69775 -945.70166 61.041954
755.17877 -969.94006 6.690917
782.80243 -889.5531 46.534149
754.90466 -959.3855 12.345337
798.56647 -919.5827 18.361572
773.71765 -965.58313 42.814976
789.22607 -953.41772 56.178764
757.03674 -932.90601 45.400146
759.41772 -914.8429 53.307434
810.42114 -969.23767 23.435719
769.05804 -984.75012 23.591278
757.84302 -932.31018 49.254997
807.66193 -938.24402 12.435702
777.88928 -891.32428 64.792397
788.78839 -899.87939 11.569634
806.29816 -940.79395 20.218771
747.11023 -966.93103 8.6015816
786.99536 -961.96863 43.025612
768.57831 -948.3017 58.912872
804.63037 -896.14844 43.852104
817.03497 -895.01953 22.917166
804.82495 -978.00183 7.212183
792.89758 -947.13184 26.157921
801.24463 -898.81409 11.606828
800.8363 -922.54254 18.550385
773.35803 -888.8407 35.233017
762.75696 -913.07806 25.14164
801.02228 -895.83514 28.928698
798.40375 -923.97406 10.880263
807.64771 -909.66077 15.300389
812.58746 -891.26196 7.2193851
780.03845 -942.02344 24.230175
758.97583 -902.58533 26.303493
798.90344 -967.20935 44.110344
806.5166 -912.38013 44.552986
795.02124 -906.63397 62.304825
809.45215 -896.97357 26.520683
792.6167 -912.66589 58.937443
751.04016 -982.77869 19.594101
783.83942 -969.88269 43.784309
766.60046 -908.18127 45.388092
761.04681 -953.03021 10.250866
773.75403 -889.06671 65.908783
758.16553 -907.01788 20.576693
762.12598 -887.80017 16.319023
763.10876 -889.46082 44.744904
794.00671 -954.99677 10.206221
756.08875 -940.74585 21.384377
774.5072 -891.03516 52.062981
803.95331 -902.1698 34.476746
749.57166 -895.81232 4.6449575
750.45306 -981.6322 8.9622231
757.18475 -911.09656 43.876453
802.68817 -965.62933 24.676201
762.12598 -979.40198 16.649155
761.13855 -948.62628 57.387756
792.32361 -932.12573 19.220509
803.79071 -965.20605 44.087185
776.30042 -914.78448 22.826077
771.83484 -943.98547 24.848408
807.15588 -963.55096 13.725761
755.93744 -918.58521 18.742014
783.33899 -938.14087 24.783873
767.98682 -891.3855 52.597984
751.31702 -966.60376 16.316105
777.44788 -955.13147 55.038563
780.72772 -963.24268 49.061081
808.03528 -975.82654 5.7156205
802.94275 -958.323 49.942818
803.04462 -924.41418 10.86659
768.57416 -964.34143 33.939175
790.07385 -891.02417 39.791611
751.15979 -978.53351 7.0029707
760.45569 -940.47595 59.84338
811.86169 -974.70453 13.706716
770.7746 -886.95703 68.417381
807.11182 -894.93939 25.941555
751.23834 -902.76788 15.563347
794.66052 -952.7312 45.839725
764.74359 -974.3042 34.045708
752.11249 -886.87952 66.928612
783.63733 -985.87457 26.685091
781.95728 -947.81885 36.901703
748.5437 -904.24078 21.938457
808.26715 -966.51953 22.27602
775.09143 -909.98053 11.216963
756.01947 -942.82928 29.653614
789.31 -893.1925 57.753208
787.84473 -921.89343 35.172867
807.54651 -914.52686 10.760918
753.79736 -963.65674 12.33778
810.276 -970.46857 12.362506
802.78174 -910.37225 20.314148
756.54852 -964.09924 11.365254
782.18152 -943.10107 22.108391
750.67773 -899.93018 16.159315
765.4613 -971.88745 40.582314
807.36169 -940.6123 43.712029
749.11206 -896.50763 17.545635
805.0719 -935.39075 10.611919
810.276 -968.26642 13.37406
774.659 -942.86218 20.356718
751.94507 -902.41992 62.193642
810.81702 -967.01166 15.132154
757.57043 -981.05872 22.955734
805.22278 -898.7663 24.621468
803.49878 -902.12585 55.428864
777.91779 -888.93298 36.178211
796.43359 -890.07214 48.515892
757.80505 -898.18237 47.015907
770.60034 -888.32574 11.973018
762.33789 -926.6684 24.490353
788.17725 -964.82947 47.563747
768.55615 -900.93982 11.532611
763.25696 -984.6792 22.888645
773.27258 -968.40515 33.639675
771.84814 -886.63342 15.220596
811.75928 -973.99554 24.653257
801.8197 -945.78064 59.265396
808.66772 -903.4707 11.088647
752.58716 -891.67578 7.7817955
751.88293 -893.32727 16.241842
800.41364 -903.13538 28.837421
799.87 -918.21875 62.589554
754.80127 -907.17328 20.328239
809.07977 -982.60944 23.607128
756.05688 -939.70654 12.094388
763.67615 -891.39685 31.7316
784.93463 -966.53088 10.464752
815.94202 -982.38129 20.807829
807.18164 -922.0033 33.829285
784.54346 -972.53784 10.773488
781.80725 -970.79462 43.155525
789.18304 -946.42694 37.373085
775.73303 -918.29773 25.731403
756.68689 -919.19336 23.306658
756.86432 -963.18481 15.9408
810.98901 -977.28375 11.540422
778.51178 -951.46503 43.172722
806.41034 -902.65039 5.9982214
758.62415 -948.52515 52.833038
785.64471 -949.38702 44.275932
762.36444 -927.87531 62.010086
762.67798 -916.73602 61.709709
768.80841 -917.63025 22.389778
769.20734 -927.05029 10.813423
775.08203 -892.0116 11.84433
804.11816 -901.97382 53.925129
781.92285 -930.65607 10.735081
812.25079 -898.96588 65.077751
786.00037 -923.80457 35.821167
755.82947 -955.44312 17.498413
763.7041 -912.12952 44.619911
771.26422 -908.64508 43.216171
775.75104 -933.91064 63.074551
806.29468 -930.80127 46.82048
809.42688 -964.5166 10.869084
767.81909 -944.867 60.90773
778.14624 -986.10059 12.248631
814.69177 -963.34064 13.409704
804.56763 -984.15057 17.306654
778.50183 -892.46826 11.828384
794.9469 -945.77698 41.231262
799.34985 -895.1944 62.8335
781.54401 -940.13257 20.254944
800.59662 -896.18304 11.698688
755.74768 -911.49115 23.03949
777.0271 -952.86627 34.653885
802.38025 -927.17224 59.749184
806.51453 -967.81732 40.751621
765.97394 -975.74988 34.908161
799.02954 -937.01093 25.072895
750.43951 -984.10394 17.31068
804.72827 -978.92413 7.5005264
759.89594 -911.32361 45.538666
770.55121 -926.04395 24.416273
794.13367 -888.28564 36.002495
770.5824 -891.28491 52.586254
761.44708 -951.78406 55.044281
787.21301 -905.32349 62.356106
812.07001 -904.64069 12.544341
815.94202 -985.159 14.173593
780.75757 -941.39142 21.027115
755.89594 -969.76556 26.396538
784.65302 -888.79248 42.020508
796.85052 -928.84131 10.774509
787.23962 -903.81042 28.828979
771.32965 -964.88055 33.89864
762.37378 -942.16467 26.187805
795.89673 -950.25061 37.862782
791.75281 -949.8584 40.546501
750.6792 -896.86475 14.240258
793.04376 -892.37775 64.186325
776.06421 -968.19275 10.550174
772.23706 -956.9458 43.478958
805.06586 -896.90149 23.511366
765.85706 -979.27795 11.119892
800.75293 -912.79474 48.9417
764.81921 -942.76776 26.000898
785.84485 -889.01184 36.853508
809.69244 -888.65173 13.070704
761.75696 -918.23059 59.320358
751.88293 -895.06049 17.955505
807.35162 -933.64465 29.021078
788.78809 -891.26288 52.63702
755.79102 -957.94568 10.35993
756.7934 -943.00739 9.2623539
784.26044 -887.73267 24.45756
804.37671 -894.33313 62.965446
751.74481 -907.14545 21.593283
771.07007 -907.51776 49.352329
753.74268 -907.01605 20.503515
811.32483 -971.258 6.6417236
762.98529 -914.21143 40.645027
758.28589 -914.79993 49.726574
808.59802 -900.43982 23.282623
787.10425 -942.27313 10.482671
801.49597 -892.66724 22.101822
781.74817 -950.81354 58.042473
804.5647 -921.7157 20.793911
807.01746 -915.38354 36.417061
807.06342 -955.18604 46.644958
797.70654 -889.3736 44.851707
760.83521 -891.05792 39.061604
758.9895 -938.91016 53.777683
784.97229 -963.88062 33.924679
806.17065 -981.46179 21.715572
794.66321 -915.52826 48.400249
749.40692 -971.19995 14.03232
756.14606 -909.90619 15.440587
798.8988 -901.0647 61.226044
795.06873 -950.77966 37.836929
800.92999 -921.4624 27.270037
762.12598 -971.81451 20.144306
801.49597 -902.26678 12.467463
789.5238 -969.06647 44.028881
787.9032 -973.68591 40.631626
782.53094 -886.60834 13.091519
804.69537 -978.86603 7.518589
767.50586 -894.27551 28.948196
748.86304 -910.96454 13.692206
799.40955 -961.13232 33.861721
785.79468 -889.98279 64.81395
798.59503 -958.18628 38.177555
797.65576 -890.98749 40.584152
746.32959 -905.59583 5.7680459
766.46875 -917.07312 32.760674
788.5733 -918.35693 42.762535
801.49597 -896.31201 12.278174
760.24805 -959.00757 34.310638
777.33472 -951.82043 34.975128
772.69611 -972.13806 41.641529
757.21381 -977.02667 6.804533
794.45758 -888.37225 32.678223
795.04187 -986.2027 12.685677
757.6889 -963.48608 15.521349
752.34698 -971.43127 17.355314
762.12598 -972.49249 26.600452
806.84937 -910.36792 34.608269
748.97327 -970.92151 18.587555
801.49597 -904.06714 19.499336
789.34833 -913.56 56.729645
811.20325 -889.42981 68.051537
792.45911 -953.21667 37.728813
780.90759 -948.59766 34.388054
791.5144 -971.46515 39.559826
770.03613 -908.83405 48.408962
750.24023 -888.72412 10.012747
813.96478 -963.78058 18.079119
750.03198 -975.16748 16.423645
806.84369 -922.00806 44.84713
815.94202 -982.77332 10.181049
806.37585 -897.42365 36.538208
752.63202 -972.3269 20.034569
780.42029 -927.78333 20.433956
802.9278 -890.12305 68.540619
748.79535 -983.05286 19.673283
786.93237 -902.51245 11.477703
794.28583 -963.72931 10.32077
751.16998 -903.08618 16.846596
808.02228 -956.95459 33.845737
808.8111 -982.16589 25.036697
767.72809 -889.32812 44.982094
754.97705 -889.89368 10.760525
786.93707 -955.41199 40.3265
749.22742 -890.53516 9.0538464
786.33582 -915.75616 47.118847
769.25085 -909.61957 59.384384
754.91174 -973.15503 29.452562
771.88507 -888.69104 68.215813
761.77197 -918.24512 24.310097
794.435 -948.6944 58.751122
806.5213 -905.73273 31.834015
784.24982 -889.771 64.817879
767.46417 -941.45532 10.500443
783.39087 -986.9223 17.857969
807.40479 -936.70984 42.921944
764.82654 -960.1217 34.271702
778.20947 -944.06006 61.653538
809.20703 -903.9162 5.534678
752.26392 -899.97491 64.476555
770.40149 -938.53284 62.662865
756.23883 -889.90778 18.516499
762.12598 -979.45447 13.500193
815.71387 -894.0304 22.647322
762.12598 -974.42151 12.97695
759.92352 -903.49854 41.178902
802.62469 -985.51495 22.643602
760.15247 -895.09424 38.696861
805.41809 -891.6731 8.0572252
806.07605 -921.40576 46.834747
759.53516 -974.59052 35.808376
804.73071 -913.91321 51.656658
781.75049 -981.95374 11.25742
806.20032 -897.6748 32.444092
786.83551 -892.58099 67.97097
800.81812 -923.15118 34.497078
797.36505 -887.36536 22.669601
783.36493 -949.0011 59.110832
814.97791 -902.31018 6.2134414
807.35669 -889.96344 9.9064941
781.021 -971.48779 42.521111
756.99249 -970.90155 24.001925
796.06317 -916.74585 63.052517
805.75024 -934.57068 23.161495
757.90924 -961.34082 19.308363
776.73346 -927.7879 19.302614
779.17358 -943.02563 24.621954
775.73291 -916.55432 24.570011
807.29785 -931.7627 23.32045
749.13977 -890.68225 8.889782
800.15533 -934.36969 62.44281
751.07086 -899.52295 4.1682253
786.34509 -984.88916 29.176575
759.93927 -970.74091 37.685093
767.61938 -969.97681 42.71521
815.26721 -975.28516 24.508017
763.15503 -911.35107 51.090279
757.8775 -897.78357 23.178284
767.25995 -889.53198 46.043335
785.43951 -958.93744 40.248394
792.65253 -894.13025 64.400879
775.15167 -924.68188 10.864884
792.5567 -957.50665 42.5854
756.05237 -934.94672 35.529076
803.50623 -952.90857 10.255163
801.85059 -889.98944 46.594894
755.4231 -902.40527 7.604362
752.63202 -970.72217 17.341562
755.35315 -898.52148 24.147495
803.80029 -893.13287 32.859612
758.22595 -943.85657 51.330315
746.23444 -909.7702 12.657667
753.55292 -905.55078 23.618101
797.98486 -933.55499 24.657379
777.75116 -952.69897 37.768845
807.17969 -973.71545 34.390678
775.7179 -953.53375 10.238008
810.68866 -888.90033 68.920906
756.07861 -941.21661 17.952837
792.64459 -949.52087 24.512381
794.57831 -891.40753 31.501503
801.18805 -968.42688 42.645321
756.5968 -890.4635 62.595024
752.73962 -901.95178 23.936726
787.38165 -913.84924 53.092842
753.87604 -977.8573 23.253105
804.62653 -899.34625 52.278675
791.10815 -924.12952 22.929892
776.78198 -888.54633 32.922646
778.19727 -966.14789 33.852367
751.40125 -985.25977 16.526634
773.2475 -888.57593 69.033051
768.91864 -893.76575 28.954571
786.20935 -886.54016 14.494905
804.68817 -977.07367 25.116556
811.35803 -903.90442 17.840063
748.03186 -978.67029 7.1435881
784.69867 -920.85248 21.983202
767.59631 -889.72736 25.239067
805.13934 -931.24121 51.470112
763.77222 -887.82739 68.166595
746.86536 -909.92767 14.697703
777.81787 -912.20081 29.027407
786.42133 -888.46118 64.838104
774.336 -892.00494 52.526001
789.67584 -894.36359 60.794731
752.63202 -969.50232 15.966852
806.91705 -935.58118 10.739419
793.409 -966.50708 42.663334
771.76965 -886.65027 16.839966
811.35797 -897.20404 9.1127062
807.26929 -952.39252 10.456415
767.10956 -937.16418 62.714577
813.52795 -901.99536 14.866299
799.55963 -899.63367 60.933578
785.2998 -958.92126 39.91983
763.05249 -897.47784 62.840363
752.68494 -984.10645 12.689247
776.48047 -958.33691 43.379513
800.17773 -923.44482 22.464962
804.99951 -975.02008 24.53787
808.90283 -889.66333 18.167837
756.67712 -919.69946 41.273712
758.88458 -980.67163 28.236542
813.73804 -963.11328 14.885862
752.02533 -975.98822 14.665324
768.75592 -912.54254 27.513927
757.01849 -931.08728 45.077183
782.07111 -953.72729 10.233803
794.31055 -959.867 34.029694
782.72681 -919.62378 33.479073
772.21545 -894.03088 58.051743
786.51221 -987.21783 15.815152
753.55676 -963.52002 10.266268
812.85632 -900.09778 12.795404
764.09479 -956.10382 43.543129
792.70813 -958.72015 34.177872
805.27887 -907.56647 50.798725
813.53375 -969.07739 23.378902
807.27972 -976.95453 30.248411
799.96265 -969.02338 10.592859
815.61682 -902.40277 4.9981718
810.98901 -969.7406 16.124393
767.44775 -906.16803 62.223194
790.91492 -918.56439 25.277531
762.12598 -971.89264 23.554211
770.40503 -916.47064 63.101856
757.82001 -917.68036 29.137819
801.49591 -910.05603 13.766279
770.35901 -891.17236 52.309505
806.24072 -895.47668 35.224037
807.48322 -980.51105 22.055063
813.47058 -901.40063 14.070392
762.95911 -934.18164 62.328796
807.58813 -940.83771 41.503113
810.54865 -885.32886 68.965805
801.61163 -921.92432 22.727917
748.12244 -893.03821 22.631557
782.92108 -920.09625 34.250546
783.2901 -923.95715 19.177298
793.39722 -957.23242 53.012203
749.43121 -968.03815 22.934662
781.66467 -977.93726 37.108093
792.57544 -897.77057 28.904497
778.77576 -921.69537 18.876581
788.55292 -902.64819 61.894783
753.01904 -909.07019 19.790131
786.76636 -920.73486 27.803173
803.03577 -917.63879 41.015533
783.89136 -957.48083 53.367138
768.44238 -915.05133 39.780247
807.21063 -961.59937 43.822357
772.25952 -892.84277 55.836861
762.12598 -980.42291 18.057474
777.05078 -925.79742 63.385159
812.1532 -906.23914 21.32045
802.71704 -895.40308 62.933464
794.87982 -921.74194 63.177799
793.11017 -891.4043 31.570332
765.80359 -918.8584 26.06089
817.03503 -903.21851 22.816313
797.27155 -953.48334 42.218491
810.25 -972.23004 16.668415
766.25281 -955.29138 43.607376
787.20813 -923.75543 63.366413
801.29913 -898.29248 62.774113
781.53168 -939.8407 22.485411
793.22784 -948.9021 40.95953
808.224 -888.73608 19.192226
803.84863 -903.3584 33.151173
754.45837 -975.67163 27.792879
776.59717 -889.38318 45.776474
811.43915 -970.77875 5.8096409
787.92834 -894.33435 11.763235
805.72583 -959.65576 12.741446
754.35815 -978.97632 7.2520862
753.89575 -976.61737 6.3239264
761.42151 -908.51282 44.015877
806.26532 -905.42896 44.871223
779.685 -918.88074 23.299587
760.44238 -889.99609 63.387779
814.16418 -896.1507 15.81757
756.24048 -933.72693 41.580654
771.27875 -918.84033 26.129797
803.61774 -961.25635 34.221745
776.32104 -932.74957 63.151951
761.05896 -930.58203 59.083443
773.75403 -891.49731 59.404961
776.80176 -986.04932 15.031944
793.59363 -944.87775 10.426083
761.93585 -959.65698 12.778244
765.21155 -959.55646 50.410439
806.88086 -911.27161 34.659599
770.88733 -982.31378 11.275921
808.31879 -961.65613 23.533573
808.07642 -961.42023 39.204281
769.22339 -941.46301 62.103737
795.32794 -906.02222 28.801327
767.47974 -907.4115 47.913765
766.77502 -962.12 48.629265
805.40808 -906.85803 22.088264
802.67175 -904.15735 57.427948
809.22241 -909.15247 11.610918
807.69348 -945.02582 41.280457
781.1626 -966.3219 46.753139
804.76971 -933.06781 52.818596
755.14746 -901.98267 29.508881
813.37036 -967.38776 7.1277375
769.68146 -968.95343 34.471344
806.60309 -960.0976 46.243118
806.3269 -909.66785 46.77626
779.32281 -919.13104 24.461275
810.98901 -977.28186 12.634803
806.64697 -919.61487 45.61602
748.37708 -977.14984 6.8481841
814.46326 -981.56757 21.088789
789.63867 -947.78973 20.315847
800.45306 -934.1911 19.364933
777.37109 -986.11151 21.684093
814.31372 -973.46277 19.800383
757.50562 -902.75122 45.420128
779.55579 -942.74109 22.184622
762.49622 -923.49847 10.890598
805.41809 -938.42529 50.95034
753.27148 -893.66718 62.86208
812.75964 -977.36243 6.9468689
757.08044 -889.39319 21.479839
814.19165 -974.1275 5.5242457
787.41455 -956.7793 53.779377
773.94153 -905.54443 28.807299
777.15973 -930.92395 63.255417
765.72443 -897.2041 11.663038
801.50873 -961.25476 33.758247
797.82788 -962.15112 48.440308
808.26282 -908.13501 10.377937
757.2348 -942.59808 47.485836
774.88519 -915.10541 44.348007
803.76837 -898.60583 32.204926
803.61316 -920.55267 24.524563
750.46472 -973.99829 19.225662
808.52338 -903.83984 22.388317
749.9563 -981.94867 20.962708
768.06567 -898.8161 61.152222
762.12598 -907.64618 17.793201
815.6712 -900.52979 5.871594
786.7937 -985.99915 21.625378
777.85089 -912.7019 26.822878
758.50995 -913.57867 27.079525
814.42432 -889.23004 11.312321
761.40192 -922.34955 58.950394
799.86804 -939.6507 10.539649
799.1264 -890.01593 63.549675
782.47443 -952.85925 56.815643
799.95044 -920.3468 40.217545
761.94177 -930.83118 10.731604
810.45721 -977.65314 20.205666
793.58813 -919.46777 21.772884
772.01709 -970.77094 35.866566
812.92767 -897.82788 62.87632
760.99768 -913.14661 57.210655
754.70435 -979.06757 22.797005
789.94714 -914.74994 63.041031
756.22473 -895.89636 62.783421
793.00604 -940.94989 62.245609
806.68579 -933.91223 44.910873
757.22833 -938.61383 47.222603
786.19775 -940.50586 19.806509
811.13806 -889.57556 17.98641
815.43848 -897.64636 23.282419
792.48309 -971.08844 36.84037
796.70483 -945.07141 38.202816
757.60028 -927.0174 19.71299
811.62122 -978.18555 15.434738
795.58783 -984.54773 24.287804
813.89929 -893.89209 23.543209
764.58972 -987.15118 15.090986
749.51843 -964.0929 19.059715
776.94202 -956.45929 54.034027
806.6994 -949.45557 46.260544
756.29132 -971.34558 36.239025
796.72064 -923.33276 23.431124
784.54651 -893.0766 56.354019
797.63916 -943.83051 61.090691
771.90771 -942.75006 61.986515
785.43713 -962.10278 49.800598
775.9209 -910.14221 48.725693
796.04688 -916.63531 54.167328
760.82312 -902.86774 29.398409
812.46643 -970.44342 23.863173
799.16553 -944.7049 10.429837
757.93091 -889.79889 18.291616
759.36792 -936.84271 25.708426
785.12695 -958.74304 37.251949
810.276 -973.20129 19.810688
815.94202 -981.99548 9.4483452
792.28601 -893.66888 28.95578
773.53625 -986.93268 15.930664
757.17511 -914.67517 46.088715
790.14874 -927.30786 23.907026
759.59668 -930.5769 10.726831
752.61322 -892.41632 62.929996
802.34302 -890.84918 43.575035
757.98669 -958.82062 40.668152
801.49597 -909.76721 19.359402
807.4751 -938.47003 22.930363
772.71643 -893.70361 60.735867
790.5069 -916.73157 33.20842
806.1731 -969.96771 24.030128
811.59729 -889.89282 19.245014
775.21362 -971.07959 42.462685
784.11273 -891.03467 39.56419
791.77228 -886.91406 68.448517
804.70679 -963.07214 16.497761
759.95349 -918.52563 26.581018
806.12402 -929.02368 47.546955
799.45868 -889.91956 63.545952
811.97498 -892.3667 14.751563
796.3313 -946.46753 40.318439
813.93036 -963.38287 14.818658
815.89569 -894.10242 22.672846
781.54962 -915.27545 11.069262
761.35907 -927.48792 24.58847
789.88348 -891.24951 34.916588
809.96692 -981.85278 9.6830044
754.38074 -963.65466 16.617611
801.66754 -886.31317 15.503021
784.71533 -984.16382 30.763914
800.53888 -892.28528 63.284637
753.23804 -907.17798 20.322998
794.29944 -923.76654 18.635975
811.54108 -905.87274 14.807293
804.53864 -984.59802 24.144373
806.41718 -939.55823 47.180935
795.8161 -894.14496 59.969833
749.45447 -903.37744 14.624401
795.88867 -916.40662 49.194351
803.2204 -921.11987 18.450903
772.44287 -932.45923 25.187586
789.31 -889.34741 65.299393
777.72595 -913.44775 35.381565
806.13184 -976.39209 24.35257
807.22974 -892.29401 67.439148
789.22467 -918.62482 46.383068
773.2312 -940.65283 20.202229
756.25354 -934.099 30.050465
779.40381 -952.75696 44.727131
808.32996 -892.97363 12.809309
748.06812 -965.18518 20.524872
755.74176 -928.37659 13.847696
804.90381 -895.49835 51.02634
806.92041 -915.39453 32.829372
756.31482 -932.19275 20.724674
805.98621 -930.51697 48.385597
793.802 -888.39746 36.591774
789.8949 -967.88879 42.601665
762.73743 -910.74249 35.097454
791.62695 -927.41455 10.805511
807.33057 -889.28363 26.956337
755.81384 -950.23743 11.999882
762.87756 -920.00122 18.758104
789.83289 -941.27606 19.860363
789.96539 -910.50275 11.198729
812.29852 -983.31787 12.489414
789.83032 -886.16351 68.585175
793.68127 -888.33514 11.972691
762.34247 -981.76831 28.647766
774.6131 -986.20477 22.327148
776.68451 -902.20178 28.849091
750.63385 -895.82507 5.5913615
803.61365 -922.5741 55.320114
798.9101 -891.39014 31.876411
794.1947 -916.69171 52.56028
777.58789 -956.98285 53.655205
806.58105 -942.95471 46.471756
780.3645 -962.31537 43.047806
778.14606 -916.39124 35.177647
816.02002 -973.86188 23.913151
752.27039 -981.65271 9.1454372
799.62817 -890.8515 43.525829
774.05646 -888.6889 28.683846
816.03143 -952.66199 44.432594
777.19598 -911.14844 43.720959
755.6488 -986.20312 13.419393
784.39478 -952.91284 36.279076
762.54987 -891.62067 52.204376
810.71765 -983.69281 13.431793
751.16998 -902.00537 9.7485733
758.77545 -978.6637 23.302944
755.76624 -954.84399 14.507386
789.61938 -888.81445 37.625832
801.01971 -956.26013 52.161777
778.57397 -912.94281 25.763014
779.14636 -917.10651 22.335968
757.95685 -914.77643 48.480076
807.5672 -934.51306 33.853313
808.08264 -959.68762 35.008888
779.07318 -951.04944 37.435394
804.37195 -894.46051 52.128979
806.54669 -933.99597 45.762009
770.35144 -968.44226 10.562998
814.34558 -909.39404 14.656443
807.96442 -972.1922 31.86927
756.39288 -927.51471 40.848621
806.34998 -888.70532 16.507591
752.8269 -977.75549 23.289188
769.42194 -945.61926 60.777687
786.60931 -966.00464 42.765663
802.12634 -961.60608 47.621017
774.42999 -986.64587 15.5505
751.62653 -973.39111 15.980913
755.28851 -886.64368 18.713133
795.40222 -890.9458 41.486439
810.98901 -980.3739 15.262104
748.95679 -905.03748 21.511089
786.25171 -958.13098 10.138123
795.23218 -943.51196 10.455754
801.79266 -968.34265 42.486378
778.43317 -918.50806 34.811749
752.63202 -969.0166 18.692865
749.02612 -898.21667 15.502954
759.80743 -898.98889 43.204067
785.22467 -986.73511 18.436867
809.09473 -981.92273 24.378468
755.54309 -941.65161 14.653995
771.38708 -915.84869 37.072598
772.65662 -948.81525 59.006134
810.07605 -903.97882 6.805007
775.24811 -915.4292 38.31543
773.12701 -913.14307 62.900406
793.242 -892.79987 64.348312
810.73315 -893.27313 24.861652
755.96411 -985.11743 21.46826
799.89783 -938.11951 25.20643
805.9071 -912.42383 11.859125
793.07861 -892.87683 28.965685
799.46283 -947.14319 58.772095
807.65381 -945.48499 42.410942
750.66559 -978.33441 23.419653
765.98132 -915.01685 21.740374
805.14502 -910.4696 16.774103
792.7666 -922.66199 22.270426
805.93542 -965.17047 24.188696
779.44116 -890.94293 41.547577
754.59363 -906.92358 6.6396017
796.49146 -890.96069 51.498436
767.84045 -947.66205 10.365585
805.79681 -910.75623 44.791935
804.87366 -908.56183 52.150169
796.37341 -935.31995 62.826435
763.51147 -949.33777 57.283829
771.3537 -890.77209 11.887608
793.81329 -959.40332 43.133949
809.4137 -961.4281 20.11381
801.49597 -975.69098 14.454168
805.52795 -984.30365 17.478218
781.54321 -887.9126 68.578461
810.03955 -962.85156 19.098579
791.70215 -896.32983 11.693564
759.6886 -956.73285 51.223724
758.05774 -985.11346 14.267397
810.474 -897.28491 13.671932
796.85547 -940.73315 62.118347
749.89081 -975.65173 18.903133
748.12915 -983.35461 11.947088
801.30542 -929.94659 62.008884
806.95569 -983.26117 18.590376
753.15741 -889.77594 10.134315
809.70343 -910.31049 20.513376
770.5116 -923.40295 24.099426
756.03589 -916.71503 11.680747
746.966 -984.72528 14.608547
778.07214 -959.75916 51.616718
806.45966 -976.98547 6.8132067
765.53772 -929.27466 24.802382
767.94849 -912.57397 11.127957
762.12598 -901.78711 15.425833
778.9137 -941.93933 20.292183
797.13831 -895.29614 63.134445
783.3385 -894.98779 64.863213
800.58716 -888.49207 36.078732
766.85895 -886.89288 11.467122
809.12854 -971.19513 6.5766015
766.37134 -939.38074 26.015972
751.05273 -963.16431 16.182833
751.30151 -897.71765 4.321579
754.30249 -907.91754 7.4365139
768.79419 -891.24573 35.000305
779.35675 -949.43073 58.852737
749.89484 -904.95197 6.7251482
813.19958 -893.11853 21.763586
813.0318 -897.39996 62.013397
760.50598 -915.26062 56.150871
756.51044 -912.47729 27.426405
759.26147 -886.51135 22.067307
751.59802 -897.05853 15.152296
754.00586 -964.36163 21.143131
779.89392 -890.9762 40.829865
755.72784 -962.72772 11.902769
798.1958 -956.07397 43.305122
804.06403 -964.97095 10.220264
802.03406 -934.53345 24.776773
755.76166 -947.27368 33.160843
812.06995 -894.87335 11.533156
760.75385 -930.2995 24.925066
762.09155 -952.35559 54.830067
754.42041 -953.68536 46.436089
804.43567 -981.44604 27.667816
778.8092 -956.70386 10.169132
786.3291 -970.88293 10.688431
805.15118 -974.04614 35.82262
812.7406 -964.21838 11.421136
773.99683 -931.36365 10.719707
763.565 -891.58246 28.981869
757.65485 -927.48132 48.220989
804.12799 -983.87378 18.279991
803.87878 -899.73059 54.367584
750.91821 -974.84467 16.602629
770.76038 -943.91248 20.430164
803.68127 -887.54639 16.784256
802.76318 -922.15045 57.575005
775.75189 -890.18335 49.368168
799.65222 -947.37183 20.286625
806.22717 -891.73108 8.0191479
810.29028 -898.43286 62.55056
794.33008 -969.23315 34.338837
755.36346 -985.41211 19.947681
748.75635 -978.20471 6.978507
809.84778 -888.4306 14.50745
812.07001 -904.99719 13.300403
762.12598 -893.04504 12.889044
782.09955 -968.56012 33.691658
815.00183 -973.01733 24.605162
812.07001 -902.30084 18.00782
756.73547 -916.74664 31.291918
758.33069 -966.0752 43.066437
800.38666 -915.90039 36.621719
806.38879 -902.9314 31.631382
763.8053 -903.4668 11.444385
749.65436 -977.53979 16.841873
783.90076 -944.99634 10.423504
798.10602 -934.54236 24.776014
786.77942 -951.34839 44.542347
793.80933 -965.74597 10.42442
768.40314 -974.56506 38.871532
750.51599 -889.37488 17.415297
786.03424 -888.7561 27.80241
806.82367 -919.31183 43.338417
811.29181 -963.43964 10.735494
759.45789 -930.32135 54.496803
770.24646 -910.34326 62.622158
746.966 -973.94189 24.768028
794.08936 -948.81049 39.41436
810.59534 -978.75305 24.521231
746.89642 -907.79413 19.636206
771.58832 -918.49609 10.999285
799.3537 -969.19562 38.531551
786.81512 -896.63501 28.918697
812.43854 -981.2561 21.944975
793.32477 -965.16895 46.841679
750.79291 -972.22217 16.791023
760.52679 -928.39954 10.786951
761.49902 -983.3241 25.758467
786.15387 -937.55353 25.133635
774.53772 -897.01721 61.01424
762.12598 -899.57593 13.841759
750.15198 -889.17688 13.080603
774.21655 -950.52124 43.547623
754.99634 -900.60773 4.2904139
771.83246 -955.39764 54.517017
754.84302 -973.23053 12.645689
806.33032 -944.81982 47.782459
752.46698 -895.16058 18.886827
767.32001 -960.50708 50.006004
751.39911 -975.59839 14.035561
755.71765 -952.52466 31.838253
755.97357 -894.70288 5.0382686
762.12598 -971.74988 21.469812
762.61975 -895.59082 59.678543
805.37335 -944.88098 51.473885
808.04572 -958.34662 33.759987
806.41687 -944.31006 24.85853
749.29565 -969.63696 17.50783
811.35797 -899.58386 18.8797
770.91913 -940.99872 26.123814
762.39575 -927.19836 24.553808
