# .PCD v0.7 - Point Cloud Data file format
VERSION 0.7
FIELDS x y z
SIZE 4 4 4
TYPE F F F
COUNT 1 1 1
WIDTH 1612
HEIGHT 1
VIEWPOINT 0 0 0 1 0 0 0
POINTS 1612
DATA ascii
3820.2742 49830.957 14520.742
5551.458 99673.836 12523.968
12065.887 72906.93 6248.2939
28822.068 30397.031 11001.91
46303.684 87581.812 5164.8784
40710.281 99874.68 12144.324
8249.8486 15473.452 19269.094
38891.336 64567.883 32688.48
33227.465 70581.609 35690.738
28054.059 21538.047 10953.35
30949.277 20912.162 6130.6328
4742.9521 87216.43 5589.334
3827.6543 74562.102 14833.456
28949.91 71662.477 7942.4199
22705.785 18725.24 9297.8457
46165.297 15227.006 9893.0898
12123.898 58970.805 34392.184
45925.551 26876.242 18896.916
28951.746 25778.229 8694.9434
26042.578 58225.875 4199.5503
3865.3816 44784.645 16045.526
22982.236 90397.312 8416.1172
15219.903 89081.422 25879.404
5739.6553 27176.549 20505.293
3933.6301 34796.094 12227.695
41150.422 72901.93 6854.5181
22511.213 64556.977 34359.598
40473.617 33981.488 6360.9731
36796.07 77782.953 35293.344
45157.812 17973.129 10709.672
46347.223 44621.977 25810.375
35357.98 50981.711 17307.83
38473.484 63564.82 21872.375
27013.764 72907.594 6130.7354
13694.997 58432.027 5135.9492
4681.2661 17634.102 6819.209
32041.068 82652.984 8579.0205
31991.812 41253.168 24527.715
39406.898 64685.27 5295.2236
19545.578 34384.328 4666.6128
18647.318 30581.34 10893.018
7853.7417 67770.203 23448.963
46192.207 87794.711 5849.439
27295.887 79133.922 35702.273
19469.367 72083.656 6149.3809
27727.721 90991.094 26193.32
39511.332 66463.164 33932.531
33446.055 88603.828 9952.6133
32134.086 90937.82 6383.0757
30325.006 17172.723 9990.748
17915.842 31217.936 23002.697
20908.836 95555.891 31287.723
39615.859 95730.047 29859.504
39500.492 72598.305 4427.1382
43398.984 28472.812 15900.021
18294.621 87571.266 21508.904
33985.766 46193.344 21103.422
19472.936 27760.473 5738.4556
35032.246 7470.6035 17067.637
14877.641 90072.922 6627.0557
9838.4727 86560.797 22432.285
4852.1226 45638.023 26472.84
6954.1763 24193.111 -357.57257
38912.734 78706.445 7938.8945
13943.186 10933.815 8359.5352
46037.805 89451.039 9133.5693
5428.8418 26647.137 -72.035141
7445.373 7723.3652 8781.9502
42122.539 33638.094 8817.9062
7962.2539 34722.883 22602.383
31547.418 81986.812 35466.52
6429.6504 18221.824 11281.725
27306.617 101268.08 10613.02
5054.2266 40277.141 6920.5317
20698.002 7019.8306 16590.252
8850.5312 80668.594 29885.512
22062.842 84581.656 12342.478
10276.029 78640.914 7106.8657
24475.348 75592.883 7879.8013
17931.859 74621.039 35699.324
45555.035 19219.893 12407.33
28629.627 116581.55 13232.144
15620.393 53795.777 4855.5703
8248.4365 99450.164 7348.7852
14210.346 75338.039 35386.098
46176.168 87296.133 12559.761
22904.475 103810.47 10951.568
29224.777 94130.031 7559.7783
46409.188 21267.656 12288.557
26252.166 113096.11 21538.961
13046.609 72089.133 5474.8159
19435.586 84032.633 7950.5552
41779.719 86320.672 9450.6279
22030.586 106351.78 12655.973
4185.7046 76191.867 20809.457
12282.586 85888.031 9110.3232
9235.457 34077.152 22715.443
43156.395 88738.43 6954.2236
14213.933 77807.859 5595.6431
17689.695 5431.0327 10770.602
29138.898 55133.344 33396.594
6788.2354 81819.844 5006.0425
4785.897 34953.48 6833.1675
39251.766 57739.941 33860.578
41980.809 88990.633 998.77356
38045.367 5488.6748 13865.908
30892.783 41746.773 4764.9561
45595.797 105761.38 18715.762
23487.738 101569.56 8348.1328
31086.281 72092.805 5001.9033
16126.8 19194.428 9939.5928
39501 34048.359 6206.3965
38102.918 39177.102 23239.414
16196.049 92107.484 11987.613
3809.9231 53409.805 12249.078
34708.207 95409.562 12440.94
30636.143 94526.508 12354.95
22040.443 107679.4 12667.112
13944.959 113996.77 19837.008
43112.117 11532.021 16722.84
26219.008 95438.438 12563.658
5253.0298 43585.836 7118.939
21038.57 72158.172 4783.6909
4320.0068 26239.816 9757.8398
46043.648 17776.115 5580.1772
33661.906 64411.691 35434.629
15831.554 85307.469 33887.672
27633.084 80073.984 34519.887
18279.574 28923.98 22650.932
37927.793 74471.266 7948.9727
6452.4932 74449.25 5217.9014
14874.45 70594.039 35501.395
46788.508 44153.051 13419.019
32084.264 9795.0371 8830.3086
46853.652 58946.172 13688.328
45941.828 103860.45 17081.279
16452.012 36380 24064.152
29936.129 79291.062 35664.984
36059.496 85994.633 6419.1362
15030.098 72153.047 34016.668
34067.258 57304.145 4985.7939
4416.9141 95092.844 1584.9841
4957.8301 105947.95 16485.779
8271.3262 46470.25 22399.43
43154.895 26433.072 8887.0117
45966.172 61457.438 22162.617
40878.84 33211.84 10261.113
46908.434 55286.145 18269.002
3997.2622 75074.359 19536.584
29941.287 72088.82 5480.6611
28672.195 49462.82 21261.84
23363.936 84193.547 9328.209
13189.308 6389.0884 14127.799
35426.793 72916.234 5126.9355
5594.0742 91386.109 -302.13037
4139.5977 60904.492 20597.885
44866.359 22157.432 14476.721
46914.992 68919.789 11776.877
39317.133 57211.812 33754.902
8303.1377 87385.758 13231.09
47031.141 63062.348 16415.805
34077.699 67644.555 35581.828
4786.0063 96265.828 21434.473
41764.828 83775.086 11254.938
29811.045 75652.625 34591.738
46465.309 35030.875 18606.928
41703.156 63592.332 20607.91
31809.84 94080.875 6659.0474
45841.73 74271.258 6393.1709
26281.857 81511.477 4905.188
39485.121 61830.641 33676.309
38504.078 22986.033 21072.211
38002.137 110228.8 26470.094
5846.1772 10997.408 7887.6455
12544.754 8057.5938 16203.578
39566.223 113422.8 17959.273
32439.051 38089.766 23380.875
8387.3125 52099.367 22031.83
15654.888 113967.85 17565.221
29830.369 66038.984 35668.168
10019.874 71967.836 7944.979
33803.93 67370.984 21074.275
20741.492 64590.094 23822.191
41844.961 18628.674 9632.4512
14335.715 33673.555 5018.3062
4823.7817 23294.061 96.714279
20413.191 92859.203 26226.738
32498.125 73864.5 5573.583
41597.625 24910.875 16743.531
20525.322 33485.656 22670.434
16297.347 24636.27 5572.3711
41034.027 69405.414 6284.4004
35812.414 33937.781 22408.135
32939.168 28969.074 4493.3208
19675.596 43096.133 4780.043
17218.32 71569.695 7941.6387
4874.3169 75688.156 8066.2822
8237.9941 95021.031 448.79208
22182.418 72085.227 5971.624
8915.6621 30302.469 8150.9751
29964.172 90656.781 33440.84
6489.3438 104827.75 7860.3701
8594.3164 54000 20701.977
36045.465 101837.73 9208.9609
5043.1899 41748.34 5932.0479
42600.598 32444.141 12048.418
46206.258 65962.141 21960.775
35902.793 13624.637 9378.7393
4367.9927 43720.988 20408.873
47022.477 75486.297 13137.754
19242.434 24193.631 21949.412
10054.869 87294.906 32246.336
29946.018 55048.383 34585.371
35135.441 38418.641 4593.9707
42548.812 94363.109 16470.781
29095.912 70279.797 34567.523
41836.438 12908.515 6517.459
9888.9551 71612.016 31746.686
36023.449 41987.113 27208.088
22335.262 65814.023 18641.898
28762.551 88615.68 24130.441
36341.016 23864.354 4494.5757
46701.426 100370.92 15120.814
4026.8994 76761.516 19695.283
29352.123 22173.727 9773.9971
46220.199 45754.227 24574.031
27463.381 62353.797 5143.2798
38695.867 74163.422 34939.211
17005.721 30529.814 5577.5273
12485.171 58028.867 34375.996
45399.18 23356.195 19080.809
4342.8535 58608.418 21302.836
31709.566 61430.766 34037.648
23578.086 23887.631 8513.2842
21063.676 21845.041 7454.3335
10849.007 76974.805 5621.0312
32666.607 17061.172 10757.275
7613.4736 88812.211 5753.3521
37422.895 34849.332 22534.121
38615.836 86722.398 10292.583
31280.285 105466.19 11366.479
15822.412 71008.766 3815.3691
8755.4824 84495.367 29708.297
15443.552 104497.69 12640.42
43156.355 94454.367 8845.7373
41997.805 20663.924 10527.18
36034.145 94589.289 9011.459
46205.582 96360.836 5036.8682
18780.959 96314.656 12519.869
17301.188 23953.168 10539.377
46694.684 100786.14 14484.922
44353.258 18535.719 11752.689
19479.521 67842.492 4690.2412
42783.945 26079.291 -160.87741
30735.086 104303.5 26952.754
32303.25 62080.012 4921.7832
19684.254 51353.75 4815.7891
38818.777 103404.47 26797.977
13714.188 95196.25 30738.488
28418.625 75454.938 7878.6387
46892.75 33262.352 12156.869
45821.027 79280.281 6790.4668
7775.7305 18171.182 11059.202
34599.816 5007.1953 10294.326
13987.539 71827.047 4475.1182
4362.7686 94937.156 1723.0022
41929.25 31920.557 13029.835
25787.727 40192.844 26960.684
4863.0923 92375.945 22480.75
32185.896 75025.875 35713.969
28075.889 87630.781 8392.9287
4501.2471 28830.281 15720.469
31698.09 18963.57 21040.588
16450.117 50832.352 3824.3342
29020.938 24128.727 9689.5146
46824.406 73273.406 19132.281
46130.078 108005.66 13559.56
22962.965 116666.86 14831.9
37833.578 72092.461 5016.894
11940.207 61808.883 5241.4346
42876.68 18254.873 14322.08
32989.344 50516.82 20862.748
39009.367 19525.193 15555.815
40387.055 16397.764 11526.777
8932.876 46316.996 20243.994
32142.785 74893.914 5441.9731
20682.18 5988.7295 10669.313
42635.969 21732.816 16285.889
21617.717 25915.373 4497.7144
16817.109 27591.693 4420.0322
8269.3789 79750.43 23790.613
34230.402 66769.344 25518.674
30671.211 26338.773 4353.4258
17579.27 7599.2075 17776.768
16866.539 82569.883 35301.426
7992.6758 22610.021 49.019936
26553.496 49819.988 5756.1904
30821.385 107084.12 12662.119
42017.531 7066.7446 8294.1855
29209.973 37266.93 25091.615
25995.943 21875.18 8133.4668
41559.742 70601.297 6080.9238
27885.297 83277.531 4919.9941
45823.656 52634.555 6713.5513
12473.922 47289.926 5148.7246
29646.418 86041.562 12484.889
32017.631 65262.297 28060.631
21561.918 32240.855 8184.4492
41771.016 92912.266 1265.078
38095 91413.578 13127.812
46912.586 43662.68 12216.491
8686.7666 47087.023 19888.602
20269.82 12379.832 19665.266
42459.43 104424.4 26259.271
29134.672 79410.789 7911.8086
46317.918 22350.17 13489.865
12809.973 18439.215 9539.3906
15985.401 55952.301 3911.436
30751.172 33755.527 22791.762
44865.359 94500.391 100.493
14775.5 54119.691 32898.176
36799.867 85128.031 9786.793
24122.834 81870.492 34417.852
6599.2002 109911.27 22920.17
4483.2295 29275.465 12366.24
42325.707 17625.52 19833.49
27191.102 27811.895 5741.209
8487.4766 69889.305 29329.066
36406.848 96559.531 12531.308
34852.82 21601.617 9873.3691
4413.2803 68207.547 8532.3906
18810.996 106937.59 26929.293
22459.084 6332.0264 15978.543
9981.1104 92771.906 9991.7471
42341.602 25387.977 21253.377
47325.676 46135.461 23766.008
41986.055 95183.75 13478.913
43671.016 76443.484 24063.945
36057.219 35388.793 4618.4683
40424.398 34806.281 5047.0215
46727.352 81088.133 11065.392
41433.023 43521.848 25966.812
46821.711 52341.895 13539.787
23817.969 74851.789 34624.32
17925.01 116413.48 13273.268
28921.924 62067.734 35413.258
30514.688 67480.609 21898.641
20468.158 31619.436 23178.242
23656.521 6040.4023 7650.7803
12302.24 67482.508 35018.266
17256.354 92773.672 12095.257
26423.438 83437.781 8956.7578
42376.406 60677.391 28820.861
43156.844 92676.75 9059.0625
41564.828 100696.69 26861.719
23664.398 14533.638 20276.531
42186.234 29821.146 15111.515
29823.406 39121.867 23614.221
32414.668 51260.203 16747.031
19562.393 72155.555 35783.828
28177.062 6839.3633 16845.621
18207.895 46264.438 4865.4756
3667.9648 75344.117 13818.553
33859.809 108299.59 26806.666
46940.086 69465.18 12145.45
34985.012 114081.77 9001.2783
41793.406 19410.879 9595.8438
15265.705 28277.363 22382.992
14008.297 65606.484 33570.543
28192.348 69284.984 4838.7622
45716.965 38974.059 6186.2466
30872.336 74642.117 34551.836
10705.456 113314.75 17755.199
34225.555 62677.207 35278.801
28360.588 105909.58 12652.261
4471.6616 83302.406 9581.999
8133.2109 49393.207 27610.336
12163.078 59339.684 5213.9517
40471.242 23785.039 6952.6855
7438.1221 8597.168 13818.146
46204.422 89047.703 16407.375
19014.648 85117.797 12477.119
28526.896 52837.977 34064.805
24413.709 24147.947 8580.1855
27717.727 59778.125 35203.891
5843.2139 44602.402 26091.129
38867.344 87433.148 31734.977
27475.301 23898.227 7512.6782
17051.018 107793.93 12668.075
46275.773 45773.492 24590.289
12683.41 64561.562 23930.459
5114.957 41642.641 7357.251
43032.531 24205.027 6160.4019
46827.875 62825.168 13168.895
8042.0747 91024.141 -205.68394
13466.895 62224.664 34844.773
12198.629 113316.25 17079.605
24440.006 99024.578 12594.555
14825.258 69848.203 33905.109
18659.834 69397.141 7362.9165
32494.656 102740.46 12625.679
38277.434 64221.164 32451.203
46151.918 24587.547 18351.355
8938.7646 96397.57 2527.4189
4027.4133 84454.125 18281.775
24788.771 68538.32 6037.7441
23138.389 91341.906 6743.3887
46446.801 92271.586 4470.3359
45849.375 18981.48 16862.838
22973.957 111675.07 26739.934
19273.549 30741.93 22977.281
45812.84 72823.562 6989.127
15269.995 32980.406 22309.197
21520.729 94074 12306.811
16338.12 83622.336 5086.9414
25075.238 116515.8 15586.413
27994.051 72451.125 5527.1748
16551.354 23300.512 4244.521
8416.3105 84690.531 5690.2241
33975.699 32043.25 4521.4531
29595.764 5463.2969 6229.811
33146.086 114318.17 21256.223
39644.789 67963.109 29804.121
42514.645 92255.219 4805.895
33272.527 111267.58 12021.812
21798.594 85611.531 12481.273
31046.479 21685.945 10028.598
22674.42 99431.656 12597.968
35217.84 72894.922 7952.7236
28444.42 8182.73 18347.203
45383.043 16768.455 15973.422
7613.4766 88589.383 6216.4014
43066.727 30107.352 1846.3577
9078.082 7285.293 7088.7451
13172.822 51426.117 5131.9316
46833.066 45613.543 17734.396
33829.051 82206.719 7307.7749
31612.133 72092.391 5049.9355
42361.348 23897.006 14684.046
26243.354 57538.766 33727.418
31257.496 114438.7 9092.0527
12810.112 23467.561 9717.3916
36378.164 114320.51 16176.51
30618 110313.03 26776.969
35273.25 85050.492 33861.203
44106.004 69013.406 24827.941
29140.164 82584.102 34382.43
7102.6445 20645.703 13769.083
25429.883 50019.262 5107.4312
37228.273 83309.633 34739.734
43065.211 93495.805 8534.5391
46245.746 26068.281 2059.719
38557.5 5305.9644 8760.4043
41298.836 66380.312 5248.1123
12716.002 95695.055 30304.623
45724.812 101936.32 20681.852
19887.746 81580.109 4905.7632
11173.352 29504.029 22131.93
19123.686 65441.57 34320.188
40125.113 37010.305 23218.535
17343.363 78666.289 4881.3311
34416.137 71556.766 34251.91
14033.063 24418.543 21664.633
25146.881 111908.09 26755.285
15120.261 42804.203 5000.9634
8484.6992 51636.461 21672.018
24690.586 47072.258 5902.7583
14533.684 76451.594 6514.709
29412.723 98517.68 12590.298
12161.814 55188.797 33762.117
7695.2344 33793.766 7643.7827
46731.258 52845.898 19682.389
44782.285 69939.766 5387.6226
31674.906 72080.328 6485.0435
39798.977 86421.078 15042.057
34560.289 89350.312 26610.734
21987.189 3937.1685 10809.933
4639.7104 28573.914 4755.9248
41095.656 51201.359 30784.809
37681.684 24480.305 9277.8887
13419.722 28000.666 22193.641
35789.086 109649.02 12683.633
25553.104 102759.98 12625.842
40847.465 16227.949 19620.266
41550.883 78710.711 30542.926
41879.145 96624.219 6074.436
14055.121 72574.312 35404.398
42981.773 56988.617 23128.756
11461.336 23611.371 16816.971
26627.244 43739.828 29012.025
18497.324 17966.137 20838.941
28233.91 83827.203 9136.7539
16972.303 78695.219 7938.6987
12940.021 102962.42 26921.07
22444.797 65921.641 24340.744
23045.336 113628.8 8663.2461
7297.4907 74068.828 23923.785
39054.699 96322.266 26883.715
4050.6675 71100.484 10186.945
12166.301 87437.453 10659.272
39624.09 65838.312 31848.383
37376.043 72087.359 5627.3613
43093.574 15462.027 6185.4053
8031.2158 100127.8 11593.676
45885.594 13782.423 9436.7754
3817.1357 54393.371 12070.584
18189.127 24923.283 22027.953
41653.445 105237.14 26395.891
17760.387 82703.438 7939.4121
5300.2017 86860.094 15438.219
20249.854 67046.148 34437.039
49181.211 46514.992 25067.174
32677.629 67722.258 22244.314
7611.5195 23476.359 9906.7969
46936.176 53096.484 12006.061
44656.531 66988.688 23726.312
20028.824 18839.463 10840.826
44722.25 102497.91 7611.7422
34844.773 34739.258 22936.676
28463.521 104677.76 12641.925
42823.27 24304.559 8422.9463
24756.582 34936.27 23201.334
35682.766 111073.66 11550.193
7583.4395 11543.094 16654.789
4890.3374 78750.375 6504.1631
39515.891 71144.18 4653.6284
45720.578 37704.789 21102.133
34988.105 60798.516 5045.7578
33151.742 104142.91 26981.438
24460.23 47041.902 5829.9209
31041.076 29505.199 22799.312
27625.352 23721.996 10986.012
29060.166 49498.984 21122.949
46742.777 81926.094 13926.217
46250.398 100659.78 10302.927
25662.16 67292.727 4578.0898
21644.361 53328.289 4729.4712
25107.059 73649.664 6218.8149
8626.4746 66642.289 5269.6128
21905.641 56855.328 4724.6606
45985.18 105693.59 16009.632
31425.062 84172.328 6839.9106
45819.891 106031.8 16390.273
16226.516 56559.555 3921.7664
27402.379 27512.867 11025.261
36145.574 87572.172 21497.133
4148.4902 100430.52 12231.247
3830.0422 32845.566 13716.479
42047.367 68700.344 5051.7295
36418.906 76893.258 4249.7529
11610.822 84430.516 34137.027
37098.648 91277.391 8401.2363
26500.434 88533.594 12505.771
46886.164 77610.734 17431.205
6912.105 61177.094 25207.525
42426.219 101419.09 7518.6528
29358.559 27895.549 22596.605
4371.6328 21906.246 12495.834
22158.221 5743.2393 14645.938
15424.031 43575.562 22908.758
17900.99 44238.133 4871.4619
39802.469 92776.211 14271.697
46867.465 77624.57 18000.561
4168.3921 36825.898 9602.3838
9757.9248 74706.562 7156.1504
9280.1074 113901.95 16056.6
10727.525 33997.797 6376.6738
46961.816 24595.521 16699.756
19770.1 105701.91 9421.5068
18866.869 55438.883 4873.4185
15321.216 48633.348 31206.926
20663.559 51739.844 33463.57
17456.307 92113.969 32621.303
26334.688 112841.1 26787.029
43980.176 99787.992 12292.189
4075.2073 48862.688 9947.2285
38277.078 26723.342 21880.758
23292.211 92019.531 8429.7197
28065.078 15171.861 8524.4766
22483.357 10607.204 9530.0488
28649.422 30060.215 11004.867
21852.168 88990.828 25130.143
23142.926 35127.34 7472.6704
20401.811 49460.586 4772.5947
19500.787 75502.227 34535.922
5854.8433 109917.94 18995.461
36400.863 95624.117 8078.166
28119.689 2920.4597 13652.819
22134.332 90403.609 12521.421
23398.818 99985.422 27783.203
31698.945 84620.703 12242.124
18861.641 107860.5 10125.85
21427.096 26963.746 4386.6401
3826.873 50744.973 17074.68
39663.422 113516.92 22868.377
30641.012 107105.59 11461.253
7795.3042 17284.865 8568.5205
26784.939 56640.215 33623.715
22257.768 92609.031 6281.8164
44351.207 100484.73 24340.77
15821.591 92308.578 12088.021
26867.59 92683.602 6924.7773
20295.863 4670.1699 8899.793
42785.309 40716.512 5342.3804
38549.09 98828.984 11950.653
32481.592 3296.6272 13640.535
15021.768 50850.672 4673.8257
8757.7168 23237.027 2321.6409
41890.188 65177.742 23724.164
35350.586 34640.781 4612.1816
32507.865 43513.234 28562.865
15232.572 65451.027 26254.574
6925.7266 44127.25 24324.514
13478.126 113751.77 17635.883
8607.9688 101499.84 8540.7158
3666.4644 40822.109 13109.681
40023.59 83107.969 7766.9727
46965.707 70960.883 16718.244
41874.898 29671.52 7046.4966
8323.7998 51439.109 5367.1802
11609.471 23263.131 4489.5317
41612.297 101204.87 11992.651
30479.363 46252.742 4764.1475
13955.582 9152.4688 7420.1826
44275.641 78047.453 24464.801
35628.352 10671.114 18611.863
32690.91 92679.195 7434.0566
30991.102 31775.621 8189.0078
11851.293 77899.273 6859.749
14826.531 6652.8027 9170.4072
15038.246 99716.188 27050.555
38022.027 67416.125 22392.742
22358.789 11741.885 10325.015
19770.191 108322.84 9467.248
33705.953 81068.102 7567.1177
5258.2256 27392.332 208.36118
34636.117 42913.25 4951.9189
24975.445 114094.79 24690.543
43156.32 88571.711 6646.7051
4602.7002 52577.609 21496.293
36599.062 52107.68 5086.6353
45617.512 59348.266 7232.4131
25300.242 78890.734 7907.4482
19440.779 31140.803 10579.611
7607.1147 84009.164 11868.145
24113.934 89745.062 25949.16
13535.36 36259.445 23472.584
6143.0645 13485.838 16091.094
18592.066 5001.0522 14714.889
45021.938 20226.117 18766.201
42979.062 98820.953 13755.234
24201.945 64322.039 34358.402
41391.992 76853.75 7349.457
4973.7461 102255.05 19966.039
42150.68 48067.504 20342.693
9602.0625 47628.348 29494.057
14641.723 80543.57 8009.9922
19279.332 66245.508 24503.748
19392.723 6154.4565 10452.045
42052.898 44956.344 27584.398
39836.395 72092.031 5061.7578
41845.855 91615.039 7471.168
17397.633 91976.93 27072.748
22085.922 114276.81 8943.7139
8907.0303 73739.773 4346.7129
3840.9426 84376.57 13306.736
30474.549 3186.5142 10851.562
28135.617 17384.885 5776.8613
32500.393 68635.438 34432.176
37009.758 79185.633 4485.2329
35744.715 62094.156 4892.752
4434.9941 22587.672 7200.0537
26092.664 60446.801 34038.945
7351.832 40851.949 5373.6777
20848.742 69392.344 7746.7852
23852.391 101176.5 12611.748
3938.1172 79801.586 18066.668
36887.77 114027.59 21619.236
5845.0811 107477.08 21798.836
26027.996 87911.492 34083.582
31497.199 104096.82 7845.9697
24503.641 95630.016 12565.26
6316.7925 20707.785 801.05908
26079.789 108685.45 12675.538
45561.355 20363.139 13408.171
45438.062 13583.877 6590.9043
4353.7188 102260.23 11426.027
29328.74 65629.164 24509.463
29182.32 49932.633 20022.266
37183.344 55557.234 32818.871
4058.1853 91997.812 18543.693
26754.984 58498.961 5173.2979
20142.938 107200.09 12663.092
46746.93 39952.492 13428.785
35079.012 32481.699 22993.9
3915.7576 82905.164 14109.457
38667.355 72071.203 7522.4326
41797.812 97990.406 9446.9307
46624.957 36697.473 9793.4551
18652.035 72520.086 7226.5576
24772.355 58460.867 35063.984
39836.359 66530.055 29323.617
42701.66 86086.062 28282.076
8543.541 10486.488 6140.2559
10569.759 92835.469 29507.947
3756.0425 79082.281 13262.994
5174.7734 84072.93 12009.044
43929.242 28201.312 16011.405
30736.309 97002.344 25947.457
26168.846 84125.625 6212.8184
4625.2417 29611.41 8530.873
15451.537 69868.531 5129.0083
11534.164 102606.27 26807.119
18238.098 83400.242 8919.6973
14872.778 23677.09 4748.2632
27797.658 91101.75 6269.1846
12299.584 88549.156 11610.844
43444.438 89728.617 26678.057
15663.331 75987.445 7883.1016
15160.781 48878.141 4771.9087
25758.57 37257.352 4739.5811
30980.922 4895.9165 14769.061
6397.7515 101986.66 7589.5474
29679.707 35371.719 5211.1392
12480.367 88507.781 13461.619
23280.406 77532.297 7896.0605
41966 28968.014 12850.047
42442.594 94636.203 3701.9133
38410.434 88688.922 11442.231
21156.475 44102.059 29127.281
46264.508 94958.195 1170.5017
24401.701 6680.7422 8191.8369
33107.156 31881.879 7181.8691
21410.361 104698.45 12642.099
45831.797 72468.656 6461.98
18082.791 75490.742 34482.227
41534.824 65973.07 25225.314
12037.569 66225.578 31333.207
41458.43 91690.938 4379.7393
41472.121 68128.648 31130.07
39393.84 92192.703 16676.875
21529.039 93699.156 7552.8481
4454.124 18112.834 7256.5435
18357.064 78908.906 35597.676
46616.297 58317.66 9277.6475
33862.555 92723.789 10208.108
24725.141 74214.875 4844.0181
7352.0244 88695.773 14232.903
32958 73466 4419.2373
11150.74 63810.57 5298.1396
41982.734 10182.722 15985.534
7732.5771 24714.324 6046.8237
31333.137 92301.953 12025.03
16413.037 88776.664 23867.615
45623.93 17476.074 9055.7471
7703.8667 18491.729 14526.266
43629.855 97313.562 12783.209
4409.6958 93632.18 1013.8288
39875.199 17624.887 13827.175
45732.02 101924.7 20647.289
4011.3604 82173.867 18728.064
31088.955 62282.922 4864.042
7136.457 105463.75 9201.6602
16039.638 12031.186 19266.109
3980.5957 19454.809 15476.467
46435.461 75718.312 8853.1318
25700.129 66202.828 4519.2539
32314.162 89848.172 6601.1055
27701.014 64222.859 22775.58
31727.078 54969.059 33278.742
15852.74 34483.062 4612.2104
44172.102 43580.613 5420.146
29866.516 63906.609 21306.941
45841.883 25174.129 5589.6504
4410.5327 98525.031 17427.758
46393.141 30290.236 10517.336
5201.8667 28943.662 1000.0684
4594.1602 65993.398 8258.9053
26790.16 11519.859 10223.205
3825.8037 47206.973 15539.336
43149.613 82625.062 27296.141
6865.7515 58227.188 24963.027
37001.867 70935.172 3814.7563
7626.6865 93441.172 6186.3228
26207.877 38152.559 6927.7754
44347.461 111470.12 17485.855
14316.869 83660.391 34972.016
31775.398 37324.879 23179.047
19111.859 86124.133 10335.114
8449.6602 25486.908 6398.2861
6755.4434 42162.309 24529.92
41731.227 110487.8 25940.529
28856.633 74741.875 34603.035
27788.605 98547.469 8484.4551
17124.172 110514.75 8540.1025
34580.695 83646.133 35158.301
3883.3315 88829.32 17873.477
45718.297 19709.098 12784.01
21261.758 72910.055 5843.5757
5070.2061 96445.641 22593.131
14367.729 113088.06 9475.7793
16789.803 57369.625 4912.5728
30628.836 18758.631 5566.5205
12090.484 112904.88 25006.252
36714.934 24489.463 21678.885
33401.359 70811.328 7935.2837
27193.188 83540.539 7946.4292
46387.656 30647.574 7599.7646
35719.93 87177.734 33720.312
16461.391 77753.875 7941.0312
39114.703 71007.672 34539.93
13859.405 44556.043 21984.629
48453.102 46697.168 24491.016
3770.7358 62062.523 12510.415
38078.836 90849.391 15734.854
26787.09 92836.195 6283.7241
38415.738 79467.586 34911.801
41951.898 27925.59 1151.67
28590.375 66494.43 34450.461
9162.623 92140.711 5223.4219
33700.113 76368.781 34359.117
24142.203 101546.21 9539.3613
42156.039 65357.285 29815.16
27462.219 78418.078 4879.2529
9270.3721 66333.391 25433.861
40596.523 53796.426 5287.3481
39531.992 14345.633 7174.1665
9776.5586 109177.29 11429.614
3946.4243 65495.258 13493.85
43181.375 33632.105 8843.1963
18890.426 19026.016 10804.275
14071.689 42683.512 5051.771
11104.398 34233.98 5282.1968
45183.5 10213.222 10522.487
38037.898 47092.195 5135.4971
4649.3984 108089.3 14702.069
13712.006 35631.023 24267.082
7239.627 85072.836 26334.828
46944.328 73831.125 14452.406
19847.896 66232.156 34387.305
39856.457 84464.039 9027.2881
43915.734 77622.039 25466.963
22459.432 70996.641 4264.0063
43389.48 50307.824 25973.629
18620.166 42579.648 23337.383
31023.188 35212.523 4564.5498
15805.664 24654.016 21845.199
17113.012 112351.39 10488.999
22995.725 94413.688 25488.723
21018.209 100051.63 9385.9043
46415.684 19479.703 10473.613
24246.729 28644.707 3970.5757
36651.895 114411.47 9682.5234
47020.93 58239.367 15642.774
45835.02 62584.023 5926.1992
29113.748 97453.766 12580.546
18674.822 16344.256 7364.4541
37547.512 47255.945 30035.219
13164.271 94941.984 26508.396
37367.375 63546.766 39026.371
45748.156 25222.492 6315.6572
10234.046 97163.484 26940.357
46481.766 94460.75 5480.7969
10455.641 12080.407 18430.219
21866.266 27466.602 22537.5
32733.906 88698.781 23768.354
3835.033 45472.344 12311.36
46342.84 19409.953 5705.2163
8352.582 104774.22 12642.76
25328.268 75697.273 7945.7705
7463.0215 67430.094 27474.887
31898.031 29257.402 4726.5649
7035.3643 22249.09 16468.215
32017.895 79058.414 35604.906
37957.867 26586.705 11857.273
32731.047 53711.527 34144.711
29777.613 63717.527 20479.365
21383.129 88964.383 24925.746
29093.869 83582.078 5097.9951
16637.367 40245.117 4907.6538
11836.263 109201.91 10976.748
22430.814 17879.023 9290.749
12748.228 70612.594 7933.6143
18901.383 94876.188 8453.6699
41364.852 81214.734 7254.6187
26713.215 36718.969 6417.5005
46968.695 71302.859 14911.819
33678.984 91941.781 6984.876
36527.863 65477.652 28573.076
6913.0312 44857.699 24721.178
42305.281 20142.75 13077.145
4378.6416 23641.719 9486.0723
42013.164 35670.547 21947.107
47795.699 46299.941 24778.193
3775.1299 26484.998 17031.039
10400.124 91632.344 15757.471
13923.781 66348.914 19180.846
33742.805 88073.016 11151.116
33117.859 28681.889 4119.0786
39189.363 69966.75 3806.6372
14333.104 113390.78 24778.436
32120.561 14522.546 20126.064
40477.945 36271.027 22656.408
14095.271 81782.055 35104.543
26611.473 25934.559 4477.1304
20230.201 21294.441 9319.3896
26261.793 70323.352 35836.977
30313.42 47011.074 4759.4199
27657.268 66351.555 35708.762
24527.723 20040.949 9308.8809
10797.506 101110.51 10913.64
32711.695 96587.625 30603.975
3970.9106 77136.211 13402.387
23994.938 71478.391 35847.859
32572.277 31324.346 23030.693
32841.215 92199.656 6367.6792
14804.162 78157.562 7940.1147
3922.2734 33913.535 13835.057
17636.283 83193.992 8821.2168
46401.098 24061.344 9731.9824
30697.855 6900.7104 16340.972
33141.41 80295.07 5520.7925
20476.539 98055.18 12585.572
43105.797 7399.1313 9436.4365
19835.553 28105.85 10912.045
43031.98 82796.992 27549.098
13462.527 91053.375 11672.188
18343.18 5448.6719 7589.8203
30934.354 114314.41 18210.074
4836.7056 60861.844 22187.926
43274.836 99573.461 7698.376
45827.18 61319.062 7081.8828
25909.354 67141.484 35773.57
46974.898 68973.648 14340.657
12400.891 23888.191 5312.8052
37957.828 28745.156 13609.729
17424.607 48944.695 31682.85
10089.621 21881.344 20762.695
43742.371 99074.977 13441.409
22756.184 95706.391 12472.568
29477.377 66474.203 19735.416
46738.324 79348.312 10889.992
4151.2676 88149.672 18979.238
9345.9395 35629.496 4997.0171
45927.312 77002.508 5897.8906
21119.037 108678.09 9474.0371
7235.2686 71296.562 23815.383
46858.965 74202.031 18628.293
4935.2432 75246.742 6646.147
25376.227 106798.98 8352.8828
10949.351 29790.367 22095.854
30851.48 88969.352 24469.379
45637.773 74069.25 7433.3726
21791.252 88574.875 23896.568
40001.82 38682.078 24305.559
24786.73 24471.154 22119.506
15737.031 45893.367 4721.1289
8585.4961 71744.195 22020.459
9763.8633 61925.867 31337.941
6991.6582 7962.0869 9799.2969
35856.5 65331.195 29032.213
24653.828 97608.32 8476.5723
4434.8569 85593.055 5521.0723
4577.6802 97189.328 7626.3911
32230.438 79204.086 4901.8569
10816.263 77768.82 6673.2163
5817.9897 30833.352 2639.0034
45316.324 108031.04 9699.6348
21239.711 42738.422 4702.335
39029.176 74245.031 7949.5117
45396.539 87327.328 13311.021
46882.797 79734.609 14523.176
42643.492 18275.719 19943.32
45265.551 58085.82 22859.828
6469.5586 91778.477 25127.336
24117.09 107210.17 8534.043
46779.102 36758.062 10923.609
21468.801 27144.504 5705.6895
18903.297 27731.104 10877.691
37444.133 14018.558 9190.1816
33294.055 96668.609 12573.938
12696.244 82376.969 32700.812
15595.045 67747.375 22381.191
3705.8579 76913.531 13903.634
15846.168 41008.156 4959.2197
30905.863 28525.176 3849.4321
7253.1494 85023.32 26373.682
39716.848 81327.484 33509.379
6762.5532 45445.836 26335.535
8894.9766 18296.031 8891.4492
4379.4575 54217.828 21170.918
32057.074 116129.81 11370.064
7316.4668 101618.66 7989.2095
4691.5776 27614.826 9272.3984
34630.648 35679.391 23136.004
5640.2295 63578.574 5570.9536
42112.141 87054.922 5919.9771
33642.73 24766.676 4732.7241
46355.805 29199.377 3793.032
3896.4302 80565.578 14694.789
35401.32 66258.875 35422.578
31783.049 19788.471 5691.0161
26916.768 59092.051 33892.898
37264.855 115999.79 12881.031
8793.4082 96062.273 1706.9156
7902.9351 95906.094 6111.3447
34305.742 28418.48 4464.0278
38443.34 66463.336 24389.16
26750.465 24347.34 7928.1538
24253.562 114490.73 16378.346
6325.6084 66350.609 24209.152
37647.875 18570.783 20324.041
41888.176 89405.469 1055.6418
10873.431 76096.352 7132.2109
4507.0488 21239.537 4158.71
45550.594 32710.832 11524.312
32747.52 61934.695 34032.082
46735.383 68920.234 10237.709
39047.23 77454.797 32883.285
35585.07 101161.13 12612.442
13591.367 77135.141 7265.2446
35043.531 71714.734 34154.52
37854.297 92657.312 12103.559
39547.891 113573.47 22426.996
13362.976 19956.773 9239.959
13320.953 19746.105 20712.549
35028.453 92138.641 9702.6602
9064.3047 113063.42 19919.145
37566.781 95136.875 11731.51
16559.684 14352.365 10098.197
38339.113 100152.03 27037.262
24171.225 17123.746 10965.129
12449.472 36676.957 5040.6597
37850.031 111658.22 9287.3076
38070.797 113779.45 22980.127
35988.977 65649.656 5017.6729
27573.074 61240.918 35350.418
29423.33 102744.48 12625.712
15331.546 72380.516 35569.504
12247.67 111956.14 8891.6123
32110.285 105069.44 9841.3115
15419.725 28050.703 4061.7463
4378.854 81190.578 9010.6455
41875.676 23528.191 710.55682
25881.281 72295.898 34634.309
7820.4746 66130.117 28268.59
40346.078 31770.551 13364.971
25322.002 46879.996 19617.811
15712.526 113751.7 16957.744
25685.418 2625.5847 13278.092
4263.3262 40425.031 9069.5117
37809.438 96810.906 29830.355
7613.6006 95311.148 6918.6548
37901.316 113713.06 16486.789
19521.578 90274.102 11707.301
24403.15 52741.422 5837.3984
46804.828 37055.676 16414.498
16100.89 40528.395 23475.449
23573.68 44261.992 29300.795
35033.375 48659.809 4768.2012
19389.746 99907.555 9889.7666
31113.223 111060.23 12695.129
5424.9883 70271.18 5594.9209
17248.521 98943.367 12593.003
10368.947 12282.938 18506.473
31856.604 6478.6348 6502.7583
42188.957 50533.477 5350.7837
31341.645 77261.297 35703.824
27478.059 47518.34 31193.742
21496.217 84841.82 34192.309
37158.957 59307.273 33191.875
15718.207 52470.922 3852.2104
21806.682 111359.26 12188.73
12952.885 85825.094 33200.172
4419.5703 31225.883 6140.0522
46717.523 42575.355 10350.504
4833.6748 85177.711 22615.207
21704.822 18258.779 9293.9316
34287.004 110521.62 12690.942
19434.938 79907.531 4891.7397
4816.5088 74284.141 22597.854
4930.5654 107868.85 10794.035
30522.102 69166.062 34513.484
21870.82 21857.207 10927.797
32550.631 43172.902 4851.356
11604.117 62944.023 34303.609
40795.102 41612.477 5248.2783
46401.137 95314.414 12681.053
28906.59 95263.258 12434.337
43329.695 108522.3 9241.7617
31388.459 94442.789 12344.658
27299.85 46664.844 17822.127
13707.272 20370.795 9243.4307
6056.4639 38678.773 5422.8013
4337.9292 26384.75 3619.1733
37940.965 78517.609 35080.043
30353.799 29157.494 5553.5791
4743.5425 102012.91 18162.721
11605.582 11350.781 8012.5415
46391.219 22621.822 6078.9922
11573.468 30323.156 15033.557
25665.793 95810.625 12483.68
4570.9727 25567.125 12510.754
9114.3379 86789.914 30557.074
10408.119 83298.328 32582.848
46978.062 70685.836 16428.572
11003.138 45437.57 20728.184
12417.545 39944.578 23386
8909.9717 27544.836 16258.169
15744.433 67700.367 28999.988
26568.158 52266.637 5296.8496
40526.367 5542.2202 11873.926
34272 72083.414 6108.5122
46341.961 89636.492 3626.1863
44581.508 12863.612 15610.932
12416.328 32543.857 12477.312
38020.148 71223.891 4559.2397
42671.594 15409.038 6083.52
15073.191 76408.156 7886.6284
14754.562 16482.844 20227.021
9802.5625 92233.234 11523.653
5860.9048 51699.223 22771.512
26333.559 77918.406 35767.145
10719.3 23755.564 7414.1982
28347.691 73788.875 35822.797
31229.1 113167.19 21224.811
28163.859 113484.63 19821.418
3986.6699 82275.406 18298.729
14691.638 3571.1445 11689.463
29438.465 66486.688 19781.738
37564.742 91525.781 9117.1016
23752.844 75343.047 7946.6494
13538.054 113492.92 17104.852
8236.7002 99166.406 9328.5293
35805.105 105133.1 12645.753
4301.0186 32451.084 17919.287
39075.293 52170.961 32341.562
37957.719 32189.168 10877.822
21226.168 82321.445 34392.109
14930.907 25936.012 5135.3418
40531.516 58342.953 5302.5723
15697.395 10290.925 18689.967
28908.035 71240.414 3817.3132
3890.4634 72192.391 11531.448
17953.984 97236.094 12572.545
4958.9575 55638.02 5811.7231
11750.917 45351.367 5175.7148
15176.054 49354.031 4780.0049
43440.922 19017.787 19976.914
37815.879 78234.117 35115.781
11857.716 8683.6592 16581.152
33744.805 66958.32 19959.604
37202.262 74990.195 35156.918
3982.4231 54327.031 13122.984
6612.6235 94894.094 25130.65
4466.2705 56945.156 8337.8691
16222.125 44047.109 4952.3311
39757.734 103012.47 26755.088
47172.398 50689.898 13152.602
5209.1733 84035.625 23260.916
45546.742 106512.91 18430.84
33323.438 29366.648 10655.35
20952.193 15079.674 10840.218
7831.8291 19331.229 20166.238
43056.219 67940.977 25556.707
13755.936 69424.578 4075.6519
37209.645 72917.422 4990.7593
6231.8691 97604.695 2112.0342
36961.285 47227.188 5083.7178
25986.729 66326.781 6022.085
41286.035 72097.672 4384.3906
41290.012 82955.43 5840.9863
16498.184 80303.234 34169.617
14513.164 88059.398 10316.343
36283.586 115998.98 12098.021
37662.332 65865.906 5091.7393
39142.305 76816.016 32994.164
7359.9307 24260.812 7788.791
34227.699 38366.121 4593.0776
34783.758 53355.258 32920.586
39898.422 89378.688 16537.137
42703.84 101444.45 10245.262
25182.436 80574.555 4897.334
13638.33 114252.03 16174.147
3890.2244 68120.859 18741.363
37343.699 115857.69 11947.744
39895.527 101404.88 7519.6816
30294.549 70916.312 7936.1641
35744.836 67022.375 4790.3394
38991.184 86799.555 15250.374
8009.1289 101432.45 26377.158
12594.808 94042.812 15949.617
22849.936 7490.3418 18030.248
36170.047 55752.297 5081.0356
40118.387 76174.734 6662.5371
6066.7485 39595.008 22467.402
28669.994 84639.617 12473.124
46488.508 92676.672 3896.3647
10617.542 91880.672 29247.977
24145.979 46005.715 21675.027
35403.125 42645.383 4665.8794
18630.219 89368.977 33825.398
45040.484 27344.414 115.06638
16531.824 73136.703 7952.1484
8478.0117 52686.934 21730.316
32873.008 58345.152 33663.293
5567.7686 104925.19 21879.084
6203.8823 59647.691 23412.021
36638.191 92797.453 9840.0498
5194.52 81850.406 23261.467
11635.31 93853.156 6573.7852
6133.2671 48302.645 22896.121
5083.7627 110941.1 12765.768
41145.703 33488.316 9447.6953
33368.508 19946.605 5738.8706
44342.48 97743.117 24533.521
45618.328 13325.887 8431.7031
40737.816 61579.016 31708.379
41066.176 101325.25 10351.459
27247.121 16989.504 10942.229
37957.832 28045.293 13652.699
26778.441 84237.148 7459.9282
24755.951 58759.598 33864.52
4951.5439 49217.43 6318.4971
23556.863 44417.273 29391.645
34394.148 35703.586 4621.1123
45831.242 85992.844 22804.129
42642.777 89830.422 5913.1523
38108.734 36498.047 23434.898
4091.1924 38588.629 13485.935
6742.3135 99531.43 8454.4941
37957.75 30140.189 11979.221
8936.6143 98454.078 7854.6602
42098.312 26498.295 11993.128
25073.65 88294.422 12503.755
8986.6299 90542.703 13120.787
34027.168 93646.188 12232.424
30990.609 87364.781 8393.9219
14096.818 89678.531 10567.281
7744.0537 41829.711 5357.9331
23885.797 57082.383 5523.46
41732.578 83242.062 22117.586
6718.1963 89972.281 -112.36496
12281.311 86852.203 14010.912
12810.154 25738.32 13596.561
15734.369 73935.688 7529.2842
45610.059 111424.44 13118.267
46667.543 66916.32 9738.3193
3783.875 68799.992 16522.012
29468.523 15922.099 9980.2598
6364.9453 25152.68 14983.271
37048.367 82201.312 35017.844
3664.0923 78460.781 13416.473
26156.197 32516.949 6814.4688
20046.445 103318.32 7658.6172
6878.4526 49718.379 24359.699
4150.5142 35372.406 9867.2764
43156.887 92558.75 9000.6611
4796.4126 15633.863 8419.2402
44550.309 30794.719 14395.053
41757.945 51396.516 5333.7036
18804.457 28876.041 4488.3584
3960.3379 78596.719 11484.293
15815.854 46412.184 4729.9556
22000.752 31939.199 22737.098
23202.434 38319.051 23445.297
15873.156 25552.047 5621.0596
45570.934 101578.78 7947.1406
27329.521 116480.95 12293.379
37204.949 113191.59 25002.342
3969.9197 80293.656 13098.782
18668.148 91541.406 11903.766
39102.531 69988.75 33081.641
42051.105 56742.898 21230.447
43108.105 25608.301 8261.6045
37503.664 100460.5 11605.08
46739.586 36129.398 12529.853
23599.535 70978.211 34601.379
19170.586 116543.36 14545.127
36666.629 65300.578 27023.727
47019.383 59744.18 16388.07
33569.281 97643.305 26824.139
44114.645 13384.393 17074.062
46736.969 40219.777 17628.305
9419.7646 79710.656 7625.6611
37958.086 18170.377 13083.934
43352.852 43908.773 26229.43
25412.422 73415.531 35859.102
34261.43 89552.258 11549.201
35531.379 67687.898 28401.145
22087.98 113673.9 25523.002
26530.48 7369.9248 7290.8076
41306.484 46420.469 25970.16
5252.6104 111682.25 12549.184
33194.949 94020.844 8792.8047
39522.258 16036.391 10981.715
47290.41 44378.359 23725.275
25219.023 21875.545 8399.999
40469.953 24108.938 6734.3765
34512.344 75921.273 35577.77
24829.248 64590.109 34386.473
16259.514 44183.297 3711.2197
28814.396 105459.98 27046.152
45078.984 48384.617 22586.783
46469.797 70743.883 21523.545
42139.098 101196.6 26649.26
33133.348 83054.078 34205.367
31411.562 61930.023 34086.426
18038.535 6293.6733 7635.457
10422.837 109882.98 10641.333
22520.67 83228.453 35451.906
40886.387 6817.9932 7343.8682
43129.035 46860.625 5381.9497
41472.895 75919.844 6725.8467
43156.531 94471.5 7677.9194
22324.555 36622.203 24732.477
31849.307 57564.98 4879.8408
39136.387 74278.898 7370.9033
17873.043 55630.828 33314.859
8265.8369 101762.66 26433.15
33912.93 87787.906 11035.419
21294.969 89476.141 6893.6846
17188 39975.305 23487.107
44576.191 43546.012 5439.7671
27624.299 93221.734 24909.43
45037.312 78476.047 5392.9609
21092.393 97830.578 8478.4414
42286.609 71765.344 29322.438
15022.039 40114.777 3711.915
42847.773 20833.328 5982.3936
18093.109 73878.242 7950.3838
35777.977 96980.75 8680.5684
35865.891 48902.023 21546.637
24719.137 36899.633 5892.9795
14023.525 31289.191 8606.876
8873.8916 48811.176 5329.6187
46475.387 70586.906 8894.2129
7809.7705 91875.281 11312.124
6200.8677 13199.331 15965.218
23661.609 99510.398 28251.396
23312.434 51456.137 33355.129
47213.105 63081.195 13391.68
41136.035 33851.75 7099.5898
31141.613 112118.47 8849.6699
16865.449 86084.75 10301.24
4946.0918 100024.11 21028.211
33723.48 72892.953 7897.7319
27372.035 113057.91 21707.801
41867.254 87223.016 12002.5
37622.898 87808.352 10028.623
10348.284 91145.859 25782.84
41919.93 92017.031 14140.417
46261.547 88173.695 11191.574
38339.703 24144.492 4628.6616
46978.324 54242.836 14524.654
38163.508 29281.66 15497.647
44159.605 86671.617 15317.722
20185.709 80177.211 7918.2324
17349.393 84294.156 7407.8389
16642.605 41836.812 23397.115
14590.193 78304.75 5098.7119
41895.27 91802.734 12772.111
3973.167 71963.594 10809.444
46469.945 40385.293 8895.9541
14115.885 42579.586 5049.249
4717.9961 93713.852 21678.293
11095.319 95265.078 26802.238
34072.012 19676.672 5657.3965
16157.906 44632.609 21922.07
19828.154 10276.506 19038.635
22312.066 24367.133 10963.612
31982.051 52684.906 33017.977
30373.727 92705.688 12540.727
20766.402 37438.316 4602.582
42913.027 17780.213 10254.182
35988.938 93145.539 11866.365
34823.902 88749.039 11341.682
20189.078 30429.307 10943.36
12810.229 29587.383 11647.46
21966.344 32933.113 7170.3833
46742.465 59114.055 19946.066
41514.199 73864.992 5861.0303
8145.9966 93111.219 -152.14499
16807.736 114892.45 10264.919
42225.906 32804.32 11321.882
13694.287 90411.078 26351.645
4477.4185 91724.398 552.14429
43156.742 89691.422 6973.2539
42785.422 20641.305 8178.7441
9030.8428 14894.375 5723.396
5384.6489 32656.195 20952.398
35041.195 98984.742 26834.549
4015.927 44929.957 12782.989
15460.465 50662.773 32359.875
25907.273 53176.051 34194.562
3824.9741 66848.844 12065.719
30730.422 70505.508 35770.004
33234.805 103476.33 27122.484
30659.871 92717.289 32537.779
45148.246 100330.97 11048.688
9149.877 42397.074 24127.445
40517.312 65408.18 30966.686
44394.188 67667.875 23887.02
4915.729 89830.711 22687.371
38893.438 99568 28302.834
25671.965 39622.066 5155.144
12599.169 77405.453 7941.9912
19286.461 49285.133 32028.869
15031.792 29536.354 4586.0337
30059.801 2735.7188 10928.559
41970.492 41944.055 23155.779
16403.715 62090.555 5021.3555
16858.266 116278 12624.105
44835.297 20387.334 19158.131
28216.496 101576.41 8338.2422
41011.352 45058.227 26057.469
22744.4 6499.562 16390.967
26000.344 97357.797 8474.4746
22063.58 59347.406 4715.5742
35685.398 108138.59 26728.949
26399.811 110868.62 12693.853
26801.174 66773.812 5238.0156
25404.615 38356.402 5305.728
31600.504 79599.719 7958.2188
19773.834 28078.211 10909.747
31815.645 38870.352 23711.6
10291.961 47907.855 27399.797
34225.246 54297.305 34168.711
11040.211 85004.781 13408.261
37096.707 9716.7305 17897.658
8694.9268 23675.393 12309.416
46672.789 85633.773 19017.082
22040.812 57745.488 33724.391
30149.387 93101.047 32398.316
20076.801 46148.25 18857.701
28555.518 30800.73 23057.705
25987.725 64454.98 35633.281
31297.293 29184.748 5040.9189
45919.703 41940.254 21167.793
10091.367 68072.82 28528.033
46795.758 67297.344 13543.293
38960.32 67096.023 23614.379
27792.85 91340.234 6883.7466
39778.727 12375.552 18628.828
4064.8721 81469.531 19480.562
31948.523 51179.414 18675.715
8992.9697 52131.047 29417.973
38814.641 10294.571 17968.834
22631.988 83654.148 35420.594
46728.555 48714.094 10223.938
23647.988 57684.035 33731.789
43200.844 73629.945 27352.695
45615.367 61616.695 7210.4463
4050.2078 40607.5 10482.15
42543.688 112510.23 16939.857
4168.1475 39327.66 18674.168
19702.957 88919.969 24206.801
4411.624 96307.828 3733.2383
37524.754 90194.57 8893.9766
25931.418 4203.4326 10804.459
13855.723 69981.969 33637.648
25632.508 83157.508 35478.742
24157.549 84423.391 7408.9219
41888.066 90689.281 670.95459
43709.391 78346.078 25994.857
29981.252 78689.227 35688.785
26079.734 101714.58 9802.2324
42277.59 83184.562 8130.6924
34661.215 32960.621 4659.3477
16592.012 21865.812 5032.1846
38038.867 53210.672 33255.242
14480.27 63895.957 20553.824
17777.357 6696.2173 15800.499
6717.4785 33431.27 9623.5391
46441.246 91354.773 19797.295
9785.6914 113856.19 10140.936
18146.199 79364.797 7911.4189
20999.479 95625.688 8459.9531
8086.4961 30999.271 14189.713
4093.2175 88599.555 18614.666
27915.613 84632.797 7328.1069
4680.0586 102301.74 17003.783
27406.242 72163.164 35851.152
5865.4805 71176.047 5444.8838
29340.336 100812.55 10142.171
31577.789 78777.211 35632.309
12810.1 23092.447 15987.656
5093.8477 105840.91 17906.385
6640.3857 99492.727 8711.3643
27295.279 20175.711 9942.8633
31973.168 47444.43 21254.938
26720.934 7414.2656 18015.004
35292.93 6201.021 9582.0684
22778.207 93183.391 25019.221
19188.312 97609.055 26650.84
42165.918 87573.43 4882.6113
13721.908 75536.672 7946.4375
37953.391 48615.625 5137.3799
9479.0469 86787.484 5350.7471
46107.152 25612.588 7270.665
39047.359 62514.898 5258.5
29742.691 92541.258 7562.7358
43156.645 92030.062 4896.4727
42325.344 50502.574 20410.021
9099.3711 38933.711 23117.297
27784.854 72184.711 34613.281
44986.055 19140.211 18319.627
29538.594 33214.176 6325.7559
13083.122 53783.664 32405.434
34219.672 93750.922 9825.334
8897.4961 18161.689 6531.207
23843.719 60896.676 5509.8442
39092.281 89091.625 31926.398
35407.609 28672.092 4069.5054
46532.344 99266.719 15850.871
26127.504 52524.648 34005.973
5781.2427 108224.84 20764.174
39023.766 89683.445 25361.227
28793.957 2688.8381 13114.915
6940.3789 114413.95 13586.239
20331.957 85979 35070.75
43841.992 54235.707 5445.9844
5080.585 95639.531 16068.168
30664.889 5555.9185 9195.4473
35626.98 49251.387 21662.707
3939.1331 76661.477 18735.178
32948.188 15166.104 9195.9805
41832.836 85691.312 23473.168
30758.742 62904.008 35447.812
8146.1592 91681.062 28852.348
43854.867 62843.668 25304.07
24828.135 75341.602 34636.906
25350.643 69199.219 5379.6211
35228.551 63879.965 35327.84
5939.7422 19855.537 13165.771
10160.097 33918.422 22235.67
26193.535 74118.758 7366.4399
5949.0732 50629.297 22905.893
44846.867 32416.691 6858.5381
41863.762 70762.703 4685.4805
25640.785 104104.31 11043.453
42713.945 29560.547 21787.898
30982.314 72448.641 4730.939
41623.637 113092.23 20440.857
23098.332 15650.898 20510.445
37987.195 29083.016 22296.445
25456.404 109728.84 26881.355
33023.504 114180.13 23610.062
3967.2163 44852.367 10821.336
16689.295 92138.805 12002.982
27148.383 80915.062 34482.219
11154.224 64614.781 19288.871
26081.064 53577.711 4066.7803
11669.349 34011.93 6588.6001
40654.695 45889.805 28091.449
43005.605 39186.031 23637.162
5226.9932 43528.07 5538.478
23102.43 82576.133 8558.1367
7154.2412 107302.66 8963.9678
35471.273 26290.902 4350.9258
7003.4023 78105.203 24153.449
36619.035 96127.266 30391.254
36525.965 94712.484 26465.457
38560.762 23355.693 5221.6465
22942.781 65639.586 19527.797
38238.984 71974.641 32684.475
26750.48 24718.686 9170.0488
33897.98 52851.398 32926.188
6609.4663 63937.832 24628.248
38972.184 72036.875 3994.0737
39151.379 113665.05 20147.4
13468.725 35526.254 4661.0742
8390.1582 44406.773 22668.436
7770.998 17687.475 4553.8794
9952.0576 84861.938 13394.714
46368.141 105383.98 13863.921
45064.223 32233.555 8948.335
15202.475 116263.08 14846.135
41965.719 54133.797 29185.211
38935.941 34507.438 23058.898
3942.1543 63216.219 13177.697
11562.694 59331.391 32567.996
17477.719 89519.539 26801.561
6257.4062 28824.863 21255.27
46967.367 72639.461 16218.215
46254.602 28059.559 3584.1909
11896.248 87095.531 11454.949
29818.762 73761.094 35809.195
23628.504 34845.172 23237.094
37967.941 19111.166 10581.16
15849.121 52102.391 33213.051
34300.008 47817.852 30910.189
26809.969 50573.43 4714.7861
19112.566 29214.098 10897.131
5091.5977 12363.533 10021.778
40701.746 57675.062 31559.234
31286.543 91501.984 27237.949
7366.2607 84335.969 6473.5352
5113.7744 42930.258 24368.711
11928.229 57798.973 5218.4644
14246.386 52980.355 33515.91
41756.43 13662.51 6301.3921
31145.898 25788.061 7514.96
11863.295 103513.66 10998.416
46874.926 84031.961 15374.579
30438.635 5923.3535 15637.523
7612.7681 93113.992 6380.6636
42729.016 13287.798 5999.6299
30984.973 64619.781 23832.035
32303.895 13040.426 19744.766
36442.953 65327.992 28263.777
5773.1606 21028.596 645.58057
