# .PCD v0.7 - Point Cloud Data file format
VERSION 0.7
FIELDS x y z
SIZE 4 4 4
TYPE F F F
COUNT 1 1 1
WIDTH 1622
HEIGHT 1
VIEWPOINT 0 0 0 1 0 0 0
POINTS 1622
DATA ascii
73.411636 3532.3416 585.87305
1884.0632 1370.08 1167.9497
84.410706 1254.5919 957.3515
1853.0074 959.0799 897.20557
109.60942 2774.7913 1117.3545
66.25795 1942.7029 456.0083
323.35739 52.894299 239.61349
1209.4197 2244.8862 1695.3809
1885.7748 3904.2605 493.72537
1831.4269 1663.6309 317.78076
95.18811 2572.0503 343.81158
1368.9581 4239.2866 1133.7417
882.74744 1617.9421 193.57401
801.5636 4117.2217 1688.5144
1751.5931 853.76947 602.65533
1175.1592 392.51971 193.57401
204.47304 522.86304 250.50218
1686.476 729.28418 56.404869
974.09979 542.71008 193.57399
1518.0293 2025.2866 200.41034
1895.75 3579.6812 349.18594
73.182198 3116.0325 670.73242
690.27167 323.95975 193.57401
1863.6621 2121.9844 611.20111
160.20575 4308.6646 583.69049
121.58105 500.16089 929.39679
1125.7856 98.099899 767.62634
403.19434 2274.3066 207.86267
136.73561 3303.5916 251.8466
1697.9905 2869.0481 225.66122
1194.7026 4238.1738 1138.6853
1295.0601 3604.855 238.71201
302.521 3635.7153 578.33569
216.44041 3500.1538 662.23761
739.53046 596.55188 1013.8511
302.521 1026.3599 351.37946
1875.6602 3586.5005 488.04211
207.29108 376.47131 192.88356
577.75269 1319.9894 1277.8931
50.893627 1068.6959 734.01892
1355.5908 394.83319 193.57401
842.04791 3896.3721 238.71201
1627.0295 578.89972 1003.0819
302.521 689.46991 515.1532
63.182201 3016.439 586.4906
1770.1165 1922.9608 1333.55
1255.7596 1445.6758 193.57401
94.690804 2735.1665 346.78094
1819.9092 1550.1074 1130.894
37.4916 1189.783 401.51697
1863.6096 1356.1205 381.4906
268.78772 3281.4312 1693.9678
1767.3043 3682.1897 -10.453637
102.60657 3505.3533 1127.084
773.5423 1977.9802 198.99461
514.09894 20.157839 707.16071
1857.79 2133.8008 668.23535
250.97202 724.16785 77.158325
75.579086 2067.5618 874.96906
132.8508 1509.4698 1228.449
624.63721 3105.8362 232.74753
74.229637 1454.8676 862.38159
271.74347 1047.9771 673.7323
941.62183 181.44687 838.01709
1682.1285 3581.9868 690.96228
376.14847 2863.5117 225.49557
1628.45 617.74261 428.88586
1418.2999 2409.8718 1720.1262
1730.6704 771.58411 453.00256
814.58606 1193.2698 1182.1122
1062.2448 1106.5719 1116.5826
883.39819 1182.7935 1174.1936
81.261322 3177.8274 426.96548
1441.5227 103.35184 772.63892
1628.45 3783.9771 616.79492
122.64182 2039.076 1190.1365
617.57898 4368.3662 473.52338
1867.79 2787.802 511.57458
1717.0253 3656.698 1563.8842
1820.3882 2164.3726 1126.4205
1769.7039 3231.2981 236.50211
207.95181 3301.5269 238.60385
546.36206 4071.1948 250.57379
92.446243 724.43445 384.93753
1628.45 651.86816 550.85193
85.084747 1397.5338 316.67395
268.02615 2716.0652 221.08308
323.70779 1667.4004 1493.4403
117.64145 3671.5198 700.57635
1549.9303 2043.4109 1646.199
1755.6224 2443.2581 212.91876
1628.45 958.36914 648.461
1535.5623 1225.2338 1206.2733
474.0498 2342.7334 209.91043
1857.79 3274.4092 759.45483
833.81195 3722.7815 1756.0388
1236.7319 1322.8271 1280.0378
58.025772 4084.7778 482.30551
1699.8744 3535.3457 477.37119
163.19304 1709.8032 1358.2469
1654.9135 60.428246 458.93353
300.66769 51.282845 340.6882
1893.48 1034.7363 79.065239
1691.3936 119.1577 391.46924
1091.6035 3853.0994 1756.2056
60.569614 3492.3162 791.63782
269.84332 1843.5183 194.97063
1857.79 1679.7728 589.14612
1089.9309 3255.3506 237.22198
1841.4719 1979.2217 1004.823
1675.6527 215.22037 793.51819
1276.1711 118.81859 731.75134
1805.823 2306.2417 231.42642
1113.0774 1316.5719 1275.3094
1783.7535 3470.6235 405.73206
1821.1105 1988.0389 1119.6865
1027.7773 542.52301 996.99646
159.56387 3086.4893 1328.7114
1893.48 680.82898 413.05771
1618.3049 745.12756 1039.9781
186.14441 1800.9001 1439.3035
1858.5059 3676.9812 892.84149
56.274742 1144.4446 738.91138
916.95074 201.83823 861.81049
954.18713 12.131729 307.51285
89.636047 1444.1099 346.68762
1372.5482 1196.2053 193.57399
1858.4407 2588.1963 940.34351
250.33125 3957.8389 384.40991
543.07117 3162.2085 1749.8644
767.86005 3319.7151 238.71201
708.49854 2643.2419 218.90366
1191.8763 4301.2451 805.33148
1837.1716 3925.4961 581.0603
815.32288 12.175402 264.91595
1010.1892 676.06793 1030.9839
931.8385 4334.0029 531.66956
216.77502 2023.9313 1552.9589
552.17163 2736.7141 221.70094
1628.45 3813.2207 314.73352
1598.5786 727.18372 193.57401
181.55566 360.90637 896.44604
1670.9338 4113.269 1603.9164
1160.3911 225.41765 869.30536
443.48099 2616.5242 218.10408
1840.864 1312.4757 347.5174
1265.202 4168.3105 1520.3312
1820.896 2615.0808 1121.693
1881.7083 3975.0552 540.56989
65.708473 1958.7058 459.28906
1526.4741 0.45302472 347.62415
868.31146 1324.6635 1281.4248
1847.0251 1817.6145 410.91959
459.99335 4053.4438 247.10359
607.40979 4333.979 531.72156
496.5791 3326.9734 238.71201
405.03098 1515.8396 193.57401
1039.241 4305.9902 703.79187
912.24634 1385.1445 1322.1613
662.63397 3489.1895 238.71201
1326.9779 3559.8672 238.71201
1620.6173 927.98346 193.57401
349.36014 1730.9089 193.57401
1628.45 3564.9529 357.83432
432.18774 4115.6616 258.63901
506.51813 3950.4631 1746.2178
202.15434 767.67914 149.89772
1067.7944 4337.4893 310.354
1875.4878 515.78607 573.96576
187.02029 614.07947 277.15604
1613.5316 4149.2905 1599.7076
1828.125 894.92261 995.50732
569.32135 4360.2329 327.91434
1685.265 3149.2466 234.04663
1849.0458 1556.7322 934.13849
873.02203 2032.3672 1648.7815
93.524994 2726.4751 1042.3691
1051.2292 3038.8896 1757.417
999.1781 3451.7329 238.71201
1843.3418 4139.4668 294.39627
1759.3577 3744.6851 598.42151
35.221001 1014.6385 310.29056
1845.4708 2504.8765 401.6543
1690.5502 4336.3071 525.3291
1629.3073 508.65915 193.57401
1829.9617 4284.5913 290.94427
417.31305 4381.3086 344.18655
1486.0643 3556.4487 1745.0942
712.23364 3458.9282 1752.3906
1236.9078 4162.7754 1544.0061
1709.2053 3203.0674 235.65727
1487.8625 1292.3966 1257.0381
544.48291 1904.8909 1601.641
267.48636 2784.4053 1692.1809
1857.79 1909.7681 827.76367
49.069996 3991.7781 479.63718
302.521 1192.2852 236.24217
94.201324 1960.709 349.70432
1237.2765 2702.0889 220.66473
1786.5715 773.66663 1021.6365
190.5647 2312.8577 1445.0601
1711.7031 2852.0125 1583.863
812.1629 1705.1567 1513.9498
1628.45 580.77277 220.62537
1628.45 3915.1289 538.31799
302.521 3457.6843 338.27802
1182.8313 3588.2583 238.71201
161.43832 1827.4321 1335.7438
836.69019 1525.9458 1411.5508
630.57104 1239.1375 193.57401
94.142502 489.05911 876.66449
1392.7272 1440.9172 1357.5688
73.314018 2726.6299 853.84064
1746.8561 3193.3767 235.36726
459.21454 989.31689 193.57401
632.99579 4234.6221 1136.2434
1127.1711 1596.7074 193.57401
1882.7288 1056.2368 332.25256
579.42542 105.48152 647.44275
1857.79 2914.511 483.69165
1384.6549 464.12503 193.57401
1252.2915 2040.5012 200.86566
236.66304 311.4538 877.81787
1272.2654 90.70668 595.80762
788.01508 2431.7173 212.57343
1857.79 2738.5122 776.64276
223.1427 138.03572 428.04712
874.0874 1365.4951 193.57401
381.10138 4030.0837 242.53667
210.8437 698.56189 628.62866
35.221001 3704.3245 253.84506
1079.7501 4315.4058 735.76776
755.78271 1415.5801 193.57401
1598.0961 2833.1631 224.58734
1317.736 2004.8418 1639.5166
302.521 792.23291 408.57819
1259.8727 1005.25 1075.719
81.298965 1438.0389 426.74142
953.263 700.74396 1036.1343
745.23248 2653.5415 1742.6025
491.21906 4412.3604 420.37701
850.54913 2717.9976 1748.5481
1680 981.35303 597.79431
1840.6196 3567.5537 688.72974
775.24158 143.5291 211.66443
1689.573 1076.5608 570.20068
1724.0984 1272.4482 474.57935
622.63556 3561.2502 238.71201
1842.8245 2190.7898 385.83875
718.29071 3957.0461 1752.5723
218.19989 2010.5339 199.96951
805.28491 4157.3931 258.63901
654.80896 3644.4182 1750.6675
1811.1785 4253.8643 952.34058
1830.5186 3299.6201 285.53998
156.70282 2504.897 1349.0405
1857.7902 3208.8884 841.62256
1856.4011 637.89282 575.99756
53.238358 3904.3879 718.05542
1670.926 657.84943 595.56165
73.182198 2548.8411 766.71716
1062.0685 441.05377 193.57401
39.487732 1329.7302 1113.4207
1867.79 2383.7397 589.07874
1628.45 768.65002 587.46716
1234.9109 4201.3438 1379.0581
360.29562 519.48975 984.16132
201.57635 3664.531 516.06702
1391.0231 3.2978175 553.90381
1124.7993 2151.0923 1677.181
1628.45 1131.5343 523.74591
1869.384 3319.1973 650.54376
927.15308 4305.9902 676.0896
305.98743 1613.9235 193.57401
943.81097 4199.0059 1389.0603
1257.4663 77.806915 595.33514
1104.3134 1206.7373 193.57401
488.50479 3547.4434 1747.4521
1285.8759 2248.5684 1696.0955
456.33118 1617.7517 1466.5635
1689.3923 1093.3544 39.066032
1801.7606 3816.05 661.96783
1675.5999 4112.604 1594.6365
105.96395 1235.1238 287.8457
95.722275 1814.7426 1025.345
1087.1478 2297.0535 1705.5034
1737.0529 3004.3979 1457.6448
78.543449 3762.3223 902.6214
1730.0906 781.81927 576.63373
168.13394 2183.0632 205.13261
654.62439 1428.8596 1349.9139
241.60472 1233.464 348.13998
1319.827 1715.3881 193.57401
97.024353 1366.8772 1037.5088
1668.0305 2992.1912 1683.5455
98.165642 1638.9591 1048.1335
524.49951 2288.5015 1703.8441
817.18677 4306.3135 759.57092
195.92297 168.48677 578.51373
63.873848 3848.4534 547.91797
1226.936 23.836292 480.95462
173.50978 4272.3599 276.82364
1765.0127 3942.6533 171.11118
1278.405 1545.5181 1423.9764
1727.0767 1952.2148 1514.9214
918.29785 608.52618 193.57401
385.54208 1978.6641 199.01508
302.24094 969.23138 688.44946
332.05951 1519.8668 193.57401
1847.8109 3318.8079 945.68842
79.027657 3087.9802 440.30206
1883.5031 802.9834 712.21918
487.4361 3990.8782 238.71202
1867.79 1845.5304 479.09958
1628.45 3606.3611 250.56429
1608.6415 1599.6462 193.57401
1126.2057 3273.2568 237.75784
1712.6704 2223.1887 1564.7062
1673.6642 533.0816 399.46478
1857.79 2237.4917 704.44165
165.60693 1246.8865 523.07343
218.63348 1051.0951 1062.6224
1691.5608 1308.7111 368.81491
37.4916 741.3916 501.12476
1306.9132 3966.9443 238.71201
505.15143 2362.8958 210.51384
1181.7677 4412.3599 434.75171
1844.1179 936.31128 960.74817
1851.6539 2809.9839 909.8736
1555.9762 1223.5961 1205.0354
409.24631 1036.3647 1063.1075
276.75998 2856.1172 1701.4362
301.27631 3179.4541 234.95065
262.3479 1483.1616 1384.4006
976.89136 1908.5103 1602.8579
302.521 3870.7708 340.56302
1219.4607 334.48901 921.52167
1178.7229 27.833817 494.5123
1848.3536 1669.552 940.61554
1191.6417 69.181709 241.11687
1740.4801 2547.0103 216.02373
1702.1428 3958.6577 217.10605
707.89203 1950.5615 198.17407
268.33112 2413.9993 212.04318
1436.8553 148.36739 819.53894
1812.8994 2006.0354 1172.98
1247.5851 1446.1757 1360.9075
1641.8362 735.70227 647.2749
1359.2986 105.245 644.44006
41.96051 1013.2136 497.25958
554.16339 1849.6062 195.15282
1262.1665 2487.4995 1727.2867
283.66336 294.77493 881.75647
146.0007 2861.5425 1277.8066
207.50734 3392.1494 582.98218
86.882607 4394.7173 391.8927
234.19759 1978.3938 1566.9501
1420.2302 2164.9099 204.58878
1628.45 3721.2126 541.33972
1627.6411 1207.7051 1193.0242
1628.45 3875.5396 341.43091
413.62128 2141.9131 203.90057
136.19003 3839.02 419.79428
1319.1057 1656.6531 193.57401
1736.0192 1958.7405 1477.0781
1364.2307 964.69666 193.57401
473.1571 2502.7368 214.69881
1843.5988 505.13409 239.01001
132.41328 4334.9424 475.41501
117.07449 1408.0299 232.11296
101.66 525.3725 355.85117
1144.468 1545.6234 1424.0435
926.75977 3809.9282 238.71201
1621.5338 44.244865 329.7038
1613.877 1294.8583 193.57401
110.92715 2758.1179 1129.6454
302.521 817.18103 215.15137
1895.75 932.21063 188.12454
1623.6099 33.637291 454.22363
640.21936 5.4348478 565.11505
1765.9768 450.06854 945.79181
1854.1884 2728.2356 886.20184
1798.2189 1733.3107 222.59091
1275.4757 1040.4658 193.57401
300.43896 815.09241 680.31049
1636.516 272.30515 193.29611
968.07568 2340.3604 1912.4098
1824.8558 1441.4283 271.25763
302.521 1133.4005 557.41077
1323.8359 2120.8367 203.26984
202.99123 3727.3464 1491.6987
1847.2834 1217.5399 950.63501
1138.1029 748.88367 193.57401
747.6463 1155.1702 1153.3149
1751.228 3785.0522 123.17938
1149.1615 4394.3906 354.28708
144.95897 955.3988 690.61218
930.14435 396.0083 193.57401
1343.6415 1314.3689 193.57401
2015.1641 1311.15 1135.145
1776.9963 2279.5967 208.02148
351.98026 3947.7002 238.71201
65.225647 3417.124 779.09833
1337.9551 3840.7085 238.71201
1711.252 3821.6489 156.76172
1550.2609 1213.0529 193.57401
1469.3647 4331.0708 539.72034
525.61761 4361.2842 328.72592
1849.0122 1535.611 934.45172
237.89595 787.80341 469.62143
1411.0109 4378.1494 341.74738
1253.8036 630.13477 1021.0927
594.51855 13.498507 264.85895
1140.8239 585.57184 193.57401
1829.2435 4265.3833 287.7717
546.63812 734.44415 1042.6179
1774.0519 1655.6531 1334.3027
691.09607 1343.962 1296.0125
1196.3544 27.448771 559.36151
1656.3596 1316.9364 275.66049
58.800117 1104.7886 645.21094
1880.6998 797.11151 731.26556
1541.4218 1423.8481 1346.7321
1867.79 2726.043 508.21851
1131.5714 4306.168 593.48242
649.72644 3632.8269 1750.515
1544.7705 3684.3191 238.71201
586.86847 4156.2842 1571.7682
585.17926 4192.9072 1415.1466
790.90729 4216.8818 259.41757
1571.6273 1503.729 1397.4457
302.521 3463.3418 291.20929
78.016441 3246.9724 327.2196
1478.1355 3768.2566 238.71201
1019.0217 1210.627 193.57401
1801.2109 2179.8179 225.78156
1841.5199 3446.5703 635.47455
267.3566 4010.1592 420.05695
1389.9716 2231.5769 206.58391
772.07996 2584.0361 217.13182
1158.9902 4181.4648 1464.077
839.40808 19.479984 590.03894
1632.7717 3175.9702 1715.4939
1019.855 2136.7063 203.74475
1857.79 2421.1443 757.3335
629.07617 2594.8359 1737.1873
487.97754 775.26715 1050.006
836.79004 109.63766 335.24286
1195.0911 1508.0533 1400.1917
1628.45 942.7229 341.50903
1857.79 2543.7056 636.69763
1772.6094 527.56445 215.94748
488.37943 3821.1316 238.71201
74.308617 1557.5464 863.11829
302.521 3793.0156 469.884
961.66583 88.941879 231.82494
109.79619 1789.0178 261.2811
1628.45 607.8656 227.24664
456.505 197.0112 863.36816
1698.1445 2515.2578 215.07349
516.62854 69.857071 675.8479
302.521 1245.4006 215.37326
1230.0261 1725.4312 193.57401
1801.1433 2872.5635 1217.1031
37.4916 3372.5388 279.25861
1778.7731 3260.2195 237.36761
1054.5347 3941.7017 238.71201
1267.9507 4020.501 1752.1094
1062.8394 4412.3599 394.74884
714.7782 2015.8394 200.12761
897.84955 1794.5035 1562.389
1166.0314 3395.7031 238.71201
657.30908 4173.0117 258.63901
1847.1401 1967.9668 411.60748
38.649052 533.35107 574.6601
321.74832 1583.2443 1447.8516
1868.2 1018.781 3.7343028
743.98358 4065.7986 249.51881
1225.6963 1897.6047 1599.1863
1867.79 2443.4553 497.21426
104.81345 773.43158 984.0575
1782.3765 4367.3267 462.43774
993.11517 201.17894 199.14882
668.92334 75.570816 236.659
1442.933 1739.6967 193.57401
482.6723 1459.7844 193.57401
1084.8213 1399.9966 193.57401
1437.1179 4060.7671 248.53516
52.719601 532.77838 574.6319
1628.45 3909.6963 509.75015
1818.4224 3979.7305 501.87265
1628.45 829.31653 359.12442
1179.6206 2772.0037 222.75705
1639.0972 385.18109 193.57401
211.68091 3353.2563 1524.3147
1867.79 2554.0435 522.86261
131.17371 3469.8633 404.32639
1857.79 1548.1503 657.98987
883.94067 2899.9724 226.58673
748.84534 106.23698 592.92981
150.59367 747.61499 427.67319
1827.0593 1174.8607 484.71265
1745.7302 3432.2612 621.67255
1817.4688 4327.4185 453.66309
171.46317 3313.3616 1373.3713
740.15942 150.13646 209.46393
1695.0481 309.60867 193.80989
158.46608 1235.5431 272.61304
1357.4633 3236.6169 236.66135
1836.0303 1956.696 345.26813
1269.7683 2311.3716 1708.2817
571.11755 99.930756 417.46078
1890.4146 3488.2402 164.52895
1175.7072 310.87616 193.57401
1517.0145 493.99387 193.57401
1804.5339 3225.4136 236.326
1489.0027 4356.5195 325.0473
1813.3389 427.42062 231.26872
586.453 4202.7578 1312.9751
1867.79 1582.4917 476.82291
1545.1703 2429.2358 1721.9117
787.46051 3237.9255 236.70052
962.68915 4034.0151 243.30525
841.62524 507.5686 193.57401
133.1774 2059.5034 1229.6777
310.75455 3822.5303 238.71201
1538.2769 3616.4019 238.71201
161.8223 1759.3645 1337.1849
494.00513 2852.4077 1746.3977
176.46275 3380.4695 437.26886
1799.3828 3358.3259 377.23135
1708.9055 3727.3337 1594.366
1895.75 913.0932 305.18295
1005.0702 111.50977 637.44214
117.84265 279.56339 449.85358
1860.9269 2175.6172 917.13483
1857.599 995.56165 684.33264
1018.0004 3593.2351 238.71201
380.75284 1622.4058 1469.0864
215.3438 1311.0682 355.47931
1834.6311 1385.0082 1031.1265
1504.2959 1184.7468 193.57401
1747.9565 878.76514 -8.8665104
1584.1716 3536.5278 238.71202
282.21359 2953.8457 228.19897
1737.6832 1885.1 1469.8326
1809.8634 275.01993 455.2287
931.68329 860.42938 193.57401
861.02026 2273.1836 207.82904
66.289047 2258.0784 470.89413
1859.5516 2271.8132 929.95294
433.28616 3896.9629 238.71201
1747.7682 3461.9893 389.77026
1857.79 1544.9951 791.36682
1788.6029 1571.6149 1279.7146
1853.0768 2504.9253 896.5979
1628.45 3339.3 394.78622
59.181557 1200.2395 443.42609
874.01208 10.653473 566.034
1838.3641 3287.5444 1033.7996
1828.1761 4249.0054 270.64755
753.08472 3782.4331 238.71201
640.91949 2958.7866 228.34683
93.368965 1372.6514 268.14651
837.89429 1136.0745 1138.8817
500.48874 3600.3213 238.71201
1840.6704 3324.5959 480.9559
1479.9302 2332.5303 1712.3876
412.87299 4307.5303 604.34888
1280.4988 1204.9299 1190.9265
934.2243 1970.4061 1623.6971
105.71671 1348.4403 232.31131
997.77386 2943.3264 1759.0211
1815.1409 3439.4619 628.61792
1057.6156 4304.0317 766.91663
302.521 850.09113 464.12793
972.71332 3363.8447 1759.7732
1867.79 2290.9058 586.19342
1104.5242 654.33759 1026.3391
155.59555 1775.5271 1313.8154
432.30676 1706.5961 1514.7375
490.56009 1181.2246 1173.0081
1719.6001 1941.3434 197.89819
1341.8517 2164.6069 204.57973
1350.6851 3690.3284 238.71201
1571.3676 3566.7017 238.71201
960.53815 2253.407 1836.0364
513.71619 3042.8972 230.86398
1826.067 4289.6958 531.08777
637.73438 998.59784 193.57401
1628.45 3409.0247 243.63556
131.02162 3539.8301 1221.5846
1851.7305 3081.3079 439.02533
1551.1892 3399.1726 1741.0349
1750.4279 2005.8821 1407.4436
560.14514 3615.5198 238.71201
1705.0024 3643.2939 1609.0131
77.261841 3475.7529 890.66602
1838.1288 2967.5381 1035.9875
263.19766 4151.0601 258.63901
1628.45 3548.2808 393.88196
1392.4355 781.47205 193.57401
1867.5553 702.71478 817.31232
108.75575 2852.3584 1109.3959
1451.4703 640.27332 1022.9135
227.75911 1315.1571 332.34714
37.4916 3697.2383 1.8199697
1820.9993 510.06671 920.04016
103.54832 1127.0558 375.8631
603.75415 3800.3027 238.71201
1690.7751 1429.7161 193.57401
1006.1288 4315.8696 722.92755
1806.385 1926.7441 1197.4285
1591.1406 4190.9976 1432.6497
1280.946 839.5351 193.57401
678.91522 762.77863 1048.3253
1203.1445 4007.3948 238.71201
1833.3773 2849.3298 329.44385
1755.8661 707.26221 318.87396
302.521 969.29651 605.88568
63.182205 2231.582 606.98322
63.182201 1996.1666 533.39545
1440.8779 2347.0359 210.0392
81.250725 2154.9404 427.02893
1893.48 3582.9714 539.02899
177.55238 3308.0063 1396.2252
408.46432 2381.1047 1717.4728
690.19275 814.29834 193.57401
180.90991 4166.6431 1334.7302
1351.1646 3681.4744 1748.4167
855.51001 1511.5042 1402.3826
88.293503 2494.2859 993.57172
1832.3925 2104.2241 323.54712
1708.4155 162.44164 296.17462
1472.5741 2790.957 223.32426
1061.6323 2825.6348 224.36205
887.77417 3462.498 238.71201
1652.0924 3003.3232 1703.4182
948.30841 3347.084 238.71201
1753.8124 1257.7512 502.46234
258.97446 565.57324 477.69531
289.17944 4404.8535 460.83218
106.74682 1563.8416 274.79843
1867.7899 1465.6766 575.26221
479.44089 592.58698 193.57401
941.38721 1265.595 1236.7784
1531.8344 1833.8873 194.6824
1741.2394 3815.8848 448.9191
1628.45 747.43579 404.37726
1766.4973 3945.2925 561.96338
139.20915 2543.9902 216.50941
197.1469 3923.0273 134.83636
1632.4673 1127.2506 1132.2125
255.23141 1010.0284 682.07062
539.28735 1398.5288 1330.658
606.03857 2076.1675 1657.3064
73.182198 2387.4656 778.90112
1020.1354 4300.5122 779.54773
1086.2217 1005.25 1078.7361
1163.7582 3206.7593 235.76779
205.94003 4017.3633 296.73364
1821.1514 2198.7446 261.19391
68.722008 437.85815 302.24402
1340.9827 1504.9486 1398.2202
70.438698 3957.5845 212.60898
428.59702 1258.5193 193.57401
1642.2301 2266.3157 1688.9374
1658.2434 1551.4512 193.57401
1270.4885 680.51929 1031.4995
1167.3635 888.51471 193.57401
1160.2124 2970.1719 228.68756
1831.5132 2781.6387 1097.6721
1849.5146 3128.1675 425.79739
1893.48 992.49945 540.27917
1480.1036 3347.1531 238.71201
356.70099 2955.6704 1738.7687
1857.79 1622.9464 591.2608
254.12515 4316.0552 580.93964
810.79102 3832.2422 238.71201
325.5726 2844.2524 1729.1699
728.78735 2093.146 202.44115
1825.4062 3751.2517 1154.6772
101.54878 3627.5562 609.38049
62.171902 4071.4634 401.15942
1873.8607 4075.2837 452.724
650.2309 3550.1885 1750.53
544.49249 3851.0686 1747.3572
1766.0891 3421.4497 1348.6654
110.5199 309.52863 311.84293
302.521 3322.8542 397.46027
250.972 1186.3079 196.71423
1700.4589 582.15601 509.15155
1694.8849 4018.1301 303.23032
289.92429 2461.5493 1708.8979
1786.1602 1019.0321 680.6629
65.997589 4112.3032 638.13989
1314.3425 1207.7386 1193.0496
1852.5979 704.54443 519.35193
1253.8645 2202.0322 205.69974
590.88391 1278.1368 193.57401
192.66447 2141.9099 1452.9379
130.37042 1861.5144 1219.1428
1893.5663 946.67645 414.50317
1802.6345 3895.1301 610.35364
583.20935 1685.4148 1503.2533
89.917564 2018.3447 375.28152
1438.4561 1883.7532 1594.5237
302.521 3863.9834 592.01703
524.05127 4119.2524 258.63901
927.23041 3401.3748 238.71201
229.29904 880.87042 690.59503
839.01385 1644.521 193.57401
1107.6951 4301.5645 798.66351
1048.4174 2430.9897 212.55165
250.97198 3872.5322 377.32364
315.49701 44.797352 277.71613
104.68351 2391.8708 287.11896
63.182201 2284.7224 572.02893
1827.4968 1676.2158 294.31592
1467.3606 4178.4648 1438.3965
1757.5312 524.45465 238.80615
1631.8308 4412.3599 394.99902
384.7562 661.77313 1022.4021
159.54172 257.95453 603.8609
1241.251 1219.2974 1201.786
1290.3627 306.4093 193.57401
141.35521 1775.6528 214.74312
1536.4778 3608.6465 238.71201
1769.031 3154.4209 1337.6255
1628.45 3860.7393 419.59949
535.75598 3901.6763 238.71201
902.43945 4284.9888 897.34656
635.53784 77.398758 732.19153
1506.3955 1968.8712 198.72202
1851.6178 3500.0813 32.505943
1403.2413 4225.146 1207.5969
302.521 3745.5698 425.27048
63.182201 1634.1897 548.8999
1857.79 3092.5276 697.35645
1723.0051 2718.8813 221.16725
354.95084 1521.4567 1408.7002
1867.79 3193.0959 558.17645
1057.0323 17.224154 566.034
1644.7979 2017.0515 1621.4086
797.87872 4151.3379 1592.9219
289.23416 3719.9624 693.08313
627.81519 491.19037 979.98718
1025.8326 1005.2501 1081.8706
183.10541 4412.3599 408.74408
227.76962 126.07743 450.68845
1857.79 1364.8486 837.99353
1555.5797 2127.6846 203.47478
1491.4369 3131.2563 233.50826
459.31165 4297.8232 852.49597
1854.5468 1056.9188 882.85327
1313.1664 3762.6797 1749.5571
976.58197 292.52979 193.57401
294.32898 4286.1562 1012.4619
1558.1971 1955.4482 1622.8906
250.97202 3751.6436 547.9635
550.27295 2242.1885 206.90147
107.3017 2121.9595 1095.8336
1848.3752 1269.1067 940.43579
791.69977 41.832844 257.54349
1082.699 9.8802328 427.18661
1374.063 3220.4607 236.17786
1895.75 967.39172 315.05267
206.10353 3688.3257 611.05701
183.38942 3569.6553 1.6433578
1607.1245 4250.564 269.98495
1322.7463 451.84387 967.27527
119.52463 3992.3162 478.64185
1872.9434 987.22583 434.81348
119.65929 881.0993 690.6308
662.45129 281.18735 898.69971
1628.45 630.06738 204.58897
1704.9006 3356.0437 539.01031
842.84924 1773.7793 193.57401
549.6203 2694.6624 220.44249
1746.3997 2394.585 211.46216
529.35693 1775.1147 193.57401
891.14203 1403.9293 1334.0869
90.942879 3151.2913 1018.2874
215.79727 1052.6372 14.035508
723.74274 3445.6711 238.71201
1875.66 736.5401 193.29076
172.69678 1891.718 1377.994
229.85388 154.84473 624.62317
351.20975 3528.5168 1739.0364
405.01712 1261.6937 193.57401
1628.45 3643.8098 456.40842
1628.45 3824.7327 459.15125
1802.1111 481.74683 226.74133
1521.3271 3896.8472 238.71201
799.88983 3867.1702 238.71199
1331.2026 919.16052 193.57401
1201.8943 1662.709 193.57401
1332.5089 3665.6355 238.71201
527.2774 4188.272 1388.6981
150.27548 3016.27 1293.8506
889.26208 31.760773 400.854
664.59247 4412.3599 431.06418
218.64682 1672.3416 193.57401
545.56458 271.14871 193.57401
392.94345 3033.2634 230.57565
59.206554 934.46716 83.527359
1223.6029 16.777748 264.87622
1672.4766 3964.45 530.07288
42.884937 3667.5977 705.35571
945.94604 125.84663 792.60352
364.68741 1767.1831 193.57401
1837.1868 3700.4536 696.10083
86.390892 1453.3345 396.33786
302.521 3752.8022 290.6666
354.28708 4053.7788 247.16907
1722.9277 4016.3687 288.30267
1843.2693 3690.3667 -10.227962
226.48273 442.49356 960.45154
1801.7396 1283.0286 454.50745
1814.5184 2150.1255 245.24042
1628.45 3390.5242 431.75415
1628.45 3865.6978 464.9494
37.4916 3545.6284 104.00311
80.208191 1720.7815 918.15002
37.4916 3953.3838 375.01611
546.77417 822.79858 193.57401
757.81506 1571.1444 1440.2458
901.26379 3602.05 238.71201
1628.45 3936.5005 443.35123
208.79022 2172.3535 1513.4602
40.648109 3932.6787 447.49432
250.97202 3421.189 407.25043
1225.8901 3803.8083 1752.176
596.75818 1680.3496 193.57401
247.11371 2481.938 214.07672
37.335835 1023.6346 238.55359
207.05591 1272.1924 475.06342
814.44745 1506.0745 193.57401
959.51294 2857.4727 225.31483
1186.9379 3283.0674 238.05144
152.12663 1306.2284 382.8605
634.8761 399.84793 193.57401
718.46143 4238.2231 1100.6138
759.56262 2727.7605 221.433
117.82062 1852.4297 1172.042
391.08313 2096.874 202.5527
1701.9207 3161.9009 1620.5876
745.97247 1305.9427 193.57401
175.06749 838.12769 1046.1145
1727.6516 3479.4429 1492.9283
1853.1157 1742.59 447.30927
1357.3152 82.961105 409.20264
531.68097 2376.9785 210.9353
1514.8477 3108.302 232.82133
1893.48 1137.3948 261.20102
73.182198 1470.1758 817.362
1683.6755 597.30212 536.20514
1253.5409 2209.3896 205.91994
757.66772 1564.7235 1436.1694
172.28757 3990.6399 1407.5352
1644.9709 3859.3242 640.50513
1861.7241 3934.3311 572.5376
73.18219 2776.7788 786.36853
990.98657 972.29279 193.57401
1628.45 3886.9199 257.5918
180.76826 3321.4128 475.07626
63.182198 1507.467 501.25281
1641.6687 546.85156 442.1817
302.521 3690.4595 670.54773
94.770729 2641.832 913.26892
70.796715 556.70776 460.87802
456.13202 733.02612 193.57401
1504.9482 180.87199 200.26915
547.16235 4024.2114 1750.5239
1063.7314 517.22717 193.57401
997.5459 1734.6736 1529.9523
921.62439 3381.2039 1758.6738
971.72009 3957.4353 238.71201
234.20657 4017.5835 298.5979
881.91882 3087.155 232.18845
1841.1116 444.94012 811.22107
80.371819 1117.0432 639.05872
853.65845 1049.2903 1063.1014
1827.8514 1513.1965 1056.7969
317.63568 1038.189 193.57401
302.521 3895.3525 399.83716
721.8877 2864.7437 225.53242
592.00562 478.60559 193.57401
498.35147 1880.543 196.07864
549.99994 2512.0571 1729.5519
731.43744 1268.1752 1238.7288
1227.1089 1007.5674 1063.1005
119.75397 1793.188 1179.2981
1357.0098 3988.9512 1748.252
892.33337 1718.7634 1521.3269
1211.1318 1578.6681 193.57401
1538.7283 19.347555 262.73688
436.52368 2644.3892 1741.7563
109.49089 3108.7231 262.57465
63.182198 2262.3911 557.05005
701.44476 3148.8804 1753.5068
637.4975 4345.2617 316.35501
114.15234 1113.2413 640.96747
1448.0382 4408.6665 459.50589
248.41542 2697.4634 220.52663
73.182198 1770.6735 791.75769
696.76917 1725.0446 1524.7321
1708.4785 708.16132 286.27896
1867.79 3133.8367 588.76337
1631.2612 3293.0151 341.50323
250.97198 817.92822 92.426537
430.72626 3101.1262 232.60657
1154.2607 1411.3118 1338.7737
586.66925 3569.666 238.71201
1856.6367 910.10645 609.86292
302.521 3845.6096 421.87152
1735.0006 3365.7078 408.18195
1844.6809 1906.9673 974.88818
1021.8634 4327.7988 548.70898
1891.5801 3435.7754 83.322807
1520.4243 4330.0737 542.4541
127.55668 2531.8809 1208.5807
1781.2052 1936.5325 1291.9452
1545.7168 2577.2336 216.92822
1735.6294 3470.0786 404.72473
1862.364 3558.3904 856.89258
1885.5271 620.71503 230.3607
63.182198 2350.1519 563.82434
1822.4534 3060.9321 266.70651
1628.45 869.97241 621.58197
151.8757 1413.2429 1269.6238
66.747063 2076.7351 608.75256
428.47137 239.46902 849.46997
120.04425 677.0462 614.38104
145.43568 3751.5383 596.7865
1795.0151 3305.1187 418.06506
121.80139 3320.0779 1186.9828
138.70819 1149.5822 622.72302
985.00745 2163.501 1679.5889
1764.8625 3855.0767 642.61182
1704.8057 2755.4268 222.26093
403.81006 1460.2151 1369.8201
391.84055 3489.7612 1741.918
1170.8551 1990.8894 199.38094
1636.7104 3400.5615 1713.4651
1766.5286 2415.3494 212.08389
35.221001 3606.0569 306.3432
1525.115 3519.6411 238.71199
269.50018 4289.3237 969.64368
1758.7527 1233.6179 342.54718
1628.45 3512.9985 474.0705
250.972 3879.2634 98.741219
1587.2523 4094.3154 255.09372
93.306396 945.56256 692.15015
1558.0369 1737.1204 193.57401
1856.6282 3585.4248 601.67877
1801.308 3640.4983 1216.4821
168.88527 2892.584 226.36548
791.56982 4218.2456 1306.8007
510.83069 1141.5546 193.57401
1867.7899 2066.5488 522.21814
646.26215 1942.6514 197.93735
37.4916 1120.6606 402.39841
1857.79 2994.6733 693.44568
84.167206 440.82318 735.87891
522.38013 4229.0762 1191.0183
1783.4501 1185.0579 1142.3137
763.46185 640.32117 1023.3398
498.18088 3134.4536 233.60396
287.5332 2775.9263 222.87445
1828.3064 3779.6343 1127.6056
1576.8351 1095.3165 1106.1896
128.12202 1314.1947 337.7919
780.65918 952.64453 193.57401
102.23671 2481.3662 1123.6359
1791.1202 3310.3604 1254.7213
1862.7899 4154.7227 627.62366
446.41864 3505.6431 238.71201
1782.9631 2116.978 1285.3336
311.52634 1038.3622 1063.1089
75.56395 4200.7959 687.8374
1169.0994 1777.3643 193.57401
1531.4669 3947.3774 238.71201
222.65654 3923.7058 1596.5792
1658.3889 3527.1382 675.62109
783.70453 3894.2781 238.71201
1579.4489 1236.4546 193.57401
416.82056 726.8476 193.57401
226.5275 3109.4785 1611.1074
63.182205 3065.9963 586.37305
1718.5931 193.41383 678.07709
464.53998 3500.9727 238.71201
1796.9752 4412.3599 397.47577
467.57343 2560.8821 1734.0527
112.21251 1287.5168 1151.9807
1403.2781 1728.7202 1526.7235
1064.8458 51.365196 252.83771
1842.1099 368.88367 256.49771
1680 3840.9553 59.187065
1735.726 1124.826 216.07106
1435.1586 3515.8994 238.71201
1893.48 3760.3315 528.15997
172.00668 2258.3201 207.38478
598.33746 4189.2236 1430.8997
99.955025 4106.3589 1102.3512
414.89798 252.59268 857.85986
1086.8328 4047.6387 245.96854
565.77106 400.33218 950.18958
1795.3014 2641.4167 1239.0288
82.541397 937.02026 939.91504
925.74487 2682.3853 220.07507
1133.425 2868.1343 225.63391
1696.4438 951.10571 515.46808
1338.5427 1697.1912 193.57401
177.96234 4010.8623 241.6153
505.50507 1005.25 1068.1793
91.320358 2003.7202 1021.8046
1628.45 3493.2058 503.42664
630.96619 1000.5338 193.57401
1352.7849 236.31696 196.09824
1731.8834 4010.9219 242.123
64.607376 4136.5493 402.87354
836.12781 39.200127 730.44226
1844.3702 2605.3623 977.28058
400.59341 4015.0791 1745.0304
1284.21 25.408087 596.18915
47.049656 684.76874 663.42816
1528.3654 2165.7532 204.61401
219.40411 169.74843 611.72614
1867.79 1839.2732 583.93726
974.50385 30.483471 339.34796
1653.0426 3876.3579 1702.5287
1690.9591 3832.5049 168.23302
147.42819 1147.7046 623.66571
216.19672 3071.324 231.71458
1636.2145 1413.8817 1340.4045
1889.3391 3791.8071 16.64185
32.7855 579.65698 508.76166
871.97186 1935.9309 197.73624
35.979088 3544.8127 311.05258
389.13312 894.03217 193.57401
68.297707 3969.2378 317.84906
1365.072 1511.9846 193.57401
1003.5713 1883.1344 196.1562
731.77979 2536.0886 215.69691
1031.4486 4300.9902 661.85718
478.53497 758.13629 1047.4149
110.73847 2214.8926 1127.8933
472.06561 2368.0894 210.66927
1247.2633 3913.1541 238.71201
1716.7012 4391.1704 465.5921
37.4916 750.49518 97.55294
1187.9629 858.67743 193.57401
154.29825 4277.96 948.4613
1867.79 3071.3066 511.71448
1628.45 1257.9072 202.40935
1500.207 1.0301707 266.89075
868.96051 1005.25 1076.5624
1676.7035 3308.5308 1667.9868
1867.79 2975.2725 631.33813
35.221001 834.01648 305.52112
1765.7358 2111.3687 1349.9896
1893.48 3883.3711 253.28755
1625.5382 1990.0111 1622.2252
599.76917 756.45813 193.57401
333.52667 351.74762 193.57401
1628.45 3892.5586 463.40479
469.93884 582.84283 193.57401
876.26263 2416.0081 212.1033
1717.3374 143.14136 478.13461
1876.2644 3359.2817 544.98785
898.34082 488.67035 193.57401
1158.8625 1745.9766 1536.0793
1874.4099 4047.1184 525.94897
153.4563 228.83292 458.33154
722.26392 2406.5276 211.81958
164.4314 2121.4885 1346.9768
1094.1528 1196.5452 193.57401
1817.3538 2971.1221 1154.7362
1377.241 2488.4111 214.27008
1481.3405 4135.4014 1648.8064
1763.4349 1803.0177 1358.6409
208.59628 2271.415 1528.2722
183.05171 3544.0967 1416.8636
472.95096 3294.5544 238.39522
1895.75 865.60132 369.34549
302.521 1059.2705 224.89157
1028.343 4205.8892 1359.6206
673.59265 2512.9373 215.00406
1439.4874 116.72607 781.89215
132.69215 4074.5125 251.22258
986.26276 1742.3544 1534.1165
302.521 3830.5298 337.37192
1680 3923.373 342.25754
171.27867 2199.0234 1372.6754
92.744125 998.33368 988.32727
625.17029 2301.5818 208.67891
127.08675 785.68811 1010.9678
1436.3989 2713.3838 221.00275
942.8363 1342.7217 193.57401
905.35205 3989.5 238.71201
867.36414 1650.4313 193.57401
943.55109 849.00537 1061.5093
1044.3107 110.39819 786.89264
1132.999 850.96069 193.57401
1682.6304 3633.3843 -11.800645
631.06238 30.621761 633.91901
1045.3767 1830.8889 194.59268
1338.6263 3460.7234 238.71201
1272.4705 1615.4507 193.57401
1229.2799 2186.3611 205.23076
476.41913 3588.4988 238.71201
1226.3383 2345.4363 1714.1826
1623.2078 4217.1079 1321.5936
664.10382 2502.2224 214.68341
1764.4854 3498.4661 661.40051
1884.3149 494.88464 390.87274
741.63019 763.95972 193.57401
650.02966 4160.3262 258.63901
1628.45 1157.7584 217.66307
663.63257 3452.2637 238.71201
120.61383 4240.4746 1020.6028
354.80283 228.57559 196.49782
1628.45 1125.1669 544.92114
83.293991 4228.8828 731.0127
172.24681 3934.2991 1376.3058
1425.0006 4031.5149 1749.8278
185.00687 3031.0107 1424.2029
1453.1517 2984.3721 229.11252
1680.0499 778.74188 668.88293
727.94482 2111.1675 1667.3367
794.84027 1198.8257 193.57401
1835.5974 2611.3413 1059.5746
806.91058 3262.7656 237.44388
1071.4651 4284.0977 868.33478
1867.79 1813.7021 539.08862
1465.0503 2060.0862 1651.3934
125.6162 1476.48 1216.8474
522.44562 4153.8804 1582.0479
966.4071 2729.8452 2204.1638
1644.7954 974.14136 687.68176
195.98982 3710.2334 1465.4229
1823.981 1082.9539 656.17279
1867.79 2586.3699 540.94611
1556.573 2096.4006 202.53853
1869.0831 4132.9834 425.48022
1544.9678 2329.1597 209.50424
1847.5479 3829.9719 948.12274
375.88599 2707.9243 220.83937
1547.2246 1430.7831 193.57401
328.55075 71.011002 732.48438
1798.3241 4170.9985 1210.9833
897.90277 2974.8499 228.82756
1725.9116 3091.2458 1499.4595
1076.4946 4253.7124 1155.0924
1676.8865 3700.1868 696.14209
291.68088 3299.189 289.16486
1127.2356 1228.3057 1208.5942
1343.5933 2525.4346 1730.7859
1576.9694 1631.686 193.57401
1168.7661 108.0225 619.31555
1852.5464 1120.0048 901.52222
153.70111 3300.1631 1306.7075
1809.5641 3019.936 236.62328
1264.6978 2736.2737 221.68777
1624.1775 3430.1226 238.71201
302.521 668.20996 339.81589
789.62933 1753.8357 193.57401
173.13779 3447.5894 345.02869
484.32083 1781.5195 1555.35
56.926823 3545.4849 183.13585
921.41858 3841.2219 238.71201
334.30246 1257.5221 193.57399
952.9585 2000.7378 199.67569
153.69269 989.41064 685.29431
526.0697 4130.5786 1659.3428
1680 3945.7573 356.83087
265.35651 3373.7087 1688.1321
585.24133 4310.6299 289.61621
1708.1288 4165.7363 258.63901
110.15536 904.2879 609.70239
1746.2164 2370.6716 1438.7952
1766.5629 2325.9404 1346.8911
670.72644 106.10835 412.55591
665.73938 5.9967542 476.17987
112.66061 1448.1405 1145.8213
1815.6974 4244.4507 268.06647
1269.3232 93.163353 764.70447
922.82697 4305.1396 744.71027
1105.1531 1308.968 1269.562
1487.1492 1671.0051 1495.4324
1717.8965 3596.6755 1529.5417
175.63377 1843.5571 1389.0175
362.52737 3845.4082 238.71201
1868.7129 459.2652 323.40381
388.41116 3832.708 238.71201
970.29205 32.252731 501.41187
37.4916 3916.7812 406.81024
82.38662 2514.5493 938.47144
145.73894 3204.5903 235.70297
986.00922 3097.6858 232.50362
1715.4546 725.04736 641.92566
1586.0764 1189.0713 1178.9397
117.64032 2533.3003 243.02641
1103.6405 853.25494 193.57401
302.521 3877.0017 484.21613
910.67554 3350.6355 1758.3455
91.90921 2646.8525 886.5752
1393.3251 1572.0544 193.57401
1012.6185 3656.939 238.71201
60.364262 3469.2947 51.602264
652.76727 4305.9902 668.57996
1334.8105 4228.7578 1172.897
1536.1104 4257.1855 272.0629
302.521 568.62463 452.79697
1374.0845 1733.8982 1529.5309
1602.1984 462.57697 966.92529
929.04248 1343.522 1295.6788
1680 3647.1887 25.777098
1675.0322 127.17372 248.15076
1475.8726 545.62268 193.57401
1599.6061 2602.8123 217.69373
1733.8713 3195.3345 1469.5854
259.95441 1738.2319 193.57399
396.08002 4304.6665 758.18225
1628.45 3531.8398 304.27972
37.4916 1154.4802 414.86807
285.34265 469.70013 193.57401
432.86346 998.96222 193.57401
1758.1157 2363.0894 1394.1194
1473.2609 521.16772 989.71936
1342.5778 3683.1255 238.71201
1667.0714 3073.5005 231.77982
1848.7244 2857.5481 421.07831
1736.2959 3480.4746 1460.4846
176.95372 764.24384 1036.2885
1652.9951 78.767624 314.42572
56.171158 1126.6473 61.763878
1429.8363 1194.0576 1182.7087
1736.1635 549.42383 987.95557
1069.1614 524.56091 991.18018
1680 3661.1714 517.89526
742.82544 2100.2256 202.65302
158.14253 522.79736 341.28271
625.9856 657.56494 193.57401
86.701103 1330.0962 969.00439
1713.1455 3395.4182 464.89069
1737.0209 3863.6941 1488.8406
605.05042 2897.4734 1752.8425
173.94574 199.79161 594.07233
1146.5223 92.646004 728.79431
1820.5352 4259.5337 868.16864
1831.2614 1625.3495 1062.5513
537.52979 1287.7542 1253.5283
1853.9008 3952.3086 190.50063
1223.8315 360.15494 193.57401
938.63867 3682.8594 238.71201
499.51941 2528.262 1731.0457
943.00342 1527.6176 1412.6125
1877.7212 3998.7344 560.24274
56.458557 3857.6948 212.24564
353.90839 1475.0215 193.57401
969.15509 3587.3284 1759.8796
1866.8317 359.60568 408.90317
931.41785 4226.9849 262.58768
1615.5542 1881.9844 196.1218
1754.0181 3591.2903 692.40137
1425.9465 1619.3708 193.57401
1654.2727 1931.0764 1591.4246
1867.79 2898.6094 568.2439
1782.22 3225.2869 1288.125
1385.6201 1789.344 193.57401
1824.7083 1631.3574 277.66586
1200.4576 413.48926 193.57401
1846.494 2720.7595 957.98792
1863.3274 4123.1719 565.4939
1875.66 3451.873 240.96877
73.182198 2372.9177 731.0376
1793.3772 1233.4509 348.61273
1425.5092 2.5643027 543.39563
1757.1559 3816.769 1382.1943
1682.0293 2275.9514 207.91188
1529.304 2393.6035 211.43283
779.37592 1864.8442 195.60884
170.67664 3379.7793 571.05066
776.75098 4365.519 331.99561
153.60164 2051.4084 1306.33
91.292847 4255.9287 321.72308
289.30817 3295.1812 323.1387
1650.4181 3036.4473 230.67094
320.18622 2890.2993 1726.5001
992.07202 1139.7347 193.57401
1397.7688 2833.1821 1748.5973
954.79938 1390.1215 193.57401
1331.3497 3789.7529 238.71201
86.167213 2832.2676 973.73608
884.30896 2433.0312 212.61275
1855.2378 1234.8779 296.77545
1838.6066 4014.5916 273.25867
709.26294 3676.9536 1752.3014
310.02097 3935.8472 238.71201
239.00497 3378.8804 434.33215
1039.5522 2551.8059 216.16727
212.61749 3982.0964 497.50183
1854.8671 3340.2991 879.87408
1800.4364 1972.1521 224.95551
95.263817 1550.8425 1021.0664
722.05536 2493.0356 214.40848
1462.774 1020.4536 1063.103
278.42377 947.19476 1071.0699
505.53912 1891.4946 196.4064
634.76318 2286.5911 208.23029
1105.1792 3940.9451 238.71199
1855.9341 863.20569 894.41541
302.521 3941.4963 464.02869
1252.3234 2992.021 229.34142
774.02612 905.56152 193.57401
1788.4897 2198.5771 1264.5908
269.62701 2387.4673 211.24921
1820.6643 3969 326.47672
378.48306 4412.3599 404.3588
1040.5104 1333.6003 1288.1799
300.47202 3400.937 1717.4337
85.050858 753.50574 937.448
527.56769 1594.9725 1454.2122
302.521 3762.2151 455.07452
1788.0366 4220.0708 1157.4556
914.71704 2241.9766 206.89514
302.521 777.97028 519.56903
1059.2207 2208.4407 1688.309
1022.337 496.72876 193.57401
1772.1743 4099.5488 256.11679
419.89825 69.498253 237.48816
1741.116 4057.3506 1473.2168
1795.1665 1056.7587 127.26041
349.25696 4245.8291 268.49884
462.65384 88.811699 763.12518
1833.7559 1955.3774 1039.2515
684.09912 658.7854 1027.0215
385.6347 1423.5234 193.57401
1232.324 1303.0754 1265.1086
1796.0938 1588.9026 1236.0483
85.142448 3239.95 964.17944
1781.9922 1548.0378 209.14194
220.58562 531.77692 392.08362
521.08643 1562.4563 193.57401
130.21443 2992.8269 1218.5583
1871.632 3596.6733 795.77844
1665.0885 1172.2026 601.7663
1229.5903 806.04962 1054.8225
1209.689 174.60477 201.74753
1112.2213 2674.3064 219.8333
763.37183 4412.3599 439.00687
162.95079 757.05682 657.99597
133.4194 804.33374 479.78336
302.521 1178.4598 206.14937
1714.5929 2689.0198 1573.0154
1358.6742 1560.4937 1433.4836
1645.6437 1965.0514 198.6077
1856.0415 1063.9318 868.91284
336.85172 1605.2355 1459.7761
175.95807 3189.1353 1390.2415
1701.7566 3574.4836 1621.1997
1806.6898 4220.3989 1093.6404
1628.45 791.83563 475.77008
291.80325 1234.327 1213.1464
200.98564 200.854 256.76987
92.722137 493.02692 874.41644
1628.45 989.90497 646.68518
391.68149 4341.5928 510.81409
708.54651 71.088203 239.68681
544.25879 4259.1924 1048.8822
561.62048 2860.1538 225.39508
37.4916 1180.1049 170.73978
1867.79 1807.4148 573.79333
1633.7461 1372.8704 193.57401
82.903915 2927.5132 943.29749
1628.45 615.35779 355.8403
1597.7256 3493.5024 238.71201
764.00684 4065.2109 1740.7003
83.190254 614.42035 264.80524
1207.2156 2725.4758 221.36462
1704.7688 2183.1697 1596.7006
114.3951 1301.3137 410.66473
1364.4175 3329.1606 1750.066
902.18439 1611.2505 1463.0388
37.4916 699.09204 293.00134
80.162094 3469.4214 917.7196
182.86453 934.22723 83.520737
422.70081 1508.9053 1400.7318
1719.0176 4197.0332 258.63901
1161.017 3439.8545 238.71201
1498.4272 109.76661 767.30859
1287.4646 3999.5146 1751.5408
1776.332 3077.8037 231.90854
172.07382 2560.0254 216.41316
1668.7699 1051.9102 1063.1095
1628.45 766.63037 646.0368
302.521 3725.8584 296.73175
275.0365 68.0616 404.80807
101.45156 797.94427 475.85547
1867.79 1753.8307 546.1723
207.32793 3784.5576 1539.049
302.521 542.58997 335.09555
1557.9485 2659.561 1739.0691
1729.032 273.07953 820.2428
126.65489 796.09064 474.71597
250.97202 1189.5988 392.18878
1610.6683 1554.7278 1429.8228
45.02832 1288.1316 475.96677
1025.5404 2193.8921 1685.4858
1734.8524 3742.6848 0.45088673
83.085976 1217.5709 191.30675
1063.7603 842.38086 193.57401
979.84149 647.68542 193.57401
1857.79 2011.0935 743.81024
56.119919 3696.021 124.97881
637.69489 1786.3575 193.57401
1286.3193 3978.4409 1750.3628
217.47562 4081.9619 1546.0828
81.63459 4095.1875 931.45496
1812.8544 1315.6754 213.74516
788.11829 3465.2417 238.71201
103.91203 2484.4917 1139.2638
737.41125 4127.8472 1665.3123
813.0733 1687.6681 193.57401
372.71552 2821.2158 224.2298
1780.1572 332.81995 795.18347
1578.6556 4305.3081 749.32855
1162.2382 4249.5186 1050.3268
1856.5449 3853.9214 54.826092
203.43141 2323.1399 209.32452
37.4916 3879.2983 114.50203
73.182198 1488.0833 813.82013
202.96849 2298.8689 1491.6111
1795.7227 453.66739 926.18481
1754.7656 1950.434 1391.1578
1816.1685 4213.7197 1077.8829
555.8996 3627.1499 238.71201
168.93224 631.07568 409.44778
55.17487 1358.3899 1163.5879
1686.7791 285.50262 195.30165
1332.3541 2801.3398 223.63498
1499.595 1111.0433 1119.9624
59.942726 947.93274 797.01099
302.521 986.59656 683.00983
1708.8936 1201.6885 572.86072
1467.6631 4323.9263 299.88214
1873.4482 770.11389 780.53516
1606.7671 886.96399 1061.9512
749.38708 2898.4417 1755.7505
1511.2993 1009.4106 193.57401
1815.875 1979.7539 1161.8123
1392.0326 2739.8696 221.79538
1581.8933 15.678314 347.87726
1839.3871 1739.7849 1002.0496
1823.4011 2104.0361 1098.3026
962.96832 3943.3447 238.71201
863.2749 4262.8467 1064.597
1658.8052 4015.7708 390.81094
1680 879.14124 57.710831
1628.45 3367.3975 373.10968
1228.356 815.38574 193.57401
1509.9274 1604.1047 193.57401
778.58618 950.45911 193.57401
1857.0294 3888.0183 865.04669
1843.7357 2360.7324 391.28314
124.81803 3508.9697 571.84827
37.4916 3455.0073 127.44246
614.50061 4.916975 310.66977
593.92969 2832.3862 224.5641
1752.8571 3744.2349 598.52893
241.74799 2933.5464 1650.4012
1546.9182 778.09406 193.57401
971.94464 3035.333 230.63762
1834.006 1925.5232 1036.92
1743.8907 3809.8433 1431.9814
667.08044 1964.2986 1621.6429
1884.6528 1098.6029 681.26941
649.55457 1826.3777 1575.2046
1849 3696.6626 696.68726
161.66364 2527.6284 1339.5746
146.987 3839.2354 1281.5045
357.72833 428.75299 193.57401
1589.1812 553.97406 995.08929
130.20787 2238.2957 225.30067
90.673721 2102.761 1015.773
171.86641 1744.6125 1374.8813
927.56207 2064.552 1621.1682
1628.45 782.7467 296.84427
352.92255 6.3487287 505.5697
1108.4917 4412.3599 451.1915
125.7196 3548.1831 485.26276
404.1409 3893.3015 1743.4827
1435.6088 2.362324 474.85779
1851.365 746.03076 912.51141
1834.2634 1443.9554 1034.5363
842.72888 2034.7561 200.69373
1628.45 3908.2817 307.37317
822.48163 1835.0581 1578.1279
440.87103 2359.1299 210.40112
997.18176 111.68141 416.66516
250.972 3706.1113 600.31818
100.61194 2857.3633 311.42731
1277.8271 3092.1667 1752.939
1793.0818 2881.9014 226.04605
548.28967 1047.0945 193.57401
244.94873 2151.4634 204.18637
131.08353 764.86914 1010.939
379.10165 2184.925 205.18777
37.4916 3568.6558 37.356182
787.19226 2334.2373 209.65619
471.33887 1912.134 1604.08
1284.4309 1443.8765 193.57401
431.67166 4179.9839 1439.9158
709.20374 1194.1924 193.57401
302.521 997.51868 481.24011
896.18713 28.316999 264.94855
509.7511 49.105988 750.82605
926.255 53.192932 321.70099
624.15839 2389.397 211.30693
1775.3123 704.30029 631.50964
1782.9202 3481.1284 42.761406
331.77792 2224.2305 1687.4861
433.88702 1908.2681 1602.7782
103.32514 1293.9735 1096.3124
73.182198 1998.3593 813.16278
449.35229 4338.8398 518.37463
456.89938 4305.7852 733.45203
775.32123 23.195681 442.18875
335.70807 4294.4727 898.69159
1709.6923 1279.9266 460.39148
234.32016 4109.5151 258.06522
828.28918 3175.6182 1755.8733
292.41486 1435.7505 193.57401
1590.4203 436.2984 193.57401
76.199585 1839.6111 880.7572
1796.0917 720.16699 376.53378
1696.397 2819.9956 224.19327
529.35291 2084.3269 1658.0145
1867.79 2624.1565 582.35962
832.47729 4412.3599 416.34137
1637.4325 3945.6204 561.6474
63.182201 1960.615 527.63098
1032.2178 2050.4878 201.16452
1470.7334 2943.9136 227.90173
451.77402 3054.6746 231.21643
1680 3712.0159 564.98865
1680 1062.7145 509.26709
1185.1008 3758.0132 238.71201
1699.1985 277.44269 844.56152
263.06787 1253.0817 511.31934
1107.8091 1389.026 1324.6252
1767.8169 2579.2888 1342.1827
908.4845 1555.8718 1430.55
1893.48 3716.4431 61.122238
1893.48 3708.1443 574.39313
1008.1256 4253.1973 1157.2957
1799.5256 799.51025 677.87415
768.20532 1855.4243 1584.9849
1028.4292 1323.2653 193.57401
250.97202 697.46686 374.05096
1867.79 2245.8794 526.40729
1451.7263 2356.7249 210.32916
1421.8895 2500.0322 214.61786
1503.8916 3640.1692 238.71201
564.64526 163.1347 831.54773
260.6813 2626.7896 1679.2443
1555.6926 1954.3151 198.28641
1223.1692 3589.9434 238.71201
1837.7659 2775.8677 355.64716
1378.2328 33.019989 695.42499
1078.0918 3039.8306 230.77219
1526.2949 388.6441 193.57401
1128.6328 1424.7264 1347.2903
916.37927 3425.6807 238.71201
530.15466 4302.5396 787.49768
1862.0077 3476.9751 836.57629
1817.9056 3292.657 353.12085
857.42737 2949.7246 228.07562
230.32925 3404.0139 121.4817
360.42233 1960.8547 1624.7064
929.10364 3130.4106 1758.8982
1880.7026 568.23969 482.75314
1793.7891 538.64081 426.60651
1262.3167 1116.1768 1123.8424
1875.6602 931.94556 511.6225
1524.6572 1862.0682 195.52576
1788.3624 2529.8696 1265.0701
1167.0144 115.72681 729.26178
542.27356 3924.9177 238.71201
81.347908 1369.6733 302.50482
1565.4663 3787.4229 238.71201
1313.5447 286.64917 193.57401
167.76535 2299.3987 208.61403
1779.77 3462.9736 543.57239
389.01276 3.6731346 610.35181
1834.176 641.22913 429.31314
55.313705 771.67645 311.55173
367.66895 1732.0461 193.57401
42.591721 660.7674 600.91656
1146.1447 861.18237 193.57401
73.398529 3982.5347 496.6969
83.105896 1397.4583 945.1803
1157.6317 136.21877 808.716
1054.2865 2306.802 208.83514
1328.697 2469.0256 213.68994
73.182198 1791.2169 844.32062
527.44135 3261.3115 237.40038
102.2032 872.08179 -7.271935
733.6626 4233.0547 1203.7539
461.40622 4305.9902 710.5022
856.73627 2057.2371 1656.7921
1239.7864 1611.7412 1463.3032
1827.1514 3472.8079 1138.3877
371.02716 268.02283 193.57401
1196.5941 911.05237 1070.6227
302.521 3939.9102 525.76807
516.40265 53.102238 665.13843
73.182198 4112.9771 792.60608
463.67603 3464.5469 1745.9709
1224.9275 2106.8838 202.85226
