# .PCD v0.7 - Point Cloud Data file format
VERSION 0.7
FIELDS x y z
SIZE 4 4 4
TYPE F F F
COUNT 1 1 1
WIDTH 1548
HEIGHT 1
VIEWPOINT 0 0 0 1 0 0 0
POINTS 1548
DATA ascii
373.2363 11340.303 1320.7583
-183.9313 11198.884 155.46741
-5369.5811 -9376.4082 341.34085
-4004.7571 11153.522 1495.3657
-6163.5288 11196.057 209.03368
-6032.2681 -11419.5 1253.0469
-717.59882 11169.285 -129.03296
257.15582 6298.0474 222.83072
800.51819 386.89911 3706.6475
-4974.2402 5465.3252 -955.44214
1173.8037 -11125.774 338.01849
1321.3074 -11386.273 665.32513
-3394.2273 -5925.2212 2406.1411
-4974.2402 5638.8184 108.61284
719.25671 -9834.2881 161.04858
-5751.9102 -9431.9551 -96.848351
-811.29242 3723.8403 3407.519
-6308.9473 -10785.645 402.89032
-2350.51 -10228.977 844.8783
-2493.8059 -10066.127 408.10657
-6177.5635 -11043.837 1137.0564
604.06592 11069.595 -107.07657
1247.5996 -4253.376 -295.1503
-5347.3501 -9131.3203 539.20032
625.82141 -11859.082 -573.5578
-5802.4287 -6818.4175 2018.4285
-5709.3398 -11787.743 1283.146
595.09753 -11584.497 843.82263
507.08188 -6807.7886 -1460.7292
-5898.3691 11838.537 366.6535
-5410.2129 -6531.1421 2186.7583
-2784.9238 1482.1765 4072.8984
-6275.0293 1381.9247 450.08804
1547.499 -3610.3579 1135.7854
-3479.0896 -10770.967 352.55707
1607.3971 -1097.6163 1154.238
1451.6716 10577.521 1364.2717
-4384.481 -10949.304 461.33438
-5751.9102 -7022.5396 479.01343
-150.83087 -11065.527 -118.5461
-6345.2896 943.77966 1554.6807
-2940.5815 -8861.4922 2337.8638
-4571.6084 -973.23895 3951.6208
1446.5637 -9407.7617 1702.1267
778.20508 -3585.8669 2732.7742
1271.4741 10879 421.67871
1576.0566 10236.749 950.35193
-4133.3564 11078.729 1243.4744
1613.1622 2589.2471 1100.076
-2941.542 -11740.256 1753.3618
-4974.2402 -8205.7412 -1925.7179
824.771 -6614.2969 -254.24446
257.15588 -7707.7168 -646.60077
-188.7079 9199.6416 2152.3853
-1138.9868 2302.6074 3992.6829
-3877.3916 11109.97 1689.6906
-4974.2402 -9135.5293 219.16489
-4586.2295 -8561.9199 2183.9641
-22.860699 -10159.516 183.75156
1248.3798 -4422.9307 2061.1072
1558.1252 9791.7939 1119.6418
-5927.5635 -4902.4814 -525.11896
-3846.1653 -7990.3877 2289.658
1617.2388 2982.0898 1373.5317
1347.321 -8311.9404 1850.9977
1488.2151 11466.001 425.90009
1078.3827 -3465.6267 2302.6475
-5291.2559 -9834.3281 132.4696
1166.295 -5731.6294 1993.2952
-2660.6973 -9901.1699 406.53964
-442.32498 9919.707 2045.156
1200.6919 10613.125 2302.9087
-6315.0527 10503.087 999.77283
-1239.3129 -2482.9463 3986.3308
1485.2886 312.73407 205.34729
-5452.7354 -2545.1992 3720.6245
-4974.2402 -9089.8105 -243.03021
-2900.9753 11443.022 1078.6311
-5751.9102 6321.3794 13.260401
-525.24194 8513.8848 2271.4009
1175.9783 -2253.0547 2194.2544
-4974.2402 4912.415 -1613.626
-2511.429 11567.033 -224.31613
-5054.334 -11874.273 -380.56049
-3528.98 11301.325 757.95764
-6304.6509 -7323.0645 1401.0559
-2350.5098 -11073.828 907.45111
-6033.6646 11853.541 511.7356
-6248.001 -4869.4526 543.63672
-4974.2402 -9029.4785 214.63678
-98.731689 -11519.945 491.08826
1594.1404 -1628.5615 1405.4175
-4974.2402 5368.2764 607.24255
-1220.8689 5846.9272 2518.1377
41.638138 -11413.435 1273.4485
-2040.5968 -10480.465 387.95477
-2787.4875 11303.932 1768.8126
-5705.104 -6707.8735 2056.1333
804.71991 -8640.21 2069.1628
-6112.1934 11008.716 2328.8354
1192.089 11737.654 901.61517
949.10913 -4400.3252 2239.3535
-4856.1748 5191.8994 2435.7273
-5895.7002 -10916.198 -538.67163
-2398.249 11807.19 1270.8291
943.97083 -8251.3955 2040.2344
-1286.1978 -1809.6943 4010.4897
383.42145 3447.3467 3278.1978
-6013.0996 -5213.9268 1956.2731
-3662.7935 10742.369 1836.874
-338.06152 -11600.389 -170.94177
41.845551 10201.24 1900.7832
1034.83 4171.8247 -530.76575
-997.74371 1494.566 4037.0217
1575.9156 4356.3271 1765.4998
1257.3474 -6714.5596 1933.7876
933.10205 -11989.416 891.5354
1034.83 -8670.5059 -1304.1436
257.15601 -7621.752 -708.83459
-5836.3657 -11199.938 309.17694
-6261.6426 -6114.9478 1590.9596
1113.0039 11644.7 620.10706
-6109.5947 -3502.9541 1967.1443
-3843.9285 -2843.9612 3961.5432
-4974.2402 5731.2847 -1808.9667
-4065.8318 -11799.471 -280.30026
-4822.5034 -7960.021 2173.6721
1499.7283 4528.6924 162.04057
-779.57782 11112.059 1454.3953
337.81436 10940.065 669.71185
-5640.252 10221.933 2515.4202
1499.1752 -4749.2373 684.13251
-802.56873 4194.4551 3148.1719
-4265.147 -11464.293 -78.626083
-867.63092 -9929.5771 -137.41742
986.49634 -8718.7227 2008.3203
1332.5854 -10822.024 105.65129
1530.0425 4928.7656 330.39551
1474.228 -34.527466 139.56059
-911.10229 11435.025 482.18893
732.91309 -593.89941 3717.29
-3755.4062 -9834.7998 1326.3469
-1182.2068 -11512.055 349.57556
-143.94495 -11633.541 719.47552
-4974.2402 -7325.582 -1318.746
257.15509 -9247.0049 -950.47723
-624.12347 3646.187 3422.6562
1464.4156 2410.3235 44.313995
-3634.0103 -6102.1162 2374.533
1034.83 4310.6372 3.1601944
1626.7753 3592.1548 1222.7677
-5436.4238 1679.1832 3692.0903
863.68927 -11888.982 1528.9912
-2971.6777 -9929.0615 395.92282
-4974.2402 -8398.3203 -1233.3645
-159.83807 -11327.735 -333.25839
996.64417 -11909.042 -476.45825
-4934.7261 -11408.114 1154.0536
-2392.3364 -10526.559 400.27917
-3163.5901 -11445.65 -159.41081
-425.3071 -824.8316 4042.7693
1034.83 -7029.0601 -136.2188
-2350.51 -10159.545 948.55676
648.88092 -11857.12 912.32959
-3774.1699 11146.656 904.67383
-976.72974 -11490.236 1784.3499
1326.3074 -9907.0156 1816.9298
-2633.8057 -11325.42 -730.3598
-530.67999 -7474.0933 2251.5288
-2146.3882 -5740.4551 2452.0508
-4237.0171 -10690.597 1409.3101
-5908.5146 573.04932 -684.15131
1042.3881 -11419.5 295.90536
-3690.5002 11270.779 1022.1998
1420.6567 -7475.4268 1791.9294
-4251.3604 -10984.907 340.74268
-707.84851 -6409.2505 2322.4995
1148.085 -6418.4463 1978.8116
470.55966 11438.548 1016.9337
1562.9564 7510.3159 1595.1687
-98.51149 -7596.9678 2188.3188
-5557.8535 11755.811 1183.0337
-218.95819 -11414.9 1371.5414
-5132.1738 10898.64 317.65384
-787.45837 -7868.4189 2269.563
-2316.4675 -11020.94 400.28937
466.86624 -7051.7739 538.38312
-5637.0703 8212.335 2141.2139
1034.83 -8276.0811 826.07483
1503.3446 -5872.1475 847.34595
-5188.0815 -10278.405 -616.73438
-4369.9463 6484.3564 2397.4841
1318.0585 11059.783 1458.1306
-3592.7117 11261.369 -213.82634
-4919.4746 5328.2915 2399.9878
1601.665 4396.3022 1583.137
718.05603 -11936.224 956.0434
257.15521 4958.6514 542.39966
-2408.2256 -11332.961 -137.41771
-3339.4807 2343.156 3982.1399
-531.6145 4589.1543 2884.8706
-612.28772 10565.371 1887.2932
-6187.9365 -1722.4973 128.69963
-2709.0806 7775.4326 2438.4668
-4933.6055 -11533.071 1222.2659
923.52185 -8811.0254 2025.0808
-152.66251 -10686.447 -137.41783
-2350.51 -11841.771 1224.0002
-1786.2305 10160.605 2117.3389
280.71021 -6307.7227 2183.75
1462.8396 6630.6152 -52.745529
-2938.8306 11536.59 489.03979
1034.83 6736.7017 12.289398
-5156.4932 -11020.637 -137.41676
1472.9052 -5049.1953 475.54724
-6205.835 5662.5518 -20.721527
-915.13123 11580.074 1315.9136
-3539.3896 -10999.489 -84.883606
-461.99002 -11357.618 -141.89709
-5781.835 -2769.9429 2275.6089
-5985.0322 2535.2983 -575.60437
257.15552 5414.9204 134.22902
-4177.9248 -2979.7944 3953.8997
1456.3619 3850.1646 1935.1077
273.23749 8180.9512 2265.3047
-4216.5088 -8241.5723 2239.0532
257.15601 6039.3667 -1965.2648
1331.1914 -10015.785 1807.4045
1182.1836 -11953.715 485.92349
1254.7668 10367.706 2525.7939
-1231.1417 704.08209 4078.554
-4974.2402 -7018.0879 -1198.5876
504.08774 3292.7571 3297.262
-5402.6118 4968.0171 2403.3796
1298.3953 285.61057 -416.22681
1553.2903 318.25812 646.7323
1452.7581 8732.0088 -31.029388
-5354.7056 -3055.5745 3653.0183
-423.38062 -11460.883 961.42389
1432.7274 11663.357 1359.2776
-1291.7026 -11019.519 -84.894264
-5259.6533 5550.5488 -2059.6201
-1880.553 4995.1729 2800.6958
-73.958191 -10341.187 429.58939
77.170425 -6748.7778 2192.4373
1510.9692 2820.6033 381.63657
-4142.9355 11466.109 1473.0208
899.40033 11186.8 1116.8418
-5661.9111 -11419.5 1287.3368
-4090.1025 4020.5171 3179.6326
-5133.8223 -10962.352 309.17664
-4974.2402 5921.9106 -1947.4833
1595.4489 3936.4678 947.38654
-5818.3379 11788.9 832.69788
-1523.6033 6462.4282 2513.4133
-500.70395 11143.581 -214.43536
-5984.7612 9628.8662 2306.198
-6311.249 -6806.8354 1259.4049
1261.1235 -11548.143 597.41614
889.31061 11348.324 1448.3229
1488.8656 -5371.7896 650.27612
891.08649 5604.1465 -2059.6201
-6094.2891 -11479.705 -543.224
319.63977 -3970.1316 3077.6548
810.65308 -2718.5234 3550.5725
-2208.2029 -11842.846 -103.34618
-6325.7397 -1247.1639 936.39166
1445.0211 3234.521 -182.1835
-5973.5205 7541.8022 2076.8835
-6346.6724 -228.85396 1470.9133
1207.5229 10312.747 2289.8455
-682.04565 -7990.5166 2243.3208
-2366.6926 11412.188 607.00842
-4974.2407 5487.2246 -1548.5795
561.52362 11052.458 256.54706
257.15601 6751.3984 -897.98785
-5751.9102 6566.6323 -659.1748
-1313.3893 -10366.177 -137.41742
1240.9453 11558.189 670.62024
1556.1876 10420.277 1131.4818
-5253.147 11336.461 334.32608
909.4765 10547.513 2527.9602
1296.9927 8262.8311 2338.917
1259.0142 9579.6279 1969.8105
-5805.0913 5486.4336 2456.6777
-6181.5664 5777.3027 -147.48953
1324.3425 10879 731.7229
-699.79077 5272.8071 2538.4565
-4031.449 7291.0684 2376.802
257.15506 -9291.4834 -1174.7666
966.40558 -7724.3584 -2059.6201
-5421.7061 -3657.8323 2911.1919
-5618.4399 -9968.5703 -669.59869
1055.1694 -2285.1743 2278.4067
-3035.6819 -8938.7676 2324.0625
-6273.2793 1625.0552 424.18008
1432.9382 11633.398 1261.3669
-3175.8916 -11697.399 446.03152
880.07495 -8586.4141 -2054.5601
969.72156 -3276.4263 2669.4736
1034.83 -7513.7412 -1918.3556
-6064.9062 2216.8188 -416.57294
1543.3738 8397.9346 457.62936
-6251.9316 -658.56238 363.01947
-654.19531 -9834.709 601.66858
1131.0986 5879.2568 -619.82678
-5820.7607 -9108.5879 1962.5007
-5883.4893 6626.2471 2547.6377
-6353.3516 2298.4009 1177.1301
-6359.5581 5823.334 1433.0593
-3008.6873 -4851.2979 2929.4519
1177.7107 5301.8643 -671.92487
-3962.0369 -11049.028 1409.3101
1061.6812 -11616.287 42.811928
-1036.9724 3244.5049 3635.2017
-5627.8105 9520.791 2502.4297
-5558.2524 -3024.0498 3353.9517
-5272.3457 1133.0811 3862.2302
-4918.2305 1642.3767 3929.9326
-5174.5791 1260.6721 3896.0801
1216.9507 -2034.0579 -514.45947
-5751.9102 -9375.7598 274.95432
1151.136 -11935.211 1236.8613
1198.6033 -4624.8516 -470.78568
-5982.478 9722.8672 2157.8091
-5316.4883 -11911.158 -580.54608
-5356.0034 -3114.8728 3569.9775
-4974.2402 6252.8101 -1844.2153
-5454.9263 -12044.309 -177.82196
-5263.5835 11000.441 -283.12476
-826.71533 3364.916 3578.312
1594.0369 4871.6484 1654.7166
1565.0581 10882.521 988.45923
-6186.5073 1339.9994 -78.861183
-5751.9102 5129.3047 191.68333
-2145.467 -9835.168 331.18973
585.73047 5195.0498 2365.2363
257.15601 5990.5225 -717.89111
1196.4852 -8013.7954 -666.86432
-4974.2402 5118.9268 918.32458
-1705.8988 -11361.929 -741.85004
-5622.7139 -3727.6697 2420.5259
-6283.1294 -6595.3169 851.29755
-5768.9287 -11248.916 472.48572
-5272.2666 11275.386 1293.1473
-4974.2402 -7681.7974 -1052.6836
-5074.8809 -9833.2217 -6.154274
1601.5876 1205.7823 991.25958
1435.6296 -5414.1201 1783.4824
1168.8125 2950.3813 2220.6921
1534.4608 6910.5674 264.0864
1616.2205 767.44586 1382.4019
-4773.7617 -11417.801 1204.0563
1456.8494 -6583.8721 186.37311
-5484.4854 -7046.8193 -1654.2439
-96.722534 -11412.934 1261.8933
-4253.415 -9983.0391 2127.0894
276.73239 -11173.875 1860.616
-6284.084 -728.69116 582.81921
1601.7107 3408.5127 1566.3936
-6238.4697 -275.18399 1920.5034
-4554.2988 -1411.3002 3951.1292
-4815.8008 -6635.0596 2218.4626
453.72528 10894.26 381.84418
-5671.8193 10716.984 2143.5569
963.63434 -10566.333 136.70647
-1306.8317 -5019.2515 2782.6033
-1169.5059 11294.103 744.49902
-678.82092 3868.1941 3308.6223
1441.292 -4302.6304 459.8111
202.19699 -11878.944 -386.79382
-4709.7988 -11802.901 473.16507
-3829.8804 6491.8115 2450.8933
452.80646 -9973.1465 410.39087
883.35925 -4207.6904 2357.4185
-5414.9741 11697.5 1151.4875
-5099.3179 10907.266 458.36481
1025.6353 -11741.406 1580.6284
-6287.6367 7923.3403 1585.5485
-5134.6089 -9436.3623 156.81992
1020.8765 11371.402 -193.50739
-6110.2134 -1514.0662 -122.60419
257.15552 -8130.7803 74.794312
257.1557 -8291.5371 -1139.6643
-411.05328 5896.2725 2432.5881
549.14117 -1267.9193 3845.3882
1411.2491 -5704.0669 1802.9707
-2134.123 2092.6885 4051.8901
-6152.2339 -5469.8096 63.475433
1567.7877 -7174.2715 1298.7112
-4496.3555 4572.5479 2849.6675
1529.6611 974.56378 1791.5186
-5505.3857 -2323.5493 3765.0427
-5605.9561 -9271.3398 437.47006
1249.2709 10326.323 2045.3894
-2282.8257 7038.4395 2539.1421
-5940.4014 1728.173 2166.2996
-5325.1392 4798.2817 2508.8274
731.30389 -11928.748 755.02997
1495.0747 3207.5706 249.56483
-4974.2402 5769.5225 -1450.2467
-197.51358 -10487.021 -137.41776
-1490.7661 8377.8398 2340.1924
1227.7461 -10549.595 365.34201
-2353.95 -10562.348 -109.24905
-2769.4211 11435.926 -297.11557
-5904.7817 -1706.3046 -647.26239
-5351.147 -4762.0513 2426.0515
1149.8276 -11519.38 1411.9402
-3305.8359 5686.1304 2536.959
-3876.1301 5367.6235 2547.6895
257.15598 5132.2749 -1802.507
-5912.748 7491.7939 2485.2769
-3786.0715 -7691.6904 2305.428
-5268.6519 4660.6123 2604.3347
-5438.6699 11538.8 579.83337
-6123.0088 9209.5488 1632.9734
-4526.5303 -11253.027 -137.41693
-3300.604 -11489.959 -131.245
1414.772 -3262.2869 1880.7313
1514.916 6579.2671 147.58208
-5487.3516 -6604.9824 -282.91183
-339.79288 -9470.877 2122.9697
-3905.511 -11263.232 470.09894
-2465.9922 11394.034 987.48584
641.35547 4280.605 2744.0129
943.77881 10518.002 2458.4087
-5927.4111 -321.0426 -630.71155
-1407.6533 -11667.196 -151.13759
-6192.4185 -10414.403 126.23177
-4575.6909 -10141.72 2078.8618
-2218.2056 -11844.985 1049.2147
-6250.6992 -1943.5015 561.78638
-6248.6211 -10428.785 1519.9612
-247.86758 -6665.6455 2260.8242
257.15601 -7872.6533 -2043.7522
600.74451 5672.2197 940.15601
1549.1586 5989.3423 413.47961
-5948.0254 2027.6398 -636.62787
-6289.1787 -3235.4866 808.03381
-5230.6523 6568.1514 506.53699
967.53436 -2969.9692 2705.7004
-92.153015 -11500.326 1257.4309
1134.2379 -11651.621 1606.9652
-4520.3799 -11013.303 891.03485
-2054.2327 1461.353 4120.5386
-3054.2358 2631.1655 3925.1653
-3540.606 -10703.225 -137.41701
-6010.6558 3222.1299 2078.1279
-257.52396 6856.6855 2363.7095
1477.9869 1382.228 139.40123
-1271.3948 -11987.754 1385.1648
257.15601 -7491.5073 -1076.9108
1551.3462 8503.792 869.35754
-2234.5845 -9835.1943 164.73926
-2424.7363 2132.0859 4047.0889
-1310.2351 11566.605 1477.175
1298.2975 9671.5264 -270.85938
-5431.6558 11706.092 1052.2195
-2295.7632 -11314.896 50.326347
1147.6936 7357.2012 2590.4333
570.24579 151.63927 3864.1504
1491.7456 -9443.002 894.85828
-1531.756 -11635.82 438.72534
-2878.5581 -3596.8875 3630.209
148.59579 -5543.002 2280.8669
-4974.2402 6858.6582 -207.23366
1545.3967 -4334.1973 1444.7667
-4846.7227 -12001.79 1397.0825
-6319.1196 9845.249 764.18188
1035.093 -3256.2832 2516.6189
-5667.333 -9998.6816 -137.41617
257.15601 5784.3037 -1730.7296
1546.8225 7830.5381 350.31839
-2806.5288 8378.0049 2349.7651
931.19879 11186.799 1306.5551
1425.8416 -971.33118 1988.9006
-5985.2451 -4927.2856 -400.40576
-5537.1426 10879 1135.3666
1445.1698 4701.521 -84.826103
-5271.1748 -9833.0283 -106.95399
-4784.8896 -10052.781 389.39651
-5633.7676 11222.383 556.9068
329.67075 5572.8618 -2059.6201
769.95178 -2546.3032 3637.481
-385.50397 -3728.8687 3447.8254
481.59366 -6593.4277 -318.47461
711.56158 5089.9927 2360.4836
-1251.9476 -10630.798 2041.8473
-1125.9445 -11611.236 37.299263
-6190.6465 11879.766 779.21777
-2368.3398 11479.029 1225.3809
1385.0942 -6907.5298 1842.4956
931.99445 -6837.9126 -1502.4631
1209.9841 9706.1973 2522.793
-6227.5122 3589.2957 1919.8037
257.15576 5654.9199 -764.38605
257.15518 -8404.1182 929.98352
1607.8013 6966.1387 1380.4822
-5751.9102 -9015.1777 -1300.9609
223.37045 4217.9199 2960.2441
-1241.7114 10126.446 2073.4106
-18.495607 -1170.9386 4009.4299
-1918.5242 11515.248 1654.0154
-5357.166 5543.4512 -2059.6201
-6264.8467 -8112.8281 1380.4502
-1299.8942 2260.5681 4008.501
-6066.6011 8150.3145 -262.68143
-165.57487 -10025.766 870.00281
623.22821 -11488.636 318.09949
-1282.3594 5178.4219 2670.165
1513.1322 -10144.56 1492.9263
-1260.2729 -9834.8955 1151.936
926.62097 -3096.2083 3096.0774
-1209.2885 11195.963 563.34161
1444.8374 -9832.7988 -9.9066544
1257.6705 -687.18842 -475.38147
-5672.6562 -11713.371 979.28357
-5384.6641 -4166.3086 2687.3225
-3814.2231 -9834.7822 459.76477
1519.8774 2003.1301 428.74002
257.15588 5261.5679 -1468.252
135.31152 4662.9287 2741.0386
-4974.2402 6326.8457 -387.25284
-338.12476 -10398.135 1409.3101
-0.19864845 -11417.8 928.78302
-5595.9258 8174.5107 2391.2559
1018.2372 4164.356 -1352.078
-1819.4379 -10975.722 -137.4176
-3451.9519 -10911.304 -648.9906
1530.4369 6183.6055 1766.6646
-5755.7271 -8921.1016 1992.1847
-5821.6738 11538.8 1283.1284
257.15512 -9238.3086 -71.083008
-6325.9434 -1670.9541 942.06543
1342.3354 -11881.706 903.4884
-467.22272 136.94485 4019.147
-6257.4175 7749.5483 178.0145
1482.5302 -6071.3018 670.95935
348.24255 -11582.119 1411.931
-826.57922 -7788.6094 2277.665
329.52887 -11669.396 1411.9653
1579.2104 1778.9495 844.11566
-5831.5977 -10289.656 426.94373
-5428.4404 10760.528 1621.6554
-2550.853 -10695.344 -137.41736
-5161.7705 -10798.412 128.73302
-6190.4189 10369.273 2239.3164
-5353.4907 -6638.915 -940.98242
1015.8234 -11921.067 1279.2698
-2215.303 10222.16 2122.9612
-4974.2402 -7775.9199 -533.78143
-1303.7627 9732.5283 2129.4189
-6157.8652 8624.7539 1648.7185
1068.8469 -11890.988 1411.9135
-976.58008 7665.6074 2399.9988
-2848.658 -4874.4639 2923.8252
1504.9175 -3935.0918 769.5332
714.11713 -10732.129 449.8497
-6030.1577 -8419.2012 1892.3796
1627.2692 626.93555 1161.6685
-6291.563 6091.6455 349.83731
1167.483 11683.101 1005.6609
1447.7771 6853.9375 1784.9327
1062.6559 11356.346 -104.54853
1550.1848 8592.5215 413.26941
-372.95715 4387.2485 2970.6641
-2117.9832 -11814.395 -315.07578
-5271.9458 -7995.583 2110.6655
-4863.2397 -10186.445 2047.4788
1504.9338 -8761.4648 1393.72
1554.5107 -3290.7817 1302.6498
-3005.0015 11301.196 507.11816
-3791.3337 -9834.7891 352.70349
1402.3997 -6189.5713 -45.14035
369.96753 -8762.168 807.40417
-1896.8699 -11227.4 -434.55844
1346.1239 -9521.7656 1820.2114
684.88031 -11380.886 542.3479
1476.7705 -4889.9189 498.15366
-4850.5542 -10565.368 145.94119
1034.83 -9309.6211 372.0343
-2482.0969 -9222.4043 2365.095
257.15576 -8071.6201 -933.21057
782.57776 -591.06323 3731.0405
-1293.4336 -10948.743 -77.29332
-1604.4 -11404.729 -618.67548
316.53577 11003.865 -275.57108
-5751.9102 4574.998 -404.60565
-6272.561 2849.1333 1852.4648
1544.2422 5540.3291 404.79169
-5483.0786 6760.8286 -1483.7394
-1256.5562 -6627.1357 2365.1875
-4525.1484 -11588.897 309.19379
105.22635 8311.4336 2262.0493
1175.3613 11070.91 2801.9106
-577.40253 3633.2302 3422.1514
-6350.2251 -769.87531 1018.3839
-2733.053 10645.402 1968.8787
-5985.5718 11186.799 896.92352
-6339.4956 327.50137 1591.9415
-4123.0566 -7061.5078 2296.9072
845.15808 -2320.6165 3379.7017
1534.8751 1974.2769 534.27625
1563.3243 -577.14001 1681.144
-6200.1562 8736.1729 -31.01181
364.84274 11599.01 1214.0013
-2368.3401 11816.18 1401.427
-53.201622 5263.0273 2441.0178
-90.109482 -11223.89 -568.6369
-1792.8502 -8882.2178 2330.7817
1034.83 5121.7847 -1777.5952
-4998.063 -11187.423 -137.41685
-5921.3301 6295.7954 2391.8438
417.18457 -11538.954 314.65656
1569.8027 9554.1094 580.35101
-6030.2529 -11301.325 1630.9199
-5751.9102 4678.7969 -843.22327
-4637.6143 2562.0957 3852.4824
-6174.9375 -2739.6626 1874.5713
980.10608 9463.5264 2730.2205
-3533.4482 5895.665 2509.8003
-5168.2432 11095.207 78.26474
-5036.6133 -6280.522 2199.3687
-1376.8318 -11664.928 -66.774269
1404.8335 -2220.3921 42.207306
-1369.1936 -9430.123 2228.5718
-6239.7896 8611.46 1566.6384
257.1557 5856.2534 28.782761
738.2196 -1796.2844 3702.0308
892.62573 -8407.1699 -2059.6201
-1257.9731 11425.911 1483.8608
-1860.6045 -10559.662 2124.2158
-53.839279 -11766.859 -171.72348
-6168.2456 -2501.1304 116.7842
-3671.6108 -10564.572 441.21829
-5185.3379 9678.166 1966.3341
1535.6432 11106.762 1031.666
1589.9365 5548.8477 856.60535
-5424.9658 10598.921 1667.9563
1432.9094 1410.5703 -112.89124
1034.4803 11703.971 623.43787
1586.2332 5621.9023 1714.6029
-3033.0813 -11394.061 78.532707
1034.83 -9008.9307 -1345.1344
1018.4432 4021.1704 -911.39197
884.61084 -11319.47 327.41043
-4237.7324 8148.4189 2280.4668
-6203.8486 10724.055 153.03406
703.76538 -704.95685 3781.2832
-3034.1978 -11482.945 431.83701
654.14233 -6724.0483 -1203.0004
908.35376 8762.6543 2441.5708
85.675964 3825.5068 3180.7239
-5273.2627 3327.605 3275.4585
-5328.8867 -11741.325 855.38342
566.34296 3034.0308 3367.3958
1034.83 4658.7866 -1404.6338
1515.1648 7009.123 154.30501
-6278.77 -84.393936 1801.2761
-3163.5901 -11485.408 -334.55228
1627.5323 5302.8657 1378.7211
-1288.4497 -3199.3884 3840.5938
-1036.9615 3812.1836 3371.1045
-5622.0669 -11419.5 1039.0546
-5995.2012 -11830.537 1411.9526
257.15601 -6728.0425 -454.59937
-2166.2683 11381.052 1498.3374
798.84955 6254.3062 734.55988
-4974.2402 4372.1006 -439.82617
1615.6626 4279.9424 1108.6478
-4974.2402 5686.9644 -1989.0023
-2592.2773 -3815.9448 3511.2812
-2908.9631 11637.371 470.69009
1124.5591 -4306.0537 -634.4353
-4526.5542 -10771.74 955.29242
-6223.4717 11547.917 1083.9293
-5639.6509 9298.2568 2125.481
991.94806 10161.533 2835.5947
1034.83 -9154.2061 324.38599
1034.83 4906.1255 -1363.9384
935.33105 11774.148 231.93256
-6306.7764 -6619.0439 1215.8058
-4974.2402 4314.1724 -55.606171
-779.26807 -10790.834 -343.879
-5340.3374 3106.5645 3327.7253
-5216.1665 -10958.341 309.1767
754.75549 11788.9 977.1557
1246.7333 8388.5605 2054.7
-3600.165 10353.887 1956.479
-4725.2183 3778 3218.6638
264.92963 6937.8301 -180.47382
-6207.4692 3938.3359 -74.4739
-2052.408 -2249.8157 3995.5862
269.63513 -11041.102 466.14993
-5680.7549 9177.3965 2390.1147
-4974.2402 -8650.9355 -1847.0557
1073.2488 10793.197 2179.0972
-4999.2549 -4796.8447 2578.3977
-4928.5005 -11605.261 516.28485
-1817.1835 5528.1729 2568.0259
-1280.7085 -11719.145 353.97968
-1378.4585 9605.0635 2152.7124
-5949.0356 2968.3765 2165.6665
-6247.5874 -842.05145 364.37579
-6255.2329 9518.6758 182.34402
-3900.2908 11165.949 145.80289
1509.0154 -5910.5039 907.51984
1536.7471 -9286.7129 1446.2902
-6362.6299 2963.6333 1491.1259
-6156.6328 10562.817 1427.3552
-4519.895 -11648.604 -371.53885
-5058.3325 6906.0156 -1036.9127
618.15149 -9528.875 -991.55066
348.23218 -12023.684 -215.4446
-4474.2808 -11461.34 -157.74966
-1067.2983 -6313.6562 2361.0129
-4650.0688 761.34326 3961.9531
1174.5918 5087.1367 2218.8345
397.70007 -9886.3223 309.17563
-2825.0732 -11772.478 798.5719
-5852.5034 -10174.802 420.94717
-3150.0776 -11393.601 -322.8446
-5751.9102 5686.1348 -1711.1117
-5531.3306 5576.2705 -2059.6201
8.9746971 -8723.3018 2148.2063
257.1557 -8196.3672 -1013.399
143.93881 -7068.3838 2174.5962
-5899.3779 -4721.7158 -585.56543
-6306.0591 9299.3564 714.54047
-6296.2051 3823.8772 1817.9786
-436.75488 -9834.6436 241.9805
-4974.2402 -6972.3047 -864.48309
445.42032 11241.259 1020.3934
1542.4808 3692.5811 544.03552
-4288.1294 -1799.2755 3955.3066
-5441.0381 -11390.232 752.20203
1549.8477 9707.7324 1292.3824
397.72061 10879 1041.8094
-5242.5156 11538.8 674.14917
-3367.8235 -10963.024 -137.41719
-2798.4617 -11634.265 79.385178
246.67618 -10806.393 128.4328
-5071.4136 -8069.1323 2136.5391
886.10132 7990.9346 2121.1709
1034.83 4902.9932 -1262.0813
-4131.3901 2915.8696 3708.9971
-491.5896 5020.9253 2654.2058
-5197.8354 11351.514 861.75061
-2353.95 -11159.182 1211.8596
1314.4622 -3708.1924 -130.1624
-5193.459 -9952.168 -664.53284
-6302.833 2328.9731 1705.9879
-3215.8408 -4145.8882 3333.2446
-903.14014 -10724.44 354.35834
-1373.1859 -11005.926 358.11432
1051.4255 -11316.435 -548.57117
-5831.5674 5303.6973 -120.87917
-1716.766 -2548.6182 3983.1287
-5475.8154 3356.1621 3165.9553
109.99069 -9973.2852 -655.47485
-5060.9346 3546.9741 3253.498
1461.718 2121.8069 20.957485
871.60413 2783.9849 3311.0696
-4981.8213 11124.315 548.71088
-5751.9102 -7286.1152 -1147.2712
859.07471 -10906.448 457.26953
1043.3307 -11837.9 791.54382
-5572.6387 -6907.2217 433.36002
1346.0104 9231.0176 2235.2148
-2368.3401 11425.5 1392.3171
-5064.8237 10889.252 510.76715
1188.0782 -7932.7114 -511.94064
-2309.2427 -10906.467 -137.41754
1198.4865 2699.1772 -654.06262
1536.2375 -2875.4731 1011.186
1613.7893 2870.8159 1109.995
658.90399 11762.17 916.90613
1452.4375 2430.8083 -40.024719
-604.07672 3492.4092 3496.6274
1239.7261 10047.701 2360.5784
-1921.3895 -695.33105 4019.4932
-5780.2568 11538.864 738.698
-4974.2402 -8969.8867 -1654.001
-5317.2944 11538.799 989.74438
-3169.7026 -10979.854 -110.81824
-6221.5337 -4337.2334 465.15002
-430.39279 -10699.005 1983.0469
-1510.0002 -11503.212 -478.59244
257.15601 6349.2485 -991.96484
-3418.0803 -10759.189 1409.3101
-3671.9629 11244.023 -196.67654
-5160.3516 -2092.7102 3864.019
1395.2408 -9833.0576 181.55467
-2658.5837 -4976.1587 2865.9399
-2010.5198 11363.732 390.86041
-5914.3457 -2360.7742 -616.31519
-981.06433 11258.467 990.17456
-5076.2266 6852.7334 -1200.9026
1154.1689 -5086.1421 2030.668
-5706.0698 -11384.691 43.668766
1525.1106 -339.7533 475.19263
599.93445 9042.917 2083.3989
-1593.5211 11265.98 878.30322
-5570.8286 -12026.139 -518.47021
-5917.0981 869.70892 2196.876
-3951.5654 -10667.273 357.3396
-4974.2402 6028.7148 -1259.7147
931.3457 7920.1416 2428.7417
1545.2982 8949.8496 832.50714
1208.2463 8411.1504 2335.7136
1550.3518 6697.6396 437.66074
257.15506 5014.4746 833.85938
-678.06213 -10765.812 -657.7442
-2634.2471 -1660.0139 3985.9771
-1512.6533 3648.2427 3475.8801
-5450.5728 -10413.169 161.9697
945.50116 11697.5 675.0556
-2350.51 -10578.845 1108.257
-581.27948 6168.9053 2434.6582
-5543.0962 -4671.626 2317.2485
1205.0621 -2169.6509 -539.3623
-4309.3472 9.5087814 3981.9326
-3426.6431 -9508.0566 2252.2073
801.16077 9381.584 2451.217
-5714.0171 -7425.5732 -1929.4257
830.12659 -10699.451 -137.418
257.15503 4146.4302 -940.60352
-5045.4912 3667.7234 3202.1692
-4372.9829 -11773.382 1466.4749
-395.29349 3090.3506 3629.7397
-2344.2815 -1955.3557 3990.7634
83.566254 8656.0273 2219.6335
864.46564 3959.3542 -721.13959
1469.7321 -10859.447 -6.5370674
-996.12183 -11172.272 -137.4178
-4974.2402 -8053.3701 -1178.4858
1478.1924 10125.183 1414.3073
-3966.9177 2503.7993 3954.063
1284.1328 -8486.1934 1888.9329
-5770.2729 11659.328 638.90417
1584.3907 2030.7383 885.66382
77.626312 10634.931 1731.0284
-883.99042 -9834.7803 649.58215
-1310.8384 11496.5 448.64676
-4102.3188 -2300.1851 3957.7974
933.67072 -9834.2227 252.46127
1293.2625 8595.6035 1774.0295
998.74023 -6121.9351 2045.0779
1254.9056 10241.148 2092.738
883.5249 -7177.4873 2087.6243
-3823.2112 3063.3748 3680.4619
517.0531 -6623.5303 -893.63257
1548.9835 6298.1621 406.32214
1614.2781 2112.614 1098.6907
1101.1997 5742.7119 -1007.3484
-6257.9028 -9966.4805 409.73599
146.76898 -11917.652 688.39893
-4974.2402 6411.4512 112.01669
-5569.6475 4995.8716 -2059.0615
-3715.2 5170.8135 2641.3621
735.51776 -2713.5273 3647.5322
-3873.8113 8844.7305 2230.8438
965.50476 11538.861 556.62256
143.60904 3256.3755 3423.4077
1207.7245 -11835.279 -416.60602
903.29395 -2297.7478 2836.2393
-3890.0068 -10262.092 378.49942
1589.5316 7104.564 992.729
1491.3257 755.34631 236.86786
1477.2577 7977.6338 1644.5178
-3034.0627 -11114.256 431.83102
1040.332 11927.3 430.59061
-0.22890091 -11925.9 1174.5184
1126.8665 5296.7549 -187.1864
-5222.4688 -11932.99 894.54089
1579.8259 3044.1987 873.10278
-4555.8208 -9901.8701 -137.41644
1533.1104 2508.1592 532.18695
-5231.6963 -11388.322 -578.11902
1562.4261 3846.9531 685.86871
-5384.0259 -10981.728 309.17679
-6204.7354 -5405.0767 1743.3417
-2048.0261 5974.3018 2563.4961
-6367.9082 791.79651 1181.1702
69.293091 10951.542 1034.5344
1605.0842 6580.3467 1061.1632
-1203.0886 -11609.07 1743.3384
-4974.2402 -7522.5654 593.297
1063.9095 11727.781 1122.2693
-4238.2866 11132.248 -148.09779
-1767.0341 -11748.433 10.2771
1422.9122 -11029.507 530.57874
-6331.0098 8502.543 1214.616
-6177.7603 -7520.4253 1766.2301
-5907.29 -4904.1592 -568.98218
-5594.4502 -11417.8 1189.0431
-6366.5664 4923.9604 1211.5624
-5751.9102 4700.751 -1088.799
-4974.2402 -8161.085 -1095.7404
239.67772 1853.8677 3889.9082
-2350.51 -10000.125 1250.6223
-4974.2402 -7890.1685 -1756.4805
1034.83 -8795.5176 264.70483
-5751.9102 4360.063 -1358.4258
-5729.4897 -3090.166 2870.2051
1480.6447 -9822.4619 1587.2495
-5569.5708 -7769.2158 -2059.6201
1034.83 5498.0752 -1666.1338
-259.44263 -10472.712 1994.3088
-828.62561 -11528.441 -465.7468
-185.72969 -11110.889 -137.41794
-784.88977 -10791.964 -397.75888
-6325.7944 6178.7354 733.27844
-3189.2256 8672.9434 2284.7834
-2594.7693 8574.5146 2350.8579
1586.7795 7772.3481 1296.7904
-6178.0527 -10211.847 382.26352
-3604.3506 -10665.852 -137.41696
-3350.7629 7424.1538 2404.0769
773.83557 -6739.3286 130.56976
-5447.9854 9204.5732 2024.2186
-6154.3989 -11298.855 1279.0907
-4641.144 8056.7988 2265.4966
-1211.5483 3419.083 3574.1145
-6345.5098 3396.9656 817.40143
-807.26233 3330.541 3590.4917
-6.2235913 -11872.438 -147.83598
-2368.3401 11639.426 1201.6089
-6313.5391 5608.3369 1786.6467
1611.2107 1335.6414 1061.8644
1356.5043 9934.9453 -125.9857
761.23859 2508.0415 3355.2654
1034.83 5473.5625 -1531.0896
-5751.9102 5972.5972 124.2057
-6320.3057 5355.9038 668.92548
966.99695 6260.1421 -1849.7822
257.15521 4745.2632 -1026.1643
-1694.9762 -11733.012 604.86713
326.88818 -7997.4263 940.15594
529.28015 5124.6826 -2059.6201
-5558.0229 -2382.6604 3442.8184
948.48041 -10614.983 127.49489
1034.83 -6835.6973 -793.59814
-4439.5723 11020.82 1368.3591
-6303.9375 -5624.5444 1333.6149
906.41559 -11900.025 497.17999
1000.0648 -11864.267 1328.8593
-4974.2402 6564.082 -1623.3185
1468.3823 6900.6045 -27.159775
-5632.1978 -2282.3733 3076.2673
891.90265 -11446.748 1748.3142
-6290.25 -851.24841 1745.8226
-3806.4194 -9659.4629 2202.9231
1602.1066 1804.144 1006.5797
1621.4944 3327.6946 1304.0681
-5865.3877 11186.8 780.39929
-6345.8506 2608.2476 1553.3
-6019.0859 10879 1365.1119
1502.3611 11452.074 1066.894
1543.3601 2685.5171 608.14929
-5381.96 4856.0161 837.98724
-5727.7808 10740.806 2218.792
-242.51811 -8312.3906 2186.4292
-920.354 1509.7113 4029.675
-5962.4082 10603.187 2152.2549
-3464.873 11263.783 -20.984665
-4974.2402 -7293.3916 -1792.1412
-1963.4514 330.32114 4069.5703
-5592.3403 10029.158 2141.7766
-3184.0327 -1975.1708 3975.2847
-4974.2402 6211.3638 195.94075
-6023.5459 7895.063 1853.1449
1237.5527 8899.7754 2199.6484
-3175.3569 -11317.299 -137.41742
-4948.9692 3273.5767 3410.1562
1486.324 8231.6924 109.90348
-434.66019 3651.3264 3384.4927
-5450.4038 4952.7075 2376.1348
-4251.2168 -11063.762 467.30609
-4180.9976 -9462.2148 2176.8379
273.46426 -12039.554 353.23346
-5993.167 -10906.198 455.22537
-5917.3311 -11679.041 312.03922
-5403.4204 11558.479 486.9075
-2156.7661 -11888.796 -56.695301
-2288.1216 11753.672 550.14124
273.89005 -9370.7275 -1478.2843
763.14752 2606.8438 3317.3232
257.15601 -7082.021 -1437.9308
323.61453 -11375.414 419.50964
-4188.1904 10988.07 1688.8356
1415.7502 5745.0381 1899.8414
-5656.0649 -11837.9 823.14697
-4807.5625 5435.2993 2399.7175
-3062.6208 11516.892 355.3746
-6373.1392 -671.34631 1226.4215
1600.7048 7222.6104 1389.965
1526.3771 -1750.7734 553.57965
-3020.0586 -9375.1055 2302.4397
1517.7761 -2969.167 657.75067
-4974.2402 -7424.3555 359.23859
-4456.6143 3338.1445 3467.8311
-1919.5765 -9921.2412 396.33749
-5753.5991 4497.4277 2395.8999
-769.29626 11121.396 440.48651
-4649.2627 11204.202 80.872803
-3987.5615 3948.3142 3228.9082
613.58704 2568.2632 3586.5405
1525.5564 1388.6591 456.95151
-2004.5511 11642.898 1170.8015
-1715.9219 3511.6304 3554.9819
-1153.1475 11473.211 1480.4695
628.20178 -11675.025 1096.2007
-4203.6074 -10614.56 1409.3101
1572.7069 -2304.3218 1373.4575
-165.58487 -11419.5 407.92352
-3710.0273 -2990.6775 3961.5747
507.13666 -3995.3118 2945.5891
-5205.6772 11383.112 724.67712
-3663.8271 6757.0615 2450.3882
499.28448 -10115.571 2017.0898
-5671.1953 -6592.5552 -798.30023
-5489.1729 5384.3818 2346.478
-4486.6714 -263.00214 3962.8765
-661.07013 -10821.609 1409.3101
-5815.502 5656.123 -35.453804
-5676.1777 -3022.1865 2810.1853
-426.54333 -11107.01 -116.03025
-1674.5503 -8040.457 2351.4185
-6182.4961 -10231.407 648.53357
-6290.2358 -84.440796 584.96875
-5169.8486 2788.8528 3523.0227
-4991.3848 8735.6777 2181.5071
-5891.2002 6935.564 2545.0479
597.96881 8732.1104 2124.0354
-5751.9102 4558.918 453.51672
962.11469 -2997.2815 2641.2002
-5931.9141 8616.5596 2537.5857
1034.83 4585.8262 -1582.6309
224.18298 4583.4185 2757.8745
-5751.9102 -8806.3389 -1069.0212
170.07654 11040.789 785.57935
745.22021 9698.2451 1921.7335
65.504242 -1750.3049 3975.8311
-5328.4595 11693.957 887.34766
-129.37114 -10527.556 -230.48615
-6221.8818 -9620.8838 722.91626
860.26575 11724.515 266.77277
-6312.3486 7224.6123 547.7948
1484.4293 96.235535 203.52216
-4042.0356 -11361.514 476.09418
1234.6919 -11419.5 -109.77793
-28.286961 -4708.7739 2748.2185
1561.8344 9742.2461 974.24493
1439.8069 -10055.065 736.56183
1521.1578 2120.4092 440.08069
1172.5885 -9910.2979 -137.41795
1077.0226 -7468.7197 -618.40491
-4974.2402 4267.8325 -1117.1908
-5455.7729 11644.7 1211.1279
-6304.002 6185.2983 503.86322
-1186.0807 -11839.541 1556.7053
-4974.2402 -9516.4805 -132.71519
793.04382 -7093.479 2126.1914
1034.83 6085.3691 -1930.3138
176.10046 11043.223 585.54907
-5751.9102 -7841.4678 485.17612
-599.14569 4618.1426 2879.9141
-6211.3506 -11635.952 -342.27246
-5198.5225 10897.251 1478.2003
-5386.5537 11186.8 647.7157
-4615.5239 10987.551 1257.0262
814.28851 9786.6738 2178.6902
-5037.0938 -8470.4707 -2059.6201
1034.83 -7753.6182 -1768.6163
-5001.4878 -9834.417 -19.620071
1034.83 5615.0186 -1687.406
-3813.1753 -4813.6992 2860.1216
1536.5258 8929.624 301.45502
1222.101 9680.0078 2451.8428
1092.0441 -7348.5698 2010.0917
1385.4792 -3946.9102 87.607224
-4196.4644 -10903.694 1409.3101
-3612.595 797.47528 4028.6904
-6154.0854 10862.185 2298.3279
-2974.6184 11704.471 1277.4094
-6302.0762 4196.6733 1823.3252
-5825.6499 -7684.7539 -862.89343
39.291046 1982.4899 3933.3521
1002.0519 8654.416 2888.8376
-4190.6851 -2065.9133 3956.6055
257.15561 -8813.1963 -1719.2545
-5440.7695 -11002.459 81.782867
1194.1077 -4270.7188 -442.99011
1457.0269 -2278.4983 202.1628
-3102.8345 -9901.0625 406.5506
-4610.8325 3162.8042 3533.2949
1508.6726 2949.1807 367.89209
1539.0022 -6846.4731 808.45337
-3257.0964 -10957.464 -596.45319
-2146.9734 -9835.168 244.21036
-5959.144 10761.648 2501.01
-4950.0859 -11851.269 1363.3992
-2021.1853 -6059.0234 2447.9883
-3752.5073 5381.1299 2560.1104
1301.6478 10204.822 1616.3175
-6017.1172 -10239.962 170.11951
1277.6262 3490.9482 -542.56348
-615.22791 11283.254 111.0571
-2220.46 3448.9939 3608.4717
1377.641 -3234.6057 25.657204
1618.0166 4119.3125 1441.9915
-5809.4912 -12062.474 -358.1091
-638.30731 6855.5503 2391.7791
-5672.416 10005.691 2298.0112
692.7594 2450.8164 3539.4932
-2179.8752 959.0556 4094.4524
603.15332 -4447.873 2581.3501
1461.5011 1573.4489 29.05603
-3639.7798 -11064.001 -94.300941
-1857.6256 -11840.986 1679.3906
1034.83 3986.2263 -740.85315
-5382.9629 -9953.373 -667.73572
-5392.6777 1680.8376 3722.5073
-5179.1636 5932.3164 2346.7883
-6264.9087 5051.6377 1858.2072
854.57867 -7963.7139 940.15601
-68.606201 -9842.3271 2066.9211
-4974.2402 4830.6968 -1770.7432
155.46985 11173.912 1481.8062
1003.9579 -2858.3044 2562.0688
-5751.9102 5453.5322 446.56747
-270.30316 7295.5288 2359.8118
-4156.8911 -6559.6836 2310.0088
236.04547 8913.5244 2172.8184
-4313.8389 4550.981 2882.6792
1604.0684 4794.4854 1569.6611
257.15601 6573.707 -1223.7753
-5329.998 2867.9565 3421.5425
-3468.7529 122.53125 4013.2388
-5751.9102 5019.4067 -1384.2371
-2900.0479 -11756.432 -49.195786
-5388.0996 11883.487 1383.377
257.15567 5780.9385 11.104614
307.87408 3471.9243 3285.4417
-5776.5107 5740.8286 -1215.4308
-4571.9438 5819.3989 2413.4121
-5895.2764 -117.07314 2187.6035
-1916.8306 -3499.2549 3680.4158
-20.982155 2634.0291 3733.5029
-5685.374 11697.5 1122.3911
326.89996 10905.994 1039.9944
1554.833 -5794.6372 1337.9877
-6102.0947 -10795.275 -35.8778
631.00531 -10966.889 461.30322
-22.301102 -11042.133 -586.30719
-4741.3823 -10215.565 -137.4165
-5246.8506 10879 552.39612
-3666.2764 11214.003 117.01453
-2196.2551 -2226.1399 3992.9849
-6007.1748 -6403.3154 -416.26785
1523.5553 -5971.4824 1557.4606
-570.02411 -3352.1299 3716.7368
1525.1912 -2815.4443 1695.6309
-2614.9426 -10631.229 390.50403
-5881.9697 -11417.799 1153.326
-5299.8325 -12051.544 -114.88545
-3718.6748 11265.454 748.21985
1276.4685 -9137.3262 1869.9585
1550.8905 -4062.7319 1215.2068
-6355 3764.9326 1553.6783
759.96893 -525.06335 3699.6626
-3917.2502 -11833.273 -287.77258
1029.5458 -11640.299 1227.5876
1510.7283 8037.5479 194.52914
-1994.2395 2059.396 4055.947
381.85892 -7913.3379 940.15601
-4625.4648 1042.8389 3959.6709
-1217.5559 7264.7051 2429.9478
1578.6439 -2139.2124 1492.7954
-4974.2402 5253.6196 -775.16241
1477.1309 -4472.6274 620.7149
335.49347 5937.1865 940.15601
1474.8464 -5293.1226 517.37061
-3265.9517 -4489.8652 3123.4595
1558.4399 -5000.001 1269.1001
962.88416 -11386.478 1750.6565
-5835.1812 -205.75742 2325.9321
-1104.7739 -6429.8418 2359.7798
-4312.1143 -11152.165 -566.27136
1142.4956 1092.6315 -730.19434
-3072.1182 -10020.929 391.1221
-4974.2402 5922.7842 780.43365
-4974.2402 -8117.9453 -1063.4071
-271.78888 -10671.786 -159.8271
-5929.4902 7151.0664 2307.0867
-5355.9937 -2344.8748 3806.687
-4839.9868 -9979.9199 -654.08276
-6277.4277 268.68301 496.03455
1603.6768 3888.0347 1019.6095
1034.83 -7692.333 -1972.0522
997.62964 -11865.521 1350.452
1546.4312 8592.0527 520.95551
1213.9993 -11398.65 944.65173
1436.3101 -10840.479 1109.9513
-5155.103 -1560.5 3888.9102
-5167.6396 -11029.423 -565.91644
-5713.1562 -11744.446 307.89801
1034.0964 6151.9785 2528.2034
-5732.313 8188.1006 2737.6377
1550.9105 8433.6719 816.27057
-5153.8169 11119.981 549.22437
-5074.3926 -9956.0898 166.13867
773.9126 -10803.259 104.78577
1034.83 -6696.7617 -255.60545
-3386.5503 7346.2334 2409.5825
-5995.8564 10667.512 2340.918
1489.8021 8288.1934 113.95051
1460.2932 -321.98218 1967.63
257.15536 4954.0322 -340.29205
1506.2068 733.07178 333.86505
728.64655 4832.4312 820.8515
366.46857 -10143.372 309.17569
1571.317 -1080.3658 788.01373
1550.416 9829.4971 449.19333
1418.7618 -10229.683 -76.480942
719.05743 11186.8 713.5506
-3665.7476 2748.6394 3828.259
417.05817 6144.7495 -1933.6215
1444.1086 3508.4866 1946.3743
1238.8265 10451.98 2429.2771
-3902.988 -10863.825 -137.41696
-5614.1509 5632.0107 2324.8845
1527.7146 -1949.2111 671.01288
-2618.7139 -9835.1494 290.38007
1587.6427 5827.4941 1675.8398
-6129.6123 -11175.902 308.29697
-5904.8091 10878.999 1497.9113
257.15527 -8722.0449 -603.21405
1034.83 -9028.1182 338.40009
1577.5543 -528.09802 1586.9215
-1161.4022 -8594.1523 2277.6321
-4455.1699 5742.0254 2429.2422
663.17072 6139.085 -1937.7367
-5958.5288 -10138.421 419.05145
-4719.4585 -10724.032 131.24345
-2537.5222 -4989.6182 2855.7065
-2234.4592 -2433.814 3988.7266
-31.825127 -4551.9756 2854.1055
-5988.9424 2368.6299 2099.8857
397.55414 -2147.5613 3871.6021
-5441.2998 -9834.2822 -61.559822
1096.996 -7746.0293 -154.76889
-3380.5398 -11206.076 -102.94246
1523.1982 -5965.8257 1558.7783
-5450.4033 10965.347 -225.25674
578.26575 11683.1 1053.3857
-3605.1345 -11144.685 456.90851
-2960.5435 -11030.01 1409.3101
1546.4248 -1819.3248 820.49042
775.72607 -352.62866 3809.3508
-3958.3545 4479.4922 2962.6675
1580.7188 3311.5632 884.62396
1034.83 4625.6567 -984.70923
-3476.5952 8494.5693 2287.0415
-6296.4053 -7647.9375 1043.3113
-6373.5288 224.40778 1139.3311
-1499.2739 11441.338 -135.04465
-2519.677 -1278.6826 3988.7891
788.55298 -9081.4922 2053.0681
834.13733 -6061.9937 2120.3242
-761.69067 7059.9189 2398.6167
1153.1407 -533.78735 -678.40613
943.07819 9739.7002 2467.2151
-4554.46 -11750.4 1543.454
-3564.2312 -10698.266 355.73538
-88.92218 -11404.643 1075.7324
-5028.8291 -11909.225 -19.799633
-2285.1438 -10033.179 398.88864
-3080.7383 -8857.1758 2323.7256
-4175.998 -11483.37 1300.5378
-4974.2402 5337.7046 847.22876
107.91924 -9926.7676 206.28241
-2652.7778 3290.3416 3689.5017
817.18994 -11096.801 337.50653
1570.1663 10844.367 909.3147
1495.7961 -1960.0223 312.96777
-2505.4172 8741.3477 2340.6392
-4128.6963 -9958.5967 1409.3101
-5130.0225 -11807.584 306.75
-5398.5376 -11645.251 764.14398
1318.8193 -2347.1292 -206.7485
-5943.8442 9567.6514 2597.7905
-6191.9678 11873.364 845.71094
-2586.4778 -10564.709 412.17612
1561.4152 8478.8633 1103.5796
-78.29129 -184.2092 3989.8372
-5744.6851 8326.3291 2819.0889
1553.2217 3080.9182 685.61157
1508.7727 -8289.3125 1347.4639
1020.1194 11683.1 710.05212
1034.83 -8752.1113 -1928.1144
-5926.8545 -10385.587 154.45432
-60.146004 -10575.927 -619.7547
1447.2571 -10538.539 1144.4419
-502.21356 2925.1753 3719.1548
1468.0389 -127.79098 1965.361
-5008.2627 10875.97 1605.6846
1531.9517 -2689.8674 952.95782
-6305.1821 4415.2632 1831.5193
1631.4423 795.33313 1194.4685
-154.25795 -5165.7568 2485.0781
-6161.8213 -11727.736 877.86316
1034.83 4828.4624 359.23157
1579.8718 -1199.1692 888.32874
1571.6664 9668.877 634.02148
-1442.9816 -10848.717 -137.4176
-4675.4521 10989.502 464.228
916.09741 -4593.7021 2220.5454
-774.78149 -3008.0098 3955.4795
-5804.2314 10879 532.17285
-5794.8135 10879 1184.6445
-5088.6338 11116.219 24.605057
1443.4934 -6497.271 109.52
112.10696 -4685.3545 2716.481
-5751.9102 -9000.4258 -19.451136
-4974.2402 5468.3057 -146.39684
773.00293 -2719.366 3500.4585
-6151.9668 -11863.586 -289.87683
1230.9677 -6648.0576 1949.7229
-1347.1038 8455.9746 2321.3372
1338.2224 -1631.9207 2093.8555
564.81592 11186.8 1255.8987
-4771.9009 -9792.3252 2095.49
-4943.521 -11034.312 1900.13
699.09601 3728.7783 2999.6094
1463.9274 -8498.1133 1669.7885
-3389.4883 11673.824 1330.3787
-1630.7687 -10221.75 -137.41731
-5751.9102 6110.1646 -13.066392
-5118.9189 4465.6738 554.38782
1028.2454 11723.264 1199.134
243.79178 -10542.59 148.36188
728.34546 10352.622 2320.8499
1613.5994 5955.8262 1149.2163
-1156.1721 3596.5344 3487.3989
-926.12964 5376.5171 2553.2292
98.825073 -9901.4756 195.37744
-5009.5962 515.14081 3942.0444
1034.83 6782.1504 -836.46191
-5676.2739 -12047.841 -442.38568
-4241.8672 -11469.273 794.44458
-2599.7603 -2061.9307 3985.8682
1589.4478 3335.3037 1647.6809
-2213.6357 -347.40497 4027.9995
-6014.915 4659.0171 2075.1562
-5229.541 -2454.6707 3833.1663
981.72668 11644.7 1272.8418
-4610.6816 -2136.6287 3944.0725
420.4541 -11428.472 986.04004
1530.2704 5667.229 279.1626
-1844.8418 1044.4711 4108.9512
-5566.48 4822.9248 2378.637
-6190.4424 3076.8994 -154.11536
-4298.1626 7442.4648 2341.6807
-5576.7656 -2837.0952 3436.9951
1061.5599 -8358.9004 -1197.6694
-1221.6558 -11928.511 415.23206
-1130.8286 -2568.1506 3982.1768
-5527.519 -465.98108 3813.0796
-5019.3569 11113.39 243.74207
-6153.334 9761.7363 2235.366
-2203.4155 4432.4209 3100.7754
1034.83 -7874.3125 350.47153
-4662.7451 -11283.604 478.80093
-2459.0261 -11315.583 -137.41768
1623.1553 4199.5986 1362.9329
-4826.082 11058.248 1576.3839
1347.0264 7593.0464 -207.91681
1565.3005 629.02808 1694.9351
-4974.2402 4274.7329 -875.11285
257.15509 4428.1689 309.26047
-5885.1318 11730.592 637.60913
1034.83 -9244.9756 -1180.7125
-5993.9385 -146.34622 2120.2756
842.65479 9892.8027 2494.8218
-5878.667 -997.60876 2237.4038
-5278.123 -11411.867 1411.4214
-1724.0833 -2670.7646 3977.1731
-2066.8696 -6748.0835 2429.8579
-527.11621 -11483.083 1157.6964
-2742.4121 -2475.6677 3982.48
-3199.7148 6836.4116 2482.4514
-3213.3579 11518.112 1483.3252
-168.25964 381.43918 3982.4243
-5420.127 -12149.094 355.78781
1520.0442 6161.8638 184.4613
477.215 11752.852 791.5636
934.32373 11301.937 1452.1847
-1811.076 8162.4028 2388.3691
1194.8392 1476.8792 2157.3247
536.53772 11457.762 1306.7522
390.80826 11176.627 1162.1602
940.68188 -5199.1655 2134.9971
1158.6022 7717.4502 2573.5903
-1985.4072 -12024.072 1494.8197
558.36157 11493.906 337.3158
-3469.5864 -10909.065 -121.8812
1381.1641 10816.206 2270.8289
-1576.5864 -10648.58 436.72113
-4070.1907 3725.0381 3329.3616
1590.4056 -994.31897 910.45026
1430.6001 6659.8604 -154.04736
-6163.7246 11927.3 1105.2273
908.17834 -10335.81 166.17072
-4975.7974 -8655.5625 884.85785
-3317.2231 11313.98 1493.052
-5742.9297 7735.2251 2710.1653
-6300.1484 -944.0611 721.65686
-5533.0977 11186.8 1130.0858
-5169.5483 -10411.982 370.62595
257.15591 -8242.0166 -1465.3247
257.15601 -7051.9624 -590.84674
1610.2421 -514.29883 1030.9091
-383.32599 3583.7139 3402.3799
-5701.793 -11817.801 795.1543
-5906.5576 -11281.38 -542.17322
1556.851 -3320.46 1342.6779
1224.2213 9681.3926 2416.1743
-6236.2686 -876.67419 1892.6627
-5064.1206 3335.6111 3349.9094
822.63397 9319.0869 1974.5673
-6303.1074 8548.1348 803.34753
257.15601 -7205.8818 -1564.4617
-4974.2402 -8517.3457 -364.18536
-1081.5983 3634.5854 3464.6035
-5751.9102 -7406.4561 -1435.5759
1521.0713 5966.916 1797.335
-4723.9165 -11484.541 489.02863
618.89856 548.78906 3828.543
1598.8247 -584.49017 958.00262
1549.6578 9360.7236 1027.3224
-5392.6587 -10873.479 -137.41666
-119.76091 10928.227 1643.5852
1577.8086 3146.4773 1678.1716
-5663.3799 11186.8 1177.3024
-3290.1367 2863.561 3813.9189
-3461.9495 10942.374 1801.3444
222.48865 6805.6958 2328.9028
1523.899 7088.5479 179.96718
-5664.5605 4190.0908 -1431.2814
466.57706 8572.7119 2189.1365
1627.7675 4426.6772 1270.4431
257.15512 4336.4624 -719.57837
1034.83 -7040.583 -38.757111
-6083.8076 -2553.4038 -134.0808
1508.2734 4683.2656 187.59253
-1099.5873 -11524.061 -435.64105
-2502.3757 -8179.7666 2397.4634
1620.7046 5666.4512 1445.1703
-3097.9243 11332.845 -0.25823975
-6170.7646 10981.07 154.13986
-1071.9847 -1868.7688 4014.3198
-1043.3448 7962.2734 2375.9436
-2353.95 -11819.221 849.3291
-2047.2781 -11929.724 388.25378
-5679.4375 6817.4463 -1309.4839
-5257.3311 -7207.9834 2132.4021
-4642.2847 -11262.129 1842.6053
1556.2651 9254.5039 754.31653
-605.57739 11187.466 726.36694
1291.2985 1355.5541 -450.47559
-2702.3374 4543.126 3055.2646
1420.7812 -6273.103 22.569288
-2891.509 6797.3145 2506.0291
-1766.5083 4158.167 3223.6606
-6048.6953 11256.254 1444.4039
-3150.6521 5437.7661 2601.9084
-4278.1309 -10717.403 -373.11133
-6310.9307 -7266.9443 1210.0679
261.21271 -11399.3 955.77893
-4430.9717 -9954.0391 -137.4165
-5636.8135 11538.9 1047.1315
1099.9417 2421.2576 2347.9607
-6213.9224 -11504.554 1394.7871
-5977.313 11538.899 1051.7202
1227.4138 2580.6975 -596.40955
-3800.5129 -11563.727 857.25452
257.15601 -7278.2412 -1649.0085
1505.7888 -2655.917 1770.8306
-6216.4932 -6155.811 265.70886
-5063.8813 11015.945 1490.9583
1515.5237 -6610.1348 1590.9658
-5950.0117 -222.83105 -589.35101
-2817.3364 -11034.503 1409.3101
1590.265 -1970.562 1404.8508
259.21271 2604.5383 3707.7749
-4699.4434 -10286.725 377.18372
-5199.9268 11280.708 626.92023
930.15527 -11618.957 313.59442
-5037.7661 4149.8838 -1307.5143
1606.1466 3075.2715 1523.8281
-3297.0488 10774.289 1868.4933
-3705.2141 -2512.0454 3964.7078
-5904.667 693.7854 -693.84717
-4974.2402 -7346.5479 336.42194
1316.6801 -3454.5698 -140.22762
72.124634 -11766.748 1411.9452
-3038.8418 3013.3281 3774.5732
-5700.9004 10983.156 1693.2067
1148.6508 5158.6968 -607.81482
-3861.4573 -11550.684 1396.4886
-5542.7925 571.1369 3784.9519
-5751.9102 -6868.3081 -11.041763
-5851.4316 -11249.07 -543.18347
159.73689 -10558.994 1968.8922
463.61401 -2560.8926 3835.2393
-4831.0186 3732.2756 3227.2363
1599.2214 5602.0244 967.30981
139.0726 -5958.3979 2240.8716
1433.916 3704.7856 1952.2711
-5083.3423 -11885.32 1306.5413
-4663.8784 -10218.287 309.17682
-2131.615 3821.3711 3412.8916
-5751.9102 5895.313 235.42242
1216.7555 1935.6512 -604.34961
1592.6989 -1794.5105 1342.5088
-4136.9414 -3130.2292 3859.5913
-5712.1973 11697.5 698.91345
-3370.0042 4510.9092 3018.9902
-6013.2471 -6036.9941 -384.29785
257.15503 -9484.3936 -768.88306
-6313.8711 5479.2207 595.88391
1581.2656 -1842.6768 1475.4813
257.15601 6204.2617 -1505.0405
-1962.8213 5575.2407 2565.8696
-1481.157 11309.848 -107.82701
-4969.876 -5457.2393 2279.8135
-4974.2402 6961.0127 -295.77682
1418.5354 -2343.3496 1891.1021
-71.067612 2640.9607 3739.3906
-1619.754 -9978.4004 393.34161
-5724.416 10589.742 2140.8093
-5326.2188 -11801.272 995.08105
-2372.7998 4607.7134 3017.5625
-762.95135 -10281.233 426.43323
-2933.8364 10880.923 1878.173
