# .PCD v0.7 - Point Cloud Data file format
VERSION 0.7
FIELDS x y z
SIZE 4 4 4
TYPE F F F
COUNT 1 1 1
WIDTH 1614
HEIGHT 1
VIEWPOINT 0 0 0 1 0 0 0
POINTS 1614
DATA ascii
78.813721 274.82242 20.705036
283.59103 350.16068 77.680527
169.22993 282.72571 23.353703
55.420414 290.24899 36.350193
131.29272 344.9126 27.377487
332.32639 383.99246 26.026764
292.55911 272.56592 20.789986
206.02252 283.47861 94.328476
55.486092 297.7326 66.031639
46.091457 352.42413 30.186022
36.154449 277.14987 64.887726
251.66327 323.56796 92.396667
61.24617 290.24896 47.982197
42.508965 368.36078 65.290527
20.722855 273.40286 41.494053
51.061214 286.25009 33.880348
252.28201 335.04285 25.554672
277.79141 277.7623 44.362614
191.25229 271.85205 56.879929
30.022129 383.62695 64.46357
133.08287 307.80725 27.187616
196.77989 297.93274 22.072124
142.28085 272.77325 45.438244
360.64258 305.65466 25.166174
106.46606 387.40582 42.437668
155.83646 308.37582 24.774273
87.938812 272.53305 26.974373
126.62141 357.87372 27.872946
221.04037 383.04199 21.816311
67.168068 354.95538 66.805527
83.756317 380.91113 48.275047
149.49274 275.97171 72.609123
201.31354 271.99368 58.5877
180.49727 347.22586 22.158638
180.74167 271.59424 54.096115
145.51971 313.84323 88.044777
253.14746 369.84302 32.045479
56.04076 357.72009 66.188148
138.73376 333.20667 26.588259
192.16476 272.23248 62.404018
68.850952 289.31232 11.126116
363.41132 387.79398 46.456398
243.8638 342.63782 93.976883
197.28098 376.5116 22.109648
90.698929 369.86499 43.376308
266.07843 371.00751 35.617901
297.30829 275.39642 69.421783
91.748833 279.47864 48.84193
17.493814 297.16953 46.583942
278.80316 350.6889 80.06739
362.41812 336.06769 31.920527
310.12701 276.68628 67.350647
252.97105 276.94614 78.76683
15.937401 281.58133 47.731579
258.06964 290.272 36.472141
335.54422 311.90149 64.370712
177.55603 379.18616 93.944366
368.53366 359.70743 49.256603
286.54092 387.54483 14.482924
16.064253 285.52811 47.776695
70.559212 382.40106 51.190987
139.77449 272.64767 46.193932
256.37875 387.68985 21.940739
261.81818 382.63855 43.727283
322.75125 373.90817 66.014091
303.90121 303.56326 67.966232
116.25347 293.83673 67.951439
20.707806 292.22986 32.174519
362.77112 338.47934 59.981369
149.72977 341.31183 25.421972
357.51187 305.66913 25.695171
351.94226 388.09793 47.956764
69.109749 387.51578 65.447525
172.59145 276.42911 28.727158
283.02679 281.93027 77.961769
24.123863 308.54288 62.86005
82.559761 324.59155 67.716629
100.24171 284.02762 67.666946
318.19635 298.73724 24.460724
269.77411 308.07367 24.738811
214.64088 384.26044 30.873758
144.05145 285.75391 26.024239
371.5882 327.14612 40.407059
188.52213 300.27612 96.635254
106.47966 382.2623 67.789131
204.16354 323.19135 22.625069
334.03461 364.85547 64.577408
370.05969 339.6651 38.122463
339.31622 325.56137 63.850239
113.52591 373.69989 67.903076
224.60995 320.68484 24.156254
186.55444 352.17126 97.00499
87.61293 369.86499 49.69088
76.715691 271.21051 50.056744
67.632263 320.78824 67.23056
106.63848 335.95172 29.992424
89.06514 369.86499 39.956779
273.11938 304.35901 24.58279
191.41232 322.64172 21.670158
43.424488 332.79355 66.473206
19.27153 360.90109 41.905296
359.96442 305.60257 60.483791
129.71445 387.67856 47.465012
207.3085 325.49463 22.860588
112.023 359.11884 29.421316
264.26883 273.41168 69.025894
116.27705 290.34222 67.952881
49.960846 290.24899 37.47224
265.66122 387.18784 65.682297
358.48489 387.19415 44.035179
163.8147 314.41376 23.928066
188.20782 277.73087 21.43018
241.61417 295.95941 93.856491
162.24216 303.74866 96.173615
112.71837 381.43231 22.51424
247.68588 271.83145 50.465614
16.469326 325.42743 59.193104
89.569664 369.86499 34.148872
50.536224 289.97665 52.577385
292.6113 308.64508 73.183723
164.25581 273.80725 39.216946
293.48816 381.63281 29.394447
352.28687 350.23114 28.432489
71.650864 272.90802 66.785378
362.35736 277.00739 30.222591
140.30269 295.72037 26.42185
48.073429 296.39929 65.622307
261.68481 321.21426 25.11611
41.618183 276.81451 65.234367
295.1568 289.27094 42.44136
265.9212 294.28442 86.48912
186.01569 387.43622 65.414047
35.454472 293.07678 27.993938
16.072762 386.65271 49.845428
111.05453 272.08368 46.561714
235.01846 311.15399 24.935724
261.46082 331.62949 88.712875
54.196659 289.0239 20.595793
26.90733 327.42599 26.677834
126.50829 339.83109 27.884943
96.342041 363.10919 30.536285
94.280243 369.08673 67.532417
175.8186 302.2565 22.654879
116.75198 276.23001 28.918417
339.28024 358.88422 63.85569
230.43735 388.39771 54.587471
67.951935 290.11401 31.447828
165.44934 277.25247 79.871918
199.57297 387.36176 65.83567
111.03847 348.60358 29.525742
281.98727 388.46616 52.257202
201.25047 375.73181 94.558586
70.304695 388.6553 54.324821
231.23648 272.98865 67.170494
210.58676 383.22086 77.837692
216.38208 387.60193 46.533482
101.4008 280.61078 34.274635
90.071854 387.33551 66.228699
47.30529 388.62708 46.665993
51.988525 271.32025 53.351551
99.525696 327.84241 30.558483
273.86273 290.26074 38.772537
175.18346 327.20618 22.722242
351.30292 305.14545 23.790276
281.71844 321.76743 24.181721
236.70068 354.4754 94.781532
57.776176 377.93747 66.148003
93.768486 285.34045 34.805111
65.599869 371.3829 49.2281
348.26871 280.52524 62.479149
76.400635 373.19794 8.0564566
285.41974 334.37946 24.009115
277.07581 293.39093 24.398262
57.635143 286.90903 66.140846
246.26083 277.79398 23.485231
157.55148 383.60379 28.4235
210.28702 335.31573 96.66069
247.93661 280.17438 29.591103
174.98097 274.44247 36.302319
67.169037 369.86499 31.652239
165.40834 344.40396 96.630295
115.70741 300.49765 67.948715
139.39586 374.17917 79.578842
131.4279 341.04007 78.004875
258.27512 375.95551 43.949799
111.23423 372.77417 67.869431
129.58952 281.08487 24.187912
331.10352 293.31958 64.978752
221.83647 388.23358 57.08672
54.752342 279.76117 16.677443
138.34431 388.56985 52.762238
252.6832 382.48853 30.146349
254.83182 388.40659 53.94524
168.97108 278.49133 86.897095
89.977341 363.71094 67.415665
32.804401 382.5708 64.656006
290.16156 288.43048 34.232681
281.0463 385.23523 29.068348
262.36688 340.0314 88.261154
22.701881 314.73764 62.543716
73.597862 380.89972 52.666401
43.202629 335.43948 66.355934
283.87695 340.6153 77.537987
139.3542 356.30453 26.522451
282.85992 316.89719 78.045013
33.434021 387.99588 61.408291
234.52505 313.97699 95.084343
178.22961 277.0351 26.464979
227.47926 383.04199 26.305464
267.80365 386.9458 68.121368
109.23311 347.56577 67.971634
303.43173 360.7868 23.533875
61.364151 271.31732 53.339035
81.759018 288.866 37.730717
199.75156 335.00211 96.94635
252.44974 382.26215 14.433922
301.67328 383.42068 30.841291
145.10779 346.64441 25.912201
153.26068 339.10693 25.04747
162.65385 305.14746 24.051189
51.689716 277.91315 22.577465
365.49713 338.785 29.41531
322.51904 384.5928 28.984461
146.39279 329.14331 25.775906
368.53165 370.92249 49.264359
244.58975 313.68015 25.652496
52.958206 286.48007 65.900391
24.630735 352.54431 63.074711
238.43716 385.16107 34.234344
301.36456 387.87683 57.538307
181.77164 353.17038 96.949608
296.0925 292.11191 23.511391
47.231239 285.09952 49.153419
81.154541 388.97058 52.603813
336.75949 299.84872 64.204308
160.69568 291.5267 94.950317
137.02757 346.21411 81.994431
364.99191 319.07053 57.755016
188.36249 376.12714 94.571899
290.83725 371.08014 12.416827
66.536842 271.43475 54.059265
42.821434 286.77911 36.947384
91.658463 354.771 30.503635
45.495636 271.59644 55.699795
13.839453 307.47687 38.763428
105.9296 379.23843 24.042114
12.679827 323.74435 53.634701
165.8653 380.73303 91.96891
195.92538 329.19446 22.008131
27.700417 339.94424 65.300629
327.49829 280.51794 65.427795
100.19998 345.56628 30.563185
250.25946 338.06073 25.649004
338.19257 316.01654 64.00808
150.11678 301.91034 90.851929
143.65704 383.34155 77.15799
251.63803 290.37115 25.584707
179.70155 381.4191 88.056122
95.346191 335.75745 30.529345
54.426529 379.10577 65.977806
65.271988 370.72925 55.62719
304.06204 384.82153 67.949715
109.31274 312.83942 67.96666
276.38907 366.64899 24.895107
295.68082 347.66559 71.653503
265.90659 272.44434 39.482346
293.87643 369.84299 30.029305
271.46893 301.09268 24.659767
80.868973 322.755 30.42841
16.634729 294.81879 56.019814
361.95734 341.7558 31.824295
35.269043 359.45248 64.873177
134.40089 282.38135 74.346863
51.12785 369.86499 35.224297
279.18954 368.5824 79.874763
269.63089 353.26645 24.745493
163.49458 388.27524 50.760223
235.99609 295.10596 94.370346
340.55917 308.69058 26.521318
134.78807 276.83057 71.555672
85.698387 283.52124 52.427147
225.13065 388.27612 56.54686
247.87379 289.13913 92.640244
56.98061 373.03308 44.845345
140.95587 279.12036 77.960068
85.270866 288.866 31.794304
301.48297 275.56277 28.249592
213.02469 379.37274 22.62196
176.75757 319.21674 96.95462
32.417053 387.18924 43.04092
84.428947 283.9704 11.108967
137.8517 291.75845 80.18309
155.25038 276.10559 73.368286
43.153011 378.28775 35.599907
285.02289 368.27124 24.027643
89.324524 290.24899 44.183769
273.2977 285.00342 0.04841217
281.32452 288.866 30.36902
26.976114 322.28992 65.354095
198.40662 384.17783 72.41169
264.35156 322.91473 24.99173
43.221149 348.05075 65.859627
369.95398 322.32458 33.72921
285.45459 373.60364 4.1703653
28.458893 287.69571 27.229488
276.55038 371.24899 14.208033
81.591354 378.51016 49.2724
17.244032 294.52682 51.752937
247.27985 304.50092 93.322029
66.131294 290.24899 38.752548
304.91293 383.94464 25.495934
356.82343 354.005 61.04604
64.265129 277.17883 9.2137117
326.44968 349.09521 65.55732
13.883036 307.04208 41.211895
151.20627 386.09845 38.22353
296.04974 320.80444 71.469589
54.344681 377.50122 17.208714
250.09267 286.25491 36.107773
118.2025 353.38495 28.765894
231.41997 359.60822 95.099213
223.07474 279.32339 91.714539
291.1604 345.83612 23.741402
288.35034 275.30844 69.147957
268.91663 271.73749 53.599571
252.48849 337.07977 92.181404
45.333538 290.24899 36.248047
160.43388 276.21014 29.544533
298.63278 370.9794 70.18187
70.826385 274.30731 18.638323
201.20207 386.03589 37.941017
172.51839 286.73944 94.913071
235.49838 292.28992 94.199837
347.56229 299.38135 27.593616
166.75249 380.04736 93.645576
259.34839 376.21924 4.9264479
87.733749 310.2131 67.584755
170.04376 365.32846 95.912979
281.97546 338.11847 78.485924
281.93744 327.4631 78.504868
344.17834 338.06989 63.113182
227.63104 272.50192 46.478996
187.11801 381.89221 85.37336
257.41852 386.7663 68.791351
346.18127 281.32953 62.809555
14.791848 309.651 55.640327
296.65448 274.11942 40.114037
77.229469 371.24896 16.901567
80.790863 369.86499 50.868496
318.55939 356.22382 66.47802
118.21555 388.21265 58.146683
179.28903 332.79602 96.998947
24.730383 373.87888 27.984072
303.11423 342.76343 23.513931
58.918022 377.84503 12.327332
289.19931 387.41977 62.551987
332.60947 371.93146 64.772552
138.44383 354.60779 26.619009
285.23529 347.41531 76.860832
102.7316 313.15707 30.406803
358.82617 339.36307 60.687538
68.270889 369.86499 45.348343
273.89355 379.44556 82.514908
247.707 310.12103 93.2957
267.86401 349.08182 85.52066
18.323412 285.69775 44.712872
175.29199 308.94016 22.710728
266.68488 367.772 86.108597
357.7464 388.22876 50.939915
272.09616 383.89258 74.389786
363.52063 386.59677 40.833763
101.16962 283.18399 31.165115
63.821468 370.77573 45.627304
99.35994 286.80536 67.648331
108.63234 371.03406 67.827507
108.06561 329.83655 68.044006
47.042854 379.11646 65.563637
177.44835 286.04227 94.86969
74.644775 376.46356 7.7123795
237.4158 292.78629 94.075401
270.71857 346.20721 84.097733
279.03738 311.09348 79.950623
120.10236 386.37903 38.560799
251.05228 291.38208 25.612028
301.56244 324.25201 68.721313
229.0127 344.37195 24.485966
166.0638 382.28326 83.155098
26.11784 337.12573 65.327423
89.266922 272.74765 17.807619
210.43958 272.2995 63.261566
223.10864 276.18069 29.654423
258.89996 383.52994 76.586006
140.94846 295.8905 26.353359
252.80904 277.11252 30.450262
73.318268 290.54617 34.306953
278.79962 290.25952 39.989658
180.61087 280.05405 93.792976
67.647537 280.4791 53.07402
186.59288 303.55371 96.841537
365.27881 386.09509 37.998581
151.08231 347.48575 92.007912
15.9347 377.00067 43.390778
110.86153 284.70596 26.709751
35.868111 300.07831 28.098412
322.63904 271.76587 51.349747
334.21426 387.71451 63.517361
233.4505 316.35861 24.818304
238.32162 318.37683 94.676132
267.69781 275.29059 17.426365
71.871658 291.966 30.376945
55.170822 282.9198 42.735832
72.258591 310.95502 30.368374
272.43542 383.34802 30.769333
68.569336 375.32266 66.655609
282.22452 276.26303 25.534065
168.15234 346.4892 23.467995
347.263 272.13452 54.944702
137.81755 294.45844 80.815063
279.38815 359.23151 79.775742
147.60062 365.05591 25.6478
215.22382 331.98337 96.463173
368.13278 289.78723 35.241623
30.754444 367.1008 64.514221
15.991488 277.75885 43.433506
209.80263 309.04608 96.65506
18.584694 299.15244 45.794449
68.698898 288.866 15.707426
70.199806 279.70972 51.143673
290.28757 298.84393 74.342148
283.11377 316.34259 24.116648
69.444794 283.75674 7.8236485
249.68005 323.72458 92.877769
274.9281 369.84784 31.140312
31.356115 375.16483 64.555832
76.338387 369.86499 49.537453
103.18764 304.7077 67.816719
157.43935 281.12134 92.433388
87.0867 298.72665 67.362923
212.7455 275.95129 72.490501
294.24844 386.44687 23.336887
326.13632 278.19891 24.981781
204.48401 277.07199 24.319489
187.00533 355.51318 21.468367
41.162785 289.63287 65.205658
89.559372 290.24896 34.541523
364.31393 381.87402 58.816128
95.40641 324.15753 67.932648
341.41632 385.59778 63.531883
173.28033 278.362 86.163712
251.55524 338.34576 92.424835
372.93372 277.28839 42.117607
369.08701 349.27374 45.484169
33.523174 295.4064 64.705711
71.158379 286.19638 54.826797
289.47052 384.84384 69.082535
288.27002 385.10144 69.140221
336.49417 386.83459 41.102554
58.219231 351.18488 66.532761
293.64893 288.81223 24.434372
76.640518 369.86499 48.470627
71.629013 342.08875 67.30986
330.80392 359.21503 25.386358
338.80811 346.67551 63.923801
130.71594 383.04199 23.648218
251.75702 276.84351 16.106764
288.79633 372.00958 7.7139921
136.44278 277.07199 23.987696
62.754074 283.27289 53.589157
60.151291 289.94666 55.260406
290.88834 373.46039 34.344357
78.824303 286.27777 54.371002
181.13586 316.17297 22.090904
193.39694 293.77606 96.000961
176.30992 278.00488 84.138695
273.46582 367.35632 82.728165
15.772548 331.64465 26.504601
316.54233 323.52887 66.700203
199.0647 272.86426 44.550514
253.08716 386.90417 68.276802
67.740952 370.88354 10.638977
179.91191 387.81744 62.84227
12.954158 324.37 56.026787
160.29231 347.23401 96.110832
256.91928 277.77914 83.948563
69.125557 275.72815 38.572117
190.58803 277.75894 82.741882
276.79767 276.74768 27.788343
65.887291 292.3584 30.323957
328.11118 366.69147 65.352112
98.49231 331.68414 30.551279
335.02179 338.57932 64.442238
367.22025 294.6091 53.33165
329.17154 275.34375 29.981642
359.45493 387.2099 60.574989
153.86267 282.97067 90.084534
283.28552 297.94727 77.832825
145.3772 278.01257 81.029572
283.60422 333.68286 24.093784
243.83731 278.44781 87.208054
84.329758 379.4552 47.835045
308.33026 275.73499 27.64583
191.91064 365.57422 96.096153
237.84918 347.75446 94.729813
320.99347 303.14093 28.426628
72.146133 370.78333 12.604042
76.515961 324.69775 67.578392
248.46959 381.01129 32.199295
219.29399 364.39682 95.56517
54.806259 349.7113 30.246746
108.38669 322.35529 29.807001
258.9032 384.15701 72.716034
200.36235 361.47812 22.340405
49.874176 304.49399 65.94249
42.90921 274.2952 65.31575
341.27716 309.34357 26.623081
32.833675 332.78745 26.945816
253.03464 359.9812 25.519569
153.66263 384.56061 31.993925
83.041 379.70215 52.011971
240.63046 320.38556 25.355993
137.32126 292.03598 79.877884
368.03638 333.63654 28.310163
98.416321 324.86252 30.550747
292.52158 299.90683 24.447584
366.3085 293.76065 32.824604
14.996604 365.36621 37.747467
292.58255 302.23163 23.675007
150.29221 305.67932 91.25592
270.41037 286.71158 84.251373
370.45401 325.31201 33.376652
339.603 364.69086 63.806763
242.99681 327.26044 25.533205
49.951935 307.75674 66.077309
227.73044 314.84476 24.38994
116.78815 386.58871 39.080055
259.77487 387.3168 15.839479
48.59507 387.81458 63.013748
293.40985 379.21063 29.583603
184.17941 384.71411 69.368904
192.68211 273.43234 41.342758
58.412079 371.1416 44.418266
286.05963 369.84299 38.643669
70.423981 319.7579 67.307358
245.46481 317.05099 93.719009
23.427376 312.94452 62.84362
178.67123 327.18384 22.352316
286.62418 387.29285 64.729782
320.06589 345.02942 66.312088
302.86786 298.68115 68.072395
46.936089 291.99414 30.191904
103.4091 386.21436 36.460964
263.94559 278.39066 41.904457
201.47751 295.38336 22.423916
317.44293 353.1904 24.41346
218.7083 279.73843 93.071991
98.06205 271.46756 54.387482
66.354034 371.24899 33.652515
163.36404 356.24316 23.975864
268.91135 305.42529 24.779055
257.58795 366.33862 25.307194
280.022 271.71124 50.144646
130.47897 276.77942 68.19191
74.899109 284.89636 54.298882
365.33234 307.77341 32.010651
190.1799 338.54315 21.577866
298.8891 304.31744 27.990738
277.84863 386.41333 24.551914
23.900826 386.5177 40.39608
15.9374 280.26428 50.37606
83.311951 274.95206 67.211044
343.97226 328.39011 63.144421
62.87009 275.70953 25.281593
22.500664 286.4682 29.579016
332.25296 348.08136 64.821365
86.647499 304.25717 67.449013
27.641977 388.56915 55.248894
292.28745 370.96674 73.345184
80.077217 340.09967 67.589111
305.10321 365.78442 67.842743
82.790161 380.82306 48.775826
367.4249 275.73962 52.801308
360.3685 322.30603 60.411453
347.77884 385.07727 32.017822
45.463383 359.07486 65.54528
258.86942 346.98978 25.247425
223.24817 299.67178 24.054274
183.45758 271.8389 57.436184
157.293 283.99841 92.879211
212.18997 325.06985 96.585335
340.3815 273.24319 41.542679
66.00856 271.22595 52.950687
173.47861 388.54199 52.141472
182.78369 387.84918 48.090057
224.97946 277.07199 25.885548
133.73265 368.69952 27.118696
285.52222 371.24899 17.957191
180.96712 387.3978 65.632416
122.75153 303.97757 28.283405
99.593948 387.15497 67.008751
261.03464 277.48062 82.119781
279.90625 283.89764 1.2802045
140.43265 372.76794 80.911217
41.941124 346.36584 29.914541
203.75168 306.32196 96.766907
258.54288 369.84299 39.274277
262.58554 382.68048 81.839081
359.93396 367.92758 60.489243
116.77375 388.27725 57.582474
173.39128 382.46457 82.127106
119.66743 274.18411 67.972694
299.99564 295.78741 23.329361
186.92296 273.06494 67.604218
131.5218 316.58679 27.353188
366.60101 370.24759 54.750629
291.11682 326.26422 73.928757
217.03365 388.4577 51.106735
170.83208 292.88275 95.723297
270.45886 286.15289 45.307838
88.72728 290.24899 39.786655
346.2583 355.00104 27.376228
148.83928 275.20227 68.245888
218.72089 372.66357 23.715237
61.09824 330.72104 30.290586
38.36079 271.20758 51.350353
194.51811 371.13354 21.902744
257.23175 365.49408 90.706161
249.29718 298.87585 92.793442
36.573929 301.42889 64.995407
289.54831 289.34506 18.729244
142.89816 383.04199 24.643623
274.07614 337.83185 24.538168
294.95618 375.47406 42.097927
190.08789 292.21252 21.570976
187.25523 341.11694 97.058426
169.35794 296.61618 23.340124
266.21921 340.78311 24.904619
288.09033 344.70459 75.437531
102.25677 277.07199 23.546368
273.25546 283.73727 0.042846948
253.6843 329.8584 25.489265
338.63403 308.50174 63.947639
227.68805 384.05038 30.089977
201.21866 383.11292 78.449646
193.89902 333.81918 21.856382
237.37512 319.18503 25.112211
260.76047 291.12958 25.159225
54.74527 370.92969 37.632614
70.825684 385.34167 7.7642832
96.600433 371.00787 48.254719
87.896255 288.29779 44.130226
144.95215 380.69446 23.028111
219.31673 387.88385 62.614552
121.89682 367.04779 28.374058
80.333511 326.71039 67.708916
297.62622 303.37933 28.395235
351.00867 325.1506 62.026237
281.67218 311.51184 78.637115
137.57391 343.90512 82.383698
349.13971 291.384 62.335167
141.78044 286.80875 81.652397
219.14247 284.97574 23.746807
114.1449 271.20447 52.161613
268.14319 286.27765 85.381546
69.51165 368.14899 28.7502
12.253014 343.39319 38.144749
290.53909 381.17572 34.902973
267.31302 288.866 25.118429
89.315826 276.95847 15.548035
172.24728 315.95145 96.856071
78.199371 376.0257 8.1904869
65.179161 299.08066 66.527092
53.21505 272.03796 59.699265
278.09384 330.54041 24.350779
207.46007 371.81238 22.871937
120.40715 276.77606 27.237949
284.92868 381.43518 40.304646
200.9559 336.44754 22.384855
255.82643 383.50769 35.561695
336.65494 384.01291 64.21862
107.02489 279.41672 67.798767
231.89096 305.44434 24.701513
317.492 384.55542 28.680958
222.17972 279.74936 93.102913
286.75168 342.79663 76.104874
335.26471 285.63351 25.854641
358.23907 302.71011 60.792633
180.49911 286.38901 94.955124
327.96814 298.11331 65.369774
299.93805 372.18414 69.531158
50.955849 384.84363 25.942009
115.63799 313.38724 67.989899
78.315392 383.30679 51.582275
18.300701 365.49503 52.488564
342.0152 297.71667 26.729801
15.050378 345.92303 41.430901
317.04401 315.37326 66.644943
19.939396 321.17584 61.322544
298.74713 316.26309 70.12487
184.27809 350.43765 21.757627
46.120975 294.88461 65.511154
145.77216 282.84183 25.411505
369.87653 283.59079 37.848938
212.9218 281.62982 22.919415
174.9166 294.33878 95.968079
322.99384 366.78226 65.984131
13.306173 322.05356 56.030518
151.82516 383.4263 76.671249
164.95535 275.17828 68.109833
309.09314 324.0155 67.450722
73.54364 273.57162 50.97522
370.78299 332.62357 39.203552
261.11133 370.78214 36.07354
117.9636 341.41443 28.791229
103.45105 379.7131 67.73468
55.481895 331.7323 30.251453
17.499596 361.34161 35.89381
128.99837 288.35522 27.620836
238.84882 387.1105 43.698105
270.62854 387.91537 58.187721
26.402611 379.8324 27.38378
344.17047 388.28198 50.42223
301.42786 273.50845 37.983364
282.73676 272.22491 58.037613
166.92932 318.92694 96.698456
121.4406 384.36331 30.82811
48.01413 335.85645 66.567261
197.57016 300.0285 22.131306
160.82549 331.29877 24.245111
195.92957 337.07764 22.008444
264.60144 274.07748 2.1987793
275.97757 342.18176 81.47599
80.741882 369.86499 40.89695
138.7243 271.48407 53.102951
166.8237 283.42191 23.608917
139.63446 277.87546 76.046967
305.9382 295.98346 23.691181
170.0387 324.10623 23.267921
155.03088 375.30368 91.605385
106.77795 272.05823 59.558762
328.38412 277.22644 65.31839
69.497543 385.92828 8.1109333
237.37465 367.81418 25.112173
43.880379 384.34985 40.551598
365.38934 381.89969 57.093956
227.35408 342.30933 95.730698
271.66638 278.38504 0.16636546
330.2319 388.27698 52.533852
68.231255 276.80267 50.884514
183.42148 284.52228 94.658867
78.240837 331.55353 30.410088
109.91728 345.55557 67.981461
253.98637 330.07471 25.475176
312.22177 349.88019 67.147858
183.82199 286.53284 95.000504
212.9637 275.32678 68.952011
254.92787 274.79788 34.202114
270.15164 383.24896 13.84955
99.893677 337.13721 67.956627
148.50241 289.25735 25.552153
81.694641 283.35608 53.112877
151.67204 329.95596 25.215967
24.914848 379.0235 62.559055
370.29141 332.2334 38.468811
298.39822 317.72394 70.298813
153.7135 277.34021 21.579998
80.582542 280.52826 49.690269
359.12793 363.49347 60.633522
268.83234 302.96664 24.782738
341.41602 359.33344 63.531925
246.43079 383.992 29.475658
188.65126 276.74695 27.540611
43.785 290.24899 37.76223
251.28307 377.13367 19.265949
226.4008 384.22159 72.161499
268.19727 288.76019 85.354599
232.34296 276.31479 74.554909
311.02914 272.54993 62.883327
92.482323 341.06161 67.81591
294.06293 273.49887 19.92935
35.160114 327.75861 27.704157
43.974121 380.99097 65.382889
134.66078 387.38794 65.494171
251.83101 296.95697 92.18782
28.06184 314.26788 27.331404
104.30656 271.64859 55.960136
184.46648 312.88135 21.737646
282.67465 359.31647 24.13715
211.39841 363.72565 95.913643
103.99895 318.76813 30.272383
368.53998 297.26105 41.2169
64.242737 308.48895 30.312496
226.88576 332.89542 24.326683
13.351817 345.89392 55.226948
212.01855 273.21545 42.558311
314.57877 292.55692 66.916489
231.98315 360.62128 94.994186
84.563225 360.54562 30.454166
273.74988 282.73602 0.10794597
74.550476 387.24899 27.580158
24.185869 387.07321 46.702332
55.512657 302.87686 30.251667
114.19183 380.49243 23.168798
27.069107 306.43726 27.392305
158.44186 287.34604 93.817719
101.64022 286.4707 36.446445
288.94763 370.84586 20.152731
344.8541 273.80411 38.379353
206.38013 346.871 96.78727
49.156197 369.86499 44.32605
85.968727 370.80417 38.867043
54.249054 304.99969 66.186005
87.358757 295.48969 30.473656
204.63095 271.83795 56.297531
286.28333 364.63696 23.968859
326.34933 360.00146 65.56971
207.5396 352.22409 96.700371
224.61203 344.01053 24.15641
108.47285 273.15302 40.060707
216.50041 387.94748 62.196098
151.37636 333.07416 92.217407
71.68502 320.36072 67.364273
355.10648 385.4577 34.239849
200.46552 271.92944 57.642693
74.099663 290.24899 34.777542
145.35876 361.73581 86.997673
353.78931 275.38367 30.26199
276.02319 302.33609 81.45327
134.97647 281.00601 74.238144
238.76683 313.92191 94.625534
194.39182 272.06534 59.732513
19.344858 311.21313 34.522026
268.47006 300.0928 85.218651
185.51912 387.59204 64.529892
269.18347 310.83292 24.766361
259.69727 370.74963 10.467436
246.45706 357.60504 93.429321
170.70796 291.40164 23.196936
142.36092 273.59821 67.993027
343.1864 305.5965 24.727566
168.71461 310.86536 96.749588
321.50607 386.34436 66.15345
214.86063 357.56805 96.234802
269.3826 288.866 13.073484
163.795 362.5834 23.930157
75.271652 381.02985 52.532677
317.12772 386.34531 37.363911
327.49976 275.16507 30.830666
313.18677 307.24774 24.146196
217.259 302.44983 96.128822
221.19957 384.08762 30.229012
286.84729 349.20871 23.942547
280.73709 376.08078 1.6243397
232.36513 351.18793 24.73702
336.99371 323.56403 26.060814
191.9827 385.58423 68.021004
251.46651 303.28735 25.592707
335.11758 302.10257 22.563362
58.726875 381.45325 46.393898
202.69617 294.57037 95.923943
240.7157 353.5174 25.362377
15.789862 353.91537 56.110626
187.85225 375.51422 21.403553
16.573935 361.43372 36.654198
36.877308 282.22137 64.935478
172.33064 278.13562 84.879768
181.82825 274.08594 37.910564
45.328381 323.22211 30.180702
180.83136 388.30927 50.724789
367.25125 281.12628 53.257988
68.058601 273.70047 32.75016
148.27457 297.35565 25.576319
342.96622 292.73294 26.867321
144.61026 348.12915 87.39682
145.46945 275.63052 31.708221
222.66104 350.30341 24.010303
242.49025 385.4982 35.515808
79.616531 300.28857 30.419678
244.66391 334.79947 25.658051
273.55905 384.60413 12.496164
219.60202 271.94763 58.15332
260.44791 371.24902 21.602364
131.66431 279.77057 70.982491
268.20914 348.14243 85.348686
250.88057 385.54474 70.596001
59.764404 271.72723 56.803413
301.25568 304.32281 27.986626
50.825092 274.73389 31.210869
216.02055 344.24347 23.513014
249.95407 354.02493 92.7864
289.62689 379.89825 7.924891
46.190022 307.22574 30.186707
72.996887 290.24899 46.113617
236.89876 350.21857 94.825523
291.54913 349.61371 73.713226
186.59589 387.17435 66.899643
245.86371 345.9726 25.747902
275.49298 366.64899 20.915953
145.49103 387.11856 44.095573
309.48444 336.65704 67.412842
151.46507 373.79395 89.076294
286.84372 309.78595 23.942677
150.92255 330.31396 91.894081
294.03345 371.63861 23.235449
279.62158 370.50186 79.659378
77.190834 369.56329 30.402765
318.23816 350.7312 24.463377
85.142975 271.09109 52.377277
76.826324 376.25284 7.9995875
358.47449 305.60974 26.142563
52.580971 366.21259 30.231239
90.555809 273.1423 40.376846
82.034241 387.46533 41.109917
130.96992 362.84454 76.444534
121.54231 271.79916 50.087246
128.43579 383.04199 22.291943
88.825264 373.10004 43.737026
56.361729 290.24899 49.97049
255.8168 272.21997 59.006817
198.48923 272.67676 45.613796
189.53107 386.0675 38.083946
311.06204 275.57175 28.464966
225.44547 357.47183 24.218824
257.45364 383.4725 42.907516
15.834699 334.62006 30.554695
118.48548 277.3443 67.985245
176.42126 271.58286 52.042969
156.02756 286.03729 92.653107
247.99927 342.521 25.754429
98.366257 388.04379 44.160053
270.79916 369.84692 29.752598
212.39105 276.67133 76.573593
19.794369 325.65543 61.677979
51.711502 290.24896 33.705307
252.84686 379.38208 40.757717
341.73138 366.54187 63.484116
240.47638 387.42953 65.180298
277.14716 299.68866 80.892929
17.056627 385.65247 43.190239
274.2417 373.24237 43.73941
364.53107 320.12024 32.569649
115.29263 276.6655 27.578217
81.16333 271.63651 55.932076
276.17731 388.31696 49.107063
57.507519 338.45798 30.265566
276.02951 290.39096 18.436529
96.018692 326.03848 67.954399
314.10321 274.62961 66.965729
288.96909 370.9498 10.675924
37.531029 272.52582 43.747017
172.69435 339.77234 96.86734
188.15929 279.50244 92.402779
332.6777 371.65656 25.572979
63.494843 331.77319 30.307289
202.06125 286.93069 94.966362
178.7318 387.28195 44.926315
297.76434 324.79684 70.614822
210.69809 346.52869 23.114426
208.00934 305.85028 22.913071
185.92059 272.1843 61.945347
259.38986 276.16864 74.017616
333.87219 387.18887 43.111675
88.334137 350.48096 67.59124
289.36322 276.0592 43.128036
304.17484 353.51794 67.938126
188.61932 383.28943 77.449738
284.55753 290.2652 32.599842
285.25925 290.272 42.42408
290.02325 274.01129 42.772144
18.344212 379.43094 42.278252
57.678192 358.60245 30.266756
19.763029 277.51831 30.275547
210.70929 332.80457 96.64399
17.534805 340.67236 31.114349
292.15253 376.43658 11.396596
86.012146 348.67599 67.559502
150.54669 275.96912 30.44433
105.68486 384.60345 31.132587
34.252048 286.84705 27.63415
367.92892 310.53809 51.378971
184.70265 295.79565 21.712599
269.11325 362.90613 84.89801
169.04767 281.93903 23.373032
105.13056 281.94394 67.76664
269.0975 384.689 31.731024
292.08594 379.04791 73.445587
223.72224 347.547 95.999123
55.622871 284.7807 43.324955
254.21692 275.44684 33.432915
16.578579 338.93604 58.782227
296.26343 331.5813 71.363052
184.23567 375.99564 21.762127
284.32196 307.1814 24.060287
272.20401 290.26132 38.088318
315.96948 364.37054 66.763306
90.568314 387.70325 25.044693
34.861343 374.85883 64.798279
224.00235 346.99579 95.979515
66.553566 371.24899 24.781967
365.53912 374.98129 56.823429
62.19931 275.56912 51.216408
227.18231 324.10889 95.744179
88.45533 271.37009 53.563385
305.3801 357.23807 67.814293
275.29453 378.8103 0.31130487
274.60614 290.2533 45.230705
298.30548 322.43597 70.345055
158.03027 351.90924 95.452515
18.922955 382.08899 58.158531
168.48792 271.73654 51.276871
253.37062 309.99084 91.933655
275.9939 334.02301 24.448725
29.858349 369.92993 27.08028
70.892494 288.87418 34.131172
76.555313 386.44525 50.39016
355.48575 359.32559 61.2855
73.36734 299.05688 30.376106
66.670341 326.46762 67.345726
246.81256 382.82562 26.182867
366.74207 372.82449 54.446251
243.32497 297.73895 25.557777
264.92908 371.24899 16.345356
264.97214 295.11877 86.962547
125.39088 300.15207 72.953491
120.48263 292.70844 67.99353
217.16336 369.87213 95.072418
188.58003 271.91 50.027119
239.51575 323.34869 25.272518
314.31287 275.95987 26.640465
52.581348 335.56223 66.787804
368.11414 322.50958 50.781883
51.122986 369.86499 32.229424
307.58246 387.85211 57.577118
281.21539 370.87048 35.728821
178.51926 271.58542 54.163113
366.57507 358.82269 54.80658
37.379162 381.74646 64.967117
201.33282 271.79404 50.565899
70.254532 291.966 32.254532
315.08676 372.5307 24.265549
365.66992 278.03235 56.587215
61.343231 338.82852 30.292294
45.582451 374.5058 47.651749
79.011063 284.23535 53.737061
88.112976 340.80569 30.478916
290.79456 290.26917 27.321209
367.26001 358.95731 47.852428
169.2442 311.17603 23.35219
260.27118 276.90601 78.571213
321.94962 275.02762 31.392576
180.06406 369.94189 22.204586
42.840588 287.84729 31.0023
334.6738 386.7023 40.198521
367.26001 290.08124 42.625572
227.32661 271.88348 57.479805
299.41571 271.87354 48.785591
217.91797 350.26413 23.655106
15.3347 338.00027 36.039478
90.198631 298.28168 30.493458
165.59021 313.64264 96.645927
52.655655 333.08493 30.23176
72.132027 373.7041 66.803963
152.09685 321.01019 92.730743
298.41766 315.64142 70.289108
200.98044 350.30099 22.386692
259.56964 288.866 20.852945
343.52237 337.38644 63.212616
172.8053 285.258 22.974483
90.996063 346.15051 67.729103
103.17567 306.38635 30.359705
272.80151 383.37744 77.574966
64.130173 289.19855 16.091043
64.478325 287.17227 54.911816
76.697449 273.31223 50.178841
143.31839 296.81442 26.101994
145.03049 326.46683 87.696213
229.17937 273.59616 40.398323
372.13 327.73483 42.552521
24.991158 329.36761 65.300858
204.61467 305.60376 22.658852
322.52567 300.78583 66.041145
88.439636 290.24899 50.935825
15.3347 324.41718 26.63813
47.78994 375.53116 49.418301
229.51801 306.03555 95.475937
312.75824 387.73328 58.599403
91.335167 284.84085 40.688225
50.754238 323.81754 30.21851
31.237492 375.84601 64.54763
283.39987 317.45862 77.775818
326.39307 319.51855 65.564301
291.1991 355.84186 23.739601
130.14964 357.06448 76.670349
51.82608 349.13907 66.274796
125.36024 371.1813 70.318237
279.40903 276.43979 26.303503
166.18616 292.42993 95.549736
292.1069 284.31284 32.730068
327.6806 320.26114 65.405281
206.12405 280.43665 22.519869
316.54062 299.58447 24.356766
352.96786 388.01852 55.303482
139.94351 368.42999 81.748611
19.403732 288.70612 58.565331
63.398285 376.96747 9.5727787
260.91266 370.93756 37.435085
138.22324 283.47498 25.852467
266.27145 361.83765 24.902182
139.63965 372.87338 26.492178
109.74272 343.67325 67.989265
295.71301 272.71332 64.954636
328.39459 302.85016 65.317101
198.92029 387.08109 43.591579
53.646259 290.24899 50.021629
192.29327 304.84433 96.889618
255.88104 353.78754 25.386806
91.669235 372.79831 39.528786
192.44106 295.44403 21.7472
264.14453 371.24899 21.292906
18.23173 351.02951 58.694
205.13031 332.94272 22.697466
203.91325 383.07544 78.662186
251.12643 291.12894 92.168121
43.382248 381.34967 33.099621
220.46127 277.52087 81.393219
91.54966 289.21545 26.200998
278.02686 281.3407 43.345482
152.06308 343.93265 92.706665
236.81018 317.75281 25.069902
268.02435 312.51639 24.820423
363.50586 333.93567 32.193096
148.08148 275.36206 32.710415
229.08969 386.61127 69.369003
57.989594 299.85492 30.268929
65.232239 387.68945 50.534576
165.42789 381.57187 87.189774
198.16269 299.6239 96.507469
15.8347 334.35132 34.436737
59.64743 387.24899 35.480015
141.9456 376.65387 25.842102
58.832745 280.33417 46.475136
255.45433 288.27148 34.061417
58.082199 378.83844 45.899231
91.096375 332.2973 30.499714
339.82007 299.84692 26.377747
51.588169 387.87283 62.197075
360.479 279.26068 29.90233
320.48358 387.2348 42.654572
315.04437 387.82184 57.630455
229.63223 383.50793 28.06592
72.632027 371.05042 49.672359
257.11722 374.47635 37.243607
52.095421 273.1748 23.655071
350.07764 297.24225 62.18013
303.67853 376.85037 67.989113
250.6436 335.67911 92.650146
251.38812 376.05954 25.54847
189.12892 271.83484 50.445892
50.913822 377.22546 32.887543
154.80746 277.07199 25.583027
267.36441 303.82962 24.851204
305.97614 342.96204 23.6936
366.80084 351.90851 33.332191
198.68398 380.25528 93.416199
19.171329 342.71802 35.051884
322.54108 272.30673 57.514248
369.26489 381.24088 36.429642
360.17798 335.42493 60.445557
55.011368 292.74213 66.007523
172.42136 352.00983 23.015203
201.61557 383.84262 29.314768
121.00851 387.83447 61.467262
309.89197 387.55591 60.482384
189.3143 384.10541 30.295279
19.910446 287.8179 58.991634
154.17055 382.12341 84.06134
367.91449 365.17188 41.2169
66.720398 387.81955 62.264065
115.29604 321.57419 67.999847
206.64189 349.29257 96.771629
247.75691 382.10156 29.688953
149.03958 361.00934 89.766205
158.70247 368.77509 94.430252
265.01776 387.72787 60.265453
63.568138 290.24899 42.563835
60.240372 297.92453 66.273209
101.73424 380.38052 23.246717
240.49203 387.24454 66.500809
289.1633 272.40573 43.393753
357.31442 300.07486 26.928581
150.36238 276.78278 77.208374
286.40936 339.01068 23.962967
74.523064 288.866 23.530453
106.54566 388.00995 59.970001
308.06049 386.39908 67.55069
154.29123 385.75894 36.692127
217.46452 321.97522 96.362091
142.63657 315.81287 85.990639
284.4856 371.24896 15.115066
77.819016 372.40277 8.4866648
361.82404 305.11768 23.754156
48.944794 335.7692 66.610771
164.86284 296.34396 95.876717
137.0148 306.8042 81.837082
224.58826 385.39764 69.282463
44.69006 386.52954 65.428032
283.85089 358.49997 77.550964
46.830078 283.27234 48.203159
15.9374 278.88895 53.0672
290.97745 277.46078 34.331776
84.383911 279.7728 51.572849
118.11862 339.92242 68.522507
238.56802 280.02094 22.380678
220.28613 278.89429 89.183037
363.76804 376.3161 59.600735
22.907921 276.11359 61.249359
57.926022 271.86609 58.032143
232.16776 272.68152 45.480896
247.10205 374.12149 27.074986
294.24445 280.125 27.275518
268.82983 278.76974 0.53980869
170.18729 369.69342 23.252159
228.67809 373.81906 24.460907
24.810558 323.34027 26.603653
221.614 284.18915 94.066177
354.47318 333.34741 28.858244
325.39191 291.88162 65.687943
292.34186 387.3476 65.557243
240.50984 307.07318 94.379974
285.78528 371.24899 16.263386
187.13788 383.36154 27.519594
257.18814 301.30371 25.325842
227.82654 277.07199 25.432083
101.62849 286.33636 36.32127
93.938385 278.49127 33.514572
292.1254 377.28409 11.331133
76.930099 335.91748 67.580406
146.67821 343.57013 25.745636
357.94516 370.58298 60.845242
55.033371 314.12372 66.54879
40.871361 383.50391 65.187279
100.67368 353.59131 30.566488
251.75586 287.68777 25.709562
36.323479 384.60547 29.033752
63.624706 288.866 23.031582
48.171646 321.51318 66.479401
217.77618 282.46356 23.198601
288.11679 275.53137 43.254559
14.847412 358.46097 54.542362
79.755508 382.73544 51.58712
74.149582 374.69519 51.220737
110.65663 319.05469 29.56624
81.003273 290.24899 36.877449
65.391685 371.24899 27.887892
83.617775 274.01138 49.980358
324.11432 287.80658 65.845741
185.47183 388.37402 55.814056
354.09937 271.8548 48.565823
127.37556 318.69482 75.117737
155.34955 299.22327 93.962799
92.364807 278.69635 67.480446
352.55136 274.51392 34.907173
87.442047 387.33374 43.631844
67.408554 309.54871 66.936035
228.76395 278.401 86.385635
252.31187 373.47235 14.925652
64.241158 309.06113 30.312489
263.88147 388.02063 57.355556
135.79054 377.89743 24.97604
369.02008 323.35056 46.091454
16.584358 366.59503 52.944202
145.98938 288.68787 25.818695
133.04575 331.5498 27.191553
144.73341 385.63281 36.123112
271.92953 358.68756 24.638283
60.074123 285.40948 53.882172
223.92174 383.91412 73.90596
215.79858 381.81439 21.804296
177.11479 299.01114 96.448181
77.74263 276.07819 8.1202211
116.15236 330.13931 67.991852
98.15715 271.86859 45.196388
46.78698 290.25787 65.549072
75.667526 372.3136 8.2416048
79.90213 278.64459 67.098
367.34836 273.5159 40.854263
82.464371 388.51312 49.453972
62.39875 389.45929 50.097874
331.14777 300.09686 25.41869
308.16171 371.06897 67.540886
243.01437 323.91003 94.102608
54.325722 318.96411 66.682312
214.86749 385.08417 68.036011
90.175079 290.24899 39.043388
222.07745 383.68134 28.71291
276.98529 383.95398 44.211926
277.09418 356.77982 80.919334
299.37848 388.00458 46.788658
50.531044 369.86499 42.483322
63.875889 311.79962 30.30994
265.2915 388.27142 54.781601
31.132145 340.56958 65.485649
259.94183 274.56418 43.173824
272.54688 275.31146 12.491716
49.368378 288.52832 51.608624
155.37752 382.44495 82.237503
286.58682 370.82657 30.943615
340.15048 378.22809 63.723763
301.095 328.86752 23.387167
45.270988 315.80762 30.180302
190.0878 387.15973 66.982613
289.41736 277.97626 7.6518269
202.48569 272.50064 46.611664
202.89368 384.20361 72.265778
269.45743 271.84653 48.666561
72.271927 283.30569 51.416466
15.016945 354.86331 41.430901
75.325844 295.5769 30.389763
109.96938 388.32938 47.89526
62.495361 277.26654 48.921112
156.27744 275.99307 72.730125
130.9444 327.30649 27.414434
119.25546 387.49841 64.432144
147.18896 347.15912 89.234055
233.66656 336.96936 95.169769
368.59814 322.64502 35.937393
103.34338 339.3562 67.973442
293.77872 299.79877 26.259953
174.8493 355.66446 96.750763
262.34732 308.5127 25.085209
103.66841 332.89392 68.025291
36.106483 271.61591 49.142273
178.4986 280.86508 93.939713
360.76102 360.16794 60.341194
162.60098 320.67865 24.056797
284.44754 387.2688 64.89949
17.914351 294.87613 35.515072
46.228977 369.86499 37.583595
280.94302 302.49628 79.000618
196.11516 388.28787 50.435894
228.89641 383.85516 74.239441
352.53754 336.92273 28.479172
176.64461 301.974 96.649307
151.34738 345.96268 92.19677
78.147575 290.24899 53.481636
20.40341 289.34229 59.386368
41.80505 334.99811 29.870186
89.003159 283.86685 51.507736
104.13457 340.3678 67.977615
20.430647 333.46948 62.210106
303.81458 272.63339 61.495277
133.20889 351.15448 79.229919
89.359764 366.55441 67.398911
169.73206 324.15109 23.300446
211.62743 348.56113 23.184023
165.14279 354.98029 96.473564
337.56689 382.18149 26.129158
211.74205 289.1084 95.076523
210.75607 334.82767 23.118767
14.9347 369.90631 38.279213
245.14723 380.82623 91.755173
14.9347 360.45572 40.76313
217.06395 318.46796 96.382362
21.909069 386.21182 38.661011
258.1637 371.06714 19.723379
270.18842 387.60172 6.4587097
231.34082 295.07571 94.760788
160.42561 388.1803 59.158844
252.22987 381.07687 29.051613
251.93036 387.97693 58.351616
172.92 371.93436 22.962317
112.01733 378.07367 24.85331
141.61856 307.81866 26.282284
299.96582 330.20233 23.330746
125.18443 282.12094 24.909462
51.173851 384.81885 24.260635
176.49947 382.58807 81.426971
49.024597 321.58258 30.206457
31.547537 388.71188 53.717316
157.47588 334.561 24.600386
102.23524 283.07907 25.57674
269.33087 282.56583 0.47384715
332.92358 271.80078 51.195274
210.45247 372.92786 94.839745
17.460737 302.63406 49.665253
364.46637 325.54257 32.542484
111.17487 344.13416 67.989731
39.007908 274.79587 32.017529
299.48239 304.31247 27.99456
20.246355 308.0387 33.225498
34.210682 336.95447 27.39467
279.52054 387.51257 40.716354
168.35379 383.5119 76.18631
41.087292 355.83777 65.41671
77.933235 289.34143 46.913712
87.966484 296.54825 67.361099
271.87317 387.13437 66.871674
76.10302 292.82715 30.395182
206.47333 293.73624 95.77536
267.62793 346.38351 24.838913
209.55853 387.01276 43.204079
250.34787 302.07288 92.63829
65.456253 388.98541 52.54097
64.48774 274.86993 66.473091
311.18701 304.68402 67.248032
80.735794 371.24896 25.302982
366.72827 326.97528 28.879486
232.78079 326.00073 24.76815
164.67552 309.65903 23.836765
98.843193 369.86499 42.257034
204.66422 278.04636 84.373215
208.1656 344.68808 96.729431
368.79749 285.78619 41.216896
30.714981 323.94156 65.655487
165.10626 292.33301 23.791077
165.14842 342.16391 96.607964
137.67525 321.13617 26.700529
364.90094 387.8345 46.586388
73.957779 387.54663 9.8283577
295.42755 370.95673 71.779755
228.45143 384.13348 72.66198
289.35977 290.272 35.802242
88.215988 289.09091 17.148558
245.11786 382.07971 84.804977
16.701311 296.17017 43.894325
199.64229 350.53568 96.930573
262.93338 289.08478 39.514824
201.01833 272.49265 46.657112
49.670662 385.54251 47.467567
103.16424 352.24094 30.360916
74.168655 382.46033 7.6496954
127.9398 376.017 26.285645
45.555664 387.8074 63.216469
49.85273 352.55948 30.212229
248.76808 281.52722 32.488251
274.6048 380.97955 44.583012
194.69687 277.95486 83.854973
256.55072 380.6893 90.761826
257.33463 311.88583 25.31901
77.738586 369.86499 47.211617
290.88141 272.65945 62.135349
170.38531 278.14505 84.933411
282.98035 288.14999 45.204891
209.73705 346.77887 96.678513
250.38857 331.50879 25.642984
205.62555 386.39841 39.719875
82.939049 384.78955 28.883228
105.12468 367.61874 67.766525
254.27002 280.34937 10.482835
224.58217 388.13214 59.224136
266.25464 276.33624 75.073273
101.97263 389.11853 51.750942
296.92371 387.05338 67.577171
110.53622 285.53186 27.284943
207.69737 362.01727 96.163353
284.38492 346.30743 77.28476
251.09042 364.43164 92.327484
279.55841 341.23004 79.690865
152.34015 365.14417 25.145107
17.531477 348.55191 41.44828
277.06165 384.45087 70.962204
237.1665 277.8009 82.979721
354.91031 312.98383 61.381294
367.27972 368.65518 33.966171
294.2713 369.84299 34.178986
367.36356 359.34985 52.96344
190.73405 358.87967 96.698738
257.07242 308.95441 90.787857
102.58317 318.60013 30.422546
147.66978 374.38278 85.931229
200.87335 319.96683 96.926147
209.24945 293.05984 95.641838
43.725105 369.86499 31.78894
190.88876 355.14429 96.899986
13.20149 342.65131 37.787102
164.91168 275.51038 32.15675
139.74951 366.04303 82.195755
23.438271 318.03052 29.417685
118.58313 319.34152 28.725521
65.780304 289.18286 43.520138
99.810211 352.23761 67.810356
61.6007 277.24405 10.317384
20.183226 314.63745 33.758629
369.95401 328.78763 29.113705
299.2879 369.84299 31.912458
155.40224 277.54575 81.534859
301.04175 278.86322 27.827667
75.481827 339.86783 30.39085
237.52136 388.4122 54.778507
63.512627 274.99966 9.6084967
129.51865 362.71558 27.565653
47.65955 355.17078 65.830246
155.46745 335.84766 94.533279
140.87711 330.77222 84.737091
79.024147 295.39914 30.415548
256.78476 272.79004 64.641579
230.76135 339.3588 24.616917
367.60095 367.94354 48.4478
98.867813 322.57068 67.945023
207.76758 347.04706 96.742325
283.40182 275.99667 73.049339
38.766987 388.21756 58.562317
150.18912 316.16479 91.371544
333.18686 358.13361 25.6273
69.277023 343.56451 30.347586
185.29683 276.04123 73.003387
117.28705 278.37994 22.304096
254.2397 340.98505 91.687347
283.52985 386.41888 43.559544
33.471188 288.10715 64.702118
252.86639 278.78375 89.846085
336.77087 271.95105 53.4534
367.79639 272.74957 51.770878
20.497192 274.27094 36.571609
289.81653 370.77866 22.369835
340.98383 388.00769 54.882614
201.82378 301.31067 96.565674
255.38823 374.0473 43.022743
304.85101 350.82693 67.868652
369.85165 359.33151 37.811783
136.63118 318.67947 26.811268
286.71255 388.02011 46.239231
115.57725 332.8735 29.044338
145.38931 313.35962 25.882343
286.34256 282.72485 76.308823
200.47314 289.66159 95.335251
101.26598 381.92914 32.944138
176.81625 284.58835 94.617821
210.7361 383.20728 77.915176
65.616486 290.24899 54.91032
21.995472 345.62408 31.04097
27.518143 273.59561 40.4011
221.78763 382.47552 82.063492
268.04672 288.866 18.095522
67.029854 281.784 66.586769
52.602318 383.16708 38.493698
246.40033 360.62567 25.788088
267.51959 356.05688 85.692322
249.14912 369.93036 32.915535
215.18488 383.04199 23.700109
188.59271 275.79459 31.095688
346.29099 312.71051 27.381367
75.757713 290.24899 31.118576
341.97449 376.39105 63.447266
277.36157 372.72772 0.82360053
92.158356 289.07263 67.474838
15.3347 320.07016 31.138971
67.817307 288.866 24.551094
13.380043 349.00711 54.44812
252.38956 279.09995 91.237198
336.79291 373.02383 64.19973
98.913055 388.95752 52.659645
207.35359 276.20908 29.548506
277.32568 380.75479 80.80394
40.668358 348.76138 29.49966
306.52576 279.9921 67.699257
275.26691 304.70715 81.830276
244.45055 388.49594 53.728462
195.64935 387.86853 48.057732
321.51483 290.69427 66.152489
185.26376 336.94971 97.051224
102.11665 292.58368 67.70652
334.83459 272.28406 60.940319
166.29335 360.60211 23.665167
225.71887 306.94525 95.79689
157.87042 358.88116 24.55854
260.10062 304.57239 25.189999
254.24561 377.77158 33.501812
133.50949 283.78244 74.424225
279.63818 319.38708 24.278748
45.013386 300.18585 30.178511
271.34705 290.272 25.020355
182.87811 272.80701 45.017628
268.19354 371.24899 23.43865
21.734846 283.75055 60.412338
54.40881 290.89731 30.243977
251.16524 283.71719 20.160814
271.08719 275.97351 72.848274
17.304638 280.2431 53.115829
240.88902 298.03879 25.375359
64.093857 378.92584 9.2846546
367.45853 338.38864 34.518459
79.648056 313.6264 30.419899
154.31241 350.69138 93.972412
59.407692 369.86499 32.505291
106.41202 336.41806 30.016443
180.34229 279.03015 22.175076
139.85493 388.45343 56.256927
107.02946 384.06714 67.795784
13.77171 320.72217 56.276703
266.67624 382.6615 81.970718
294.05646 282.61438 15.994433
177.42416 294.77405 22.484585
229.44919 386.62439 41.001316
27.44136 316.12994 65.081543
13.367055 325.71088 41.415482
203.47224 369.72314 22.573298
188.91281 366.92484 21.482975
251.11743 338.6629 25.60899
74.004753 271.86603 28.52903
71.487206 376.26434 7.5547652
291.38705 272.16617 45.821091
327.52185 385.54535 33.793217
290.44437 314.63019 23.774752
17.061253 274.07462 43.734215
237.77946 272.85083 44.557053
243.22099 385.36002 70.651878
115.05952 338.96289 68.002052
27.099674 271.94345 59.543499
329.36246 290.00436 25.250818
308.39398 385.90613 34.851067
282.36835 371.24899 11.6014
259.73526 371.97253 89.573181
273.3584 321.12842 82.781708
175.05835 333.82611 22.735512
