# .PCD v0.7 - Point Cloud Data file format
VERSION 0.7
FIELDS x y z
SIZE 4 4 4
TYPE F F F
COUNT 1 1 1
WIDTH 1539
HEIGHT 1
VIEWPOINT 0 0 0 1 0 0 0
POINTS 1539
DATA ascii
-5.2313223 5.5094852 0.4125258
-3.3530879 5.5578918 0.41230112
-3.4865832 5.7174015 0.41197306
-3.9969449 5.7235508 0.41240105
-3.3604393 5.7903376 0.41179547
-4.0621314 5.858367 0.41574961
-3.4165154 5.9909663 0.41145971
-2.738121 6.0673885 0.41129997
-3.1058145 6.1308284 0.41109985
-5.2810149 6.1720877 0.41125673
-3.9851058 6.1792717 0.41163594
-5.9944663 6.1931105 0.41104066
-3.4426165 6.2116437 0.4111166
-5.6463985 6.3647175 0.41066512
-3.5476613 6.361361 0.41095877
-3.5667756 6.390368 0.41092715
-4.0035429 6.6222663 0.41091797
-5.65979 6.6339202 0.4101302
-4.0326757 6.8982592 0.4104858
-3.6389084 6.9104156 0.41012758
-3.9001737 6.9687891 0.41025519
-6.1976953 8.2054424 0.41169801
-5.0325041 10.645 0.41369271
-3.0954483 0.90688843 0.42344806
-5.0632229 1.4720976 0.42584673
-6.2337728 2.1705151 0.42772421
-2.0145149 6.8301563 0.42224646
-5.0270271 0.22507654 0.43237862
-4.903511 0.48277873 0.43264788
-2.2221367 0.9292208 0.43153298
-3.2733872 0.95393413 0.43784031
-6.7810087 1.5076547 0.43475094
-4.636251 4.9865656 0.43585476
-6.2417078 8.9156895 0.43331861
-3.434962 10.567541 0.43849045
-3.474391 10.645 0.4381128
-5.4700675 10.945478 0.43221045
-1.9857948 3.377764 0.44772059
-2.5554433 7.9057274 0.44441104
-2.4844141 9.7848215 0.44385156
-2.0791175 0.90549242 0.4501465
-2.4550276 2.576931 0.45401874
-2.0216949 2.7635629 0.45161432
-2.0101554 4.4266558 0.45647547
-1.9959966 6.0673132 0.45733231
-2.8863878 0.55254048 0.46073258
-6.3052897 1.4825023 0.46073678
-4.1706171 1.9295998 0.46359643
-1.987246 3.3971756 0.46196723
-3.6080797 4.5320606 0.46889925
-2.6088614 4.8557034 0.46880627
-4.8524227 6.0470638 0.46562403
-1.9994471 6.4604678 0.4698883
-2.2308705 7.6130595 0.46468735
-6.3202291 0.55999798 0.47000593
-4.6834698 1.0116998 0.47355938
-2.2187412 1.0613192 0.47490013
-5.1328101 1.7493539 0.47990406
-5.8753514 9.9932003 0.47813565
-2.4790897 10.291663 0.4777022
-4.644804 10.645 0.47227567
-5.4169364 10.898005 0.47777832
-6.2162571 7.8908501 0.48906213
-3.9705517 0.060773086 0.49350139
-5.7111402 0.46505341 0.4958365
-6.1520877 4.6315231 0.49379623
-2.0200095 8.9485655 0.49736136
-5.870862 9.1127911 0.49064901
-4.0261688 0.41825205 0.50037926
-6.7054482 1.0628641 0.50591177
-3.5423627 1.0798948 0.50785601
-5.1762733 1.2270591 0.50785601
-5.2801595 1.2624891 0.50785601
-5.0642872 1.4584209 0.50785601
-3.3470268 1.4862481 0.50785601
-5.4798727 1.5438186 0.50785601
-3.4999712 1.599081 0.50785601
-3.5519319 1.6267382 0.50785601
-3.2837105 1.7704173 0.50785601
-3.0582845 1.9024695 0.50991631
-5.0530052 1.9110985 0.50260556
-5.2278399 4.5607567 0.50121558
-6.126256 5.8139153 0.50254464
-2.3451858 8.9570274 0.50981718
-4.1696901 0.40134293 0.51135635
-5.3559475 0.57683313 0.51037455
-6.8499455 2.2705705 0.51675999
-6.7201276 5.1113052 0.51880836
-6.164465 5.1317101 0.51317668
-6.1621003 5.1665936 0.51180041
-4.073782 5.5319271 0.51862818
-4.7209516 7.8075366 0.51134622
-3.4541409 10.966608 0.51051557
-6.5732503 7.7961555 0.52996773
-6.8489304 8.7849054 0.52048159
-4.4768424 11.04565 0.52941638
-5.4332438 0.60571212 0.53798139
-2.7720711 2.0331724 0.53133982
-6.3806415 2.2864985 0.53937805
-2.4526093 2.6238782 0.53500247
-6.7345171 5.7727165 0.53551382
-4.0688066 5.8203444 0.53971016
-4.0628414 6.1023912 0.53716975
-6.383194 7.7943401 0.53515542
-5.608695 0.89120543 0.54945475
-6.7382092 3.3681321 0.54991561
-4.8187184 4.5139427 0.54724848
-3.2019649 10.316977 0.54887718
-3.3007245 0.88305283 0.55028713
-5.8997364 1.1539428 0.55597317
-1.9894583 5.2657914 0.55888724
-2.5616236 6.4799228 0.55512023
-6.0557747 7.6161318 0.55671388
-6.6407642 9.0183163 0.55897057
-3.4480271 10.544378 0.5534659
-6.2905946 1.375885 0.56650734
-6.5706596 2.0942054 0.56059122
-2.0311241 6.8841581 0.56464982
-2.6307046 8.2002258 0.56796849
-3.0826402 10.283878 0.56858778
-3.0182123 10.597952 0.56119192
-4.76197 11.024839 0.56078529
-4.3532743 0.34557918 0.5751915
-3.0728092 0.34667757 0.57493043
-5.9543095 2.2880595 0.57531607
-2.6263421 4.8882589 0.57023197
-6.7369223 5.550138 0.57065493
-6.0153742 7.4897933 0.57323956
-3.8966694 7.9515781 0.57283014
-5.8708386 8.9788237 0.57252204
-2.2226286 9.4895411 0.57850242
-2.848479 9.8430882 0.57193756
-5.623085 0.2597582 0.58046985
-2.7922125 1.4899772 0.58430076
-5.2278399 4.7106724 0.58152401
-6.7348061 5.2819228 0.58435208
-2.5419612 6.3021464 0.58060122
-2.5797877 8.2275715 0.58846468
-1.9428155 8.9670143 0.58935237
-3.2118895 10.403696 0.5876925
-3.162395 0.46813446 0.59346366
-4.6656637 6.6892967 0.59274769
-2.0539165 7.2725034 0.59879857
-2.514575 9.0279341 0.59934241
-5.2766128 0.091341957 0.60886753
-3.848655 0.35101205 0.60635298
-3.2792296 0.40228865 0.60446125
-1.9073815 1.8583878 0.60679591
-5.209074 4.5010157 0.60314846
-2.9511263 5.2150192 0.60156047
-2.4683056 6.8574829 0.60219872
-2.5713232 9.1046343 0.60053158
-3.5147741 0.17299566 0.61265576
-6.687788 0.7888391 0.61599791
-2.7803104 1.7587402 0.61862344
-2.7622726 2.3962014 0.61672282
-6.4413614 2.8100522 0.61017036
-1.9748755 3.2292142 0.61445642
-3.2253442 5.6052313 0.61355519
-2.5388601 5.7962742 0.61090505
-2.4835484 9.5167198 0.61843318
-5.8317642 10.106426 0.61093861
-4.662982 0.079287052 0.6233685
-4.0249567 0.24832582 0.62530386
-5.1604548 4.4963808 0.62319016
-2.0525732 6.7878423 0.62495977
-2.21821 8.2842464 0.62491709
-2.7837627 9.5918713 0.62120581
-4.2407064 11.050258 0.62932909
-5.7570143 0.95478404 0.63819557
-6.4649391 2.3606989 0.63165933
-6.6848922 5.5216494 0.63711864
-1.9482512 8.6221266 0.63252664
-4.4468098 11.035133 0.63023204
-5.5943437 0.30987152 0.64018774
-2.20031 1.417451 0.64708489
-5.9546452 2.3130798 0.64320731
-6.1540866 4.6540141 0.64136124
-6.6772809 5.6917777 0.64789808
-2.0544944 6.5699167 0.64549017
-2.6230352 8.2198706 0.64052016
-2.5207133 9.0458527 0.64760333
-2.4997113 9.5486736 0.64800054
-2.746043 10.2062 0.64661992
-6.2790728 0.39628607 0.65460777
-2.6398549 0.78032291 0.65698135
-3.7930164 5.2635007 0.65654445
-2.7192302 7.2512751 0.65804374
-5.8122668 7.4207907 0.65272498
-3.6544993 10.979816 0.65814859
-3.1082661 0.098557413 0.66273057
-5.7521753 0.17105886 0.66981256
-5.9084516 1.0494206 0.66318494
-6.9423008 1.1877004 0.66963875
-2.3577073 2.6703446 0.66778886
-1.9968784 3.4326158 0.66686416
-2.0074582 4.0457325 0.66984898
-3.2501931 5.0799036 0.66159803
-4.682837 7.8214388 0.66213697
-5.8691826 10.29566 0.66085917
-2.2003102 2.1429148 0.67517954
-1.8971446 2.8897138 0.67998445
-6.1981249 5.1512256 0.67267072
-2.572763 9.0522251 0.67318898
-5.6251659 0.92695212 0.68836623
-1.8445438 2.572989 0.68952513
-4.9954824 0.10396275 0.69290555
-5.7828422 1.5220559 0.69829124
-2.7659945 2.2789066 0.69050062
-6.7422872 2.3843496 0.69774854
-6.7731304 3.1063874 0.69486123
-4.6195564 4.6626472 0.69289798
-3.2324514 5.1833496 0.69074023
-6.6574211 6.3543439 0.69149047
-2.8486261 8.977993 0.69013602
-6.5430017 0.70803142 0.70388371
-1.8584687 1.0312195 0.70835918
-5.7782812 1.3273643 0.70708561
-5.951726 2.2215893 0.70386922
-6.7521052 3.2211719 0.70294797
-3.8118639 5.3446679 0.70122808
-3.8363125 10.4992 0.70245177
-3.6822286 0.35305148 0.71528089
-3.1596034 0.41331902 0.71634597
-2.3742895 0.43289733 0.71924716
-6.1212091 0.70449001 0.71423537
-3.0926321 5.2743783 0.71807832
-6.2534928 6.8229198 0.71216238
-2.8486018 8.4771471 0.71042645
-4.805418 10.299231 0.71203959
-3.1451626 10.77472 0.71055925
-5.0244932 10.982647 0.71451497
-6.0243292 0.29133862 0.72232801
-3.2600114 0.80303061 0.72756702
-3.3587084 0.93318772 0.72756702
-6.8276172 1.7981445 0.72043836
-5.0774612 5.9819846 0.72926402
-5.1390457 6.006588 0.72926402
-4.653924 6.4345961 0.72994912
-5.74647 0.31455919 0.7364614
-3.0404465 0.53367251 0.73806798
-6.65872 2.7078562 0.73159951
-6.6328511 4.9963355 0.73279107
-6.0983243 5.3979239 0.73599392
-4.6328211 5.4395971 0.73439407
-4.0696354 6.2347093 0.73792654
-3.4070568 6.3470659 0.73413217
-4.0644131 6.489356 0.73908359
-2.5376713 7.6241522 0.73289025
-2.4124203 8.1581993 0.73150647
-2.3917942 10.066989 0.73744839
-3.8820186 10.751984 0.73693693
-5.5871735 0.26780978 0.74137634
-4.9134665 1.8292664 0.74588609
-2.20031 2.0791302 0.74554986
-2.5855155 5.2517314 0.74598193
-3.3446801 6.2107849 0.74891222
-5.1628957 10.956635 0.74932754
-2.8024912 0.45670149 0.75564611
-5.016325 1.82429 0.75735527
-2.3528664 2.6898298 0.7582376
-2.7516801 2.7977571 0.75593603
-1.9869443 4.5515089 0.75629914
-2.0843391 5.3923287 0.75053686
-2.36414 8.0666075 0.75738621
-1.9390694 8.4180574 0.75886327
-2.7672329 2.2495484 0.76498401
-6.774971 2.7117591 0.76624554
-4.6245842 5.0747232 0.76855242
-6.1967731 5.4950533 0.7642141
-6.6630325 6.8684673 0.76643169
-2.4490414 6.9626479 0.76542777
-3.2227979 10.29316 0.76785636
-2.8798957 10.522759 0.76656044
-6.7438006 4.2883639 0.77658689
-6.1591902 4.7123365 0.77278841
-2.4915075 7.6270809 0.7755096
-6.5527601 8.7511692 0.77467459
-6.6229553 9.493206 0.77227724
-5.738081 10.39799 0.7704103
-3.0385885 0.092905425 0.78352481
-3.1715064 0.69993973 0.78539729
-2.8054087 0.90268904 0.7808255
-6.6571937 2.1585174 0.78077823
-3.0489464 4.6003122 0.78226376
-3.7974339 5.9709659 0.7885623
-6.6343307 8.015398 0.78742397
-2.36414 8.0753441 0.78453714
-5.5909934 10.547756 0.78732926
-5.3711457 10.881432 0.78229934
-2.9922566 0.29442841 0.79541069
-3.1506667 0.41992843 0.79161716
-6.6085558 0.97894067 0.79045475
-1.9272575 8.1539564 0.79820555
-2.2964554 9.0862751 0.7959885
-3.1965575 10.399339 0.79829764
-5.2273717 0.52654505 0.80679339
-5.6704016 0.61008924 0.80410874
-4.4971871 0.63415247 0.80685413
-2.8667412 0.73362756 0.80052137
-6.7288256 4.4040952 0.80788207
-6.594768 4.5821505 0.80996442
-4.1043191 4.6209264 0.80158997
-6.6054196 4.7804804 0.80713493
-3.8011894 5.1705685 0.80024016
-2.9194732 5.241291 0.80421841
-5.6670599 7.5790405 0.80581719
-4.6702003 7.5720167 0.80915022
-2.4697096 9.6660576 0.80041838
-5.9562073 10.222048 0.80091512
-6.1064014 10.246594 0.80091953
-3.6311278 -0.029055962 0.81591427
-4.9911208 0.20220892 0.81161606
-4.6549287 0.52480805 0.81313729
-3.1535597 0.59300435 0.81659579
-1.8973584 0.88653237 0.81973159
-1.9544504 1.6645309 0.81080937
-3.9969373 4.4513073 0.81810558
-4.0096493 5.6977615 0.81664199
-6.1806726 6.3098741 0.81613708
-2.5889091 8.0447836 0.81426191
-2.8134027 10.270075 0.8191269
-5.6845431 0.45190001 0.82444596
-3.0902777 1.7935159 0.82994616
-6.5883064 4.5188127 0.82073575
-6.8791513 8.0028992 0.82738113
-6.8157344 8.5165882 0.82702172
-5.8707595 8.6792536 0.82574105
-6.7833138 9.3975 0.82866424
-2.4602325 2.2387688 0.83273256
-5.1672382 10.975888 0.83918107
-5.6285706 0.019185424 0.84771055
-6.9111509 1.5634615 0.84869266
-1.9587801 1.8611114 0.84646469
-4.3667655 4.446147 0.84042037
-3.7977695 6.3149457 0.84197861
-2.56319 7.8488803 0.84555745
-1.8722286 8.8056688 0.84400499
-6.2263918 9.5754671 0.84967905
-4.5873013 10.305904 0.84760451
-5.4477987 10.788484 0.84098613
-5.4145017 10.837027 0.8407408
-5.2917886 -0.075145274 0.85349989
-2.8000638 1.1055672 0.85249513
-2.484802 2.0989549 0.85120338
-6.5855718 4.5884314 0.85766351
-5.1320324 4.7452598 0.85513967
-6.1901016 5.0157471 0.85496998
-6.3892522 7.7257328 0.85146618
-2.2182102 8.6240444 0.85835409
-2.21821 8.7812643 0.85830355
-2.1028886 9.3798933 0.85896373
-4.8690991 10.314095 0.85414815
-5.7695971 10.505356 0.85935855
-5.6003413 0.60196644 0.86206144
-5.5077581 1.0668181 0.86910367
-2.1289296 1.2524843 0.86546803
-1.8459029 1.6203747 0.86979055
-6.6087399 4.9258733 0.86038136
-3.213913 5.0636024 0.86138785
-2.3468881 7.9991417 0.86193275
-4.023303 8.2296791 0.8627063
-6.729826 9.1146793 0.86369365
-3.4232225 10.64517 0.86159623
-3.4281759 10.968099 0.86209905
-4.918231 0.41999179 0.8799265
-3.0935142 4.9467783 0.87945187
-2.5635548 5.7225575 0.87815213
-3.4509053 7.9153776 0.87101984
-1.98827 8.4224148 0.87300658
-6.3524723 9.5124922 0.87532443
-5.91467 9.6220608 0.87516445
-6.3316393 9.6584492 0.87231708
-6.3604689 9.687974 0.87998033
-3.3733964 0.41088384 0.88251007
-1.9500841 1.8895545 0.88726747
-5.9830494 4.4351263 0.88807696
-4.7967896 4.5589609 0.88115799
-2.5508733 6.5695152 0.88354617
-6.81849 7.9851155 0.88471961
-5.0083961 9.7102613 0.88622111
-2.8584712 10.302989 0.88413918
-4.5727568 0.35586387 0.89659727
-6.6430149 5.5960536 0.89999312
-2.4789588 8.0133371 0.89519536
-2.21821 8.5269527 0.89122498
-6.2380357 9.9729767 0.89677179
-5.2214146 10.936586 0.89084679
-4.7098675 11.060252 0.89294964
-4.2028327 -0.17017558 0.90158963
-6.6141148 1.275429 0.90347171
-6.1536245 5.5488701 0.9077484
-3.6254668 9.7066545 0.90518105
-5.7418575 10.199924 0.90211099
-2.7664497 10.23378 0.90346062
-3.2029853 10.708025 0.90543592
-5.9192057 0.82964039 0.91523468
-2.782223 1.7491912 0.91825974
-1.986497 3.7489939 0.91088861
-4.5865755 4.4295006 0.91240346
-4.1436529 4.4291816 0.913782
-4.0950007 5.3490291 0.91310406
-6.81849 8.1312799 0.91787994
-5.1916862 10.393243 0.91737604
-2.8591332 10.513687 0.91226745
-3.729285 0.26265341 0.92621505
-5.8035665 1.4879938 0.92665625
-1.8653443 1.6583929 0.92429823
-1.9756844 3.2199984 0.92621946
-3.8497744 5.2713437 0.92225623
-4.011858 5.7586231 0.9287796
-2.7277386 7.5709715 0.92802978
-1.8984201 9.330658 0.92115813
-2.9188895 10.475747 0.92058468
-5.9132009 10.535199 0.92026198
-3.1636419 10.654137 0.92192888
-3.380959 10.80492 0.92381191
-2.2774427 0.66963232 0.93555409
-2.7707219 2.1590843 0.9347614
-2.9236405 5.3507619 0.9386543
-2.8538394 6.2345724 0.93719864
-6.6700888 6.5983176 0.93133974
-2.5673473 9.1900711 0.93889749
-5.870676 9.4215717 0.93236077
-3.7063138 9.7011166 0.93430227
-5.877459 10.069643 0.93619198
-3.1295485 10.343409 0.93777585
-2.4429214 2.7015662 0.94336641
-3.8520947 5.8731146 0.94434381
-2.8439689 6.0768909 0.94958746
-2.4308434 2.1996679 0.95147943
-4.4886498 4.4876418 0.95160925
-4.4191628 4.5417285 0.95448965
-2.6150482 7.1445503 0.95953882
-5.2599707 10.72918 0.95804316
-4.2389555 10.768191 0.95696235
-4.2104664 11.056369 0.95645392
-2.919754 1.1163225 0.96651989
-6.8241844 1.8248091 0.96556318
-1.9791658 3.2149682 0.96575171
-6.6392355 5.4385629 0.96305048
-2.2973771 7.6540003 0.96346277
-4.018846 8.0482922 0.96210063
-5.2667074 10.567711 0.96864486
-3.8277597 10.654843 0.9638328
-3.0374992 1.0093777 0.97538376
-5.8032203 1.2138643 0.97604823
-2.029315 7.4377971 0.97886622
-6.7837381 7.7372837 0.97228664
-2.6231792 8.1705008 0.97425628
-3.7228055 10.46851 0.97750324
-5.4453654 10.832327 0.97217548
-6.1657071 0.45351529 0.9819572
-4.740551 1.7508082 0.9803046
-6.2357869 2.6996036 0.98385215
-6.7432632 4.409317 0.98520851
-4.0124426 -0.10559871 0.99345702
-1.8919424 1.6826906 0.99206442
-2.20031 1.9427468 0.99886256
-6.0903769 4.6095247 0.99699569
-4.5567288 5.3838406 0.99957585
-2.8890066 5.7576141 0.99298018
-2.0529544 5.9044256 0.99380612
-6.0105987 6.309269 0.99474633
-4.6870642 6.7075081 0.99979466
-2.8486857 8.0629559 0.99803144
-5.9794464 10.21106 0.99218488
-5.8922539 0.78151262 1.0047982
-2.7529821 2.7991652 1.0007415
-4.3734832 5.4219213 1.0014867
-3.0215776 5.8826442 1.005904
-2.4428461 7.7198229 1.0039539
-6.816812 7.7408166 1.0036288
-6.8428125 8.1652431 1.009794
-2.21821 8.9136896 1.0041513
-6.4022565 9.0889368 1.0020385
-2.8487685 9.5086327 1.0048279
-4.0214405 9.6868591 1.0092528
-5.9912262 10.257236 1.0036081
-4.2323236 10.989148 1.0022755
-5.0538144 -0.051073819 1.0153584
-2.7674193 2.2921557 1.0188584
-2.388886 2.6930985 1.0185015
-2.9050841 5.6445341 1.017539
-2.0485425 6.0060863 1.0116613
-6.2130575 6.8806591 1.0232284
-6.7321215 8.0112495 1.0292633
-6.8556433 8.6954231 1.0295908
-4.9174223 10.972593 1.025281
-6.8239899 0.80259687 1.0334749
-2.7897618 0.96104157 1.033877
-6.4023705 0.98127586 1.0360148
-6.9039354 2.1823692 1.0358394
-2.0872817 2.7642672 1.0324401
-2.6484005 4.4009089 1.0360432
-2.5728877 4.5865259 1.0337803
-3.0022221 5.5502744 1.0327539
-6.067091 6.2033687 1.0390513
-4.0094471 7.6435366 1.0339874
-6.602777 8.4528666 1.0326221
-4.7966413 10.977192 1.0326391
-4.6123552 0.10932343 1.0422268
-5.4596896 0.12835406 1.0442661
-6.8941774 1.4640875 1.0493672
-3.5283499 4.5471859 1.0439945
-2.6957273 6.0902929 1.0492377
-6.0151238 6.1426301 1.048455
-6.6763639 6.7052374 1.0460289
-6.6802244 7.2257071 1.0400536
-2.0307338 8.5249863 1.0431941
-4.1441622 9.8888111 1.0485785
-3.5843287 -0.031524796 1.054143
-3.1130793 4.3958449 1.0579429
-6.6319227 5.2263432 1.0582809
-2.5991795 5.2648535 1.0588042
-6.5444975 7.6636882 1.0538239
-3.5319479 1.7176118 1.06458
-2.1052153 1.9308393 1.0648094
-3.2873399 4.832921 1.0657744
-3.9051969 5.7858844 1.0633597
-6.6527338 7.9797955 1.0657088
-6.8667698 8.0758562 1.0664495
-6.6801438 9.4684639 1.0612739
-5.3373051 0.53917873 1.0782645
-5.8029432 0.83805734 1.0725752
-2.242126 0.96449941 1.073766
-2.7705841 2.1903014 1.0706652
-6.6204538 2.3976238 1.0722017
-3.9753873 4.3914437 1.0769734
-6.1293554 4.5353785 1.0797504
-6.0412188 6.1829696 1.0752928
-6.5058794 9.5419903 1.0769076
-2.3775685 9.9102802 1.0714993
-4.3354077 9.9206362 1.0777812
-4.9179621 10.574245 1.0762339
-4.3990207 10.6442 1.076844
-4.3333769 10.644496 1.0782143
-3.6754766 10.770023 1.0789906
-3.6592 10.987862 1.0761288
-3.4709427 0.18507674 1.0808269
-3.9189148 4.8635173 1.0843184
-4.6241207 6.4361234 1.0878456
-6.6752086 6.7288294 1.0871594
-6.3513336 9.0624285 1.0848346
-6.8425145 9.4799919 1.0897992
-6.4379811 9.8288231 1.0844234
-2.7327659 10.122442 1.0831881
-2.9088614 10.219095 1.0845444
-5.7137251 10.238558 1.0843759
-5.6812801 10.552963 1.0878265
-3.6003022 10.666483 1.0837804
-3.2564387 10.660221 1.08407
-3.6676855 10.972149 1.0890065
-6.8499284 1.3607566 1.0940734
-6.7420316 4.3196073 1.0952671
-2.506402 7.7411032 1.0940491
-2.8487587 8.8024158 1.0943387
-2.8852293 10.186152 1.0968821
-2.8169072 10.237064 1.0942285
-2.8677347 10.404935 1.0982221
-4.6115708 0.4816581 1.1062618
-1.8492949 0.91597581 1.1000816
-6.7917695 2.1717811 1.1035955
-4.8245611 4.3852601 1.1037158
-3.4700606 4.385694 1.1018387
-3.906004 5.3654547 1.1000565
-6.0982523 6.0819201 1.1043625
-6.7612371 8.150898 1.1067656
-2.565377 9.965498 1.1078939
-2.6812737 10.00351 1.1038554
-4.794951 10.819269 1.1031557
-3.9502842 10.947544 1.1063106
-2.2866859 2.3653526 1.1182809
-2.3702502 2.6771719 1.1184454
-3.57762 4.8853388 1.115424
-5.8706369 9.1115055 1.112729
-2.0184028 9.3346882 1.1167949
-4.3428025 10.644403 1.1132529
-6.5713844 1.3225974 1.1295866
-6.1197777 6.0521407 1.1271424
-4.0573769 6.3259025 1.1265001
-3.7868719 8.1558571 1.1254429
-2.8487878 9.1724806 1.1218877
-5.8706264 9.2624741 1.1239643
-2.8609474 10.363501 1.1256323
-6.9379315 2.1154034 1.1391803
-6.2095242 2.5465031 1.1320505
-2.6066556 4.6024008 1.1322416
-2.5483103 4.8976507 1.1350367
-6.2302313 6.979867 1.1374438
-5.8703032 10.197372 1.1314597
-3.5774276 10.911133 1.1353946
-4.8419304 10.922895 1.1305362
-6.7905102 2.9862328 1.1420357
-6.077219 5.9848032 1.1449485
-4.0421996 7.4735446 1.1488205
-6.4799161 9.459672 1.1475427
-6.7936544 2.6837199 1.1598301
-5.9006515 4.372683 1.1581033
-5.8004398 7.4639592 1.1528481
-2.4174097 9.3219566 1.1531808
-2.3583436 9.636857 1.1579118
-2.1520925 9.6868649 1.1522233
-6.5363407 9.7152004 1.1542
-2.4949412 9.7754717 1.1553314
-5.3163309 10.644298 1.151837
-4.0793061 10.971973 1.1528635
-6.9421892 1.1948031 1.1652724
-6.5466614 4.1771178 1.1648638
-6.1391821 4.6196556 1.1632216
-3.5214052 7.4276581 1.1672847
-5.4499102 7.4393334 1.1626539
-6.2428923 9.7631168 1.1601083
-4.5984797 6.1148672 1.1707172
-6.6727824 6.8129439 1.175494
-6.9024858 8.4277563 1.1749203
-2.21821 8.4948559 1.1767297
-5.5096979 10.239323 1.1791987
-5.9710999 10.402408 1.1757019
-5.976223 0.22475249 1.1860188
-5.4570475 0.49149573 1.1814319
-2.0253692 0.9973141 1.1845043
-5.9553008 2.4419503 1.1890699
-4.3796005 5.9787836 1.184732
-1.8592899 8.0328836 1.1859429
-4.5812693 10.644217 1.1823313
-5.1301751 10.844388 1.1866136
-6.3243561 2.6700001 1.1990359
-4.2629404 6.169981 1.1926298
-2.5667553 7.972497 1.1916382
-6.5887146 8.0918036 1.1937398
-2.8487513 8.1373758 1.190455
-6.2966151 9.5322456 1.1975517
-2.4612691 9.5674295 1.1916009
-6.345304 9.7330065 1.1945493
-5.8171711 0.16495319 1.2057897
-4.1392646 0.37907168 1.206632
-5.3674088 0.38949001 1.2040632
-6.6547956 0.76210493 1.2003046
-3.7102306 1.6716592 1.2041461
-3.6655807 1.6702874 1.2069207
-6.79177 2.0457036 1.2057316
-6.5881634 4.6116757 1.2023689
-6.1666169 5.9765124 1.2057076
-3.8642883 10.644776 1.2038826
-2.1987424 1.0074027 1.2133335
-6.667819 1.9735239 1.2131559
-4.0386462 4.3592143 1.2163475
-2.1320226 4.6075883 1.2102237
-5.6376648 0.19715229 1.2218132
-2.7627354 2.4974167 1.2232529
-1.9249141 2.9496622 1.2275254
-1.9651914 3.8459268 1.2243567
-2.1663804 4.2615118 1.2283938
-5.1470385 7.2504334 1.2287757
-6.2233448 9.4257212 1.2238603
-4.9865141 10.084622 1.2282506
-4.716785 10.707045 1.2216401
-3.1806359 10.725511 1.2205912
-5.4085135 10.775951 1.2282217
-6.3975086 0.62835544 1.2369826
-2.8986323 0.86758292 1.2336423
-3.2941959 1.6562244 1.2377697
-3.0471251 4.7285872 1.2365133
-6.7658644 8.058919 1.2304411
-2.2018731 9.2872925 1.2398701
-3.7090914 10.857691 1.2352782
-5.4248562 0.13085949 1.2447596
-3.7294998 0.47923827 1.241505
-4.9719 1.6569246 1.2483509
-6.1632957 6.0977168 1.2489057
-4.4197898 6.9135561 1.2417072
-5.8706036 8.9845991 1.2443039
-3.0680108 10.062218 1.2483166
-5.2819729 10.827804 1.2426444
-4.3123188 0.21958233 1.259467
-1.9860907 3.0919902 1.2557524
-5.0724339 7.1799574 1.2520636
-6.6193619 7.8299751 1.2597431
-6.7945714 8.1883831 1.2588003
-6.7604585 9.2973948 1.2572623
-2.3036704 0.44929579 1.2681092
-2.1294489 0.80185926 1.2648134
-2.7805367 1.6251719 1.2652452
-5.0635262 1.6489494 1.269159
-2.1680224 4.24085 1.2657865
-3.6510143 7.1832542 1.2616587
-3.9657841 9.6389875 1.2609259
-3.0739269 10.348093 1.2640688
-4.2879858 10.956283 1.2634089
-1.8930672 0.90804017 1.2790772
-5.9561782 1.0333815 1.2745619
-1.9538248 4.1841068 1.2769685
-2.0983853 5.063828 1.2720901
-6.1965733 5.2682905 1.2731569
-6.1698408 5.6449528 1.2779853
-3.4553947 7.1507664 1.2778338
-6.1616173 9.7779579 1.2789185
-4.1980505 10.135282 1.2747355
-3.1819792 10.593727 1.2766722
-4.5585613 0.3385323 1.2898076
-6.2118711 1.1920406 1.2844688
-4.249217 4.3423109 1.2894421
-2.582953 4.4779444 1.2892842
-6.0828357 7.5604906 1.2855175
-5.425499 10.743633 1.2849283
-6.219615 1.1142 1.2916685
-6.7953892 1.4200842 1.293385
-6.6702881 6.0488262 1.2997708
-6.1637278 6.2143669 1.2908025
-2.7074742 7.7742772 1.2949086
-1.864899 8.013485 1.292196
-2.8487787 8.0470514 1.2950656
-2.3065431 8.2131109 1.291383
-6.1977453 8.960906 1.2949976
-2.3531911 9.7069588 1.2994276
-6.4003143 9.8075199 1.2999929
-4.1160955 10.897436 1.2969627
-4.7721825 0.3323549 1.3024812
-2.7582414 0.97962177 1.304371
-2.4465914 1.4212402 1.3045813
-2.0030563 3.1210864 1.3091367
-3.6361241 4.3376017 1.3098048
-3.2830501 4.7514224 1.3062637
-3.9738309 4.8180232 1.3074235
-2.2919033 9.2486687 1.3013363
-6.5965319 9.5806875 1.3001196
-2.5063252 9.7174129 1.3066664
-3.0233941 10.184875 1.3052909
-1.9931676 3.4962809 1.3158109
-6.6077156 4.8533702 1.3127724
-6.0745029 5.5249176 1.3175843
-5.8940239 9.3811541 1.3136923
-3.9072239 10.943242 1.3109987
-4.0183344 0.10616579 1.3210528
-4.134439 0.28212786 1.3291118
-2.0951734 0.7271086 1.3281035
-2.2150488 1.446268 1.3286171
-6.6915798 2.6167958 1.3217479
-2.3580427 9.5519896 1.3281081
-6.5005598 9.6799393 1.3275738
-2.5425651 9.9083776 1.3239542
-4.0131569 0.11118098 1.3382864
-3.7905211 4.7646861 1.3391476
-5.4936771 7.1049337 1.3356564
-6.0807066 7.1666098 1.3335131
-4.6562514 9.6257973 1.3302728
-2.4399605 9.6425629 1.3331727
-4.3150878 10.196943 1.3313152
-6.3248057 0.93067491 1.3425784
-1.9603293 2.1905534 1.349906
-6.0424652 6.6158352 1.3483986
-2.5574243 7.9770198 1.3454547
-5.8705554 9.426815 1.3451291
-2.3628325 9.6140642 1.3457448
-6.4479809 9.7787142 1.3414907
-4.5057583 10.973299 1.3446236
-3.8433013 0.10874391 1.3540485
-6.6068749 0.96768272 1.3529277
-3.7150826 3.8956802 1.3501694
-2.9764538 3.9182255 1.3518045
-5.3488159 3.9871011 1.3501676
-3.5177951 4.1607232 1.3501655
-5.5164576 4.1890445 1.3501644
-3.017642 4.2101502 1.3501639
-2.5189579 6.3181667 1.3590976
-2.2797582 8.3073721 1.3579667
-2.8488202 8.4666986 1.3545772
-6.1977324 8.8646669 1.3564396
-6.3166261 9.4531851 1.3592534
-5.3248768 10.793467 1.3552439
-5.486053 0.21444432 1.3601476
-5.2246504 0.26811314 1.3675166
-6.2119131 0.43603939 1.3686594
-6.000205 0.45443356 1.364725
-6.6418219 2.5902793 1.3639505
-3.8285007 4.5299597 1.3608724
-6.2120314 5.6728625 1.3687574
-6.6853628 7.8959332 1.3647115
-6.7238379 9.2316637 1.3618662
-2.364542 9.4019127 1.365006
-5.745719 10.35313 1.3602172
-6.3138337 0.61203766 1.3722951
-3.5026801 1.2020189 1.3770597
-2.144119 2.6574547 1.3782496
-5.7732868 3.9585364 1.3776572
-4.6771808 6.8985548 1.3723305
-2.447185 8.7435951 1.3724643
-2.2488794 8.7474737 1.3729751
-2.2473998 9.7964745 1.3729792
-3.3482418 0.26525319 1.384056
-2.3494971 0.51812732 1.3884776
-6.7960939 2.0219479 1.3824685
-2.6540494 2.6749287 1.3814098
-6.4763517 8.4397125 1.3883407
-5.3463535 0.10724036 1.3938437
-4.4961081 1.6130881 1.3900237
-6.7193136 1.9402179 1.3904061
-5.4827132 0.24640402 1.4082193
-5.931798 0.42771423 1.4051294
-6.2138562 1.2569239 1.4094238
-5.6304064 1.5961487 1.4080272
-6.931253 1.6181024 1.4077529
-2.2673602 2.0975292 1.4047725
-3.4990773 6.9995761 1.4005353
-6.6542373 9.2944622 1.4080225
-2.9363666 10.315403 1.4007401
-4.1603198 0.13623393 1.4156201
-2.5732474 1.4983845 1.4122226
-3.630707 1.5993767 1.4136562
-6.6903024 2.1130311 1.4111257
-5.9512901 2.3431392 1.411283
-6.9341731 2.4054565 1.4111942
-6.1976876 8.6649342 1.4161456
-2.8835878 9.8391132 1.4169365
-2.6476135 10.190207 1.4141668
-6.2104368 1.3188356 1.4277921
-6.8410616 1.5837938 1.4251889
-3.7279949 1.5973454 1.4223158
-6.5565743 4.30797 1.4214957
-2.4732652 6.4456081 1.4228332
-4.3701854 6.7413535 1.4204702
-2.7182975 0.97755229 1.4377064
-3.7746584 1.5922393 1.4385715
-1.9729743 3.8735714 1.4351878
-6.0410471 6.680428 1.4368001
-6.8655024 7.7960072 1.4382772
-4.6270914 9.6063805 1.4323466
-2.8882482 9.9391451 1.4387034
-2.5997417 10.192348 1.4339904
-6.0993567 10.211466 1.4304811
-3.4869692 10.734873 1.4307033
-2.5438406 2.0069692 1.4467359
-1.9025766 7.9889874 1.4419658
-1.8592901 8.689971 1.4412794
-5.9420586 0.48608026 1.4501787
-1.9823419 0.96422338 1.4525871
-1.8338856 1.0005075 1.4546003
-5.0977778 1.5851948 1.4549458
-3.3655117 1.5826242 1.4553404
-6.7635717 1.692096 1.453989
-4.0677214 6.708252 1.4505688
-4.5852866 6.7216344 1.4562685
-1.9711733 7.6880922 1.4595864
-1.8592901 8.4784679 1.4541792
-6.232471 9.87251 1.457974
-6.4158001 1.175797 1.469257
-3.8421206 4.8410959 1.4619125
-6.6278887 7.882545 1.4653186
-1.8592899 8.6431065 1.4694892
-2.0769651 9.25387 1.4653302
-2.7257161 9.8638124 1.4621673
-6.7226067 0.9034521 1.4725952
-4.2934179 1.5844704 1.4757755
-2.2314088 1.7564244 1.4742845
-6.94767 2.138938 1.4784441
-1.8494043 2.6883123 1.4765111
-6.0767484 6.7624922 1.4764807
-4.2624264 10.794841 1.4737996
-3.5337758 0.27793944 1.4893978
-2.361135 1.7943602 1.4818747
-3.1823754 4.6821809 1.4873614
-2.1270993 4.7267394 1.4814453
-2.6479218 6.8887482 1.483325
-2.6509132 10.196373 1.4822011
-6.3316774 0.68653589 1.49024
-2.118876 0.83304816 1.4993032
-3.2840936 4.6810923 1.490262
-2.0664048 7.4225388 1.495183
-2.3051238 7.9965692 1.493259
-5.4085526 0.25652778 1.5031704
-6.0486598 0.93095696 1.5094919
-3.0683792 1.1135257 1.5032976
-6.9322882 1.3734883 1.5027599
-2.5101185 6.0445256 1.5068669
-4.4277787 6.766983 1.5092168
-2.6780066 6.8265896 1.5074736
-2.7195413 9.2133369 1.5010021
-6.582541 0.81024778 1.5187324
-3.6494405 1.1715072 1.5155993
-5.1409807 1.3881052 1.5122637
-5.0038967 1.49685 1.5159935
-5.4312239 1.5192715 1.5180179
-5.7005239 1.5216647 1.5188503
-3.7344081 1.5280184 1.5171187
-3.387521 1.5273876 1.5180507
-5.9531908 2.1790419 1.5140585
-5.963552 2.7962255 1.5117714
-6.0106239 4.9083166 1.5197362
-6.8658276 7.8898916 1.5188699
-6.9070463 8.545145 1.5156755
-6.3532815 9.8759193 1.5181471
-5.3506899 9.954195 1.5101359
-5.9168224 0.83194172 1.5298865
-5.3067422 0.86648625 1.527776
-2.8199372 0.86955428 1.5200603
-2.1993611 7.9491529 1.5235157
-5.8705425 8.5187855 1.5233967
-5.271234 0.75335383 1.5376453
-3.1340799 0.75451261 1.5364549
-4.2094131 3.8695552 1.5326946
-4.1398101 4.5371413 1.5356493
-2.085922 5.4882817 1.5341353
-2.602077 7.9602814 1.5311
-2.4707084 9.1808004 1.5318725
-4.389823 9.5861683 1.5386121
-6.6250877 0.76538599 1.5480108
-6.382256 0.80762964 1.5499917
-4.0186868 1.0462767 1.5408456
-4.6678381 4.5360799 1.541702
-5.6240888 6.926744 1.5411186
-6.9057531 8.6395988 1.5432754
-5.1466789 0.21094459 1.5556123
-5.4010119 0.63675314 1.5594184
-5.1059933 0.66197115 1.5545008
-6.3393145 0.77233034 1.5518669
-2.1111729 4.16079 1.5584919
-6.199337 6.0876541 1.556922
-6.3601484 9.1531153 1.5559522
-6.6053119 9.4862919 1.5544119
-6.2936068 0.54745579 1.5677918
-3.2759542 0.62643844 1.5614299
-3.5190897 0.63238227 1.5602708
-2.7662315 2.41224 1.5679234
-2.764545 2.4994323 1.5638101
-6.8660002 7.9308386 1.5632234
-3.3435426 9.6623383 1.562402
-4.1776967 10.302702 1.5691599
-4.0156345 0.55877292 1.5766001
-4.9785275 0.56473976 1.5734614
-4.484066 0.68912041 1.5765421
-3.9150622 2.9783456 1.5772557
-4.5573502 3.5129147 1.5763044
-5.7631502 3.9651773 1.5786386
-2.7424757 4.1279716 1.572242
-2.7108877 4.4819679 1.5776236
-5.094099 10.240649 1.5797648
-3.0081272 0.33261091 1.5871441
-4.8134699 0.35418802 1.5848548
-5.5815601 0.41006166 1.5879887
-2.0856798 2.382237 1.5836229
-3.3443484 0.16648905 1.5953501
-4.1872654 0.28917316 1.5901022
-4.7130017 0.35663986 1.5920748
-3.2525759 0.3532311 1.5979166
-6.59518 2.3907373 1.5943229
-5.0819283 3.675128 1.5933183
-6.673068 3.9378781 1.5983554
-4.3454199 0.10858793 1.6018296
-4.985487 0.12828751 1.6025432
-3.9064116 2.5250041 1.6095846
-3.9872918 3.7090247 1.609313
-4.5298691 4.4187856 1.6022121
-2.0546052 4.500586 1.6067519
-6.7670708 9.2496223 1.6096318
-6.6763344 2.3624625 1.6120882
-2.5729549 5.2529936 1.615591
-6.0091577 7.0545168 1.6176832
-6.8008752 8.1972246 1.614566
-1.9615825 8.9057026 1.6157305
-6.8007708 9.2237358 1.6134114
-6.1272664 0.5199064 1.6288812
-2.6527939 0.59876579 1.6276306
-1.8495622 2.1637206 1.6211698
-2.4483829 2.3226128 1.6239129
-2.1357095 2.3272595 1.6209934
-3.2415409 3.6385245 1.6232806
-2.7171841 4.649066 1.6297734
-4.012372 6.9602261 1.6287059
-3.5734754 6.9640965 1.6282368
-6.8574805 9.1640806 1.6249976
-2.2469635 0.90524155 1.6334419
-6.209506 1.9217885 1.6351271
-1.8911304 2.6214187 1.6328639
-2.0733418 3.3278065 1.6318194
-3.5024495 4.6272535 1.6336665
-6.12429 4.679009 1.6339402
-2.0591593 5.2779694 1.6342916
-6.6490283 6.1977425 1.6305648
-1.917173 8.7899876 1.6382533
-4.109489 9.7795973 1.6337698
-3.5098951 10.287063 1.6394407
-2.3109944 1.2239232 1.643291
-2.4240599 9.0374908 1.6402109
-6.0780811 9.8738441 1.6416836
-4.5138354 0.04243695 1.6590183
-2.6096706 0.42574501 1.6561248
-2.5227282 0.47399572 1.6546613
-3.4443552 1.4381194 1.6569504
-4.942935 1.6926017 1.6538379
-3.9177639 2.2661564 1.6564068
-2.084914 3.0844994 1.6537321
-3.4329445 4.5540686 1.6504699
-3.2229033 6.2772846 1.6597447
-6.4053431 9.0063 1.6588577
-2.1724045 2.3607931 1.6699909
-6.5835295 2.3712044 1.6634715
-4.2370672 4.4576168 1.6641228
-2.0872355 6.506846 1.6649048
-6.2058392 6.5546818 1.6614976
-6.7495556 7.9489446 1.6676087
-6.8522458 9.1116886 1.6664705
-3.2134986 10.09046 1.6677736
-5.6710901 3.9115219 1.678201
-3.1897712 4.4286737 1.6790354
-4.6578779 4.4589977 1.6744256
-3.1959498 4.5436263 1.6779062
-6.6247392 6.6542764 1.679147
-6.6081152 7.3104954 1.6781325
-6.0845194 7.5599432 1.6701559
-2.3726921 8.3472195 1.6749619
-2.3272462 8.343895 1.6737982
-2.2562449 8.7447414 1.6720887
-2.1492119 9.3637085 1.6762662
-6.1503367 9.7512636 1.6744727
-6.2892823 0.78805101 1.6881325
-3.3436015 1.1273528 1.6852
-3.1245148 1.1465203 1.6852
-4.0935349 1.2443643 1.6852
-2.7562792 1.3331754 1.6808112
-3.4506927 1.3635383 1.6852
-5.4893551 1.4728808 1.6852
-5.2172284 1.4791529 1.6852
-4.7918515 1.5827906 1.6852
-4.818614 1.7055662 1.6852
-5.0844975 1.7271972 1.6852
-4.3753719 1.8666389 1.6852
-5.4550171 1.9316158 1.6851999
-3.4031625 2.2210267 1.6852
-2.296633 2.2319582 1.6808721
-6.7134857 2.2409081 1.688462
-6.3443079 2.2441659 1.6864154
-6.756978 2.2514226 1.6818556
-3.6139667 2.2630904 1.6841159
-4.0747166 2.3609412 1.6852
-4.6607652 2.4119315 1.6852
-3.8498721 2.4107192 1.6852
-3.4950924 2.5397704 1.6852
-3.8407471 2.7077127 1.6852
-3.7701008 2.8016047 1.6852
-4.6711717 3.3808239 1.6852
-3.766222 3.6098413 1.6852
-3.7951441 4.4246941 1.685499
-2.0720501 8.4353123 1.6868206
-2.8580096 8.8767948 1.6885034
-2.8344977 0.34444878 1.6994355
-2.8162777 0.64124292 1.6902527
-4.8170424 0.99789596 1.6946595
-4.3468637 1.0704795 1.6921482
-6.9179115 1.6990367 1.6905389
-3.5990677 4.419137 1.6945246
-2.0564671 8.5768108 1.6948924
-6.8050294 8.6299725 1.6912713
-2.6650438 8.8644743 1.698992
-2.5043831 8.9017096 1.6924751
-5.2291679 9.6797991 1.6935939
-3.7431061 9.7149162 1.6994911
-4.7833257 9.7399311 1.6980982
-3.1766891 0.31728402 1.700532
-5.5741367 0.37338707 1.7072027
-3.1725757 0.38847932 1.7090256
-1.8581427 2.3252702 1.7073799
-3.9083951 2.515784 1.7081798
-3.643054 3.6760607 1.7035584
-5.6419635 4.4798293 1.7055923
-2.6397216 7.2045555 1.7033828
-2.329608 8.8709574 1.708266
-2.7560759 1.4267232 1.7124398
-2.076591 4.5042238 1.7124295
-2.4578202 8.8246155 1.7188058
-5.7975779 0.50327307 1.7287018
-5.293818 1.2329632 1.7201922
-5.9657722 2.4768825 1.7202414
-4.810976 2.5090575 1.7244728
-6.1296778 4.7952085 1.7259321
-6.8670864 8.2022524 1.7252015
-2.3853359 1.5581262 1.7361691
-5.8445759 4.497149 1.7318224
-2.6012936 5.4289346 1.7319994
-4.1645727 7.0056705 1.7362883
-5.0917788 7.0304251 1.7372208
-6.0658689 7.5421491 1.7323257
-6.2123175 8.4793682 1.7386532
-6.0273809 0.76934522 1.7443922
-6.6022916 1.6090829 1.7466416
-6.3220377 2.0778644 1.7489101
-3.0674994 4.6969423 1.7437195
-6.2030458 6.7796631 1.7468544
-5.9930105 7.5654507 1.7471941
-6.736341 8.0666237 1.7405798
-6.4684381 8.7220001 1.7489167
-5.6617603 0.59478557 1.7540598
-5.2742338 1.2717001 1.7586043
-1.8722594 1.8465493 1.7543217
-6.5112991 2.0492134 1.7589362
-5.9660616 2.6088092 1.7582132
-4.9507551 2.6190605 1.75011
-6.5521903 8.7247534 1.7502332
-2.5549989 9.4633493 1.7579668
-6.7132554 1.7074077 1.7676171
-2.7739365 6.7675858 1.7600604
-4.1946459 7.0339384 1.7649283
-3.1522851 0.55952251 1.7776662
-4.3220253 1.0753698 1.777769
-3.6587853 1.9194772 1.77364
-3.6563401 2.1504645 1.7736402
-3.7510152 2.2226477 1.77364
-3.9163847 2.3236971 1.7736402
-2.7540107 2.3294299 1.7714843
-3.704267 2.495991 1.77364
-2.6568074 4.3399782 1.7710251
-2.9966249 4.5565262 1.7703869
-2.7626574 6.7709026 1.770597
-3.3808661 6.8813276 1.7732791
-4.2981472 2.681659 1.7836565
-5.0585299 7.0947266 1.7809892
-4.9588537 9.6061516 1.7866318
-6.5081868 0.82015675 1.794312
-4.5776033 1.2694294 1.7942809
-2.1108518 3.6036716 1.7959201
-6.8365221 8.3145905 1.7990489
-6.2528486 0.61737919 1.8009646
-4.2878122 0.99793202 1.800133
-3.8820896 1.0169103 1.8083909
-4.146616 1.0865459 1.8011222
-3.7355261 1.263436 1.8043342
-2.5454094 1.5682344 1.801352
-4.345293 1.6926055 1.8090897
-4.1466441 1.6926054 1.8016045
-4.6051359 2.155911 1.8050766
-4.8102264 3.3774407 1.8083613
-6.4269357 0.95203054 1.817369
-4.9076161 1.2636594 1.812948
-2.4196355 1.9753381 1.8120415
-2.1264181 3.174962 1.8198559
-6.0304313 4.2234049 1.8150406
-4.5448394 4.4242964 1.8118582
-2.1191497 5.7275815 1.8163433
-2.5428824 6.7685003 1.8106606
-3.6850359 6.9913206 1.8118391
-5.4698644 8.5601578 1.8192557
-4.3969407 9.5889473 1.8169768
-2.298481 0.89467633 1.8298876
-4.1476383 1.0886416 1.8271391
-2.7276633 1.775649 1.8211968
-2.731189 1.9104773 1.8200498
-3.9358168 2.1959739 1.8202405
-4.4158726 3.3175292 1.8286994
-4.627161 3.5035429 1.8205664
-6.1167822 4.6046495 1.8232448
-2.1391048 6.1254482 1.8239937
-3.2622805 8.5210419 1.8291974
-6.8353314 8.6230507 1.8281574
-6.805645 8.751358 1.8222063
-4.4696236 8.7504196 1.8289154
-2.3693795 0.99510056 1.8397368
-6.7071295 1.9314342 1.8315834
-4.3212271 2.9231861 1.8367033
-3.9292846 3.255744 1.8345062
-2.1243486 3.4866409 1.8358302
-6.1503172 5.5209785 1.8391147
-3.6140738 6.9942479 1.8326752
-6.5202661 7.2623668 1.8356051
-3.0420704 9.1511564 1.8366033
-3.0225389 9.1703606 1.8375729
-2.7097719 9.2029667 1.8321502
-4.3041391 2.4879439 1.8472774
-6.5888262 2.9089291 1.8416698
-3.9267302 3.1531565 1.8426006
-4.4383311 3.3853068 1.8420007
-5.3023605 7.1533117 1.8470533
-3.0736246 8.4463978 1.847803
-2.5620151 8.9793215 1.8481185
-5.6798887 9.1323824 1.8404741
-5.6148543 9.1354733 1.847291
-5.9103665 0.7636655 1.8517277
-6.2359762 0.78095281 1.8565578
-2.6326947 0.86362886 1.858579
-2.5983944 0.91201949 1.8543174
-5.5392485 1.2239907 1.8591254
-2.0457227 2.5884511 1.8521504
-4.4373388 2.8417845 1.8503473
-2.9671416 4.9125257 1.8546741
-2.0158944 8.4983597 1.8590187
-4.4761124 8.7413864 1.8504863
-3.6360064 9.3746243 1.8527482
-4.0892673 0.1739822 1.8686507
-6.8199654 1.4530249 1.8634242
-4.3304148 1.6926069 1.8650575
-3.6157193 3.5939498 1.8676484
-3.7781796 7.313704 1.8698496
-2.4581804 8.97295 1.8609487
-3.0426552 0.3852829 1.8743984
-5.4728203 0.5945425 1.872669
-2.616488 0.61996591 1.8788027
-3.4481061 1.0776992 1.8740048
-5.1508684 1.5259249 1.8796
-5.0862808 3.1128032 1.8781732
-4.9123435 3.6402998 1.8703225
-2.9195979 5.054821 1.8703887
-3.2107506 7.0086513 1.8761098
-3.75736 8.5579548 1.879755
-5.4489727 0.37881169 1.8852853
-6.1090908 0.60714871 1.8821005
-2.1557393 1.0618011 1.8833771
-3.9795766 2.916322 1.888756
-2.5542588 5.5064926 1.8881671
-2.2317381 7.0165234 1.8840493
-3.9473336 2.2685421 1.89747
-4.1702561 4.365922 1.8958666
-2.1892042 5.6111298 1.8947159
-5.9217186 7.276165 1.8909093
-5.2134304 7.3549509 1.8990886
-2.9763422 8.8510895 1.8945565
-2.9057157 8.9705391 1.8944132
-5.0276971 9.2445612 1.8900508
-2.3966539 0.77243251 1.9085603
-1.8556249 1.7422884 1.9070275
-3.6796246 2.047075 1.9096051
-3.9526019 2.4818718 1.9005864
-3.5843616 7.3862019 1.9000831
-3.8327582 7.446764 1.9006985
-3.1153865 8.339385 1.9027073
-3.898325 9.2125893 1.9007351
-3.2362599 0.40792981 1.9189287
-3.0756729 0.66045594 1.9117193
-2.5654092 5.2650299 1.919245
-6.6488152 2.4071782 1.9277898
-3.8167334 3.681035 1.9292502
-6.1665878 6.046134 1.9213948
-3.9961812 7.2633972 1.9264051
-4.7876563 7.4030199 1.9209245
-5.4824276 7.5068755 1.9205405
-2.3494482 7.8612022 1.9206073
-6.2506676 0.82275003 1.9359596
-3.4587073 1.1875417 1.9309348
-2.619566 4.5280123 1.9300843
-3.9704204 5.0669665 1.9372452
-5.7326598 7.3980799 1.9358913
-4.6840091 7.5571404 1.9366546
-5.3928895 7.6432714 1.9300621
-3.201731 8.2627411 1.9346627
-5.4368086 8.3013668 1.9339586
-3.8423665 9.028244 1.9364603
-6.3424058 0.95305973 1.9434423
-4.1522622 1.1479378 1.9447984
-4.5905695 2.31057 1.9418417
-2.2399623 5.5387053 1.9461429
-3.4195039 8.8447647 1.9446222
-2.6536741 0.68599135 1.9557859
-6.4925518 2.9885204 1.951961
-6.4257436 6.5117879 1.9554256
-4.2003703 7.4061995 1.9503291
-5.7163811 7.617856 1.9595635
-4.941246 7.7770495 1.9519417
-2.5356345 8.2179031 1.9536515
-3.5136333 1.5033205 1.9696484
-5.2390347 1.6544847 1.967752
-6.7283382 1.6664569 1.9622903
-6.6134787 2.3815799 1.9629219
-6.484252 3.5474522 1.9679701
-3.9984055 5.1653986 1.9606944
-3.6229434 7.5066996 1.9610569
-3.0532801 8.2602577 1.9662559
-2.9123447 8.4308958 1.9682174
-3.0621383 8.5489407 1.9645517
-4.8641992 8.8732109 1.9674608
-4.22925 8.9238958 1.9653108
-3.1822102 0.90281677 1.9790881
-2.2373035 3.7426395 1.9720486
-2.8993242 7.534276 1.9737793
-2.3899946 7.5598335 1.9759436
-2.4411824 7.6234431 1.9725807
-6.2174673 7.9591036 1.9758273
-4.5161414 8.8856602 1.9721924
-4.3262234 8.9081554 1.9704567
-2.4033833 1.0373038 1.9831214
-2.0694914 1.6024542 1.9893805
-3.4729733 2.2703009 1.9870315
-6.4646525 3.2349477 1.9853992
-3.5929899 3.3109193 1.9839445
-3.2904084 3.6413958 1.986729
-4.7233047 3.8700423 1.988019
-2.2615523 4.5357399 1.9867213
-6.3803177 6.8048325 1.9815743
-2.6972687 7.3584194 1.9886136
-2.3948212 7.5156627 1.9862133
-5.6400862 8.0341854 1.9892645
-5.1770258 8.0880756 1.9814426
-4.6765647 8.0971308 1.9863346
-5.822382 8.3095455 1.9891729
-5.1966896 0.33382669 1.9919146
-5.4322982 0.8908056 1.9979417
-3.4902761 2.6451058 1.9917448
-3.5597696 2.9975734 1.996172
-6.4482775 3.1405196 1.9967134
-2.2664993 4.5392509 1.9905567
-2.8618255 5.1179399 1.9994889
-5.9553032 0.75890595 2.0008767
-4.5682988 1.2686576 2.0055618
-3.9480448 1.3352311 2.0091746
-4.8008375 1.4861915 2.0014088
-3.3803687 1.5451503 2.0080523
-5.1845064 2.4639683 2.0044107
-4.2008624 3.6673164 2.0064652
-3.1703262 4.4649396 2.0019484
-3.1005921 8.1094313 2.0099754
-3.9578252 8.2432404 2.0062423
-5.2028403 8.5607634 2.0059602
-3.8600368 8.6376648 2.0092111
-5.5559783 0.46108902 2.018538
-3.4551044 0.84142137 2.0121589
-5.2951193 1.6410549 2.0151279
-2.1203492 2.1468239 2.0126724
-2.3022215 3.0834885 2.0175166
-3.4164004 3.6531668 2.0134883
-4.3361373 3.6659329 2.0148752
-2.8652191 5.0683947 2.0116119
-3.2488511 7.1277018 2.0191135
-4.6498127 8.3447418 2.0150461
-4.5830317 8.3590412 2.0104098
-2.2572701 2.4754744 2.0236676
-2.9292698 4.6332712 2.0219316
-2.3400548 5.7744765 2.0242159
-3.4376483 7.5891995 2.0247302
-3.8775425 8.3132429 2.022665
-5.2944765 0.50563276 2.038986
-2.333775 1.3026164 2.0331526
-3.1388094 1.7753121 2.0305467
-5.3914289 2.5912132 2.0357575
-3.7635198 3.6621704 2.0316815
-2.4681106 6.2173953 2.0305688
-3.6300187 7.0149698 2.0333343
-2.804512 7.1440091 2.0335054
-5.310039 0.81141454 2.0444069
-6.3704133 3.1869032 2.0477185
-2.361516 5.6275702 2.0414269
-2.4407058 6.135848 2.0463991
-4.3520427 0.35213086 2.0593877
-5.5017819 2.8689806 2.0558791
-3.2163882 3.8868504 2.058908
-2.9936037 4.5006361 2.0577283
-3.9538286 4.9435883 2.0543268
-1.950282 6.733119 2.0544682
-3.0854776 7.352066 2.0561352
-5.8228679 7.8669634 2.0559175
-5.6024914 1.6717668 2.0673583
-2.8801613 0.99072367 2.0747209
-6.2467151 1.4730737 2.0792413
-5.6019564 1.7552856 2.0727539
-3.5490792 7.71841 2.0791416
-3.74033 8.2008553 2.0703802
-3.2339189 0.77499849 2.0813892
-5.7413325 1.0871996 2.0833838
-3.7461078 1.9756062 2.0813897
-5.5114288 1.9800951 2.0803764
-3.1856885 2.6951892 2.0888119
-6.2549515 4.6148825 2.0837433
-5.4654031 0.83629686 2.0947766
-6.3489323 1.8917361 2.0912642
-3.056519 3.9315984 2.0904264
-2.4485512 3.964298 2.0937078
-6.2269311 4.097436 2.0900664
-5.0427465 8.1469154 2.090034
-5.0324502 0.73588264 2.1066771
-5.2954879 0.97700059 2.1079926
-5.3747406 1.0489376 2.1055353
-2.7523048 1.3429079 2.1083772
-6.30653 2.192143 2.1028216
-6.2052231 4.5815473 2.105463
-2.4677918 6.4102697 2.1014047
-2.47205 6.5019584 2.1046228
-2.2420952 6.7882228 2.1023836
-3.6898379 7.3956695 2.1053233
-5.0041227 0.85510647 2.1161046
-3.8798518 4.4142742 2.1114056
-3.1784604 7.2941508 2.1156373
-2.8240156 7.6966934 2.1138935
-4.0834975 0.754071 2.1205993
-4.5608373 0.84004653 2.1278708
-4.6782746 0.87118334 2.1269822
-4.0713825 0.89049369 2.1289411
-3.6614835 1.0144124 2.1246386
-5.2013125 1.0839131 2.1211555
-5.0933523 3.62746 2.129436
-3.7599916 4.3397026 2.1262136
-3.9766903 5.0509238 2.1259539
-5.8753576 7.0220604 2.1243896
-2.7289374 7.3740788 2.1277654
-2.9085312 7.7488451 2.1240783
-5.2025084 3.62746 2.1328077
-5.8579044 6.5158401 2.1316807
-5.8997865 7.0061855 2.1359594
-4.5978341 1.0675136 2.1413703
-5.0269289 1.3225757 2.1470416
-2.7289128 1.5939968 2.1440744
-2.5904593 1.8625256 2.1427228
-2.471982 3.3477149 2.1498446
-4.0845251 3.6425719 2.1405265
-3.7798345 0.93131334 2.1520116
-5.6848354 1.3177203 2.1522586
-4.0287552 5.0749507 2.1582999
-2.4853072 6.098731 2.1590738
-3.6751902 8.0226326 2.1578474
-3.932878 8.0888538 2.1511583
-2.9499292 4.8950477 2.1697567
-2.9493804 4.9001212 2.1610913
-2.4871268 5.886456 2.1676555
-4.5554562 0.96688282 2.1731451
-4.2988572 0.9889254 2.1796618
-5.6428604 1.8092093 2.1759396
-4.9741983 4.3180213 2.1731308
-3.0038409 4.5999846 2.1753926
-3.9016347 4.6301475 2.175374
-4.8314023 1.0669863 2.1857245
-5.4252615 1.2693808 2.1801353
-3.196454 7.8055334 2.1816442
-3.2410736 3.6320043 2.1926608
-4.2015305 3.8699355 2.2040753
-2.9333842 3.9166746 2.2004261
-2.5078518 5.6963005 2.2079153
-5.0008769 1.2782679 2.2191038
-3.3509386 1.4844716 2.2122011
-3.2385697 1.5576315 2.2191045
-4.7058496 3.6334169 2.2281601
-3.9592578 4.9697566 2.2273536
-4.5874252 7.9723816 2.2267566
-3.24893 0.72997403 2.2387373
-5.0693378 1.4934723 2.2355471
-3.8193221 1.4908533 2.2347386
-5.193449 1.5254107 2.234479
-5.5190988 1.7482471 2.2313061
-5.0768247 4.3663373 2.2382097
-6.7591205 6.8025265 2.2350016
-4.2988734 1.4344354 2.2439034
-2.5075536 3.9393644 2.2577393
-2.5984151 4.4503565 2.253027
-2.9073403 6.7599554 2.2594304
-5.988903 2.1577749 2.2651229
-6.1548238 6.7946963 2.2656198
-5.6362772 2.6390791 2.2781501
-4.6613932 2.6446245 2.2736773
-5.5587358 3.8355141 2.2734413
-6.6537147 6.6847124 2.2736778
-2.1924605 6.7702494 2.2777078
-2.5476923 5.4377422 2.2806795
-2.552285 6.4323783 2.2812135
-6.5999098 6.7063303 2.2816308
-5.1676846 3.6951628 2.2983866
-4.3406916 3.8184354 2.2970049
-6.0372314 4.4372354 2.2933502
-5.158143 1.8770967 2.3075571
-2.9081452 1.9669433 2.3048038
-3.0797982 2.0267196 2.3076279
-2.573843 3.8881872 2.3003426
-5.1452923 1.8483145 2.3113959
-3.8798866 1.8654571 2.3188689
-5.5499749 3.6611924 2.3101223
-3.91449 4.6671362 2.3128881
-3.1102822 2.1140637 2.3222594
-3.0804694 3.1864588 2.329771
-5.7586555 7.39118 2.3282878
-3.0824549 2.204937 2.3386106
-5.4296193 3.7088642 2.3349185
-3.1470037 3.14487 2.3458588
-4.8333416 7.7219057 2.3465886
-4.901906 3.7163258 2.3551831
-6.1330795 6.2718229 2.3569188
-2.8506362 6.7233105 2.3505194
-3.177844 2.1275897 2.3625617
-5.6984477 7.3481512 2.3658361
-4.102118 3.0133929 2.3796406
-3.2848911 3.8319364 2.3723531
-2.8838923 2.2815237 2.3868811
-3.7465804 3.3148735 2.3831739
-5.1967969 2.0125971 2.391685
-6.0865793 6.6649261 2.3960748
-4.6060658 7.6421709 2.3959579
-5.9806724 2.7736783 2.4081256
-5.6838346 2.9420063 2.4060991
-2.6137574 5.3082461 2.4016247
-6.0730529 6.8260226 2.4008188
-2.896862 2.3474154 2.4104028
-3.0785356 2.4182801 2.4195249
-5.9505363 2.6850054 2.418741
-2.7614868 2.6839361 2.4113603
-3.4680824 3.4171805 2.4131162
-6.0907249 6.2072039 2.4199605
-3.0665889 2.5392709 2.4265237
-3.8110261 3.2151146 2.4275556
-5.5736899 3.7007632 2.4330685
-5.9624896 3.9852881 2.433681
-5.4511805 0.81355846 2.4591079
-5.6301761 2.5944326 2.4528317
-3.0812449 3.5347764 2.4561839
-3.0409451 3.1556289 2.4605989
-4.2347903 2.1533592 2.4797878
-3.0572104 3.520036 2.4757175
-3.0905063 3.6729662 2.47753
-2.8750803 6.8590879 2.4772551
-5.9699059 3.1181269 2.4845982
-5.6871419 3.1483274 2.488992
-2.8894663 6.7432494 2.4850807
-5.9935994 4.4600868 2.4934616
-6.0232415 6.8493204 2.4960337
-4.826942 2.5059025 2.5060062
-5.8665037 2.8162766 2.5042973
-2.7241476 4.5935392 2.5081482
-2.682102 5.2880087 2.5000782
-3.316206 7.2245941 2.5018039
-4.5947204 7.4186573 2.5051384
-5.5027099 2.6856635 2.5194738
-5.6544909 3.5855074 2.5194149
-2.6868289 5.9221916 2.5117674
-2.7614396 3.255595 2.5213668
-5.9713182 4.4507256 2.5262754
-5.43643 0.68817955 2.5425262
-6.0094433 6.1130042 2.5401411
-4.7870564 7.3246946 2.541914
-3.1373446 2.8938322 2.5572941
-2.7594523 3.489265 2.5581532
-3.0622797 3.6720486 2.5565245
-3.0524473 4.2476315 2.5528774
-5.45118 0.51135117 2.5691702
-3.2044594 3.7504654 2.5639114
-5.851655 4.0848637 2.5770254
-5.2256336 7.1374912 2.5798137
-4.0902686 7.2743187 2.5734398
-5.5833807 3.8668709 2.5827668
-3.053407 3.1942477 2.5902848
-4.8922997 3.8047941 2.5933406
-3.5228796 4.2566471 2.5958853
-4.9223757 4.2643242 2.5983129
-3.2878225 7.0188842 2.5933702
-4.8411303 2.6936371 2.6063673
-3.0883274 4.4195595 2.6062856
-5.6425481 4.3642902 2.6146297
-3.45259 2.9626873 2.6325846
-5.8811202 4.2924199 2.6418867
