# .PCD v0.7 - Point Cloud Data file format
VERSION 0.7
FIELDS x y z
SIZE 4 4 4
TYPE F F F
COUNT 1 1 1
WIDTH 1615
HEIGHT 1
VIEWPOINT 0 0 0 1 0 0 0
POINTS 1615
DATA ascii
73.694191 107.98244 12.472425
18.657444 157.842 32.37228
21.546284 131.7804 30.900457
51.143162 141.16669 5.0625958
28.384966 109.18248 4.3050299
38.946049 101.52869 4.3050299
41.611649 10.314494 18.105141
27.665127 41.264107 19.5653
18.199921 79.071274 13.84843
52.055485 69.709213 13.797737
15.115401 46.853657 27.583328
7.7193074 151.80023 25.447834
45.226398 83.037483 15.159226
60.635998 88.159409 4.3050299
55.924866 41.781448 27.346367
66.784767 107.2871 7.8217711
10.190487 24.375475 6.9640474
31.569042 35.687843 24.976696
21.887407 121.0004 20.013214
42.560371 151.24686 14.130545
4.48805 141.3649 5.2557259
43.757538 117.04177 27.231335
63.673325 130.57501 14.805445
64.885681 89.55854 4.3050299
58.174862 68.024155 4.3050299
64.388069 122.90868 23.700285
45.554497 47.419159 17.369734
41.858299 134.20024 33.621006
21.2208 54.716972 28.324394
44.902943 19.461988 4.4966202
56.082146 47.277348 9.3214703
10.154962 55.592472 10.154743
5.9707227 146.45087 3.8474662
50.585358 171.55078 16.407906
28.557819 81.71907 9.3214703
64.953453 113.67463 28.61063
72.323219 165.62634 30.059853
22.6717 42.0924 16.991709
19.1712 25.29314 16.813282
74.089096 111.25569 18.080156
7.9664516 167.69267 27.409058
26.822117 167.62241 33.275734
19.1712 40.97913 5.5834293
73.877449 62.575867 21.08193
70.885193 108.00245 16.46583
77.215118 44.840874 21.654577
15.5541 47.529144 9.1150923
56.363083 136.98267 28.821873
22.663401 85.150856 4.3050299
59.941231 42.990479 22.406212
17.215038 107.99948 22.01178
56.0047 112.37675 32.948452
28.054281 110.03692 32.342026
50.359409 68.651848 12.124784
65.617416 89.829727 13.853634
19.1712 48.623577 8.698245
68.366158 50.491474 18.136742
18.745033 112.49524 26.154949
61.814949 105.00522 4.3050299
10.314325 58.111988 17.296701
20.756901 139.49129 15.012472
45.482445 170.52542 10.264984
75.289078 44.410427 18.718676
23.246166 38.058998 4.3976164
60.181309 92.716194 34.572998
45.308937 80.222107 4.3050299
76.250572 127.43122 24.413111
15.356194 29.599077 15.868401
72.587158 141.92792 20.766796
73.277695 64.914261 13.025325
30.652615 159.97623 12.088966
69.87101 93.938858 15.591963
70.868164 123.71243 11.387879
78.418419 156.92923 4.1459861
65.0522 30.883484 9.9739332
10.661074 84.80555 4.3050299
68.737099 29.490089 5.7350378
10.574628 160.41721 14.215885
19.812881 93.74337 22.956707
7.5752335 130.74251 22.319065
74.928894 114.47871 21.864233
79.917496 142.58675 28.016079
36.487183 136.95258 22.063238
30.412643 100.33601 39.04068
6.8229227 135.78499 21.653639
45.226398 93.576981 20.546377
41.583241 66.469376 17.224834
33.796448 125.67635 19.994013
45.226402 56.413277 9.9700375
10.237486 88.574249 21.937298
53.13269 150.47569 24.811405
60.910927 72.269791 9.3094501
46.136086 112.81439 4.3050299
51.881485 89.671654 42.138359
65.138489 168.72681 33.484638
31.105993 116.79098 4.3050299
45.226395 94.290657 9.8695126
28.214924 98.744278 29.210377
46.282619 123.62411 26.893208
6.4160762 126.42412 5.6581964
70.831589 23.853369 12.819187
11.033539 144.87498 22.223406
75.921516 35.194939 10.508583
15.752614 66.940262 24.521595
16.584585 160.2178 19.456972
75.18663 30.598394 23.879303
25.673592 173.99892 12.155966
55.130527 169.98206 11.13107
9.4837227 155.3622 18.279705
21.027328 115.35311 13.240771
36.467392 14.631319 5.5570202
14.133513 50.11879 14.885434
72.334251 110.12349 4.3050299
74.948051 113.93751 27.883318
67.828178 113.39461 7.9588408
26.141985 103.52799 33.226383
65.797539 54.037292 13.037514
43.589439 138.63901 18.08128
50.066692 55.918915 23.264065
73.481232 83.019714 5.3334613
74.85807 103.10535 21.229359
39.374203 153.78726 6.5195079
39.590599 115.24864 16.679771
56.165771 43.327332 9.3214703
26.470074 37.48447 24.227327
71.369347 156.77794 13.921784
40.48682 47.914886 32.899147
8.4470348 120.75257 22.596918
17.90032 168.88077 25.801252
38.997002 94.993736 11.49902
61.370285 18.675577 5.5570202
53.471066 105.98167 37.224026
36.588856 49.899361 23.348467
30.308504 167.99239 33.345707
56.260334 158.66174 11.758483
41.79657 11.193404 5.5570202
46.317787 170.75763 11.315921
22.575615 17.756521 21.33287
39.032597 132.04848 18.405304
25.687653 48.697826 24.84639
44.21357 49.636673 25.664371
53.28648 120.25793 13.639875
71.705635 46.807022 11.324538
49.418419 147.8958 5.8394322
27.4807 146.33542 25.059563
45.788898 56.049408 14.576195
22.58651 34.785038 4.4220262
37.760895 80.876076 9.3214703
15.367754 83.576233 5.5570202
34.046295 164.29494 9.7493992
16.079321 77.209007 5.5570202
15.320836 23.779312 10.697598
36.471542 138.09706 22.072155
73.86528 142.14233 20.942732
24.882631 14.84979 4.4966202
71.263794 96.716949 22.128094
50.624592 136.76009 26.6038
67.536911 169.51392 11.045705
23.940809 75.659103 9.3214693
8.512805 122.88011 26.307726
15.5541 36.678989 22.640251
27.857887 20.261131 5.5570202
10.300963 82.663536 17.879326
10.039721 151.01707 16.2045
47.240299 44.25692 22.529369
54.080582 6.227397 11.820538
64.808098 153.34781 33.414745
50.956223 38.920094 27.077345
26.611765 163.92322 24.3575
34.950962 81.090424 4.3050299
6.9963226 125.11861 7.9819946
20.361183 127.95489 27.258005
12.461175 34.156593 20.75198
13.057386 117.9395 6.8502569
73.48497 81.552338 13.230295
28.087948 109.65495 33.685242
10.628633 135.54692 7.6995788
29.131285 88.283676 41.114239
42.550751 118.67363 24.828594
65.905663 87.201996 20.944105
11.01757 22.711905 22.154549
50.21854 149.51349 27.152285
38.14357 113.76736 34.900414
38.973801 49.675701 25.000408
69.694244 107.17944 5.80021
45.827557 120.78989 25.143885
39.613483 168.51846 14.921183
69.714516 56.032787 13.154904
11.231354 97.263832 16.260523
39.239044 111.91064 31.533129
16.652006 85.684105 25.750729
13.346172 121.40567 11.684155
19.984617 109.41074 16.605362
78.971725 147.32275 26.03558
5.4503541 140.85791 19.888813
71.053978 94.786613 5.6463995
28.725849 41.976063 24.857351
69.397408 173.08759 16.549765
30.600811 56.586617 36.075951
74.904053 147.17879 27.624741
63.143242 9.4569063 4.4966202
30.479065 133.40205 4.2992668
42.66394 145.823 28.174107
13.324516 101.12648 26.977962
74.120583 31.770027 1.6238397
8.5018806 30.655815 7.341877
73.396896 53.375793 4.3050299
15.553669 47.3498 7.9376564
64.918861 91.208214 10.514385
55.354584 78.797562 42.020061
73.690117 92.212219 4.3050299
72.788025 110.04318 27.759905
70.5373 63.903633 8.8496103
57.372742 68.592377 12.426805
42.375679 119.42221 25.298595
31.745693 47.781601 31.491268
30.813988 138.21243 27.260357
59.939331 84.985001 20.160084
48.97897 101.36806 31.911993
76.668671 34.839722 15.48616
36.86129 123.70758 24.031151
28.292236 93.429352 39.777214
27.818953 47.322903 29.821302
73.938934 164.0513 30.257278
60.852867 65.407516 4.3050299
10.520531 149.46054 15.252996
70.880775 170.75307 22.243786
13.024451 150.60622 15.378157
76.925629 145.20227 8.4687996
46.413834 107.29361 30.566313
76.293739 26.863995 6.7206044
12.9893 30.380266 2.6438229
67.944466 172.46835 16.132256
12.922214 140.44901 25.838957
65.471458 63.860626 9.8226156
58.011101 66.225578 38.368401
30.157375 50.007912 4.3085265
75.76001 21.052017 4.4966202
47.294601 92.511681 9.3214703
67.471794 144.96808 24.492327
26.449692 63.791946 36.958981
56.89053 45.536705 24.380611
27.227993 120.53763 29.214817
29.631582 52.924232 33.71207
24.225491 142.09351 31.56609
75.75827 152.76306 25.048954
44.211128 142.23322 28.951305
6.9337406 137.22762 23.480673
15.351933 114.83696 7.5995979
9.826436 113.26124 24.55946
70.949333 152.97273 11.577697
14.301598 146.55397 0.11178924
63.073063 167.73518 27.157551
52.289383 76.338928 42.783714
74.21505 97.13324 16.286755
29.449602 49.850113 21.507919
69.800262 172.68694 17.388474
58.693119 137.85783 13.731847
71.687515 47.365673 4.4581947
73.754929 108.96655 14.827704
10.125541 111.3186 19.307734
34.828949 160.99898 12.395569
34.473415 118.79741 28.598198
76.39238 128.77867 11.898907
19.013699 109.95156 4.3050299
57.724964 141.65276 31.79122
49.489742 46.18539 31.283691
61.639297 57.023155 4.3050299
7.1730075 148.40567 18.370554
74.860718 117.50154 5.9400539
20.262362 122.20195 18.3822
55.637543 75.974426 41.386646
13.920994 109.99213 13.189054
55.585976 132.36241 4.3003483
8.3030386 121.8185 27.479874
72.134796 103.77469 12.823206
54.998085 5.725605 4.5904551
10.281042 45.584175 2.766742
29.818344 141.29831 5.0778265
69.173241 138.33835 3.6719823
32.289371 160.25444 30.832586
20.432121 132.60318 31.262207
4.4880495 138.78369 6.7320395
65.414673 163.23979 12.885035
54.677067 166.59134 33.259209
77.223984 149.38759 4.8361454
73.456444 153.77893 10.963306
59.94302 115.05829 4.3050299
6.3165474 131.75313 6.9063845
42.918289 88.125816 4.3050299
19.1712 28.372858 9.1382837
63.807514 128.48512 27.113434
73.915756 79.255905 17.668747
28.611303 164.02544 9.398303
65.063583 115.45589 13.867179
65.0522 29.580601 13.285003
44.295029 168.54936 14.938174
72.072227 133.22995 10.912123
19.769392 122.47462 21.973076
46.707237 103.62177 4.3050299
20.085703 145.30243 34.215927
20.683828 132.46201 27.327923
20.535061 132.14264 11.497032
76.823486 151.709 12.966441
72.011353 132.99716 30.905495
74.149292 158.03497 20.720476
53.902805 101.39785 35.697056
42.546497 113.80971 35.308239
61.394451 10.735626 5.5570202
6.0722575 130.05186 17.218689
69.942711 91.420486 15.171979
71.029694 41.610474 34.06665
60.916626 39.071201 21.204239
35.875511 85.282158 9.3214703
63.617889 131.29939 27.726746
8.0051146 143.12556 21.573626
10.698281 131.96698 21.832184
71.795097 126.90073 30.016275
42.49474 165.35846 20.306999
65.351761 116.62386 12.630383
33.942806 88.097565 42.688648
43.078133 159.28804 20.704287
75.74231 153.543 24.725842
10.462833 110.22336 11.590961
40.486099 30.400854 23.164309
74.088913 45.396645 27.926445
29.397728 110.04415 31.368565
12.7072 43.204536 14.851089
32.00959 168.91185 33.683151
23.043392 97.404747 24.171854
41.019806 170.50702 11.463585
23.021215 168.21143 24.225346
38.997002 91.67276 15.652828
18.098789 109.17982 25.172335
55.709969 119.56987 27.828224
62.587837 51.559433 21.316216
33.650986 153.30544 6.4638839
34.278286 163.72766 30.397079
13.022305 153.70752 6.1800156
7.3998647 160.4016 14.334505
33.954094 99.809196 36.714146
11.671846 141.50864 20.422756
8.1358395 41.984261 11.239559
76.314575 130.24007 20.177694
28.867655 44.635303 28.953342
19.713087 111.64996 28.405064
73.826248 67.185219 14.613119
27.930237 95.128281 28.25423
52.833427 21.098402 4.4966202
9.6969357 42.447876 12.661071
73.868782 91.906082 4.4725475
64.081627 168.83038 33.668194
18.097967 111.53033 20.994616
8.0466595 45.363197 16.979841
65.255989 86.554398 10.142406
76.167709 30.684332 23.944973
79.219803 132.62672 26.455086
63.826035 112.30382 13.308006
6.2439098 147.6122 0.027542979
13.08234 40.193275 28.365747
63.811844 55.344482 21.406437
36.749184 117.00949 21.913853
79.021423 155.38519 29.196997
34.759239 95.368958 28.297714
69.189217 37.692921 0.48363021
53.451553 168.07523 24.55768
71.997276 123.22876 29.397873
18.7584 15.556557 19.190792
9.7649193 155.10577 23.680912
16.512688 95.53743 21.583307
41.231506 111.67944 4.3050299
6.5427256 160.86217 18.145622
30.56617 135.52107 4.4108777
52.928249 118.52593 34.697216
38.018604 114.16015 35.094261
77.894989 149.16554 27.425251
66.087189 92.389847 26.276264
9.8262396 139.3988 32.982727
32.644825 156.3316 23.312805
41.847477 168.43327 24.127924
54.591499 134.10358 28.5982
45.900085 164.60681 13.447521
49.440338 162.55063 12.739713
12.820894 95.89045 19.696459
10.331457 98.151535 15.567152
41.915714 1.311317 4.4819603
40.429523 150.85414 13.05699
27.065424 50.311264 31.041759
24.309242 41.830978 25.37472
56.820374 79.133537 4.3050299
65.0522 45.303883 12.382482
74.6474 151.30679 10.845749
51.168198 69.995079 4.3050299
65.507622 89.911972 13.261953
68.508774 51.9394 12.616474
51.609962 49.510235 23.026674
12.122979 140.12737 25.699547
13.65839 132.46201 27.19433
13.99432 159.2191 7.6006804
9.1514053 125.58859 11.14692
69.830498 76.960739 4.3050299
26.061211 168.65408 23.145359
74.141235 114.78175 4.3050299
77.422699 47.203091 15.289662
9.568224 112.45291 22.347317
51.994392 96.140503 12.576391
67.069626 76.681145 14.332041
40.765892 105.80362 30.268091
8.3906336 46.473885 9.8615913
34.979015 68.668831 12.038515
10.93854 71.635361 4.3050299
35.5522 39.460747 27.717812
58.887589 143.35269 31.687122
67.475502 168.71927 13.865959
30.877705 169.4807 10.750937
34.632751 82.374817 10.349242
74.453674 155.11096 2.6301155
55.222523 132.8974 4.2997918
29.116589 98.24514 39.193008
34.861336 54.599884 35.983433
19.1712 28.450392 17.026497
75.411987 17.480169 12.246346
50.008106 73.278809 4.3050299
38.35775 40.009521 25.932678
14.144992 148.27046 0.1142009
16.085939 160.83649 18.256376
56.145756 102.11303 4.3050299
49.302616 47.701744 4.3257208
26.600853 159.02069 30.932537
73.221924 47.510677 4.6471696
43.383675 6.975913 9.0290985
12.026196 46.717377 13.942559
68.961517 169.8531 8.1909189
10.391732 42.222763 0.87352729
62.585011 102.68596 27.509634
53.650513 52.401291 9.3214703
6.8517022 27.342375 21.995396
44.795547 86.064888 43.56041
69.884552 156.81697 13.255662
11.707329 143.59767 17.867392
67.552879 83.861862 8.0485096
73.414062 92.14119 13.707606
76.233284 127.28554 20.085224
77.232338 27.365389 16.836714
69.005753 124.39441 4.3050299
14.501652 111.26437 13.000348
76.854324 128.82875 21.99231
68.341194 111.04329 9.5845938
27.732845 166.37506 29.818386
61.713062 98.659973 26.428436
16.458847 158.23239 19.444244
13.808681 48.463791 27.010389
8.62117 40.42347 0.33194208
59.813522 46.56041 26.401648
30.516169 117.95418 33.49519
12.828646 156.92168 32.35231
39.400463 127.05135 4.3050299
23.385597 105.52422 26.827606
37.754154 82.31987 4.3050299
70.606979 50.073837 9.8274736
37.761047 107.4184 37.719177
44.663841 169.54463 21.299084
15.167809 42.740917 1.7297275
52.721275 113.13416 34.779419
63.612152 68.864029 9.3214703
31.092892 159.46225 16.477922
19.41601 88.478241 4.3050299
74.425034 169.25816 25.666609
71.813766 149.70024 4.0868478
14.335054 37.396156 28.473267
4.5396276 140.02252 21.671629
18.838537 57.028095 12.343818
28.24868 99.548561 32.294777
38.296925 117.90656 15.464338
32.716896 54.34655 35.427738
20.77051 163.2616 12.889627
49.626522 42.777828 4.362433
35.983494 161.58113 30.578545
35.262852 111.87608 31.874996
55.410141 62.869812 9.3214703
56.04995 39.545101 13.70768
70.816429 33.838112 27.578794
14.719201 160.30197 15.091496
70.828499 73.104515 5.5570202
63.936699 56.879379 27.733488
39.11607 119.27667 23.531351
47.1586 161.38101 24.414654
75.768166 120.69157 19.774689
49.06432 102.15715 39.367821
59.435341 103.70107 28.321346
68.872437 30.727947 3.5875351
11.704548 29.850708 8.7673073
24.748825 125.4604 29.292496
71.633537 99.268112 5.7017202
32.871895 24.426474 24.033825
19.662308 54.332352 25.600784
65.263687 55.75486 18.401434
6.5863366 162.61287 17.009836
13.208179 105.41603 5.7781572
44.561974 51.336151 23.771488
16.614689 107.292 18.22686
73.391296 35.677872 18.62067
49.162731 7.4337363 10.742883
28.557064 80.425964 9.3214703
13.340023 124.60292 4.3050299
38.813293 124.42844 34.663742
15.507965 133.29353 10.524906
76.858864 122.18936 7.5573673
18.360462 94.288277 17.23732
45.226402 73.262825 13.590925
25.697823 98.144455 35.099884
9.395854 102.86254 21.324862
48.373802 105.97496 38.139107
65.0522 25.569757 15.705006
43.243294 109.68291 4.3050299
59.043648 162.89928 9.1190662
39.299961 171.01112 17.80485
4.7269235 146.34564 25.256453
52.373432 138.26385 25.555241
63.466499 141.8676 10.190781
26.372169 116.96782 4.3050299
34.053509 132.03445 32.240944
16.854153 131.967 26.521954
19.082666 61.13406 19.66678
6.8683758 139.89954 7.5427809
65.0522 46.602203 5.2317934
72.3591 44.649792 18.454466
30.868172 90.627373 9.3214703
64.329056 20.272528 5.5570202
33.550472 120.37941 18.806944
37.210999 112.65736 35.646187
9.3822098 116.5121 19.283491
23.012119 161.80988 24.2512
8.3710642 46.589905 14.714833
62.060707 76.838776 11.096529
12.893 146.66928 11.246185
24.344629 136.32127 13.580376
40.005844 89.514236 25.640572
17.163933 99.001114 4.3050299
18.551027 20.12324 22.208527
12.852091 151.56818 4.7499542
65.0522 48.502922 15.100208
28.536064 123.79475 30.881859
68.788651 171.03885 8.3875542
42.926914 79.568253 15.258999
42.736145 69.651794 43.075035
23.410816 28.239077 4.4708323
51.863228 7.2877808 5.5570202
17.801662 107.97397 7.0913105
75.708916 120.253 25.620556
69.108002 46.411324 28.088005
7.9906073 168.79373 17.655205
51.213268 50.058365 24.555126
16.8666 157.67876 13.218256
8.0824471 126.53308 17.569782
15.396175 22.556232 5.5570202
34.797688 81.176239 9.2855062
22.6717 40.385254 21.467892
62.794823 84.189079 20.472977
66.948021 96.514008 4.3050299
11.946718 26.905815 18.434734
14.812656 28.020601 5.3630886
12.935583 61.006683 24.186138
51.044029 66.570969 41.405197
55.869247 95.116058 39.41954
45.109089 56.338772 37.514301
24.109642 68.000359 4.3050299
32.713917 145.823 28.190676
19.1712 26.536081 14.876546
54.098888 101.51009 29.40873
8.6464119 34.150303 4.4767756
29.177038 167.58951 10.566446
11.285707 39.66172 3.7953908
46.037563 161.81781 7.727634
76.384377 134.60211 15.829089
64.283569 73.127777 23.760853
70.728401 74.491158 11.180323
13.629496 118.86911 4.3050299
57.319244 98.4505 36.934608
22.684004 106.05038 4.3050299
75.806335 109.16022 5.2680964
5.2201371 137.718 21.474157
53.786785 122.21429 17.131504
56.713017 89.325493 33.176601
32.631905 71.464493 9.311615
71.6567 150.22969 16.496212
39.051575 137.47321 33.207584
41.383011 145.40009 29.479065
12.684046 147.91034 26.240322
78.131012 130.08736 16.617466
53.382141 44.206387 24.272034
33.049614 116.61137 26.6038
68.669403 47.729881 15.649708
71.991615 155.03561 23.73476
43.719757 164.73717 33.071991
30.644072 137.02838 29.0604
32.5802 86.011871 23.657606
67.595512 65.982285 15.808103
9.875329 132.35358 28.178017
46.3927 116.67307 27.255175
16.298012 150.55539 0.86981493
72.295181 149.4286 22.390795
43.879486 48.421181 15.259
23.066151 166.88327 10.342834
77.421005 138.44052 15.900017
6.9503031 138.87364 12.981609
77.566803 150.82349 16.162077
17.602097 165.17331 30.432634
32.712101 123.7816 33.873638
70.302658 80.350098 5.5570202
37.891376 122.96584 27.711359
77.366455 124.96399 5.8571377
52.213348 83.228836 12.446782
11.253164 97.617599 19.031725
19.094509 76.861954 28.466755
42.944618 40.869602 25.98909
57.165291 73.453323 9.3062677
32.509727 63.273155 39.972641
53.92329 52.504536 22.053154
34.032059 115.56377 4.3050299
69.128067 166.35736 6.9806113
55.302353 146.96402 25.085993
32.059715 152.76006 6.8188868
11.779676 132.14806 10.684438
29.896255 164.99449 9.6385775
74.983841 131.60054 24.266212
61.99205 60.870316 31.554045
17.622898 68.317764 4.3050299
53.548351 132.60918 26.6038
63.466499 147.99852 24.77914
17.906685 98.635796 6.5634928
55.91819 71.491043 4.3050299
21.554987 53.843719 26.035545
57.916004 17.753859 4.4966202
27.647381 69.232475 13.327931
12.707201 42.430672 16.820829
10.898737 101.53175 24.972624
8.2450333 125.13719 21.361332
45.471779 38.886208 27.72649
68.38662 97.898445 26.427244
60.391388 6.4386148 5.3503532
32.091427 114.20563 30.972099
22.6717 39.128082 18.913815
52.409889 46.736427 30.945824
20.905376 171.72699 11.307904
48.51738 99.174271 33.591167
35.279175 33.165844 24.242195
45.357567 142.14833 28.214947
37.760376 72.323181 13.413847
32.312943 118.1696 27.633907
52.669861 138.08723 27.897434
73.951759 133.47296 9.4319277
20.66283 59.591873 29.015499
69.810959 98.318741 26.237383
69.331238 133.4534 9.5511503
44.026833 133.8734 4.2987771
50.019745 157.46629 7.8491573
6.1759882 162.5746 20.29047
19.729372 59.729378 26.018738
58.21323 88.239014 4.3050299
23.317171 23.785215 4.4966202
48.474903 65.741608 41.556156
47.381229 7.2115698 10.427441
59.084324 101.40457 30.185667
72.046326 164.68262 12.147474
14.134022 156.80898 12.135759
37.467873 114.917 21.518452
45.861958 64.854622 9.3214703
60.896347 170.85332 11.08272
14.84971 20.265112 22.558214
28.956997 106.55356 36.157104
27.292015 86.028198 23.713202
65.376022 133.94148 17.78043
21.18853 162.38016 12.703728
9.2963982 161.1138 17.060095
33.171146 127.4156 32.384995
11.016114 142.61122 25.283978
15.069892 160.32497 14.916683
10.473172 58.524345 3.8610797
7.037343 155.58311 15.300135
45.25684 115.125 22.643534
46.626785 35.659527 25.905293
43.138241 49.147606 16.947113
58.441299 20.626917 22.676868
30.278986 150.12094 9.2439775
33.49197 131.18367 23.255127
15.494696 78.820251 9.5029831
65.28511 93.525223 20.778164
67.176285 158.58806 22.230377
63.166695 129.04163 30.707203
71.467598 104.18559 5.7627697
45.236675 20.107244 22.793848
10.703682 57.547916 8.7180033
63.916523 54.933365 20.681261
65.0522 48.830452 12.778459
40.276798 132.59476 24.473179
64.947403 170.01085 22.339424
5.4151201 145.49966 0.3410162
28.063593 132.53061 28.598202
78.428543 138.35168 10.596476
76.969955 155.8978 31.910027
35.355942 171.71841 11.590406
13.681701 34.866829 4.2070432
8.7128773 44.6203 6.6129565
33.914982 119.94006 13.698502
58.416801 96.874634 35.862671
32.352516 151.08649 6.2077298
71.248322 43.630672 23.597622
46.049847 162.12764 10.50638
35.988373 95.349052 4.3050299
25.281479 168.70221 33.479988
67.295891 160.94278 31.460155
75.555161 153.80788 24.616106
46.125549 102.9408 4.3050299
60.861195 123.22613 4.3050299
11.520718 58.516991 13.29917
39.87011 142.18091 5.1797104
47.78149 115.992 4.3050299
50.969299 21.859232 4.4966202
68.808777 29.395901 5.2912855
77.672501 128.02727 10.504837
63.466499 136.31735 12.309252
12.314895 152.37389 33.301922
14.562276 142.44092 21.142948
75.124969 115.9302 18.891888
53.260044 165.15892 13.565039
6.8424969 41.15168 2.3126912
73.163162 99.45919 20.354458
34.677685 85.455551 18.388355
13.692663 133.16479 11.309049
21.133671 92.794983 9.3214703
54.481106 111.43474 34.215309
9.4962368 115.90421 28.267279
67.435257 136.00058 13.753281
42.577763 80.155792 4.3050299
40.638042 24.100073 4.4966202
52.747269 95.609367 40.710419
32.57645 41.817059 19.056057
21.824324 99.689484 27.125763
33.695423 115.75911 33.842461
11.128282 112.80647 4.3050299
5.2883258 132.85063 20.860205
10.743358 94.803871 4.3050299
19.1712 48.939323 16.358757
61.751884 49.496151 27.549721
68.950645 167.40619 9.0658798
64.866623 66.302826 19.972767
47.324417 24.7803 5.1858468
68.718697 43.864506 21.464252
16.999392 132.46201 28.391491
54.869946 56.528988 4.3050299
20.488672 129.65112 12.316928
72.111893 151.00558 21.866016
68.704536 155.93971 9.2285261
26.4245 41.204025 21.138529
27.974228 40.64106 11.316132
51.431465 49.15477 25.007105
51.841587 81.498199 11.718019
20.051682 132.8166 31.951975
17.524101 93.712875 16.030472
68.292969 107.98982 21.170858
19.390755 92.883278 12.716142
75.93708 134.41582 14.413521
71.6567 151.96735 13.059898
76.641769 29.740406 16.307884
46.84948 52.528 35.209915
16.690584 49.574821 26.869415
15.276563 158.05646 5.6145883
13.417753 161.44299 15.460878
26.040527 56.137589 9.3214703
79.610764 137.67174 6.7868271
16.563562 172.65263 12.821698
71.984947 38.055634 10.857732
66.062195 132.03995 19.343876
68.939606 95.758858 21.218843
39.542255 170.07262 20.794067
23.230984 95.984627 9.3214703
51.478844 162.66321 26.610657
10.357893 49.814251 26.503761
54.96022 19.5765 4.4966202
64.47477 83.842651 4.3050299
7.8757815 130.18658 16.064884
53.106522 136.83791 27.627016
36.016716 149.56749 28.48439
36.704617 69.430519 10.117965
53.32412 163.36455 9.2344284
10.387235 106.48944 17.678005
45.38501 3.4378481 4.4966202
17.380779 9.1570454 4.4966202
29.105402 91.115662 9.3214703
68.669403 46.81868 15.483888
8.0835848 123.44507 24.046852
28.970497 89.402344 33.479748
61.908386 119.72437 4.3050294
30.30608 61.188866 4.3050299
52.105556 150.07318 6.0907688
48.731346 98.58374 4.3050299
50.84399 132.76259 28.598202
47.649788 118.84882 16.056005
72.25444 139.90524 7.5337262
25.701572 112.27771 4.3050299
18.120693 111.60298 24.922001
37.33828 137.46489 28.5982
49.216507 157.98279 15.092997
23.866371 49.311367 28.510784
73.617287 63.754364 12.10288
6.8713737 118.88196 20.523567
74.38356 161.21446 16.625841
19.714859 62.67197 20.311954
76.327293 167.92705 17.060596
75.212029 134.54968 10.876235
53.288971 155.07597 10.774338
6.0055332 153.57079 6.0763345
20.285864 9.8758926 13.909187
67.742027 78.282898 7.5145235
37.831001 127.3736 27.080839
52.122021 50.725288 33.223373
41.615738 150.76866 13.853459
60.337791 44.091343 4.3526392
17.023958 167.98741 10.604776
27.232777 87.496956 23.808998
26.516712 142.71463 27.499796
23.423824 86.134842 21.000158
43.963146 170.47556 34.096336
16.839159 54.783585 13.081417
12.378269 80.902122 14.572063
31.965614 81.311066 42.771252
10.091944 94.606354 21.236948
66.565628 109.37518 18.995268
14.686849 158.63229 22.267799
62.952141 52.416668 27.416508
78.540543 160.28789 23.068504
23.189411 28.687334 26.017517
15.32021 94.204041 17.054609
36.041847 120.40269 15.806203
14.119358 166.85013 13.179272
12.533357 161.27118 11.750464
49.896713 100.03916 33.209377
73.447342 51.050552 7.2903891
47.275375 40.154781 24.054424
60.242668 88.450714 27.687531
47.47987 156.87746 24.928835
79.097054 152.03587 24.929811
76.149574 149.48833 22.382584
42.418365 89.561829 43.242119
34.307022 152.32402 15.657356
39.098969 50.040291 34.041264
56.500118 39.142349 15.444253
11.807245 160.13237 9.9267845
58.142075 39.390236 22.056124
66.278656 58.325188 4.3050299
70.965408 161.44299 14.211193
64.164894 17.3403 19.816719
75.178947 107.34224 14.516699
35.895161 118.44482 15.628365
19.1712 32.211021 9.0078745
50.373787 84.806213 9.3214703
57.03582 78.903824 11.704195
53.601322 73.462265 4.3050299
46.713539 132.63205 21.346457
12.707201 39.414085 6.5383968
67.899437 133.22404 13.958345
22.136841 49.008926 20.366003
16.363121 138.20589 21.735605
28.663229 65.583702 4.3050299
64.461075 69.749176 24.305874
70.352692 31.833225 27.059053
46.919521 174.28683 12.227073
11.176709 50.102127 15.011999
37.106564 171.32674 11.208664
63.944336 120.11864 29.022984
8.6444149 119.29147 18.393211
39.750984 165.05919 19.133154
34.452568 126.33478 24.317127
10.560495 56.062759 7.3810101
56.878807 157.43925 11.424426
15.170319 122.10815 11.593931
55.515629 135.24425 28.260178
27.820053 132.32446 26.919477
60.532951 93.328598 32.792374
43.812492 21.320953 5.5570202
22.043242 80.976128 11.564716
22.603649 100.44553 26.305389
68.652649 76.128288 9.2040024
39.487656 139.53999 25.791191
19.482042 107.17947 26.271935
36.313221 169.4469 33.841934
28.550245 166.3887 10.270409
26.227135 97.268051 21.861147
43.949966 52.581345 35.482998
32.230793 76.846474 4.3050299
20.63139 88.431961 28.262177
4.9390316 159.93297 13.432081
4.48805 138.77626 8.9527569
43.892975 111.01157 36.394989
78.487091 161.32095 27.017427
14.791912 48.613686 20.912373
14.793828 111.93156 4.3050299
10.427463 50.602936 5.9378524
10.022017 162.29865 30.687965
6.6425061 149.84935 0.32202145
69.418343 99.805962 24.742683
73.625778 44.369347 18.761257
16.622791 159.50374 14.553459
11.547689 49.570061 8.2410889
28.213408 102.88956 4.3050299
69.953796 42.487701 11.370586
48.739525 125.11765 26.254295
20.322094 22.346523 5.5570202
12.617722 107.292 24.192553
14.093474 19.056875 19.477362
42.949463 138.36099 24.696743
10.395348 134.03238 18.118597
64.052666 160.83394 18.267399
58.331081 10.232143 9.7743664
51.073807 111.49725 35.712082
10.937883 43.817661 8.1471176
10.268754 86.981323 21.890425
62.916977 109.27103 17.613756
38.962807 145.24377 27.584169
14.180881 132.03957 15.886738
22.603079 47.0975 19.35004
79.735397 136.52676 12.412781
28.55271 122.56641 16.892355
32.999405 82.800949 12.721193
75.2071 50.511337 23.622879
72.545555 29.489922 9.5799294
21.184351 9.0074644 11.299415
50.302067 120.19798 22.381153
62.012238 169.50269 15.464216
47.363274 116.92163 22.602766
33.37318 122.24881 17.133812
6.349103 151.14149 21.808815
57.062 49.681015 23.194788
14.556816 94.037659 5.6371942
33.7813 42.802559 29.207169
50.585297 88.199455 29.472755
56.510429 67.884048 39.461208
37.959675 108.95355 30.896595
67.21981 132.07852 14.570887
44.621773 41.445057 4.3723698
45.128418 121.81204 18.137203
46.556797 126.40994 4.3050299
18.625946 93.016068 20.356405
59.857037 85.058678 17.307789
30.39666 120.56495 15.228029
10.84923 23.931149 13.407673
20.674173 47.343513 26.486607
73.17157 107.29201 23.815889
8.5848188 119.73264 22.189287
69.508469 153.27405 5.8513489
48.894409 137.93773 33.104202
47.680916 163.60049 31.510555
56.92907 70.558411 9.3214703
11.104637 159.37555 20.987766
47.118618 147.73016 27.764017
38.997002 47.367401 10.706549
39.659203 111.46746 36.202229
18.447273 111.83266 15.096812
52.479702 124.3465 19.196312
21.96162 100.49338 25.979319
29.396015 106.44175 36.486801
74.653412 133.21219 13.790922
37.444763 125.31335 21.320435
68.243439 132.14632 10.768222
9.8536263 16.360455 6.6249876
29.275375 110.34005 34.512367
72.481522 153.46375 15.511659
61.420467 83.114273 4.3050299
40.374706 40.604366 25.972054
24.924206 8.0183086 10.974453
63.240417 95.19812 4.3050299
22.316959 169.96683 15.686028
16.493002 156.80156 24.083509
45.037945 151.647 26.420429
33.639091 51.64304 4.3050299
57.498428 90.437042 31.587757
14.759706 104.47764 4.3050299
49.4935 45.868423 24.407684
9.3914452 156.64038 32.094776
51.827774 160.56595 17.1113
34.850071 115.22786 24.8372
39.367638 168.17383 21.651997
18.407499 113.41611 25.813713
33.069218 124.20725 28.5982
52.813034 89.912003 30.268669
63.821411 128.38107 24.160192
47.340244 66.129883 4.3050299
27.811575 107.87083 31.363604
67.427261 131.37561 4.301374
53.312275 18.700483 4.4966202
51.710018 137.61752 26.641634
64.635918 121.30109 18.904934
45.449295 12.431761 19.21501
45.788898 63.622063 15.629642
29.237621 68.365219 40.947403
72.164688 36.177055 24.827271
6.8007202 29.02125 8.7963953
71.391388 89.081909 25.786034
52.999115 170.4637 15.912473
13.345293 83.729813 5.5570202
67.074837 170.4135 22.062962
18.433496 165.99066 10.131074
72.374611 134.62575 16.008783
70.433533 62.956718 13.551609
44.604149 125.02371 27.463305
38.044067 70.256638 42.981213
71.21846 138.02313 13.660204
69.580719 11.1141 12.470991
12.660986 94.473724 15.764833
47.532104 164.20312 32.895481
10.125029 158.8611 6.7363687
75.781776 25.40556 12.760048
5.4617848 155.47348 29.961853
13.160393 99.21225 4.3050299
16.709326 124.8217 30.233124
67.909286 83.152054 15.970942
45.226398 86.539032 15.871357
29.675457 106.42972 34.049511
11.517543 43.26136 17.013987
55.214794 51.444691 24.492954
16.996269 127.27483 30.682125
33.42041 120.70731 15.857727
45.536896 169.52098 15.740778
73.277252 80.782883 4.3050299
57.519051 157.00165 22.710379
44.328381 144.39131 24.698189
73.384491 57.503601 7.1793394
69.008263 166.22934 8.4145069
48.742531 131.16603 21.285423
69.693695 81.660385 14.615181
57.442219 169.42235 33.834534
30.855967 90.602394 32.255154
75.242081 119.44551 26.12195
47.784576 158.12534 31.54871
23.200642 119.59605 29.072777
45.441711 18.491219 5.5570202
39.226746 128.70682 23.576921
45.896614 53.133228 21.699619
56.461517 87.260811 4.3050299
74.235634 27.062111 18.802284
8.1712255 125.7593 20.918791
50.289059 66.014297 41.365395
70.227615 150.1106 25.950701
38.42688 90.149612 9.3214703
61.008701 17.551615 5.5570202
10.289342 41.853123 34.321095
47.826252 129.81039 4.3030014
19.1712 33.030266 6.4840031
46.012337 6.8717079 10.312191
34.342281 92.199638 4.3050299
65.0522 38.305595 12.243971
69.199387 146.40833 22.54155
16.859413 96.671188 4.3050299
36.43462 112.19416 4.3050299
16.321959 80.985283 8.3849125
8.7105227 49.11274 7.1369591
52.625511 119.22858 13.818788
43.805756 170.91496 9.615037
69.987762 18.823357 21.301517
53.187836 79.197754 42.582439
48.637753 72.039536 9.3214703
26.000862 39.098427 4.3898664
49.955482 16.715542 5.5570202
68.307076 107.53785 4.3050299
10.537351 25.707947 9.9977131
59.854225 69.309311 13.403652
46.077579 100.60007 4.3050299
32.559719 94.513672 41.18895
49.414219 90.435455 42.479107
20.958607 17.3403 21.892822
6.8007202 38.316841 22.814857
67.441513 132.46201 22.163261
77.041275 49.604164 14.165525
34.017975 146.40955 5.6678534
9.9105215 138.79572 17.006304
66.393326 110.17046 24.381037
69.855194 132.03583 16.364916
69.10276 31.107046 2.7707076
58.284092 150.57648 31.43697
14.985858 143.60883 21.832218
41.631687 167.63289 33.277714
38.883869 96.140503 13.803322
45.803596 116.88315 14.726016
75.61927 20.372503 18.024307
67.723602 77.969658 7.4138002
57.056522 133.22466 31.681263
65.947617 112.65955 14.351816
15.339561 68.372925 7.3411741
10.268791 85.925682 19.611534
65.565254 56.612122 24.527922
12.838586 85.566322 14.837291
69.517479 86.331108 4.3050299
76.65612 118.00783 16.138847
68.218582 167.32135 13.1263
17.143866 122.83185 11.500981
16.477413 101.39489 5.7279739
13.477163 34.532028 4.3330779
61.387611 22.638206 5.5570202
71.172165 35.120525 24.688164
65.51416 57.687481 19.647274
36.747005 164.29355 32.945938
22.632479 121.48598 29.150814
24.205828 99.534805 31.158253
48.045506 14.477338 4.4966202
62.148766 52.881104 25.472931
29.46047 135.23521 28.598202
35.351906 103.34886 4.3050299
73.829666 39.604916 12.928568
33.494186 97.747986 28.727436
74.280014 99.383255 14.388636
11.737398 131.967 23.591587
41.501762 49.931992 27.519365
71.141663 144.89577 4.1616421
36.517448 72.801857 43.123093
22.6717 40.428726 15.418606
12.71525 50.681492 26.615179
39.774174 84.721977 16.633476
25.813349 166.51617 29.2756
29.113398 147.39523 6.8088603
5.210331 151.41724 21.692738
68.472275 144.52505 25.928139
75.637779 128.73999 29.0732
9.2116022 104.48562 21.653744
37.716156 145.01678 29.673666
40.841789 161.29497 22.575634
72.120056 32.71645 24.827932
29.404707 99.328941 30.368385
57.616699 47.271431 21.921818
6.6938186 142.68326 14.508998
62.718021 87.389351 4.3050299
71.516296 32.374107 12.913055
76.624359 153.12898 20.613359
70.800354 113.67477 9.2080803
74.576424 38.919029 28.092037
32.44471 82.088646 42.865845
68.347679 95.774445 21.703365
65.0522 24.669071 13.936831
70.506454 34.657356 20.906723
12.217937 29.731609 21.912756
76.617622 138.99149 17.422783
72.513771 101.17377 5.725244
24.10483 74.768333 12.503959
74.285912 97.93396 19.93255
57.544044 33.840187 4.4290709
54.894577 63.665913 4.3050299
15.5541 44.953217 19.012093
32.240921 5.3346758 4.5090241
45.747116 169.14001 16.671032
61.719215 168.45209 33.598732
13.220894 53.786751 4.3050299
65.007515 128.08369 10.826424
20.441582 128.88004 16.496954
49.242664 72.027718 42.828815
51.992088 56.634262 19.503731
71.111053 73.808228 5.5570202
28.204334 89.136444 4.3050299
77.026947 136.55815 20.441841
34.901146 42.708481 9.3608646
71.972992 43.469929 27.163849
18.108459 66.481323 4.3050299
19.848234 169.16212 24.130798
38.047836 52.939034 21.828735
62.359127 52.05233 9.3214703
11.389757 159.76474 22.390633
15.049628 154.50748 24.140034
68.887253 167.11206 10.221373
78.114098 154.80243 31.139288
47.45163 36.762505 25.725775
29.298717 121.50299 4.3050299
58.189537 52.736256 31.712788
40.669617 80.231689 4.3050299
13.083267 85.383217 14.82688
39.858688 52.705208 35.538757
46.321304 104.89008 38.714626
26.091335 45.29126 25.84396
22.279142 172.72218 11.839342
26.04455 90.518829 31.793993
62.755615 164.33521 32.963684
50.780952 103.85542 4.3050299
25.412039 39.208847 15.047274
10.388149 81.185074 15.556606
69.702492 20.158863 22.839712
61.42519 96.140503 14.698002
41.924271 80.405914 4.3050299
68.470734 104.69165 10.449787
50.682541 146.5397 31.71489
43.830704 44.05983 30.666557
51.41309 49.224632 26.119431
45.201313 51.229309 4.3050299
58.908997 40.044991 22.119793
16.076242 162.89038 11.439746
20.667486 18.492138 22.683105
37.848225 139.85503 4.9112082
73.586746 76.745316 5.2720027
10.282414 150.46524 33.424129
12.040958 50.13232 14.782679
70.136208 161.44299 13.287523
24.343193 140.10442 14.2707
32.844845 37.38356 4.4026518
10.751716 160.98434 17.618479
28.662571 44.716511 28.928665
73.831398 106.44655 18.397274
53.402306 53.260353 22.420473
33.828312 118.65543 22.458065
62.521706 95.850647 25.29076
8.7900953 111.0851 16.800028
64.499718 66.892952 24.492592
35.720802 114.55433 22.133545
76.194473 150.96025 27.189693
74.367615 23.9877 8.4254789
73.665649 36.774498 15.877101
51.610191 113.17675 34.807678
72.829781 153.45348 15.539159
65.418976 112.87521 22.968155
50.18161 168.52994 10.757748
69.949852 33.352905 27.551533
61.208755 167.40385 14.375595
64.274658 85.754639 27.268066
56.906139 106.00761 34.150398
15.080249 45.581528 17.215652
64.934067 87.859741 23.240793
72.121284 125.89197 29.490353
40.534283 118.17433 13.9132
40.101135 105.64272 30.235886
68.49482 107.959 24.58844
59.340828 133.66797 24.558187
42.501583 163.32257 23.182737
73.648293 80.563332 13.438639
25.205524 102.73233 31.279991
13.949853 43.266754 19.707275
16.086325 74.565285 14.797392
56.156696 64.393265 39.203758
64.586769 61.704216 25.025496
74.312317 109.76367 11.271432
30.528572 112.60305 4.3050299
41.674877 110.27843 36.709282
75.674965 131.26196 17.278627
50.030159 54.888344 36.040241
6.851191 43.725037 21.573416
29.331547 103.76374 33.390488
32.349957 78.058449 4.3050299
14.141559 124.35566 11.305264
11.487993 128.27057 4.3046021
77.053963 144.02914 10.162066
75.019821 169.2065 15.354593
21.62767 61.033379 30.205462
56.429104 107.54703 4.3050299
50.177052 114.33426 35.203045
49.032578 164.42383 13.299612
73.960388 87.089836 21.749613
45.776024 6.0914783 11.304584
7.6622334 19.292303 4.7596297
51.009274 92.188042 41.818199
44.648987 37.36425 25.763947
14.848332 99.399704 27.009954
25.855614 95.151718 27.154442
54.921604 113.45462 34.221619
35.507511 135.49345 4.4076877
49.148254 129.67896 19.87249
10.363817 78.278969 15.879846
41.577583 127.16261 14.9333
45.226398 76.386108 11.002178
56.712463 157.08142 20.765066
12.074587 115.62138 8.6971712
16.993473 100.21803 24.903284
12.959359 133.42068 9.7504368
46.24651 96.23365 16.134743
10.385914 88.974876 15.303642
52.997471 100.50517 35.475876
28.863232 107.75251 30.658161
76.639542 119.41528 11.165832
30.6544 167.72276 25.417233
20.20643 15.285448 4.4966202
45.226398 76.844833 10.799457
64.748253 142.82617 26.820839
46.666843 136.3511 4.5066996
72.53299 13.471024 13.489517
15.427687 24.151188 15.072433
62.426369 72.828819 12.143951
66.120712 87.147705 20.412653
66.998428 84.976608 18.400341
20.915241 134.0694 19.601818
58.942039 97.616028 34.608223
39.689659 10.865633 4.4966202
10.738788 103.3382 22.778578
61.21711 160.15607 21.203091
63.64801 159.77887 20.254749
26.4245 48.259159 18.754311
65.0522 46.158455 14.661117
38.997002 76.158051 10.921843
34.441654 133.11162 32.720097
57.675652 167.90855 24.964348
63.746155 129.36172 23.29493
31.866447 46.414936 17.794338
42.294636 94.679298 4.3050299
5.8737769 154.16545 6.5671787
65.0522 26.795267 5.6676207
75.535004 118.96558 22.589359
76.633255 134.0546 31.582254
55.28693 84.215866 41.955185
28.049147 125.16624 4.3050299
30.477201 92.697601 4.3050299
19.447803 68.552589 25.865789
62.241013 109.90677 4.3050299
25.182198 162.22693 30.561445
38.458435 44.608978 4.3487802
14.322519 97.172859 11.877773
75.656662 20.428104 5.5570202
78.321609 160.82776 28.231047
26.4245 46.935158 20.203831
13.368118 109.9222 13.199429
7.4444122 31.989792 23.161196
19.1712 31.945986 10.320971
10.203885 92.361229 4.6539588
36.174988 7.5795751 5.5570202
79.440445 159.79944 13.20875
55.216858 164.77541 9.5842562
12.657061 149.76733 27.34626
63.833096 168.86438 23.249001
73.977493 126.18512 11.070292
11.332893 132.46201 24.122805
63.559235 140.86238 32.557404
6.0513701 156.60553 14.965041
26.658121 97.193779 21.449989
52.227791 51.841484 33.82962
8.7173576 26.601673 7.3538904
8.7454529 40.282722 12.972726
48.906166 6.968915 15.199806
11.069167 154.59804 19.256266
50.538063 91.329674 9.3214703
50.255352 39.730186 12.970423
14.361708 168.32919 13.916375
10.509634 101.04862 16.065662
54.142319 73.163826 41.969059
13.041475 94.435318 15.949844
16.109928 107.29199 24.261345
68.604858 67.113968 5.5570202
18.755972 115.83686 14.669785
73.784752 62.980667 4.4712896
59.169289 168.00612 24.726206
33.460602 165.15808 13.564665
51.361935 113.62527 31.386568
51.153641 140.85474 31.889767
63.917168 127.46358 23.3708
35.745205 120.88783 20.947472
49.402561 155.92886 31.131069
66.145538 114.89315 5.9030681
73.701767 24.634796 6.0627379
72.82341 10.581131 4.9301853
14.002774 27.662516 25.716967
11.826126 133.18967 11.157564
50.948311 84.298126 4.3050299
28.802727 168.2899 14.795446
69.613022 108.03131 4.3050299
10.863026 101.99003 18.547806
40.480064 22.602924 4.4966202
43.091396 9.751586 4.4966202
37.929485 84.100502 21.328449
37.61956 49.38245 22.008461
12.005432 28.463488 4.4257989
32.509628 116.64896 26.603798
51.012486 136.91789 4.5721321
66.27034 74.35984 4.3050299
10.598066 115.56393 9.4437284
72.112854 44.993118 22.741108
76.720383 37.199467 16.089788
19.1712 47.008495 17.187897
36.468288 26.761114 24.761566
77.359192 153.35855 24.80225
75.563675 160.99107 30.904156
45.470383 94.878311 41.9767
15.627527 148.97438 0.20685987
69.437317 140.88707 33.55682
67.618729 136.70857 6.9420137
78.153992 160.01682 9.5265932
17.875868 127.63073 4.3050299
38.81958 41.449856 16.702297
39.0452 63.183033 40.845474
14.57356 134.07489 18.260408
70.984192 81.513916 5.5570202
8.7645807 118.40195 24.956413
4.48805 137.42574 16.103132
9.8781719 148.61951 14.089828
55.014183 102.10983 4.3050299
25.182211 131.04498 4.3017173
4.9621124 159.66797 15.630501
19.576107 93.52227 12.755043
40.68729 20.223053 4.4966202
35.776031 99.543228 4.3050299
28.437664 25.195513 24.201153
11.988533 155.96233 24.725691
10.963175 167.55203 28.527111
50.616917 7.0732241 14.846137
47.290955 69.975685 42.837917
59.187031 12.544862 4.4966202
4.6147513 136.86665 26.485998
39.605019 173.67615 9.686141
8.0243282 127.05527 16.119125
37.907188 119.50474 14.980027
50.008144 109.38464 4.3050299
76.491852 133.2419 14.210036
18.39287 8.6004066 5.5570197
42.261753 50.589649 34.454834
7.5325661 133.36928 10.06348
78.938599 133.48463 5.0025954
13.911198 40.219788 0.3051272
44.444603 84.732811 16.656408
39.979809 78.578575 15.258999
19.508785 72.725357 4.3050299
45.405453 166.36508 29.84383
6.7779269 123.53522 17.708822
41.453465 130.08005 27.399374
65.0522 27.596436 8.2981606
79.867111 141.9527 28.100048
70.990158 156.08698 16.8675
69.397118 107.959 25.587097
10.496943 105.50603 16.972683
32.661537 139.55046 4.8760471
38.997002 95.540115 21.391672
48.992317 164.32687 32.889919
74.657211 53.801903 11.916014
27.992659 42.774948 24.17852
29.226021 167.81274 33.481384
69.392464 118.94843 4.3050299
79.592384 148.60509 1.5272936
67.767944 161.44299 14.36592
9.0080452 23.991615 8.3827705
69.106613 133.58693 16.366211
7.6664801 140.03183 13.837987
69.008163 14.910178 5.5570202
49.36869 98.607208 28.88269
12.7072 35.001366 14.854758
74.843994 154.94926 18.868412
10.635555 134.77171 20.27212
40.20097 135.40976 25.289497
15.602947 124.14111 11.332821
15.425384 92.869751 5.6230373
58.266529 10.332054 9.5021734
41.076763 119.95468 24.779499
14.40785 107.89418 5.8091488
26.003834 45.895432 24.590294
49.712402 13.916821 4.4966202
77.661728 163.7258 22.265829
9.439888 44.484211 6.4376755
40.028286 133.62221 33.694016
60.46497 135.64607 12.93194
37.928894 163.4379 8.0455093
71.408943 45.008087 10.431403
65.0522 36.892822 18.532463
57.987778 94.69368 4.3050299
67.217072 161.94981 8.8836508
7.7206874 23.753389 20.272511
20.756599 141.34071 24.644833
27.77565 83.075172 41.036739
38.153595 42.665611 9.3878832
64.270248 51.778931 24.978344
47.226646 12.56533 19.233715
66.222977 69.462982 26.811462
27.259937 41.402676 19.5653
9.5530167 54.443863 19.688419
46.303799 96.140503 15.598247
77.377556 46.831478 18.461037
70.771744 132.46201 27.545517
16.489904 86.302292 8.8646326
75.623024 117.24904 5.9364705
39.713066 74.681725 43.614037
10.558313 160.20726 15.811153
57.742645 138.23636 13.263391
26.726974 171.15225 11.1654
63.10759 130.51025 22.431467
12.933584 75.28978 5.5570202
70.326065 131.967 24.359549
71.565948 71.441109 11.468062
16.402658 103.32452 25.311148
65.443138 132.02977 20.88311
49.149368 164.9444 21.252996
74.260246 97.721603 19.971821
34.825436 16.703207 21.198549
37.763401 86.907852 4.3050299
62.546982 12.420874 4.4966202
54.600513 111.24883 34.635906
35.667088 96.699211 18.71207
33.929256 116.38952 28.5982
15.349377 52.93716 12.972795
75.258362 111.88003 4.3050299
48.318962 81.951576 17.296562
24.628023 105.56139 27.495729
19.734585 83.416397 24.667994
50.184044 145.64267 29.195797
77.947708 160.53841 13.012229
51.733501 99.610626 4.3050299
19.1712 36.049488 12.706637
60.640846 132.40642 13.748593
32.396095 148.0473 31.721067
69.108002 44.167641 27.335539
75.80571 45.724442 15.54928
16.603498 173.66315 14.742056
9.8693399 134.55898 15.501491
28.721279 149.39996 8.9705391
75.334549 18.173 4.356092
14.480341 167.80182 29.059427
68.658165 134.4359 6.4515705
13.850443 158.1937 32.080597
40.107719 114.39864 31.280739
16.755186 86.694122 14.901411
23.082335 142.53703 31.427727
75.377754 143.80931 25.780319
33.337643 171.42993 11.234251
77.262405 40.697334 1.5566235
63.197132 128.61061 19.298758
6.8836055 144.25571 22.032078
8.5182695 36.93145 13.818196
39.87077 145.823 24.811869
65.912857 169.41019 33.830845
13.1838 67.030998 10.581807
7.2765121 45.025612 18.039637
67.74057 91.425362 9.4348812
47.906883 120.8568 28.5982
70.022865 39.003174 21.438299
35.290768 39.209137 24.405752
52.894085 39.122322 15.722061
17.701088 107.44001 5.8034692
65.417229 112.88635 25.315258
45.226398 76.391853 14.438151
11.035982 25.454174 11.92512
72.878578 47.633553 27.567741
57.268295 163.57806 9.2873745
50.901825 24.219513 5.5570202
30.037569 88.555511 4.3050299
46.629761 58.86171 38.665527
24.856432 141.60974 24.815002
31.157034 62.817604 39.459896
61.321625 127.74639 22.42786
4.48805 142.76128 21.602737
63.189831 16.856478 4.4966202
13.309413 155.92406 9.2020712
58.801891 79.946098 4.3050299
37.218899 56.259186 4.3050299
19.638195 118.20901 22.596603
54.313274 126.44659 26.877522
69.232094 60.015518 13.38436
45.005726 166.04361 20.339186
75.687881 35.054867 4.1362596
65.0522 35.960594 5.9991169
76.29229 43.534138 1.4167185
64.752769 54.710926 18.420998
12.7072 36.662781 18.125895
17.296368 169.59323 33.886299
36.964046 73.737663 10.706743
77.422699 37.238388 22.884272
53.643097 154.73763 10.660658
65.0522 25.073851 9.5057945
52.961109 159.58383 16.879307
17.27512 79.763557 5.5570202
36.522423 161.10069 31.570738
62.892403 124.42715 29.18187
45.535629 167.91371 8.9236116
61.042576 165.84433 33.014893
69.127731 112.6908 12.80348
28.245218 145.86136 14.024107
13.828403 168.13394 28.474228
49.936222 144.99332 31.740866
13.174406 86.097214 14.867476
34.330154 68.176041 41.488533
26.883215 55.132458 33.513668
63.466499 152.52948 20.371872
10.809282 74.136703 13.549751
41.570854 47.859226 25.928383
79.79731 139.41435 26.440765
44.774055 138.63901 17.784019
73.881866 107.292 19.277092
9.8918209 171.11356 16.165255
12.787261 168.84091 26.90728
34.766464 118.54781 20.97035
10.256461 51.554836 25.57478
55.938736 23.37866 4.4966202
50.022354 42.771557 22.384918
42.418602 115.31924 25.991566
44.398724 106.5503 38.156605
37.788017 112.18804 32.031082
15.734074 109.62093 10.544565
38.650833 167.4173 12.53698
51.093887 106.0472 37.740608
20.008007 60.358887 9.3214703
35.066933 25.488678 24.377827
22.94389 12.097258 7.3625145
39.40089 169.35152 9.2056837
21.965826 127.26649 30.763689
7.6050606 127.05093 22.597712
10.553825 59.011284 11.495414
31.168983 144.33566 27.41618
73.89341 24.7803 4.8264441
39.974018 121.61838 4.3050299
23.229225 86.069153 4.3050299
14.306351 129.23882 29.758442
10.302095 80.301147 18.26709
76.19606 44.65134 26.403439
30.150852 126.49599 20.260788
15.335341 34.444901 1.4739873
33.223511 126.32354 4.3050299
4.8574934 141.02182 23.85409
73.940445 85.070473 19.208843
77.845428 130.38643 8.8106823
50.234299 54.849094 23.66927
19.1712 30.284248 10.291548
13.343389 132.04054 4.3006825
17.983217 122.07159 11.598627
47.825054 83.912109 14.628583
33.466469 170.29318 34.098732
79.979034 148.0488 28.118282
30.723667 49.886688 21.459314
46.933632 8.9896612 4.4966202
55.814526 81.867172 41.248676
40.463844 83.222794 4.3050299
