# .PCD v0.7 - Point Cloud Data file format
VERSION 0.7
FIELDS x y z
SIZE 4 4 4
TYPE F F F
COUNT 1 1 1
WIDTH 1620
HEIGHT 1
VIEWPOINT 0 0 0 1 0 0 0
POINTS 1620
DATA ascii
1796.98 757.99854 627.77051
629.3504 2565.1978 1639.2075
1293.729 370.46765 824.85699
1662.5847 4376.1074 687.64716
1007.7007 2970.8677 1651.7039
307.45795 3953.959 1131.3086
684.3996 4431.5244 942.93353
1707.1155 3076.9976 1627.0535
1661.77 784.43988 547.03217
444.67154 597.17188 1045.3674
245.7052 3588.6929 221.09117
835.45435 4409.5444 1024.8204
257.14899 3808.3521 508.53687
1912.7275 3401.9041 1049.6587
1641.54 373.66962 971.85645
1061.9169 1104.226 1091.4916
1795.1489 3676.7837 576.77972
1602.3702 208.35435 796.48755
668.94629 4335.4268 1319.437
539.75 4026.6565 342.42914
1295.1208 3400.0554 1638.406
1430.1257 4295.1836 1299.9216
1988.45 3953.4138 96.457443
402.26593 3632.0078 792.40466
539.75 3718.8423 581.59595
1014.9679 4297.2236 1299.2827
1848.7854 3890.3945 1223.911
673.92627 4167.6436 260.87265
1034.0287 2529.2251 1654.8059
1791.0452 930.97864 595.96179
267.33676 3509.3997 231.39182
295.31647 530.3576 288.61841
393.14813 3963.147 1366.1984
941.47797 392.84711 677.08051
1937.7399 4429.8428 391.91827
1627.8185 1588.4688 893.54102
271.44995 1266.6545 493.95825
1765.3235 3293.8596 593.02405
682.14502 4368.8384 1352.4846
374.07968 3318.6865 505.84009
1503.1311 4356.5859 619.05243
1726.3649 3077.1978 1570.8835
618.60999 4084.3357 1412.42
319.08163 3881.9629 234.63419
409.92041 3898.1875 95.279648
1232.7692 4360.0249 1294.6326
1546.4041 4350.0845 603.19189
197.59918 1556.1948 1237.7202
697.05573 469.47858 1008.0087
206.34399 2386.2271 417.31604
1960.8965 1333.4447 875.26251
1969.3101 1629.2198 1247.9875
672.94 3103.584 1637.8888
286.08145 2066.1724 1040.5747
1744.1235 329.31851 288.328
1731.201 542.60345 332.35818
287.5932 1062.5847 15.713314
1878.8607 3770.5884 7.0548754
392.23825 157.37769 504.69232
450.47186 4261.8315 1324.5366
1796.4814 3236.6865 1421.9482
463.17038 1208.8486 1164.7083
1931.59 954.27179 406.33737
1964.9301 4271.1626 404.0145
1010.4147 2959.8728 1702.8108
2000.8568 3184.9023 477.53714
275.70526 3568.7759 194.26788
347.97055 2494.7969 1082.4651
1997.62 716.99121 206.19449
1435.7737 2982.3813 1611.9697
1521.5796 577.90375 1090.8752
387.59552 4139.3706 1357.2856
216.06689 3723.8618 -1.394933
1988.45 878.01685 673.89783
1087.3851 1668.938 833.33716
1995.7122 681.19849 196.2821
404.53101 3402.8743 184.10747
1653.7649 3718.9353 1543.0934
331.7605 3802.4585 1151.1423
213.065 3927.9927 88.989334
1419.4872 1664.8447 895.23566
626.69604 4437.4219 681.17426
222.28432 529.16248 792.93201
949.12793 1761.658 1503.4878
1732.5811 4363.5479 648.01013
859.93518 1188.5168 1181.9851
1988.45 3736.7148 682.01086
391.9631 4396.2407 612.15137
352.18887 2470.4338 460.06973
251.78798 2685.8691 961.5199
1814.7366 1286.923 1102.9564
885.26697 4462.543 313.14331
1815.8373 1369.1575 450.14395
1165.8423 3446.4463 1639.5632
1808.2505 1096.5026 1138.3181
1796.73 4280.6357 459.33292
824.01672 1083.9199 1172.277
221.18271 2791.3862 847.15234
1856.0782 1016.0437 542.08264
1914.667 4367.7222 1015.6762
1697.8365 4364.4033 510.5947
233.09532 1260.9333 699.34772
1818.9524 1629.9569 1308.3894
1916.043 3681.8354 -0.93805707
1155.6823 1642.3369 830.38416
1144.2784 1953.6222 1580.4062
1823.868 1457.3536 1208.0811
1397.1768 1922.2653 1004.2048
284.15744 834.81488 176.83342
539.75 1293.271 538.53448
1952.1184 3739.2485 691.62659
239.63693 1616.0918 938.66516
239.77979 1830.6211 913.42255
410.96454 3892.521 527.18726
2001.5767 2325.6895 645.20447
1712.5704 4062.22 669.41333
358.63745 937.10071 114.69226
313.66998 1623.4838 1101.0718
1975.5815 2183.9944 722.05615
258.03506 4103.8242 550.30872
1964.3201 954.91364 398.46204
1084.0759 4329.1289 1321.6088
351.8118 3794.5012 128.92374
1865.1719 1098.1984 1107.4513
1307.9441 4488.7095 376.5744
1937.7684 3833.4585 365.93521
1865.73 1099.3862 337.50659
1924.572 4454.0439 366.03949
767.72864 4385.0078 423.74622
383.53027 1477.3262 1088.3673
1759.156 266.3779 720.38977
539.75 645.46497 560.97913
682.10327 2408.8235 1620.7086
640.83026 2186.2476 1608.3405
339.35913 2611.9946 381.21356
1723.6689 4214.9248 267.80026
1443.4072 325.11523 961.11499
349.05963 1368.1138 1147.1801
1134.2534 503.51978 1084.0142
1908.7263 547.50623 869.20618
1992.4121 877.61078 656.00415
711.66394 2938.7314 1614.8575
216.43684 4119.8257 605.01117
317.68738 255.30602 417.95139
1862.1117 3933.3813 81.087013
563.6499 299.2355 977.60809
863.7475 811.67627 1145.4238
1032.99 1553.4089 1115.0955
661.16791 626.98743 1099.6045
1993.9528 2124.1711 526.37146
1974.174 687.91443 120.12832
1276.2686 3045.4622 1650.5957
215.75606 4114.0171 707.56354
1943.105 348.22098 654.25452
224.39664 3868.2949 39.221157
1997.9047 3054.6777 514.00592
797.74066 4345.1924 1352.8982
1622.264 126.56364 562.78046
269.918 3715.6187 399.93646
1877.6187 1250.5726 171.40634
1452.2371 4369.3027 1343.4792
1253.0188 1679.7728 1454.9958
366.24545 4418.6606 1010.4354
767.20398 4109.5479 1410.7657
287.48743 3937.3472 366.28656
840.98755 675.38513 1120.389
918.09845 2566.9175 1611.8564
288.33679 776.19666 238.45146
232.89717 1143.3335 285.17245
948.77625 3254.4971 1602.0151
246.8669 1566.6636 1181.1079
1767.3384 1271.2134 1035.6954
1825.3462 4034.1147 223.31714
954.72455 2713.5693 1655.4895
1944.7278 831.12183 19.650997
1600.1241 3420.5205 1619.8145
1857.2362 2098.885 378.66479
204.40413 3901.5044 581.98846
1726.6199 4252.0186 272.27512
1611.6089 1138.4972 1106.2769
696.8819 320.3808 832.58752
565.35663 288.5686 965.14856
1967.061 3647.374 567.6911
295.99548 4137.6328 335.13779
319.09598 3475.7166 757.51263
1964.3507 3646.0122 323.45859
209.15921 1094.1885 156.14049
1494.483 178.884 674.62646
1730.5243 3948.4419 1452.2092
299.82129 2491.3354 1073.0521
1514.6028 1623.9535 1162.7738
460.64557 2715.5352 1540.744
1345.7634 1898.0001 1046.1997
435.01651 3257.1284 1447.0742
1834.1592 3820.2646 674.03564
1899.3867 2923.0283 1082.0593
1271.8484 1755.7295 1499.9771
358.97464 748.98651 788.21265
1166.8406 1768.5647 1084.7266
1370.4647 3087.2725 1715.8263
400.086 4424.0835 914.30133
238.03117 1327.8147 944.5871
1012.7408 466.29626 1072.9288
825.72729 1657.7424 1146.6576
220.77852 3259.7012 839.51648
1375.5583 1508.2383 1124.9927
245.57901 1113.6934 416.57556
1266.106 1087.8601 1138.1464
1946.5387 3461.7556 713.97717
1102.7463 2081.6772 1595.5515
318.89093 1926.5818 375.93768
1228.7631 2964.2358 1718.1693
229.48807 2306.0991 945.82275
1944.8641 364.98749 813.2417
1901.1899 1055.9923 406.05325
1661.7699 3814.0229 509.67023
1696.9841 1753.5608 1128.4938
539.75 4091.7168 421.04205
1598.0989 1549.8535 890.39441
1823.5067 1305.3271 1166.8934
1962.0149 2319.0212 908.72333
641.25989 2720.6372 1640.5441
363.81192 887.25586 310.6568
226.27777 3879.0979 190.21243
1661.77 4021.6875 389.7525
229.01308 2836.2432 892.92975
1888.6088 3277.25 1111.7159
837.29791 2441.2808 1649.4061
240.38818 3939.9934 947.09576
1994.9233 3059.6675 668.21057
453.39902 496.05191 273.91446
207.57405 743.46594 469.39362
1908.5442 3430.8198 550.36609
1339.8231 3442.6216 1632.3477
1048.2935 1983.0299 1493.5519
1797.1113 4376.8896 1222.417
448.21448 622.54559 1050.6735
1931.5901 942.5426 261.00455
1661.7699 3997.3235 645.5329
1670.1808 4400.4087 1127.9764
1760.5614 4377.4629 990.25073
1215.8073 179.08736 850.91248
1205.6682 1796.8822 1520.5642
1884.2439 238.94948 436.43982
1302.4816 543.56927 1092.0018
1810.3237 1402.5264 1102.3344
1353.9243 200.60081 854.22412
1558.7949 1834.0505 973.28052
903.84204 3711.249 1563.8792
427.76407 2364.4863 1449.189
326.70886 1207.0049 1111.0518
1862.188 4334.3428 630.56787
203.895 3447.5181 459.60229
1528.8077 1746.6559 1039.8236
515.20251 1196.9613 801.55884
646.03351 1055.3409 1133.4304
1559.2446 383.18146 805.38867
1901.2404 3212.9375 1072.7937
927.28387 2747.0649 1610.9426
663.57526 210.67355 819.10547
236.70297 1060.3202 917.0824
1820.1561 3798.074 530.71204
314.72894 4483.0054 349.51025
628.98779 4297.3286 425.46732
257.72174 3478.7271 327.27069
400.94501 3798.8127 551.479
1042.1259 104.08887 492.61908
1690.1951 792.06982 1115.1536
1903.75 1490.6189 1196.7986
244.99756 3930.2034 611.10876
412.97601 3784.5657 634.79443
1762.7759 145.36006 553.07672
1800.5701 3730.6943 138.42525
1661.77 3488.2512 766.96057
314.67599 876.39508 436.07465
1509.5068 4129.0586 254.67349
1174.8494 1762.0258 1503.7056
1006.6859 1321.7405 1244.2241
1867.6892 3612.9175 790.76367
1072.079 3801.2549 1535.908
601.07837 1267.6876 1037.7118
1956.7395 3872.5337 255.46362
294.54459 3186.2563 1061.1906
1773.8162 4408.7031 1161.0854
296.96335 3521.0459 430.87225
860.28131 2003.7605 1577.3127
1792.7307 1190.5587 364.40857
310.797 1082.8848 330.35577
927.38062 4311.7427 1327.0176
426.22314 4424.6646 652.41809
1661.77 1118.796 524.62714
213.065 639.17761 475.82086
235.43837 1318.3458 535.57104
430.16971 4423.4414 326.23813
1055.1287 2665.0952 1655.481
1668.2712 4212.3706 1353.2352
1950.6442 1042.6729 438.96417
401.448 4248.1123 469.15051
1799.4553 3818.1553 144.13913
1569.9504 1689.2871 1047.4963
1268.5338 1627.9167 1424.2869
675.07153 190.17381 785.71808
395.20081 1584.6016 1253.8025
193.177 3270.1245 392.24863
303.70108 764.49646 261.97931
1092.8383 4355.0991 1312.5743
1290.272 220.68529 308.67432
778.03754 4315.8208 1293.3428
1051.2837 78.475494 550.74463
688.14868 4363.5156 1352.5776
1144.2565 3475.261 1631.2229
425.83521 3611.1978 790.6156
1907.6497 767.39819 209.80923
404.789 4384.4692 756.33954
1226.3848 1537.74 1371.1816
196.76447 3212.8818 619.98767
245.60199 1396.7037 508.59576
230.4744 1044.541 526.12317
410.62207 753.96069 788.92712
524.25891 4367.9336 905.98608
1812.1843 3603.9846 139.28987
1233.3538 1410.6639 1084.3373
351.56342 1341.3651 600.66968
269.918 3640.1704 353.71783
1657.2552 4409.1035 609.38055
423.44324 2946.4312 1442.3503
310.56549 1770.6418 373.46951
539.75 3441.2791 601.08472
1808.4368 1527.6754 1104.7458
1997.62 1095.1165 89.753418
856.09027 4394.4209 620.69977
1877.4506 171.36462 612.9292
401.448 4327.0171 468.13113
1568.3669 3637.5942 1574.5084
1139.468 114.78448 732.45984
1980.4097 3123.4111 820.89777
202.16203 4199.0049 816.72754
326.67181 4122.6157 253.43585
1557.4796 173.94464 775.53992
1615.1313 793.23663 1129.3606
1995.17 2312.6104 459.07812
1991.2317 3755.9436 116.44952
249.18127 710.2348 900.94922
1969.1638 1211.7356 881.34253
1833.8899 3474.4082 778.8562
203.895 3450.4141 188.39679
1849.844 2951.3691 1198.8286
257.14899 948.30682 541.7309
473.70587 2650.3628 1574.1926
1668.0686 4454.481 422.38248
1043.6149 1489.8102 1101.4463
1009.4434 4112.0835 251.87883
309.12634 3479.4985 1053.6285
458.74023 915.49292 809.69751
1444.7932 448.21262 942.84985
207.65591 2111.051 492.30701
487.51984 2546.8337 1634.2039
294.46082 1679.9248 1069.1931
1307.2743 1676.3116 1139.0112
1221.5507 3357.845 1599.2081
1185.5496 916.34412 1166.3131
1927.614 3841.6667 532.12561
839.08325 1359.6523 1073.651
1099.6204 4318.2837 430.23062
1923.3035 3773.3672 1049.1082
1994.6167 3547.5347 536.5777
1862.1307 2170.2505 379.79437
342.51199 2972.8584 385.84711
1659.3271 1905.8141 946.09131
328.00592 3667.9731 1092.4851
1486.9949 1759.9692 1203.2397
236.27122 467.08017 678.91205
237.189 3678.946 350.78784
539.75 1028.3926 513.84961
1483.272 160.96584 653.35168
1959.7048 3550.3098 452.89496
382.91171 3811.8052 1335.5336
1931.5022 3324.5688 1005.1212
1496.0504 4435.5977 422.75317
1099.219 3635.0083 1590.3403
242.09677 1721.7175 926.79578
1886.84 968.25818 473.66602
964.0498 301.52927 824.23096
704.20068 4387.8818 553.03314
701.93628 930.90863 1154.3988
1978.9209 2989.0796 740.97217
1952.1263 3697.4653 -4.3314638
1866.9761 856.22351 803.61755
1789.3357 823.88757 113.39786
675.4541 1389.5317 866.42169
1291.116 1345.0352 859.95667
256.30963 2467.4954 527.47552
412.97601 1253.9526 353.60809
1098.8668 1711.597 1473.8419
1878.9062 2221.208 1126.2007
1954.3032 3603.0942 479.5574
209.97278 1772.6284 537.703
1905.3176 2459.6479 552.38196
1241.188 2662.0586 1655.4803
336.94894 4339.1558 1191.4375
289.4292 2510.1814 381.77872
1926.8567 3369.7463 410.59018
1596.5015 1685.188 1099.939
1923.5366 3673.3013 913.19202
412.47482 1210.0162 1134.4178
1153.2852 3134.4092 1604.1329
1458.4426 2778.8381 1647.0833
193.177 3308.5613 677.17932
1625.3628 2552.9678 1610.9969
1915.9302 1055.2501 422.65515
539.75 3448.5959 766.52155
229.11691 1093.1506 868.13269
1107.1194 3071.1638 1650.2137
367.95221 907.10687 288.68747
249.22243 3721.1323 174.30234
1097.4948 1748.1329 1495.4784
1988.45 3712.2786 -2.0529509
1853.5059 1925.9282 1182.7148
1997.6199 3983.7368 383.31433
321.75803 1020.939 539.95361
1670.8318 1712.2717 896.53467
228.06187 4139.7798 389.85852
539.75 3901.5664 596.2088
1166.7214 891.41327 1163.1619
1824.5605 3378.5684 1336.9534
773.33716 3334.8799 1639.4241
1426.7363 3338.2188 1639.1335
310.40686 555.3855 291.01758
385.04156 3697.2236 693.93976
1813.4602 195.07375 674.43683
322.16019 3700.2805 431.16132
1971.0364 1494.7273 682.37439
1845.8403 2984.8896 1223.2064
673.30334 1718.2777 949.03546
1711.3088 317.18164 958.70422
1945.3796 340.35742 385.90521
251.38889 525.3678 829.47266
1896.4016 3262.9707 382.28705
351.21234 4396.8511 612.38184
1661.77 704.5506 373.53946
585.43256 2945.6836 1625.6199
207.0654 2196.3237 552.7959
1995.8876 2699.74 446.70926
268.90079 4220.7632 291.42294
249.532 846.76276 140.22002
1334.8365 2912.1416 1609.2419
1570.8755 3129.2449 1607.0942
1830.2079 2464.8135 407.56482
338.56903 1126.3503 234.97113
339.03659 948.89801 552.23639
1149.499 522.62469 273.44989
1980.2632 2055.1006 674.27716
1946.5007 1077.2839 983.31616
1402.8042 317.00333 574.5636
781.79126 260.41544 575.82812
1392.1133 2169.5767 1625.5886
293.41489 1376.8068 616.69641
544.61102 3099.3774 1639.5537
362.98416 2457.2322 522.04193
263.29202 321.67209 718.21661
1053.4858 1013.5621 1175.1371
223.93402 532.05511 667.3407
306.918 3582.5054 375.09946
425.08087 1069.2515 1144.6285
449.0282 4367.2646 857.95599
1002.3672 3037.4678 1701.3119
1972.4241 1355.2144 764.12561
1265.3113 220.556 573.99744
1158.5114 4329.3965 274.20291
418.63953 1320.6282 685.2417
1009.7419 4399.7969 1133.891
195.17696 3222.5513 497.87836
1669.8313 4493.1621 414.43469
1505.1566 1618.1262 895.84998
226.35553 3573.8704 160.18201
341.1272 2460.8008 729.57849
394.84518 3790.4543 127.88158
1807.9537 2646.5078 1360.895
382.8891 1541.3385 865.94446
451.43884 3565.1008 786.65247
587.90228 2595.283 1633.2689
1268.5439 3327.6235 1600.6802
1477.3334 453.33517 942.76038
1842.5902 2456.6763 482.77716
1661.77 3918.7251 655.24481
321.74316 1574.4644 1147.704
252.35991 4108.6826 989.5307
1475.6007 4319.6299 535.66742
1836.1968 2282.968 1128.8519
241.54222 3631.8184 304.00833
1930.9036 3778.4519 965.96527
1577.5239 349.72742 1023.4362
1453.0835 2001.5042 1593.4733
1155.0005 2835.0273 1609.3959
1914.0229 2535.3062 1046.1816
1272.8245 4376.0361 822.96265
1061.3853 3942.6677 1484.6863
1326.2999 1576.6082 890.45819
1343.7979 1326.4122 1073.7456
400.94501 927.62781 567.28357
842.36945 2409.575 1615.7192
689.50262 1541.5353 1117.6633
787.99695 4282.0811 455.07361
341.58063 1591.4855 1237.5063
386.38104 1321.1304 927.15198
844.72211 4360.8721 1352.6239
699.59998 113.56429 553.72864
519.5802 4007.603 738.33447
1270.2421 4335.835 424.71143
1013.0736 2253.8015 1637.5072
260.32861 3697.6189 257.80533
354.6543 1512.4097 369.38229
1988.45 861.56445 19.665016
1432.8154 3406.2021 1631.9646
1544.6843 1463.6813 875.52118
334.89856 167.09085 530.24561
1740.5465 3027.2878 1601.839
1946.2378 823.11938 231.17439
1925.6631 2986.1548 386.01874
901.68933 2248.2129 1637.0093
1661.77 3444.2971 424.93927
1242.8024 2811.9766 1654.064
737.33606 372.10361 1004.569
1963.6614 1815.2158 908.45862
292.63666 3484.478 1005.3658
954.78381 3072.3206 1650.1967
359.09445 1370.8477 440.88727
1931.5898 990.17468 366.53534
1975.77 1175.4608 331.58273
1164.943 4407.2197 1057.9017
1859.8552 210.56102 467.99225
225.745 3769.9062 140.22644
667.95935 2375.6477 1620.1586
1489.1213 3422.8096 1604.624
1944.172 3629.4023 498.37784
1808.7656 3912.7083 67.789314
236.38438 1440.9224 964.94202
717.2464 1131.5306 1140.7985
1763.7681 3228.2639 1517.3777
1565.4941 2637.2769 1640.0914
1661.77 3660.9868 761.4248
1897.9365 1976.8333 1084.5841
1962.8346 697.86298 104.66154
1165.5748 277.13849 990.52692
1917.597 1336.9376 803.51935
253.7179 1830.2897 976.12897
717.3905 1547.0348 1119.9225
229.02969 1710.4788 701.97687
1854.3719 3850.0679 195.5074
1564.52 1831.9727 1060.8979
245.57899 3570.9355 226.91766
1788.54 1053.1918 617.88
1132.7573 4358.9609 1298.7258
1254.3684 4437.0601 922.55566
1491.854 1678.3171 1445.2948
966.49164 3159.5813 1603.686
206.56975 2268.6958 553.95569
332.15585 1053.7671 138.67116
233.80981 2773.8188 907.09296
1915.5127 641.25146 501.81073
756.84375 3641.4165 1579.9719
1943.8052 1399.3813 496.85767
1062.8436 4305.9365 635.36914
2008.34 3309.645 595.77551
853.89734 2868.4009 1651.1694
1342.3789 2463.7151 1614.1285
340.75964 1855.0107 1160.5914
1945.3054 2228.6045 921.18542
1273.3405 4256.7031 1339.5924
422.3558 3715.1982 292.78384
1559.017 1303.7972 1219.7294
1869.2776 4380.5942 630.63776
317.13586 4031.1199 209.52383
689.27716 1985.0488 1572.1587
262.18689 3751.1633 989.3634
1980.4878 3210.3884 807.55005
364.9903 3825.8269 149.07373
1256.1591 4408.7271 722.7572
553.86292 149.80951 395.26114
210.82399 2661.543 671.05652
1976.6321 3372.1338 421.5863
1681.8894 1696.5726 893.25024
1248.0786 1977.0488 1585.3872
1031.4724 4327.9663 716.82385
1997.6201 678.73694 453.7002
216.13692 1168.9677 263.78534
238.41324 3912.6948 451.47192
1488.2737 2150.9927 1610.1084
227.0336 4241.0669 881.01312
289.9649 862.57233 1018.6697
380.98834 1619.8928 1086.5654
1791.814 3910.5513 1425.5144
1957.7892 2883.4751 384.7001
1977.1917 2571.1831 753.06561
245.79138 1239.4934 971.72162
1582.4641 1312.3999 861.30908
1960.1223 766.86414 855.44812
317.61505 660.93018 530.17706
1878.1534 3962.3853 587.46997
312.48337 2908.9673 1112.7871
215.98921 582.29669 701.84741
1938.8926 2470.1465 836.19849
1619.0225 4436.7432 817.17834
294.14035 1294.9244 730.37323
213.065 3458.1609 561.27118
749.85181 2787.8774 1647.2734
1066.0959 1571.9807 1119.0812
755.995 1435.6553 1090.9808
1097.5173 3033.9934 1702.9724
507.254 1992.5662 1559.3154
1661.77 3345.624 481.67078
348.13947 697.0636 105.90433
1090.4269 1740.2057 1101.5662
1925.2458 3955.5632 98.03997
418.55234 533.65552 1030.2462
257.07727 504.26959 437.33139
955.34167 2192.9363 1632.0834
1520.9131 1323.7001 1074.6853
417.86899 750.60974 1072.0627
1550.2106 1130.7449 1169.0566
539.75 3350.7261 730.37286
265.30347 3433.8452 775.36804
312.90726 3883.3481 1079.9634
1735.932 4347.2959 1304.2555
1580.8082 372.53235 1004.1794
1661.77 3769.9543 586.91882
332.31024 3359.8259 336.46509
1079.9973 2262.7209 1609.7985
708.76086 3127.4756 1640.2012
650.13763 3646.5464 457.53638
1531.4078 4383.1221 749.20007
564.88074 245.16928 825.12695
917.55048 3305.6475 1646.7286
673.04291 3244.5767 1608.5037
1796.98 1224.9849 160.13777
1854.6965 3029.592 1179.1881
404.789 4400.2017 856.40088
424.64236 972.62329 296.77643
194.71423 4081.5454 818.76837
269.43207 449.73053 317.71249
317.12317 2327.72 1110.5198
1581.7277 816.76282 403.82474
449.68805 2856.7271 1511.3896
1676.5762 552.62677 1066.9612
1761.2832 3043.1519 1486.4763
1901.7599 2775.1814 1077.2322
982.20544 350.63898 1006.5975
570.32367 2799.3303 1608.0502
1176.5187 4304.5366 271.32245
1661.77 1127.3779 488.29388
338.96222 1348.7119 1051.5282
523.33496 2828.5515 1644.3235
478.10864 3956.5181 781.98712
1816.6283 1398.3031 1099.5061
1994.5651 2213.5615 460.67554
1637.9944 3530.6997 1598.7177
533.99786 4344.5713 467.20599
539.75 830.00946 539.60974
1661.7699 1250.7584 766.96265
1971.8075 1612.6855 678.95386
255.14221 2736.5081 971.19
387.0191 1230.6824 1020.4412
1851.0403 687.04163 567.81708
307.25757 4225.207 1130.2705
1186.6578 76.076408 590.20074
585.27014 288.68665 967.55786
1996.4161 3974.6733 341.38416
404.789 4389.7095 907.09558
599.98956 4437.3418 816.40979
1898.47 3602.8054 425.3493
1741.5385 2459.1169 1543.5886
1656.6846 1873.9319 1098.7217
1906.8899 1544.7814 1163.3209
197.8367 3205.2373 591.91522
1576.4148 4410.0977 1011.0955
394.47571 586.6087 698.96454
964.55554 2794.2524 1654.3271
330.5726 3745.3525 2.4912503
1135.7671 2303.1472 1641.9045
898.28845 4346.1504 461.81219
1962.2712 771.61188 487.32968
980.64258 2002.3735 1531.1113
1880.7356 3371.8794 1129.6776
455.57397 4333.3745 424.75977
1543.0364 4319.4351 1291.4183
1166.6165 4440.4414 849.2356
243.31938 1046.1069 238.75305
1488.7104 2392.3525 1621.1008
254.72978 807.14697 167.70248
956.71942 397.71857 1008.6569
1600.2032 4272.8828 435.06949
1836.1234 3482.9409 303.96698
1444.6321 108.48621 603.31836
1026.9497 4375.4062 939.61053
1661.77 3711.6377 507.84937
1084.5098 1974.3788 1593.0847
1027.9615 831.65039 1154.5225
479.26926 1248.5948 1058.1021
1775.4526 1035.4952 1136.2554
1953.0872 673.30121 868.84833
1272.3956 115.80878 397.88409
1836.613 272.08392 353.81671
238.5813 4013.9622 182.22792
422.58548 4231.0112 1329.7026
1304.1753 1607.5255 1141.9191
1287.4287 3435.0032 1634.6321
752.98456 4289.5029 1301.7013
287.37952 1968.911 1046.167
1432.0579 3295.5933 1640.6702
740.54236 376.05869 830.19623
1989.8306 2133.0796 661.82355
1598.3323 4316.3843 302.189
1386.9147 228.0721 830.3717
1965.3828 3817.0696 549.19012
1439.5343 3367.1914 1635.3838
1224.9231 1966.7902 1520.2939
382.99402 1511.7119 1070.5149
238.24463 582.67401 561.63727
1788.5518 4014.4546 330.57074
321.83472 1430.0819 1150.5128
1576.5331 3633.2788 454.32242
1941.9999 3803.3706 677.7038
1032.644 2007.4683 1535.7643
1998.2515 3113.1072 407.87994
298.52246 3280.948 486.30667
1708.2079 3306.1045 648.53198
1992.4014 637.55872 296.5304
1198.719 3090.5586 1604.9036
314.7785 175.9687 627.89178
297.96207 4376.9937 989.74054
1988.8579 2389.5789 667.45575
405.81665 3788.4121 31.890106
1622.4032 229.63525 786.0498
1562.2146 3065.2102 1635.1975
462.8942 2857.0435 1543.3413
505.53152 3352.0889 742.94092
1097.5881 296.30255 999.70996
225.78296 1741.0327 801.90735
1195.86 454.58478 942.73877
1639.6559 1744.5406 952.6925
1834.146 3879.2046 231.1666
248.29707 4314.1147 373.38361
1059.4924 544.83179 1094.9839
594.86353 1478.8816 880.13586
1184.3151 4389.2349 736.63928
1978.3567 2215.5381 797.80481
1887.5447 721.4248 335.11292
268.23517 4129.9414 939.04156
1805.5171 3347.0151 1319.429
1265.7036 415.81967 275.72498
1807.3853 4022.3325 494.27359
193.81143 3977.1829 778.09448
234.3932 1102.056 368.35083
1189.2058 376.83493 277.49286
1299.9224 987.20111 1168.2904
1203.8955 405.26459 1056.2526
264.09238 497.58997 886.24121
1788.54 3972.6431 213.4738
1424.4709 2020.0669 1581.1744
1661.77 604.10626 536.84692
1942.256 615.30646 925.36414
206.34399 2375.7981 396.7673
305.20914 3964.8562 779.71716
226.3894 1669.4764 797.04358
1994.2061 712.04803 550.44763
941.44214 1986.365 1597.0448
257.14899 3884.896 267.77478
1983.984 624.61035 222.18976
1244.8184 3171.9229 1603.4736
1821.4265 887.39099 541.12292
297.51642 3927.4661 1056.3794
523.31299 394.64316 1026.71
868.44409 95.817505 535.47101
202.582 1351.2789 661.68463
1673.9393 3818.7153 1508.5725
1799.7092 998.41284 4.1091356
1885.3496 198.05333 466.1246
1975.8079 2116.2371 867.76831
241.15332 1833.5288 374.46484
370.7507 3015.2878 1274.6859
1867.0706 527.1355 522.83698
263.5347 296.44116 561.1925
226.16612 1603.9568 670.93152
1326.4719 435.87 1010.2735
338.59296 1447.0996 1090.4915
1629.3054 2814.5735 1666.2865
1045.4247 1792.687 1518.6816
1947.7954 591.33228 870.28796
1943.2168 931.94409 550.30457
1149.1934 416.84155 1060.3899
405.58392 1766.5604 1460.4492
1980.6318 2935.9197 857.92126
1988.45 3502.3047 603.00208
257.14899 1136.709 422.00885
457.50299 4371.3926 670.14539
1903.2919 3914.292 336.47226
1428.3364 1731.9871 1178.3342
663.98615 298.12711 755.43256
1405.5314 2951.4399 1647.0994
1540.6445 4424.4849 637.48212
1957.0977 3575.749 211.84004
1988.45 1092.5078 41.95351
961.25024 4402.3438 1355.9106
1211.2424 2948.8599 1718.4534
1745.8315 2088.9277 1595.394
586.15997 2133.2786 1603.6063
1828.6086 3367.4001 294.58588
1826.7853 1606.6934 1348.7207
208.17635 3803.0581 833.24146
1820.7399 1149.691 63.204704
1998.9301 914.86816 820.93964
1526.6857 1654.9427 1428.7615
1753.3859 1135.2217 1163.2065
663.51599 4179.7969 262.82541
1744.7854 1783.6573 962.62317
1129.1304 3096.6355 1708.9655
1986.9417 2192.2271 380.14221
1922 314.12259 329.17709
539.75 3705.5867 790.95599
230.74515 488.42267 781.36975
436.85202 522.63129 420.74866
1935.9329 777.21448 792.26758
316.56024 3368.5647 1116.7544
288.03647 842.09601 171.04163
429.54922 546.9389 1033.9568
1832.7737 1017.4943 320.44061
895.57477 1441.3688 1314.5375
1769.3635 4377.7202 800.18701
1162.4342 1636.5029 1133.9807
434.24539 2608.1204 1478.0812
912.19366 609.7536 1109.9397
1273.2441 2256.896 1609.4558
1690.0332 4160.1675 259.32831
1955.1617 1376.7861 610.16168
212.81172 3697.0532 674.49463
277.57404 4133.4956 445.69342
1809.0957 3938.1638 84.163139
693.07739 2534.6846 1644.9855
209.37067 1863.1592 483.97275
1165.1282 236.32909 572.08301
852.49731 454.33514 1067.4633
1599.2174 405.95886 286.32187
1794.0714 4011.8936 464.18414
276.24756 2473.3672 784.76294
827.91132 274.46875 293.21918
648.64923 1032.0869 465.28082
254.81503 4357.5479 684.6438
1815.5918 3651.7122 1342.8881
1839.5784 555.82483 628.02393
400.94501 1044.1559 545.66003
1896.6946 2128.0259 1084.4921
561.04688 4411.0864 1357.9346
1978.1047 1904.2242 842.02136
1571.3379 4333.5278 1353.1005
206.07471 3469.0698 248.51979
1975.9742 1760.0745 805.59601
334.54306 4061.3635 671.86383
720.0304 3205.9692 1639.583
902.43591 1652.7455 901.07288
484.84232 398.42242 1010.9503
355.96936 3649.7556 1170.7903
1538.8918 3877.9473 1495.7878
828.33356 2896.4353 1649.5007
367.34753 2796.2896 1257.7867
1922.2786 3805.6689 1048.6621
351.51187 1114.1569 512.44244
1440.3214 1435.7089 1109.8827
237.74872 3655.0867 569.08582
577.59314 3234.6648 1610.7781
1758.1931 4421.3652 1005.1971
539.75 3702.8008 688.32227
1096.463 1933.4401 1574.8669
736.15552 4412.6221 1358.2902
1221.8235 3440.2246 1623.0127
390.10715 322.47772 298.95697
1770.0425 666.2879 1057.2664
394.57544 880.08954 127.07026
1458.7397 2962.0105 1716.4292
226.65475 1625.5472 797.06854
828.68896 4383.4346 423.7771
1884.4888 624.86829 220.76361
225.745 753.10815 256.96786
356.61917 1292.6853 289.86792
1358.0309 4004.311 1456.8513
1298.863 3057.1707 1605.4902
400.94501 781.67419 503.53119
329.76648 1622.0913 1205.637
1773.9847 1909.6051 1475.2002
2008.3398 3270.6953 623.89368
1469.0247 4317.1528 530.14459
522.52258 1398.8278 869.27563
817.95911 4200.6133 270.37885
1661.77 3881.2861 707.04224
1969.5084 3707.9338 144.12518
539.75 4091.0962 465.80072
1891.14 2475.2778 793.97571
1864.8151 746.98303 332.59814
693.61188 2401.4199 1621.6946
1989.9741 1551.3381 489.14581
1905.8218 199.60327 494.20737
1148.6741 3063.2524 1716.4785
204.11372 2966.4434 615.53015
407.26419 1278.0944 1094.8994
229.5448 2703.4548 382.38791
1913.8033 1297.6456 312.71277
400.32108 3495.3167 440.94562
762.2774 186.86063 577.35596
539.75 1273.4305 371.15225
357.54568 814.53821 797.62903
202.582 1244.5643 785.80591
886.84442 762.53723 1137.6162
1470.3394 1941.52 1569.5256
308.76474 3554.8604 207.66124
776.56146 4297.6616 488.32693
261.46558 1197.6091 1002.1124
1094.1449 4293.2124 1300.5391
844.25281 4352.3633 643.79651
208.72214 1956.006 507.44107
643.07507 2670.3372 1640.7839
281.52148 1826.5927 374.3551
413.4682 291.07468 305.76389
1849.3975 1069.675 1121.3981
225.745 3869.7432 186.75858
402.85687 3617.2002 1405.155
1844.7377 3452.2559 1244.0459
1964.3199 3660.2329 414.52783
1914.1614 3575.728 533.06903
883.12854 1114.8582 1095.2737
255.08807 862.90222 12.75049
336.89844 2495.249 1052.3196
1841.5393 1582.1599 1149.512
1223.5634 4390.3877 971.13641
1843.0105 3416.8496 162.02542
1948.1295 516.63934 378.65887
878.56458 4357.2104 1285.22
1978.168 1326.7617 492.48761
1496.1592 4295.5449 1337.3047
1838.0913 1096.1969 665.30811
347.47388 1674.5112 1100.0359
1865.73 3829.5835 334.74301
237.18581 917.86523 331.70111
339.51691 3361.27 1203.9036
857.19409 4488.8086 421.72989
674.65027 2845.3462 1641.9152
468.64026 3346.3235 1611.1582
1920.4287 3185.1638 388.57419
1297.7317 149.47163 594.27191
1914.6946 1676.6527 1054.1042
244.34738 727.04053 860.9469
1461.1528 685.4353 1116.083
237.11493 966.17151 395.13901
335.79205 1155.5959 317.59457
1827.6298 2484.0918 1136.17
412.97601 666.88226 321.82571
1998.9301 1327.6111 552.29266
254.91431 3741.866 907.4259
1902.35 3791.1128 375.3255
205.0192 2805.5225 509.51593
593.56036 2869.272 1633.6913
1257.0035 276.82187 953.38898
796.61646 1185.4265 1179.1519
348.82513 3219.3364 1197.0435
1119.5699 344.51855 780.75146
213.065 1057.3717 669.63177
561.84906 3016.1074 1641.0261
1832.881 3640.8657 357.78372
1989.7861 1540.1179 390.54855
437.68564 2131.3936 1496.2825
1937.0558 1117.4192 181.85281
500.62866 396.73077 309.87247
984.17578 1170.6831 1155.437
210.44777 1723.1442 393.99612
1887.3004 3031.2139 1116.0986
1661.77 1080.7649 725.42645
338.25153 1120.5297 1114.0513
1397.4596 1755.3989 1039.9305
1507.8821 4409.124 1357.4803
539.75 3800.8435 451.51981
690.45349 328.97217 1016.9558
790.84821 2653.4268 1650.3398
609.86493 2071.0911 1597.7649
255.07693 1302.3833 345.94968
335.784 1050.7504 435.42694
1965.8892 3424.1665 687.36237
421.71796 373.47327 1000.8018
1884.7043 633.65234 1015.3138
1547.3866 2151.6138 1613.6891
1900.843 3684.3765 574.38275
1790.712 3827.5747 122.16742
767.42987 4409.4448 1022.3718
381.552 1592.5414 1080.5342
999.86469 3258.769 1647.4255
1304.4407 3318.8997 1600.9095
1262.2114 247.94388 825.97064
341.16534 1181.0637 606.43188
333.07672 3603.9563 1169.7776
772.02747 1395.0256 1080.405
1427.163 2736.3462 1615.9497
315.67264 1133.9974 444.664
1338.0623 1191.4071 1040.8954
1160.3384 4389.0762 759.29285
279.67111 2484.6875 958.2475
858.55322 798.78687 1142.8423
1162.8831 3089.8838 1649.9355
1889.9456 3985.2185 551.97284
1591.6321 2401.5576 1614.978
1845.6975 497.00107 282.82166
440.27386 1816.2947 1486.4139
1913.2777 436.44034 408.65536
1743.9323 4434.0542 684.5863
1904.7822 1446.9811 1080.9208
379.87238 1701.0524 1002.3477
367.39124 1038.7402 1127.4065
322.93817 3211.2112 1142.6437
1293.8376 2996.5991 1717.5515
1919.7898 2468.8884 612.27649
260.38675 4062.8027 1023.7396
243.89095 2832.457 937.315
1787.2759 915.76556 1107.8102
669.45764 117.76939 592.22412
403.09589 2103.9434 1381.7815
1297.5592 391.78955 616.49554
230.48792 3916.1692 905.89941
1437.5283 1163.4515 1176.0138
412.78424 1812.8289 891.18097
458.19199 2357.9128 1543.3311
1931.5916 3372.8018 264.71906
284.44409 266.10095 702.76215
1671.4165 1326.3871 862.86017
852.41113 4386.2314 736.10144
1947.1501 1175.7144 805.54749
268.6489 3255.0437 962.02692
222.87097 3871.1848 788.2157
1877.5322 4054.7544 318.37238
572.62909 4407.5991 1046.8254
871.349 4373.0288 930.21838
322.01343 1099.1775 359.98184
1226.4751 1174.3474 1157.5908
620.29962 3170.2339 1631.7791
225.08182 1923.3221 791.67706
1988.4498 4029.4761 426.72571
1229.8647 2313.8289 1642.8564
1304.1158 3383.7219 1640.1698
1409.2141 4337.333 1344.0343
254.96237 979.94232 0.76863974
843.96167 1658.6022 1440.1982
1768.2703 4377.9395 723.22968
229.17166 1409.9385 415.31357
412.97601 3866.9597 117.52972
1125.087 4438.0044 836.40161
1979.5681 2505.0569 820.42224
1739.1005 1062.4055 1155.2084
1741.9608 4425.0801 422.95959
1815.0852 4038.1929 1341.3817
1723.1473 2563.9863 1609.6086
212.14784 3593.5718 789.10022
299.40765 2469.7158 850.34692
1755.1072 1541.0225 865.58881
858.4386 1706.356 1085.115
443.21063 3004.1694 1494.0709
337.92984 523.45471 284.715
633.1864 1134.4471 1155.2465
299.64273 1639.7567 1265.5725
1731.3678 2720.1152 1563.9951
483.68909 2779.041 1599.5125
1406.4945 4362.8413 628.38
1619.8544 3561.1519 366.72556
1701.9249 1255.2455 1021.7587
475.81131 3874.4934 1478.0533
287.92258 3745.4778 143.46999
856.95923 4204.6758 1375.3212
1073.229 3309.0059 1646.6788
980.82288 4369.3774 527.15625
1612.1775 4138.4868 261.45627
650.40491 3311.9756 1632.5835
1655.5403 3956.916 1458.3362
783.54785 2890.3516 1647.3979
233.39111 3627.272 502.35083
252.27737 845.57294 141.04535
277.68579 3868.1123 654.18378
590.37952 3362.6782 1623.5295
1082.3365 4357.6128 725.81738
863.78308 3156.9883 1647.3569
1518.3503 4004.6895 1448.5677
285.1731 2469.6387 648.62213
1905.9971 1032.389 382.84225
692.35382 2790.1497 1618.1129
1630.8527 2963.4763 1605.427
944.06348 1661.7817 872.06567
1520.1901 4367.3823 424.09219
1199.8881 4337.106 1291.9395
410.3382 1066.9491 123.72952
751.19006 2995.9675 1696.2902
1975.77 963.61108 118.45602
389.26953 1123.8357 46.573391
1499.3313 1228.2772 1183.7153
404.789 4390.3789 974.64709
1825.6467 4184.6348 262.85132
898.23145 2996.7505 1606.5522
397.89471 1093.0205 806.86597
424.10162 2847.5557 1446.1506
1957.3523 3443.7793 934.74109
1417.2491 217.45354 857.95532
1886.8401 3831.0837 337.82812
256.31467 957.8255 809.02185
341.95728 3890.3396 443.491
360.85574 1338.7205 939.94299
1488.376 3197.8323 1610.2505
350.39032 3770.2136 684.90283
347.47864 4056.5222 326.51453
318.28098 304.3074 481.37073
442.41486 915.12537 373.72791
1772.3324 2040.1818 1471.1187
1884.5973 3385.3472 211.00087
988.495 1500.6174 814.65204
1815.2938 1332.3214 1057.6887
556.51746 4299.1846 425.43091
1661.77 3946.9958 669.02008
1960.4738 3933.6006 304.10132
555.29675 1739.5642 910.90106
1067.6959 4357.8369 1283.5361
894.57385 4304.7139 502.29593
1830.646 3978.438 562.51367
1485.895 2870.4058 1615.9009
1752.0215 4409.5239 1132.0056
1087.9521 843.17719 1157.4531
1194.2747 2170.5935 1630.0924
966.70166 4301.9517 1318.6187
1692.0518 1203.7458 799.34375
245.14877 3713.8188 942.30225
1463.1519 134.15285 391.84851
249.1402 1150.4111 229.41576
1998.9301 873.27661 795.8891
1527.9856 1278.4122 1061.4574
1330.4313 124.2403 364.7887
221.45619 3522.3672 635.9118
404.04837 1583.9413 1300.3412
986.521 1662.1819 1444.5784
403.17007 3477.1243 779.08887
1833.953 3583.7561 509.41879
1852.9299 883.23816 1083.3354
1629.4556 2407.9363 1611.7142
539.75 1027.9984 632.14764
334.16858 168.78964 491.65161
539.75 3396.186 329.84018
1080.3486 1659.6313 1443.0681
1997.6199 3983.627 465.7392
1990.7222 3745.3176 25.71011
1249.022 187.05109 803.77692
273.74002 719.22437 980.28137
1377.5812 2863.3 1611.7759
253.81013 3604.4121 232.7998
1179.3059 1433.9158 1088.7483
295.28101 945.836 428.93118
1947.7408 3651.1909 972.48798
1963.1292 2471.1589 766.4458
1773.9869 532.99048 381.4191
1958.8591 3657.1318 937.9621
1868.1665 3257.1689 347.30826
1914.4132 2474.6919 800.48987
1807.4607 4016.3928 185.7321
1950.3835 4356.5459 507.18893
607.76617 1725.2458 985.59961
598.53113 235.71301 720.92438
250.99068 912.84595 809.73895
466.32312 705.85461 1078.8257
718.17627 4358.0576 1304.673
301.07074 2786.1584 1080.943
1033.665 531.47675 273.29553
1641.54 465.18149 1011.6433
229.40276 1415.0538 754.48645
1800.0698 4286.0278 483.12723
1661.77 3492.6902 503.53909
400.94501 727.33301 311.89133
1067.0745 3059.2607 1716.5597
973.20898 4301.9897 1320.7839
215.82176 3738.1902 767.54919
1031.8143 2870.1455 1653.2
1555.7312 2001.4961 1562.7561
1975.77 807.35327 178.67987
461.23508 3155.2949 1581.7462
1481.533 4298.9746 290.39252
539.75 948.2962 514.9425
1497.3967 4412.6465 292.67883
1898.47 1011.7592 219.60092
296.91263 3733.3433 692.90869
1974.1167 1777.2664 751.96252
246.78433 3437.5654 696.8493
1090.7987 4412.0889 969.66705
1159.9569 1552.5511 1115.0151
775.90668 4278.3911 447.28259
1176.9512 4396.7598 1163.2552
1385.2872 4373.6006 851.35596
342.58954 2463.593 775.5072
1162.88 4491.5928 401.086
341.92209 774.98126 240.09395
1980.1935 1746.0142 373.07971
400.28082 3176.9165 1372.6196
2002.3958 3104.2568 653.6571
1788.54 3975.699 267.94144
1225.021 4438.4971 818.36047
1994.2236 1315.4563 752.96582
1174.4612 569.96094 1101.0742
1795.283 3551.3447 628.26428
600.68945 409.92068 308.92773
380.72989 776.87671 494.91861
1935.5546 874.94482 426.28943
1661.77 3531.9111 772.92529
415.66019 4451.1431 339.28464
1828.1873 3918.0615 71.232864
1814.5035 1265.7727 1093.5405
1892.6091 3464.8501 95.408142
1469.0122 1359.5217 1086.9691
1932.4397 260.99338 408.97424
481.97858 2266.2039 1595.9478
1237.8328 150.7742 552.98218
253.86722 2551.8833 968.06958
2002.0486 1733.6265 620.12494
1940.6729 541.17615 908.28894
1796.98 773.67358 634.74664
226.87212 1398.3181 484.55142
1644.7186 1247.7708 860.51837
289.87216 537.87927 967.41376
1830.8623 940.12134 1102.2159
313.87177 3207.9893 1115.0165
1053.424 4482.8154 345.01736
1362.4919 1777.208 1181.1698
401.11224 4368.8926 1235.4023
293.17059 747.04993 451.92322
1971.3824 3963.6992 585.42682
376.6723 4385.7842 288.49405
1338.7302 214.62108 856.13269
505.1951 1158.4783 1149.3394
1819.9805 1657.9578 933.4032
1954.3942 3363.616 315.50998
1065.099 2571.1816 1611.9358
1661.77 873.75122 693.91467
1721.877 493.57526 1028.6903
1826.3112 2911.3433 385.05795
1497.0012 1008.4599 1161.0219
219.04391 4150.1943 676.80139
361.13135 693.57031 577.22742
1643.1927 209.0582 721.39062
1651.3724 4419.4868 985.1059
333.70197 1458.6848 370.12823
1737.5138 4265.2559 294.81094
336.79504 3718.5649 1115.8951
412.97601 3608.2256 623.82507
723.83893 3023.1582 1612.8987
1639.3236 960.84308 1151.5823
222.48428 3045.5906 704.99213
1684.3037 4433.7837 422.78876
1930.5391 1333.9612 640.17133
1552.8655 4134.5942 255.56676
1482.4863 207.49789 861.31049
1564.52 1891.1907 1017.3051
1893.0024 4364.1421 1099.4595
1916.3712 3902.1108 277.17419
412.97601 3434.6978 228.56163
539.75 584.88385 616.5976
1944.3601 3813.3943 511.59103
1906.0302 2483.0005 923.25677
1964.8048 3614.1614 316.31891
1495.5464 278.42096 674.93665
1834.6445 3841.6973 159.2822
1789.0137 1044.4912 637.11664
1254.7585 2055.552 1615.4832
2045.7944 1621.5343 1284.2693
1076.2823 4277.0566 1332.4458
206.34399 2345.9954 583.4007
1661.77 663.60889 652.33832
1447.1514 3911.0762 1487.947
1936.298 4267.2988 311.03101
1426.0759 1847.375 1187.9476
293.85919 1414.9939 382.04907
1340.0842 4385.3906 782.03601
358.2775 3254.1377 326.89307
274.5351 1411.3657 431.34482
2058.9548 1636.6571 1270.839
1938.2157 1750.4274 1007.6016
1526.7778 4295.8511 1299.7128
263.60748 4419.2148 457.17474
1828.576 3876.5386 787.82495
730.81366 4372.0659 835.33112
291.62073 4094.2537 577.70618
1853.6833 1890.571 1183.5168
412.97601 933.80603 52.843437
464.89066 4426.373 974.69409
1891.7935 3472.543 778.69586
198.80695 1962.7296 630.49054
945.08789 4354.1504 614.34253
1815.6661 1389.0166 948.23193
410.49023 3469.7781 426.3985
1147.8497 1070.079 1179.3127
1463.3743 623.59265 1103.6472
1976.3601 2329.5605 726.1496
1940.6793 330.22397 778.37231
1661.77 3903.0723 536.34332
285.58301 3779.7036 429.96872
1183.9819 4385.3853 1343.2018
1290.2883 4430.0396 296.46185
1963.9585 1888.7314 375.33856
1995.17 2483.822 423.85748
1328.0188 1988.1897 1596.2598
1911.9778 1216.6567 1052.405
1520.5793 227.40115 775.26752
1954.5007 375.41159 450.89511
1788.7151 1476.6182 851.45013
860.7959 1429.2336 1090.3492
1177.4729 2326.0076 1643.9417
868.8324 2602.7935 1654.1432
1445.1855 4294.0195 480.68631
1712.7529 2329.1733 1609.0107
1543.1168 203.12923 328.40158
1856.4519 816.02417 530.60974
1923.9048 3767.2388 357.45352
1382.9021 1225.3638 1185.9196
303.9433 4039.553 1127.3401
859.82385 4373.9111 973.29224
204.4581 2824.3013 618.49707
1990.2422 3521.0146 83.175697
1816.3942 4059.103 338.40009
1033.7666 941.34546 1169.4843
1279.0212 1250.9919 1050.1425
243.92676 3685.0278 402.97424
1594.0687 2706.1145 1612.6945
1537.2816 4282.4761 430.85574
1606.5552 468.19119 306.28278
253.81976 1146.7062 984.31268
689.88959 995.51813 1159.3252
1320.3704 129.96661 576.47974
1869.1456 617.48071 261.61652
1795.2432 716.72705 357.21466
1974.6215 1660.7129 784.80322
1291.6338 3192.0396 1603.1202
226.79883 2051.9255 701.84296
1166.248 4280.6313 1331.6548
1968.8617 1977.0117 883.9209
1933.0984 2487.1133 990.42755
662.38135 1073.2095 426.51483
302.78809 1335.4489 881.18481
1893.6821 2681.2834 1096.9529
385.6431 1366.7894 1142.1847
1949.6216 3840.822 236.5542
1936.3888 4368.4829 621.32446
1190.0007 1144.7607 1029.417
400.086 4421.0605 812.42853
203.895 1235.8202 445.3616
304.26498 1985.2108 1086.1759
235.84789 1892.452 903.10638
1584.7816 2164.6257 1604.8944
323.70392 751.26251 1040.0076
205.09937 3810.2085 591.21008
1614.7195 2903.3022 1680.7869
750.5647 3860.522 1506.8365
1866.9707 848.36938 1063.4661
993.92963 3748.5742 1552.4595
1949.464 1643.6578 1272.1951
539.75 3617.3386 656.41058
1238.5398 1202.3948 1037.6509
247.39624 1331.6965 889.56238
1529.0156 4389.6411 1344.0159
207.3616 4233.1221 503.98666
1997.6201 3429.6929 299.53589
1957.8582 3363.7087 314.99689
1700.5048 1467.8137 1082.2902
1090.2811 2023.7739 1609.4042
1549.0425 4197.9663 1367.3386
799.54065 3814.0852 1524.7439
1979.542 1234.3743 544.14319
333.88733 4215.2764 267.50323
602.33936 124.49205 580.87
994.33691 539.72839 273.15179
1754.968 478.24884 274.49744
264.58405 3594.3608 18.053629
1328.9166 1917.1748 940.85657
267.94363 3869.5498 1032.1489
667.1991 4283.5977 1307.5085
1469.3423 3342.3672 1606.6742
462.07492 4103.8174 573.16956
868.51666 4457.2451 422.32825
1628.156 1553.6438 890.51111
1691.1309 427.30414 1031.712
1738.4825 1772.8323 1057.3105
242.23853 1330.9828 848.73193
1833.3313 3909.4644 392.29388
1212.6865 4292.2549 474.76221
1858.4098 3214.0361 1169.6141
564.67401 4368.4873 1320.6385
435.52972 2362.9673 1470.8378
2008.0656 3470.3879 739.03436
1814.8831 732.51202 614.06171
1123.2885 1153.0377 1145.0645
528.854 2937.0796 1642.4155
1947.2279 594.5498 878.0354
1882.7137 2316.4375 1115.3721
245.69096 910.35828 120.49845
1052.2845 3099.9683 1701.05
1526.2732 2211.634 1612.9263
1441.9796 109.78525 615.56189
594.56451 1212.5453 1158.4878
755.23767 1306.2444 1231.2771
1525.7269 2642.2451 1643.9514
209.00937 538.93311 432.64276
1160.1509 2534.417 1611.791
475.53558 2103.7539 1584.4031
853.79767 1982.8899 1586.5076
201.34406 2126.365 641.97937
306.918 970.67029 207.45383
1636.84 4344.9546 1323.7131
454.60089 2236.9292 1589.5201
1278.5266 4296.5015 560.05835
789.56006 230.37532 811.8446
281.20947 1385.4143 1049.0107
1145.2467 4375.8022 943.77545
603.9729 1725.1996 961.92047
510.65265 3829.9407 791.22626
1581.7532 431.651 1057.2522
1907.8743 4378.4507 1012.6851
622.6579 2510.9756 1614.7905
204.0473 634.72119 771.31219
464.42615 3287.9011 541.65448
1272.8992 4360.3672 1310.7365
207.47913 2461.6292 532.16675
1377.5759 2810.6331 1612.7007
1661.77 1260.7208 447.10736
237.17867 3700.8293 385.13983
1988.45 3958.9143 123.03091
714.33228 221.18762 659.83185
260.05209 3907.6238 291.8425
536.48199 3922.7832 1471.0935
381.6832 3335.4929 1296.3461
283.35526 1625.1075 1185.2928
1940.4072 3176.1152 984.74561
1994.2917 2172.1077 603.85376
324.61551 1586.922 1161.9375
316.38034 2664.8171 381.89182
202.582 1331.6418 636.86554
577.71887 1424.442 1278.2314
457.95178 2894.6299 1595.8049
1913.8026 3297.7344 416.31335
488.70605 1172.6945 805.59558
493.57407 3305.6047 647.49121
209.14413 1895.8799 482.37097
1963.052 1217.2169 943.25153
225.07199 3542.6523 41.433289
351.94666 2819.918 1198.0635
1934.0192 1200.8262 99.700836
1920.8801 247.61072 663.77478
346.5195 4039.4116 1212.1499
342.46048 2905.6196 384.98376
1906.0591 776.78448 1015.051
1641.9543 4487.0845 370.46048
205.31337 2753.5713 513.51929
1796.73 4380.3652 559.6933
1127.0558 2613.5452 1611.851
1773.4604 382.53726 959.74573
1875.0433 773.4668 1045.3193
1223.4464 1434.2903 1310.3768
1463.2783 1126.679 1084.9128
1395.2861 4308.8696 425.24078
1705.8466 4093.9561 601.0238
1165.8557 4284.5791 1304.9403
838.15857 3476.9219 1627.0603
236.29077 3756.1313 439.62958
1913.9607 3916.8774 1078.6024
196.70825 2112.5942 630.44415
951.31189 1116.1553 1071.4224
346.19144 1736.6875 1184.0186
1837.9507 698.22571 104.09762
786.99731 107.39235 619.32092
320.12518 614.69696 277.01077
1909.8871 2767.3574 383.20886
249.83887 1332.9087 975.26263
1734.6765 4098.1743 586.3996
1080.7803 112.66395 351.13641
1685.791 2974.4673 1641.7582
1406.1953 752.92523 1130.8135
1310.2356 4311.4507 1344.491
1709.6257 3001.5217 1618.2576
1310.2683 4277.021 443.58713
609.5332 2021.5325 1585.7446
1380.064 3189.9111 1644.7917
1661.77 3866.0493 418.88773
1661.77 3526.1128 483.19464
359.8985 2460.4141 734.34607
745.78143 4375.0249 654.8244
1510.4821 3573.9004 419.00067
337.17426 3778.1104 1124.6348
1746.282 4397.4302 1192.0782
1916.5239 3383.0884 654.26508
269.918 3636.9082 304.42075
1576.5376 2083.1904 1600.9485
406.96613 3949.6792 563.56915
533.31012 526.47803 1063.2296
205.26857 2762.4041 452.49765
1752.0559 3189.3171 1494.0511
225.745 1162.2573 297.81201
1250.2385 4393.2031 1353.7946
237.189 3785.0696 362.35419
1138.5309 1120.3374 1032.1763
236.27351 904.50623 440.87988
356.87497 3615.2566 790.96442
1592.3518 2303.2017 1613.1302
1986.9592 2035.944 377.66861
890.3457 2938.6543 1701.1672
368.46298 3876.7339 186.80464
1270.1219 1746.7224 1068.3591
1132.5847 393.50903 714.99561
1790.1741 3784.1824 98.219971
1061.0959 1936.3696 1575.671
888.94763 240.24757 574.42676
1049.8339 155.14049 647.49127
1314.5586 1471.5657 1108.7749
1871.7228 1425.0958 1175.9777
1724.5193 2648.0254 1591.7339
1714.5386 3459.7881 777.5993
205.44493 913.41803 601.71869
1212.666 1007.7257 1131.48
1184.694 418.86151 275.26132
1946.4438 2424.0488 962.20642
237.56339 914.70105 1.5039206
1934.0247 3710.8247 402.76892
1318.1238 4298.1138 430.58276
213.065 898.98413 12.587545
1806.3044 3621.0203 130.31673
280.32758 3679.2764 690.69434
1898.47 3751.6606 462.42737
1549.8621 309.82718 963.20898
1463.0432 1147.5062 1170.8246
1579.3007 1722.5322 1178.8379
752.0943 1396.4133 867.44043
257.14899 1100.6779 473.00079
1385.3611 2229.2285 1610.8606
718.45123 1716.4694 991.20251
1635.4016 4413.103 321.36996
1934.9174 3812.4614 314.39813
1877.8572 1417.438 1085.954
1932.1414 3213.2488 1007.5715
1879.9049 1417.5291 1146.3562
1513.1705 1341.2805 1080.0168
535.70807 4493.0806 413.74161
1924.4607 774.72913 240.43474
255.40016 1150.9049 805.94299
1998.2444 3113.2756 438.33633
1798.6577 3819.2371 15.852027
274.89587 4286.0767 1017.4879
406.89746 899.43719 573.99774
1101.7334 4393.1831 1188.5049
229.64308 1620.3782 689.08667
412.64856 3962.0132 446.88379
300.89941 1843.7385 374.62646
1972.3314 1466.219 878.98303
1257.2449 1276.7952 1054.4218
211.84567 1738.1172 649.604
281.54547 3857.8921 488.67847
339.17886 1275.7859 212.0387
1467.5923 3085.5457 1611.4073
1143.4196 130.82857 644.16156
608.39136 2872.3452 1635.083
1236.2673 4297.5088 486.16467
1286.4249 4308.7808 271.81427
1113.8311 4305.2393 531.99927
1020.7967 498.78326 273.86624
957.79626 368.41101 823.26709
995.28827 2573.1062 1655.3379
891.73987 508.6441 1082.5319
385.33563 1382.1608 960.79413
1605.4735 4323.6533 1289.632
1934.9131 1160.9678 805.78265
808.70776 2520.5349 1650.3756
295.78879 555.91553 318.47565
205.57117 2710.6177 439.06934
1641.9561 3691.3428 465.6261
539.75 1109.775 633.94287
500.75824 1305.7427 854.92377
1414.5226 395.14847 808.91211
1429.8132 4492.6494 421.66275
206.84235 2349.8137 658.68646
376.31119 1639.8771 1356.0037
201.10619 4200.4468 591.27448
1894.5901 911.54712 210.25531
411.86285 4198.9209 1364.0685
328.021 3117.4077 387.70316
1896.9246 3678.907 478.5423
1912.7632 598.0163 711.66602
396.38385 1279.1836 758.01141
1993.4907 2055.8857 540.43652
252.54967 4321.5264 552.48718
1311.2837 4304.9863 502.92548
1765.1676 552.89154 617.26953
281.13376 1098.068 29.998943
1861.8499 2156.8052 379.58154
1887.3013 1281.3066 1104.0869
539.75 3871.365 356.27426
1759.3647 3254.1594 1469.8053
1961.1354 3475.2295 778.92682
2001.9653 2363.4741 624.70789
488.45636 3547.376 1588.2346
1996.7047 626.50348 790.12628
1869.2988 3588.0696 674.20123
1762.0234 539.04926 577.82886
1400.3284 2588.5496 1650.771
233.93886 4096.1621 925.97906
1596.1058 1733.8363 911.26501
1422.7917 337.80396 1025.9213
282.14484 973.94855 1016.7795
246.17206 2367.4934 852.92468
1898.9425 3815.6108 522.77338
1480.0454 1504.0809 1127.8716
308.22797 371.81927 296.66446
929.06183 2559.2175 1655.2784
338.78412 868.73755 362.82571
921.63861 3080.3953 1650.0765
322.12555 1172.4432 416.18967
1493.7104 1684.8647 1092.8151
226.91949 3403.4399 182.87292
1924.4283 1597.6942 1137.6157
1270.0012 1712.8815 1054.8171
1828.9309 2161.8589 1273.9976
