# .PCD v0.7 - Point Cloud Data file format
VERSION 0.7
FIELDS x y z
SIZE 4 4 4
TYPE F F F
COUNT 1 1 1
WIDTH 1574
HEIGHT 1
VIEWPOINT 0 0 0 1 0 0 0
POINTS 1574
DATA ascii
31.593933 240.10025 114.17601
-64.81736 8.3730412 2.5588045
82.776154 242.02985 36.486336
-51.563148 -69.059746 45.523331
-17.116793 345.31674 37.338219
-36.490215 182.31689 65.160454
-41.54879 215.53578 84.570518
-83.255188 -20.977516 11.392889
-22.468523 345.61349 40.458405
-21.703707 84.223076 158.09529
10.184593 161.5065 21.734715
29.828203 -73.854996 94.189636
63.323353 250.10858 102.2453
-50.831421 338.02963 33.695896
64.9935 16.271599 5.9084048
-79.394257 215.37912 27.65251
84.297821 47.080215 41.346539
5.8646202 -74.214767 61.112343
29.435654 -73.884529 67.849335
-58.459312 339.08865 35.537437
32.429028 -44.450661 150.82916
18.247089 58.443062 96.40416
40.616013 -31.091736 153.14313
-23.253828 46.912128 21.73378
53.793243 169.01997 148.33246
-26.951593 197.72354 113.46855
-84.863571 119.50826 41.888374
-8.6911926 -1.8661404 22.479511
47.484192 242.39095 110.74258
-77.540726 277.85291 48.913143
80.005104 159.58539 25.967873
69.253746 -0.35890406 49.94516
-85.190285 82.086555 69.913338
70.053925 135.96568 21.733974
18.946735 -59.890205 24.944599
-23.202335 121.76169 87.023918
14.570379 145.18655 65.830078
73.510071 31.159615 27.936453
-84.736267 -16.793228 10.44136
-12.259474 208.3819 21.735098
15.793436 -67.387062 25.564972
72.657547 332.49756 56.075996
38.702919 -6.9330955 155.07774
-81.207916 245.90546 47.732414
-79.334511 35.492069 100.94643
-84.005226 3.9951568 79.838402
-4.3470206 -75.020088 45.397232
-23.474016 349.6272 53.078606
-40.651844 50.454433 21.733807
-39.628902 208.62347 99.892303
-60.104698 268.36499 37.289104
-18.042654 279.14423 101.17232
-85.68557 86.653511 48.236946
69.194206 119.00178 131.68561
-9.4881287 218.53424 91.744255
72.045723 213.81155 112.83617
-83.070023 253.34923 35.789013
-68.469681 56.860165 21.7337
71.355743 -22.4832 49.978275
61.503487 -70.261169 81.510544
-51.881691 240.6275 111.08923
56.319572 259.33539 19.789867
-20.586145 126.285 21.734426
-74.308792 125.15524 114.11781
8.717103 181.79938 55.983624
-49.736832 140.96001 75.739349
9.2046423 41.813759 120.07511
-64.408134 257.11737 102.61002
-84.414062 194.5571 74.575607
-25.473543 195.24193 98.992271
12.296459 -56.82497 24.778641
11.505237 -56.000168 136.38847
23.331835 91.768799 21.734144
-48.207661 127.35204 73.073769
43.421593 137.92613 21.734524
84.537239 29.303684 70.927711
50.822205 -67.745407 105.17124
54.247276 337.56186 35.632942
-11.578864 138.24014 80.451675
81.636581 -16.993027 58.839561
62.59087 30.881618 143.66919
-15.839301 345.17081 36.71357
46.899162 63.385574 163.58154
-84.210602 262.29373 15.264615
23.086082 211.04549 132.09998
-33.240791 338.7272 69.068504
-5.9185905 278.4939 18.372337
-71.22831 302.49329 49.664265
-19.268494 245.97441 111.33827
64.341217 131.05638 78.849602
-79.439186 154.51349 96.496986
-7.8041019 151.79533 44.158855
-84.927467 120.1031 67.059204
-50.617332 0.49857903 22.434439
69.575912 -47.610535 117.48695
67.293701 49.402939 102.22261
-12.948305 170.66949 150.91185
-25.911509 28.188339 124.71939
-45.01609 70.025032 68.809425
24.966541 229.78174 97.611221
-82.394188 24.476486 48.404301
-70.891869 102.69025 123.96135
11.222804 4.3215051 157.17787
-50.013824 290.8898 17.455172
53.453999 122.21191 114.33083
21.792645 225.92532 21.735241
-59.543575 -69.548103 74.664894
-46.636826 212.2627 21.73513
46.675964 236.10547 114.87401
85.191437 55.01408 81.65596
-13.109795 116.84531 56.79073
-14.099287 328.09995 16.225775
69.927475 34.068909 125.15375
70.037216 206.7424 121.5679
64.161934 250.49208 104.23299
-72.128609 310.54837 81.893753
14.943567 342.2637 23.416641
-2.8939195 338.56467 72.657356
38.870537 314.7818 87.821289
-83.007881 -8.7020845 3.0268917
-11.656836 216.26794 108.71805
-0.85015035 -3.7555952 22.515522
-72.775436 53.982128 117.50996
86.932083 65.770294 56.990711
62.600029 -6.179975 8.9767714
6.8294778 155.00861 55.314121
70.422279 192.97343 21.733927
-65.077911 276.81525 1.954777
-25.123819 31.299707 157.56229
-52.178307 133.98141 58.044521
-52.421394 -3.6503863 153.36925
74.140724 22.112511 114.22098
35.543251 128.31822 70.660637
44.09668 81.92469 156.70647
-28.238083 19.36953 157.08061
-7.7455058 122.60995 44.656528
83.990784 110.7506 90.336052
28.733822 68.050529 76.373169
64.04966 270.91974 10.069485
-60.104694 278.90994 26.594864
60.104504 -8.4140835 30.135685
-32.477074 184.47598 65.207153
63.838638 148.06012 52.509796
-82.702339 -16.037201 84.589355
3.0130377 33.04023 122.18192
20.570938 149.41774 56.340202
85.831688 50.144714 52.340752
-95.760445 202.66212 106.60622
44.120865 114.85822 117.48682
-82.780586 44.674789 34.429436
85.432808 22.686794 23.725239
-80.406326 165.80524 26.664236
-65.208115 42.060501 138.37262
-73.034554 285.14114 64.210518
-18.926741 146.81042 155.10764
-84.921921 8.3261261 55.725716
-62.598068 293.11926 26.199001
59.980759 -46.770763 137.70389
-10.4438 43.315208 21.733749
-14.723276 57.331985 99.192947
75.472214 -18.649258 105.79568
-70.924149 257.2659 42.622253
-70.230721 172.58702 123.09404
85.467789 19.341209 44.620895
-25.135477 232.01691 119.71365
-1.5991218 89.048111 70.202362
72.138382 -62.136696 32.341492
-83.133438 1.9101 37.795464
-41.97718 -57.593605 25.140453
6.683733 229.27463 21.735268
39.609898 120.09377 156.16643
-76.884956 -22.547621 49.956741
-74.921707 -63.504303 78.286575
10.122321 -74.148048 57.924629
-69.112991 168.45992 21.734102
-84.799828 239.85747 52.610725
-44.638344 51.537926 97.11013
84.878235 10.941094 54.843044
-25.586008 -74.056488 65.913452
74.143066 -0.71840346 48.341282
82.785004 268.78583 13.314003
-30.689671 139.49213 155.41071
-73.213547 257.79596 58.052902
60.1045 265.47363 50.776093
44.980633 60.952263 21.733894
-23.523624 67.755417 79.560104
79.463913 2.3004231 100.29724
-12.938879 162.50549 64.009323
68.506409 101.18508 130.99783
82.790482 235.47398 81.200752
-33.464218 63.018318 21.73391
-22.389961 212.35498 131.42236
-58.768688 167.08467 147.6808
-18.922752 143.82993 60.960163
85.222946 72.198196 45.332325
-1.395334 -74.305977 51.378235
-16.173374 -74.828201 93.702881
-77.960541 209.30547 98.580185
-74.20018 -64.345146 79.808746
71.54348 223.46552 113.36427
-25.787043 230.32701 21.735279
-63.052673 1.1270791 52.528786
-11.278448 -79.051056 38.040703
69.760223 171.80347 21.734013
-81.43544 286.495 69.906464
-75.340569 219.05206 96.519135
20.057514 343.59137 31.139021
-72.872665 287.37698 37.121403
-36.919983 -63.146919 119.57953
-60.104698 279.85712 60.596603
52.847858 229.94366 117.64536
-76.134613 225.87364 94.389404
73.840401 -60.9221 34.506504
68.450912 87.625069 131.16425
85.165497 -0.59884119 40.003777
84.287903 -10.68406 36.444534
1.9670683 345.34537 24.702576
-84.195427 13.843321 70.971664
-81.370438 6.3467093 60.17025
-72.240837 14.383091 19.806602
62.965237 209.76564 21.734921
-20.113207 133.0809 89.020782
84.109802 268.35645 33.366547
44.829796 228.36707 119.92612
-84.832344 160.25642 68.844292
25.790562 185.00485 145.54102
-34.298756 28.701279 21.896893
65.181236 146.12682 77.763466
75.244537 17.271364 106.56336
20.81855 -45.013565 23.950575
-15.668758 124.83121 104.72783
-3.757154 174.47447 73.270538
34.757545 -41.90184 151.63301
-73.438438 20.359148 29.719433
-8.4813433 337.23416 22.367926
70.27919 -6.2031455 60.329712
73.775551 24.047741 115.64539
-60.104698 -9.6505642 59.915855
64.189438 139.14102 90.411743
-60.104698 260.58725 27.496086
-70.723389 -5.2093687 60.446461
-19.374962 223.82733 74.489059
60.105167 56.049908 151.18692
74.608788 -62.658112 48.398521
25.084682 121.53235 87.595634
-43.379562 52.904305 156.72061
48.735836 29.403381 21.883507
-14.683344 229.03467 49.299332
-33.533466 -72.716927 55.878693
60.1045 3.452014 28.617018
-65.602509 -28.720196 28.328876
-0.67752361 -45.6408 24.009903
-82.743469 237.34167 44.612339
-31.125507 -41.650566 152.10635
60.775208 143.05391 79.911873
80.831558 233.42758 87.016586
-63.715534 335.05637 38.423264
71.608917 21.18527 121.99808
-66.499138 -68.806007 56.518185
-29.843037 276.76822 18.500021
-15.820855 43.520767 158.10324
19.462666 -27.373341 155.00558
-2.9317815 344.32773 30.070789
-3.1472073 129.3091 21.734451
83.824577 287.54626 53.288853
23.097933 134.75339 83.880249
-48.91748 116.78841 155.72772
36.924667 72.535942 21.733986
-14.14322 247.73718 20.648012
31.715282 184.58319 21.734903
82.169357 -18.054363 91.462265
56.048389 103.70668 154.37654
55.24704 322.80847 16.18804
-16.742432 248.65204 109.70625
-79.130325 -19.665869 99.910233
-68.876572 -4.0076699 127.05912
-39.832825 116.10835 105.19932
-4.8808541 94.553955 71.51255
-16.170805 174.26086 65.48175
-75.706924 189.71095 98.28363
-63.341621 256.95004 97.585342
-60.104698 276.76904 23.511766
48.78241 -34.067959 151.93951
-60.104698 7.9496593 43.24955
-75.1633 116.75554 112.51202
76.259232 6.6189322 0.70187974
-85.226105 267.63492 55.77491
-48.575035 147.87379 56.425453
38.521923 338.4653 71.284569
-49.329113 135.79529 158.4097
48.82069 208.87112 130.77554
-84.690117 124.55238 63.475334
84.910843 191.55905 47.088772
84.452797 37.359993 89.538681
39.714478 128.05405 71.320465
-57.042953 134.20877 21.734491
37.588852 109.54463 21.734291
74.451279 315.27884 30.858835
8.4860744 122.73293 21.734398
69.842735 286.58224 19.10638
-27.085167 191.7901 97.717224
-25.504604 237.56207 116.24578
-84.589134 272.94415 51.111168
-27.875372 109.84235 49.105408
-60.104698 253.14777 36.567883
4.2637539 117.91571 64.568565
84.66404 7.5698495 20.2533
41.993851 274.03754 101.64528
77.595123 264.17712 26.981743
65.556976 260.30286 58.364727
-83.934105 54.734909 38.75267
-18.635063 36.559425 157.90012
-0.31499219 253.28864 98.285271
-68.507362 24.896629 12.250181
-82.355042 253.11012 22.275694
6.058691 290.11304 17.512644
-36.470932 109.34036 48.522099
10.509532 174.30627 21.734819
43.621304 -71.637909 61.51796
13.010576 -79.524574 41.506691
67.206146 312.58524 83.436623
78.368088 90.097755 101.03696
-30.835964 39.270111 121.52879
-42.877419 215.09804 21.735153
86.241348 77.027634 58.478863
39.501816 -46.205925 146.15616
-56.369473 290.8653 17.456987
15.865623 178.08443 66.538445
68.471237 251.1107 53.726608
-60.965824 169.80986 146.0376
-84.603783 9.3901186 61.470852
-85.293411 62.961582 72.687271
-12.922119 134.99207 64.088509
85.225304 131.47679 82.70414
-85.312439 187.89467 50.492767
78.249878 238.76131 48.021744
-1.0366821 -52.233253 24.633446
-82.947678 216.91005 37.07795
19.434341 289.42285 97.748306
80.648186 -41.65239 84.801888
-67.294403 72.971848 50.933876
20.359943 344.33545 57.124725
-71.538803 28.387911 50.972507
-84.153168 22.472694 67.872147
81.772408 264.49982 47.278355
-5.7314825 351.01489 55.386581
-12.830942 60.005905 21.733885
84.877853 260.21542 27.278767
17.657112 116.09627 102.1293
-48.518593 51.522743 156.31165
49.178459 43.646729 156.04741
32.621422 279.24777 100.44379
86.328644 165.34448 57.351913
-57.619789 116.50935 105.5836
-61.964756 166.39915 145.71846
-84.133148 175.55901 39.469975
54.255917 -69.289886 27.301485
-70.737251 30.832542 122.89893
-26.484795 349.45694 55.395424
15.220048 220.96634 93.003967
-49.670013 -70.454666 49.962795
-83.535759 250.52539 67.718063
35.56702 122.7746 21.734398
80.41465 21.599466 99.096741
78.457695 100.97369 100.74965
-67.882118 221.31473 98.63134
-60.579498 189.07245 66.300323
10.478522 350.36859 50.673271
35.510151 137.85632 155.19044
40.251053 190.26154 64.796417
24.805809 136.35732 81.22168
-26.392078 -74.083893 66.647583
-9.4329329 111.16286 67.482063
27.266396 312.00912 16.055012
18.582188 144.66618 66.708992
84.626518 272.9494 3.7239523
-26.14908 251.95679 106.96941
77.866203 259.14963 18.160988
13.473846 58.5051 21.733873
-60.104698 -24.218531 36.669273
17.743526 -59.703957 129.61688
-76.11142 299.73193 21.308914
-63.543861 -5.3596954 50.527969
73.627472 83.787354 115.35049
-31.807297 322.92032 16.190268
-3.9033403 78.234886 66.122734
79.228989 308.05334 42.602531
-67.294403 91.368988 49.464035
86.904617 79.49752 57.320873
-57.54644 250.37688 103.71363
62.021496 46.698837 148.03802
30.287321 342.27744 29.396927
-59.433502 218.85318 107.19829
37.957497 266.58954 96.891869
67.568825 11.811531 58.724693
66.941811 242.36464 98.392929
-65.200729 28.391365 139.7394
63.231766 136.47437 64.986191
85.302193 43.66613 76.746658
-18.839884 301.1095 16.699024
-79.991585 312.52994 52.397614
-27.572731 -79.087982 44.743095
60.529961 96.662926 151.25682
-85.219482 1.5994782 62.327766
48.826187 3.8392401 159.51045
-41.525681 48.328098 21.733789
58.568981 295.54999 17.110369
74.442924 60.565365 111.3103
-63.840759 297.78705 24.818291
81.571266 167.82697 30.051777
50.704624 240.49088 97.447441
-84.987587 88.870728 42.921398
-10.942139 340.80255 68.57933
63.198376 139.24767 57.001682
0.94978511 330.55136 82.627541
74.455894 -44.858521 27.700466
18.33567 254.17953 98.764389
58.972496 225.14899 94.588203
73.176552 -28.356026 38.946529
27.091839 244.40884 111.81382
-9.3139887 130.01801 157.09409
73.675293 270.61627 94.502312
55.128517 -71.003601 90.60788
41.692909 133.62778 21.734489
-67.294403 102.14018 59.992874
-18.665436 149.65431 154.75978
-80.782677 -48.563862 59.687351
-85.473175 108.34073 46.137634
11.327406 -49.662697 145.52957
48.941929 -9.1890144 152.82092
-75.882111 288.26666 21.914927
15.25242 298.19174 16.914907
-80.461914 -5.1192694 47.351433
-54.454613 -69.125435 99.347733
11.221763 141.5647 85.697525
-26.975262 185.92191 86.786346
-65.025925 -18.864151 135.21631
-58.487175 -69.245239 59.021885
69.575729 102.44786 127.81146
25.033447 138.18808 50.323151
-16.139978 222.46445 104.27539
-63.164608 260.26846 49.47023
-35.285339 201.21924 90.523163
54.599136 50.198616 101.53661
63.474461 9.7674036 11.684237
-76.327316 25.018108 12.185318
43.460838 259.33304 100.05458
61.060898 -22.901741 55.343315
-3.1012249 182.40912 21.734886
-78.455109 -56.522545 60.780674
-85.19809 -0.53307712 23.241787
-80.187813 296.01642 68.152695
53.516994 -4.5541425 153.06958
15.114598 178.3576 21.734852
41.645897 114.47942 61.051201
-56.601761 1.3023548 22.419117
-60.104698 -2.2179527 24.017057
69.402695 -26.323135 44.083775
84.589401 27.353531 35.799477
71.958565 -5.6251421 117.50971
-82.607399 288.08682 30.656233
77.433594 17.962324 21.239546
73.529938 11.442576 113.96527
85.12941 145.94617 76.167206
33.943115 -73.413574 66.996597
-83.442039 223.90369 77.108459
-85.244781 93.347603 44.524372
84.704475 19.739729 77.674583
-41.813698 203.033 91.700706
-53.756828 135.11124 82.780357
-75.758484 -45.540653 30.573492
-19.918201 349.81805 47.272659
41.139107 168.36006 21.734772
5.8209143 340.84027 64.409904
-7.1690731 311.62823 16.050266
-83.723991 109.52403 91.085907
-49.857708 24.023289 21.986055
75.074265 267.06732 49.885139
7.2280636 149.00014 21.734613
-82.842194 223.7663 37.439938
-54.916431 152.81471 21.734646
70.252129 236.62793 98.986069
80.134705 -45.325584 71.793594
-30.296648 319.35797 16.146559
84.043694 14.343837 85.754562
11.818689 133.31918 83.672745
63.328842 126.85951 94.990311
9.9290323 44.304047 158.24998
85.474503 86.161293 79.876602
-47.126457 114.73627 119.22974
63.560966 35.894176 32.780022
-46.364311 208.79791 131.21082
-11.343368 216.0007 45.028374
15.759227 -76.908714 45.26926
-24.805294 60.535236 21.733891
-43.547188 -74.399551 31.959721
13.081724 172.93289 150.29651
12.575275 209.56035 60.23336
70.064934 148.27365 125.43419
-71.041519 85.313713 123.69141
-57.386452 -49.273228 24.520641
69.553009 -53.446205 114.44026
-63.626839 309.65085 85.515656
60.104496 252.13582 61.34277
-60.104698 -13.057201 30.333826
-74.686562 275.34497 60.674774
84.348648 -21.220224 14.235447
60.1045 -34.353046 23.30554
-28.062996 72.215431 64.72998
-84.911057 211.89651 50.865189
-64.325508 257.68219 46.011063
-33.887238 65.481506 80.019958
33.833069 72.197899 157.56578
-26.921253 67.374107 77.445175
24.895016 91.660309 21.734144
-15.934316 220.15266 104.53516
-8.2990532 58.371895 97.692863
-80.218018 149.5273 95.555687
-84.238617 202.88351 70.347931
-82.54187 1.4952426 13.386373
-72.387909 80.075432 119.77303
-71.685661 265.91278 66.063545
-42.599995 296.54178 94.011147
64.941147 339.56357 54.85857
62.960548 6.5534978 5.2805247
83.504135 259.98227 34.850014
46.749283 -57.273205 127.97767
59.318275 -65.62944 106.77641
0.21985626 46.538403 21.733776
-58.185219 49.532967 105.36675
-85.03109 -10.682689 28.868528
61.744503 52.684391 148.48703
-12.311947 247.40698 110.70933
60.772858 -64.660255 26.943966
55.881012 310.02689 16.03923
66.095558 86.516731 137.54327
50.738342 294.14197 94.010757
-15.515837 241.21042 114.52996
28.391598 345.36121 33.629627
38.259621 -73.633644 84.774918
-54.339836 49.316269 106.61356
62.46434 26.534338 53.139805
-27.691557 117.64429 111.64413
-80.703278 -42.218506 76.339943
77.05928 -47.199677 33.324821
-66.796997 207.67918 129.07042
-6.0559578 349.10489 41.166809
39.628918 -19.252741 22.8109
-82.161133 59.446445 32.038101
-78.001022 54.835186 101.65942
81.054451 8.4504986 97.747025
-73.125786 -58.567242 103.44799
-79.611526 211.37354 27.534346
-83.093407 206.07904 36.51915
39.878613 -63.031685 119.0892
84.443542 104.39971 39.203705
53.532104 -71.48127 87.000107
58.375954 -65.490204 108.97097
-14.84585 100.13654 158.08052
-23.082508 279.81845 100.77802
-0.33813334 190.59515 76.225189
-8.8068638 234.83044 101.15157
-83.877716 191.77065 39.423573
-41.99287 229.85382 21.735275
-77.179131 69.502274 22.982124
33.592319 332.27679 19.514599
-85.223228 101.41263 69.782745
-76.282967 28.160639 43.810081
-68.815659 -62.52227 106.33414
-68.511902 307.8544 26.944122
16.887653 236.38866 21.487682
75.92939 147.77283 103.42027
-8.2503738 158.99315 50.694801
-1.6436425 90.553635 158.41417
71.938293 -12.257895 116.82976
66.156601 104.27902 70.922882
73.564255 -64.647278 71.972618
-40.36002 195.25198 105.55621
85.370056 74.296967 72.37561
-55.295719 239.93694 97.150276
55.261459 147.93932 21.734604
71.5868 31.225349 32.929779
41.741146 -72.719666 93.941261
-24.65136 240.1665 114.6775
40.189682 134.72792 83.95858
51.559315 104.03174 67.74012
42.010696 81.723663 21.734062
42.581921 328.85968 16.246105
11.884842 147.66876 21.734602
19.038034 190.3343 143.35736
77.720596 322.92361 55.507858
55.460781 81.327896 62.768478
-39.137947 80.454788 21.734053
51.996178 134.91557 56.252831
68.358467 265.06326 60.392288
-14.064257 142.53558 58.712612
-17.382381 66.017899 89.739136
16.408291 220.24081 86.876823
75.699066 -57.82592 72.604996
40.550655 65.223602 157.07321
85.789223 151.21712 58.680561
-84.510155 18.642672 19.516821
-75.374329 7.5553775 106.26682
-67.101105 199.48296 131.72324
-77.219673 98.225754 100.48805
21.22131 135.86261 156.29884
49.550652 118.33131 161.1059
-3.8179941 -73.246437 46.44627
30.511702 199.24167 138.08281
69.987984 221.05789 119.63156
-62.316135 144.74255 145.5125
-86.158974 202.91234 55.953533
12.081234 139.58728 89.851242
-63.976578 20.79376 57.617615
-71.76152 266.99109 66.189636
69.93512 253.36652 21.776257
-51.413628 68.123871 21.733953
-38.077011 142.94661 69.659195
15.186947 242.35324 99.263573
67.293701 74.225273 61.873016
81.772446 -29.900482 82.133392
-51.946766 155.0907 150.44199
19.827967 22.4888 157.53445
10.286215 196.8667 44.132561
-60.236664 261.37897 65.389847
-81.890266 266.13257 73.223091
-74.867004 162.42926 106.97339
60.1045 0.040308893 23.894075
-24.816563 31.739357 128.7168
-54.420986 191.80823 139.1183
5.191783 -5.2164636 22.543365
-23.98752 159.38792 58.386795
57.317574 113.14677 153.56415
-10.639807 213.61255 45.76796
48.660419 235.17938 115.11706
39.694786 219.02737 126.16567
52.991249 284.233 97.071823
-2.6957905 340.19113 67.837921
22.981197 124.89291 116.05939
-69.340317 105.94545 128.36151
-68.065216 23.40682 10.54528
20.319714 47.677349 114.9897
60.1045 252.0062 27.871178
60.1045 2.4638031 58.483963
-15.804786 267.41425 97.055725
77.861145 35.646935 34.496231
-61.767113 120.91618 90.25412
80.463356 78.688141 98.460632
-86.415962 91.518044 52.664398
60.1045 252.28928 46.47168
-31.883781 299.62473 93.848396
-81.601624 34.657818 38.876934
-32.994678 337.17227 69.371414
-75.174698 233.70636 23.85397
-77.742538 287.10535 24.742165
-57.337814 143.47876 61.872669
5.2396927 51.105431 21.733812
-60.871048 331.29117 24.3409
-17.772385 228.25464 58.691635
-71.270081 289.0285 62.670433
17.110531 97.180016 21.73419
47.186371 129.34511 68.203888
-77.434341 35.16679 36.744873
64.719391 337.99554 56.24419
1.5200099 -66.784355 117.13306
-35.162918 -67.003334 111.70944
49.636284 87.245293 21.734108
30.635246 204.43845 21.735065
-25.219498 284.83234 98.997276
11.68457 205.62444 50.346737
-2.6213284 237.04486 21.439131
84.306671 16.611572 66.248726
13.418378 249.07355 109.57637
-70.142166 160.9619 124.34682
70.198181 335.62631 51.868019
84.630257 44.3479 89.387924
-78.019928 -30.218584 101.09293
79.601532 266.81046 60.627831
-81.546127 20.11499 58.040161
-54.270477 337.74457 58.304871
66.402374 109.19611 136.95107
-40.67984 322.42786 84.276894
-11.949626 186.30602 145.53088
-11.191579 -72.442986 86.650604
-27.008139 131.63457 93.466179
-46.715752 79.526657 163.17191
-47.309097 131.00107 154.49731
-39.328262 131.96761 62.45739
-75.007858 -58.567612 99.508118
72.068398 299.5603 20.701696
56.254837 50.986126 154.21002
-27.914597 -19.518051 155.14343
-0.29251099 66.451416 21.733938
65.13839 7.2137413 12.118495
77.188797 274.81805 11.437267
37.477631 34.258614 125.33481
-16.117544 77.257828 66.043518
17.092407 182.1113 21.734886
60.1045 288.64337 57.001553
-50.703484 107.2551 21.734272
-75.338455 180.30342 101.93045
57.617794 116.93575 99.673874
6.6245861 166.21495 21.734755
-83.618027 265.47247 36.503815
61.222771 330.95074 24.301695
41.388794 244.2226 20.908052
85.133514 88.814178 86.266739
13.098795 -74.237946 54.841705
48.183956 36.074734 21.756353
73.826027 -64.402222 71.841148
29.854681 -64.113731 119.30171
-52.70826 26.08477 154.52058
-79.639908 11.012331 22.128454
9.9114189 24.324484 157.83913
-63.672203 116.18591 145.34431
-68.965439 233.89331 26.982849
-47.855648 211.73135 129.28996
-84.990135 167.73431 74.027359
56.418007 188.09885 64.949951
-13.508744 140.06189 50.735344
20.780945 -51.704887 141.86073
37.327389 339.93018 68.376534
5.0418215 -9.2264042 156.58472
64.774773 -25.345163 43.089592
-10.02364 232.64233 101.7215
70.184578 -62.951645 103.42461
59.407883 173.25266 64.627792
15.707062 3.6238596 22.37487
57.25185 263.13995 100.92106
-8.8108025 187.17398 21.734924
-82.256737 5.8731132 25.296024
-55.806713 342.41995 44.522709
-79.654739 300.10187 65.977402
85.245773 118.72301 71.589157
-72.878471 91.25824 118.39452
-85.135666 34.476124 76.670341
60.1045 -6.1918564 49.83136
57.84214 -49.087284 24.520924
28.206192 134.31392 156.01653
-77.633369 204.66882 103.5804
50.217335 342.22748 38.751144
-65.555313 63.586067 138.3399
-72.598969 117.67517 121.26951
-11.196162 148.02905 76.688461
29.791254 300.44543 93.700043
-84.42379 57.319561 41.20647
-42.12011 340.47244 32.919117
-73.488007 72.599518 115.56671
-84.668304 49.240723 89.580223
-22.458864 293.26898 96.451546
83.328217 264.26505 33.99424
-80.065697 -49.47636 46.647861
19.17993 48.941673 114.39206
25.970299 -61.461334 125.27371
10.070647 350.55795 48.755444
-20.794426 141.64175 73.652847
82.351044 19.346306 24.317099
-7.2135892 -72.454727 77.927032
-48.679932 -70.751884 50.876411
-81.583061 -7.9100924 59.273876
-64.854736 270.92093 50.422184
57.160229 235.0164 113.59227
44.311573 157.53528 57.820076
82.26001 -17.384087 66.583412
73.036118 277.96259 15.407672
-84.651596 50.042625 43.173405
51.100258 61.604321 83.26107
-32.224792 201.53792 136.71283
-45.626099 122.78688 84.468155
11.690205 213.41986 86.058517
-2.6072206 185.02838 146.27881
-54.010727 69.562103 72.587364
-69.881401 -33.945553 38.083206
28.476213 -65.477669 116.76141
-45.375416 -72.244141 69.223274
-19.304209 -70.631691 106.74011
25.576597 65.994247 21.733934
57.097706 326.30334 22.189644
-60.580463 254.35466 100.12962
60.1045 236.76527 26.519342
-85.426163 -22.412693 25.078655
-61.283073 340.40497 46.784401
-37.895977 266.74414 19.241695
-60.104698 262.71533 40.717487
46.372757 73.340225 21.733995
59.006237 -63.96154 26.523464
-77.590515 114.87477 102.36606
-26.253124 195.67766 99.938393
84.319778 100.53008 38.616467
80.804054 285.34946 73.173927
-83.626747 228.69083 72.24855
-20.58606 51.907677 158.07347
-63.86734 327.67453 23.984898
-56.045547 64.041 21.733919
96.407425 201.22963 107.76858
-64.762604 -23.927523 45.680225
76.437523 44.463234 102.83057
-84.656677 163.36441 66.42881
-39.455681 194.95868 98.076599
76.786873 294.42252 59.424873
67.275406 -57.128265 116.78801
-20.829958 139.1544 156.01111
47.545177 74.055862 160.67882
-74.770729 131.07935 110.30258
73.450439 0.82054234 62.3293
63.558662 290.3876 37.868778
40.060989 -8.179286 22.599838
-6.1058159 -0.36684859 157.01659
-49.634842 71.236664 156.3439
66.883163 226.74796 21.734348
-58.087879 100.8886 67.860405
-83.319992 209.87238 38.251282
-54.373302 70.04612 68.637367
-11.758399 45.116756 118.6451
-16.12755 129.64731 68.318253
13.236589 146.14732 53.569664
85.122673 99.506111 86.171631
71.035568 277.01138 14.552094
63.828053 47.534424 114.94749
63.346405 4.3543129 141.40085
2.4565358 -1.8837972 156.98111
84.573425 139.83427 62.427532
-9.5194902 327.83588 84.044662
-10.669717 43.730778 158.23587
83.877869 237.17903 46.648247
35.053886 114.49913 60.997963
63.991928 250.20953 105.62479
-82.035683 256.59814 79.562988
-83.770485 98.917496 35.837696
81.444275 170.98997 29.867111
-69.010406 120.49466 21.734116
-47.85783 107.50491 162.47162
-77.010002 296.46503 14.234507
-84.304237 277.22806 10.904428
-82.754547 -14.694301 39.003239
68.991119 -52.796555 116.13197
37.424793 48.076168 112.09203
-47.989647 221.67303 103.83581
30.046009 33.469456 157.38893
-6.1450205 117.67278 64.555962
23.662262 338.61322 69.465248
-5.8864803 320.5965 87.502518
-22.981899 124.41158 116.1013
81.92392 -30.16997 78.808456
85.182106 37.354004 86.970406
84.794678 180.46608 73.172859
-50.178303 73.415085 21.733995
-13.67873 158.17105 153.50134
-64.451683 271.53302 1.9548602
64.714027 328.58533 72.04612
-82.280792 130.7263 31.07844
81.965843 276.42755 26.128403
6.9303751 216.838 93.792679
-79.60643 -15.778955 41.033833
84.217384 -11.891868 16.279743
-84.257294 194.25952 77.221001
40.84716 -74.374687 29.644285
-66.622894 321.68176 77.947914
-27.929703 227.04919 122.50323
74.317749 45.887024 115.05591
-71.571518 -4.0997543 0.59721273
-30.222969 113.25224 157.1683
-64.716179 313.96606 83.232162
-80.76255 291.07999 8.1964989
-61.588322 210.94028 129.61281
-22.294891 274.60492 18.660082
-8.2115927 164.51241 69.780136
-73.896561 12.189111 58.74469
-22.129608 80.970505 158.09094
77.062943 311.70837 70.242958
2.8322859 115.36199 62.472229
63.830509 142.74272 87.870056
68.656631 38.207596 128.7718
-62.629478 17.785084 49.10062
-75.169083 269.20734 61.028408
84.617096 178.37633 69.280823
-72.248772 286.5195 39.194969
51.57629 279.30634 98.867271
30.551867 12.975796 22.196619
-62.628323 295.65436 32.532837
37.034042 290.1528 96.533104
-78.98024 45.965004 101.45139
-22.54809 338.41357 73.108109
-56.796928 169.63109 61.999981
-64.846924 11.492401 57.678852
-64.452896 269.35675 1.9902066
-10.531572 106.48413 70.619659
46.066151 24.386803 160.36469
58.277126 117.03073 21.734352
-47.355732 78.725479 62.255753
80.984856 147.21368 94.437698
-12.75861 194.65106 141.37717
3.8398759 107.90881 158.07947
64.330833 -15.796362 7.5112991
-55.038963 98.490952 67.952164
78.063225 204.91194 101.92905
38.987648 -72.528358 63.255142
1.6216621 -2.6429234 22.494316
52.040421 344.61017 54.493504
7.6369362 246.58627 99.148804
-83.503983 52.196636 92.873383
-2.9111185 348.62601 40.916878
26.060953 330.65137 81.301674
9.7074013 -41.902386 23.656305
25.007038 124.51946 121.29665
7.746129 169.38133 67.718964
-23.35253 105.93304 21.734261
12.425482 244.38605 20.895962
84.770729 136.49803 65.046799
-41.632751 211.14969 94.384567
-61.381664 -43.727707 23.952383
-18.302925 -32.406784 23.061619
79.294891 71.064613 25.161495
8.7004128 181.58594 53.219532
-60.104698 251.79085 31.381533
60.763412 96.414642 67.747276
79.734222 188.12323 26.112608
76.433113 38.393166 22.884441
-14.038621 142.09698 64.804245
58.329117 104.47656 67.723099
-41.896038 132.19171 91.753769
-61.250549 17.074221 147.67209
-71.086784 217.49762 97.617172
-80.60881 185.8623 28.691311
71.981476 -64.392845 48.44305
75.372055 15.294966 21.982468
-60.104698 5.9999094 58.902889
-81.770012 -19.45788 92.813904
-73.102127 1.682579 114.61173
69.535904 133.98007 127.63112
70.221207 -31.092392 45.513359
79.16011 103.06236 24.509743
10.5382 180.8333 62.985325
-81.034286 117.94662 28.638348
70.735672 255.34433 103.28821
-80.199173 202.54034 28.541744
-14.495635 -72.890594 26.314972
-0.8067553 347.33881 39.702496
-38.007912 16.332701 156.30151
44.969685 296.07968 17.071175
86.087639 129.24289 52.507244
-3.1782627 45.45417 21.733767
74.499352 57.597416 110.96843
70.051094 -21.385902 51.196827
-34.317318 -30.524168 153.82004
-60.104698 -7.7255602 29.381886
66.617218 308.841 16.835747
66.620247 303.56778 47.418163
72.292007 301.11963 28.123526
-78.517654 283.44806 58.236149
69.302094 280.50427 1.9098713
31.033855 71.989212 64.972092
-4.9447036 346.33395 39.370415
71.258568 254.13521 20.279087
-61.481331 14.861178 147.12958
-23.602844 253.63193 106.05724
80.329224 -39.906345 92.876953
-47.273911 38.50872 155.16127
-69.384789 122.61189 21.734064
74.464386 207.07635 106.0608
-83.430458 228.42517 63.812965
-71.465149 -18.449169 26.907394
79.067024 317.01486 52.468925
-74.923225 207.23526 103.85436
10.436364 37.820225 158.13049
-16.372976 72.971848 81.418793
52.115688 215.21986 126.58171
35.597252 20.874851 156.63564
-17.997347 116.61401 21.734348
33.32106 64.308525 157.58139
-70.520416 255.79027 41.013752
-15.881557 263.4726 19.483757
66.571457 19.304146 24.171463
-80.863937 -16.739109 55.218155
41.52985 46.221939 156.80376
-3.7208331 256.36331 105.01628
80.845848 -41.457405 77.977119
-74.948296 226.74982 96.657089
46.958122 128.22363 103.94995
83.43528 28.555483 92.542336
-37.244411 27.373625 127.85779
31.819588 78.692017 21.734039
70.833031 112.12753 21.733873
2.861207 171.6949 21.734798
-61.394306 34.151283 40.593773
66.41629 4.3829632 134.15825
82.420029 245.17805 79.078186
64.831879 58.367504 139.80617
59.022861 286.4631 17.782701
-65.760818 194.93904 21.734547
22.295628 -58.84882 130.54498
64.712456 58.55769 94.268944
-74.932816 236.36774 94.51413
-2.976068 87.723846 69.613724
62.888027 -2.7638345 62.055115
-20.90624 126.01984 21.734425
55.388092 128.85475 103.43546
72.484581 -31.313679 111.65646
33.612434 342.96176 60.646439
49.362843 177.5472 21.734848
-77.89444 315.89215 57.934898
86.521141 71.722275 53.880356
77.560905 -55.473892 86.210236
-74.95208 -62.497635 49.046841
-1.5766058 271.35571 99.089554
-83.768997 165.23495 87.148422
-0.10321414 68.591339 158.51962
23.013069 -33.879894 154.34613
-69.431107 -3.6729589 125.41338
-8.7638321 168.02124 53.509506
78.814293 306.36401 62.515461
-27.758764 128.20284 156.53247
-0.30727768 228.15036 21.73526
-85.381973 -23.875652 28.909424
-70.208206 32.897724 43.751392
-83.4366 4.893939 90.187927
46.369411 345.12878 41.809814
-74.304245 -65.160316 39.706463
-46.027382 -75.762177 45.099495
48.695091 111.63219 21.734308
2.9633408 246.59502 20.732521
35.282635 195.47209 21.734993
27.972221 80.09687 157.84613
-4.5794988 80.281265 158.46365
-70.496346 31.653597 123.59821
-60.104698 -4.9336958 50.604858
60.1045 -30.929213 35.386654
37.648151 323.26743 16.165699
-11.05711 335.04077 18.874405
-53.825481 186.86728 21.734921
86.176353 62.316921 52.649975
-46.23616 -49.938324 139.79965
-59.475719 262.71991 103.56316
-86.04715 186.74617 57.176525
22.642029 -62.583054 123.6748
85.86026 215.23407 55.088356
62.209431 -26.857037 140.56233
-72.040169 256.27505 21.486553
28.572407 32.640526 157.43555
60.1045 253.14105 47.592453
65.311996 -27.952288 50.401157
70.122292 270.15469 98.575668
-26.346645 -73.785828 95.530632
4.2420645 115.74501 61.14621
-70.199806 42.625229 21.7337
-62.248669 307.04251 34.24123
73.900986 169.49843 110.16818
-17.314466 181.95399 66.097389
7.7396679 -3.8876562 22.51804
-40.813812 339.46329 64.738617
-21.180874 176.51955 64.03463
-51.182335 146.90211 151.66817
17.579594 98.274216 158.04556
83.791351 84.100388 36.418663
-44.006531 57.703136 87.12088
-84.585464 38.916477 88.044037
-83.758041 72.925522 36.788723
67.293701 89.644882 62.562157
-44.196556 156.12067 151.76457
-63.093658 220.22617 124.26434
60.1045 269.81903 42.121601
-5.852469 -75.755959 89.283951
-2.1378911 209.0542 82.028488
-66.690926 -19.611366 130.78381
72.414764 287.37012 41.060135
-53.078041 224.13455 21.735228
60.1045 254.87901 41.363426
-72.736496 189.85789 111.916
82.620461 212.75388 34.820095
82.289886 251.78345 78.659973
16.874958 -19.383156 22.813389
30.813334 71.6073 157.76776
13.966717 329.59903 82.799324
-63.512573 161.20462 21.73464
67.376808 217.11644 124.2112
-65.224091 -11.050523 135.47981
-46.314156 -65.914673 110.46562
17.641018 55.494751 158.18826
36.032318 341.6759 31.4445
65.03624 204.93292 21.734642
47.393768 293.45203 94.58107
23.568325 91.546745 66.113632
-63.570343 85.47776 65.709587
83.658638 220.76445 65.104904
-57.367405 230.47388 99.71978
56.364807 242.95416 21.001905
-49.351227 11.041098 153.94028
60.21032 218.1721 123.14192
31.667614 276.06998 18.551682
-32.589775 337.45285 67.478561
83.281967 281.32816 35.194267
-61.077106 17.85128 148.02545
74.948441 207.78271 107.34091
-17.161425 236.66348 21.46735
71.867966 215.54773 113.2808
-60.104698 26.633629 48.545235
55.577766 94.646179 21.734169
-37.301281 100.54937 21.734219
6.4790154 124.47721 21.734411
67.293701 75.921745 50.299244
-42.539852 139.03651 78.764046
-79.6493 118.4482 98.322762
-71.019135 240.40158 32.781738
-48.257187 3.9128397 153.69398
-67.753159 78.463547 132.97916
60.1045 303.19101 35.619625
17.993135 -19.095304 155.65175
3.5847797 217.60054 93.061096
85.89183 101.0724 49.87043
80.353981 80.104401 26.604008
-84.820717 160.39255 42.91629
-64.853653 268.20242 100.6841
74.574921 96.614838 111.47346
-55.762028 -72.784439 33.067352
-7.7454915 147.63435 45.069981
-12.569102 338.25388 22.549023
25.329092 32.70388 157.5798
-13.567755 140.11119 59.228958
82.051094 -28.699438 75.718033
18.490831 -80.004112 44.287586
-85.42527 283.20813 10.161487
-71.535645 36.240265 120.88834
15.847111 -2.2879162 22.487549
43.066433 -70.194725 26.629946
54.234753 104.50332 67.722069
-22.563702 -32.797104 23.069057
33.328636 117.88819 127.07757
16.567669 136.75623 156.38803
15.292351 -80.317215 43.058208
-85.401855 291.53641 17.740871
42.636337 58.42551 21.733871
-18.925262 168.43439 61.549534
84.940613 133.56187 84.64711
-68.766212 56.697861 129.41591
63.294144 35.542496 142.31729
68.918579 97.560425 129.91196
-59.139198 181.33102 66.077522
-81.65168 64.004166 30.807137
54.388069 -51.265888 135.25101
78.628983 210.54663 99.212807
82.800667 246.2459 74.912018
74.712524 -16.477726 106.07679
27.083546 -60.592144 126.6516
-63.832561 18.078104 8.9864702
45.804382 255.8802 20.045515
-48.764935 124.66339 109.05603
42.037598 161.18878 58.937675
-68.092354 306.1579 39.212517
-25.90276 264.5759 19.402124
16.100744 276.06238 102.38224
39.337666 -11.823497 154.71657
-26.224699 141.40948 74.363655
32.191849 142.45116 65.228821
-4.1218777 218.17513 103.33548
85.053589 279.27438 35.531174
49.4025 45.599518 116.27837
-4.5087442 338.98511 63.739166
-79.705765 300.3299 24.105465
75.384964 -63.788467 45.168129
76.805115 28.00952 102.9636
78.372055 -8.5024109 61.304718
-85.047249 296.56787 31.268715
-80.364922 202.58481 107.7083
15.86731 262.34039 19.56753
-62.708046 257.50644 48.808044
-82.425995 9.2380581 12.982458
44.38335 192.81659 63.295151
-44.569511 135.71486 54.805725
86.521683 113.99323 52.87038
-77.779861 -50.892574 36.87632
60.1045 15.709826 26.068363
58.685028 14.239909 151.08725
6.615046 151.08661 43.527054
59.089077 -35.674519 143.90437
-60.104698 289.84177 52.023296
26.998104 304.01355 92.693115
-53.139927 106.04915 154.91992
-34.597939 215.45961 97.341751
-72.535461 203.94434 114.56497
46.555977 -60.048462 123.00674
57.600281 46.23896 153.42953
48.149628 33.787636 162.41595
-45.292793 127.26454 73.29232
-1.3292736 145.06822 66.874908
21.287374 215.08696 21.735153
82.371674 288.94077 23.227982
-50.546112 115.01601 59.601948
41.942268 15.956594 22.139805
78.569374 -15.230389 37.98777
-32.072323 -22.857315 154.6411
-24.065376 240.34158 114.60934
-79.02356 -53.051582 78.751762
-73.606094 -14.237969 110.53677
85.670219 142.77687 58.986164
-75.388725 -4.9234042 11.932243
-63.594326 307.75269 28.367779
6.6639476 141.38539 45.240303
81.818329 290.74512 52.91283
-51.194435 254.41702 20.153776
11.952724 212.55792 83.404129
62.615295 120.31332 101.35043
-84.576157 245.89973 19.663036
-33.101357 119.61163 127.3328
-9.479393 38.102196 21.733706
11.485245 149.51982 74.774376
80.445297 168.11917 28.139505
22.68766 -72.483253 101.51028
41.221443 -26.138008 22.942137
73.101212 -22.300295 55.80172
-69.18232 -12.888014 57.767467
85.252975 122.15012 72.062843
-78.279938 84.098755 101.57316
60.1045 308.12836 17.960424
1.511205 236.31754 117.92519
-71.509949 107.57616 121.89433
-62.524857 0.59841424 53.784611
45.911308 124.97978 108.81447
60.1045 278.8168 51.205551
66.960007 9.5386362 59.457039
31.084015 -7.6784887 155.7222
-82.01683 3.4611626 94.806793
31.693966 86.738022 21.734104
-81.754677 -40.791389 47.651249
-75.057892 78.914825 109.46079
-80.422348 117.97116 97.068687
-85.810074 9.5415688 61.604141
-12.58523 -74.193939 54.942566
-84.977356 52.689896 70.697449
25.871161 51.342094 97.427437
-53.984016 220.83102 122.95943
41.792946 -16.724928 154.06433
84.002312 36.092003 86.708344
-18.178396 -74.020241 96.784134
-75.339714 319.71753 35.953712
22.751522 42.391705 157.87737
-27.801996 193.23802 141.41264
52.406746 247.9146 97.885521
22.960255 346.09735 29.806377
-81.083176 -38.186451 83.37886
-45.896885 -70.275635 26.778257
78.896858 52.107197 101.48044
-58.202316 -7.2650986 22.582415
-11.924149 238.14752 116.59482
-64.550064 296.9288 42.541454
72.536247 231.25388 107.94148
84.864845 53.417332 69.353737
63.397068 59.913013 21.733885
34.975895 -74.225624 56.709667
77.681282 -57.259239 90.478783
-77.388672 251.63066 34.743122
64.436951 160.19064 63.777855
-84.927353 87.137039 88.82122
74.033432 310.72391 27.243526
72.254173 324.30133 65.833969
49.955696 2.456152 157.57327
-46.906464 340.47888 26.069826
-83.894012 211.93279 66.535164
-74.254791 248.5239 10.029009
57.071678 98.984802 67.933258
-24.442236 30.874371 122.63243
34.477325 144.33022 154.46342
-48.68251 110.73996 64.731049
-37.977123 -64.279564 25.772844
-37.877529 -39.541019 152.01842
-73.823837 273.68027 93.176361
-19.302656 147.0948 21.734598
-27.364771 27.491079 130.04417
54.635948 -73.941788 45.156235
8.9725695 189.45277 21.734943
-85.128082 72.900391 85.680893
-72.649078 257.91101 19.466839
64.474319 133.44077 77.922256
-69.801575 281.29181 2.2473657
-48.893524 111.53725 159.43175
-79.87085 14.262735 28.506695
11.59121 148.43938 77.366669
57.362389 300.9989 90.361252
-63.894932 -24.387247 19.054928
-13.765102 114.14015 50.387459
63.408211 10.292797 5.4140811
-81.839851 202.84781 100.43709
-27.614834 240.73273 99.644936
31.663042 316.14413 16.099442
-30.019613 127.72024 72.154182
15.778414 111.3716 157.80515
-61.231934 274.95871 66.215927
79.305786 172.70869 95.362259
-51.513119 64.287766 81.01786
-80.849014 -10.421226 14.597807
60.1045 -16.218063 32.839737
28.295235 285.39423 17.861786
-67.727005 164.60637 130.94781
-84.946098 90.756317 42.60004
-46.933811 -60.693581 121.60401
-5.8527241 -54.28355 24.827374
75.243858 -26.930191 43.025986
78.064552 -56.490673 85.950912
66.083138 292.505 60.852566
60.1045 265.36694 44.700352
26.190254 339.67029 66.693512
-76.099319 18.3015 30.14628
62.748268 249.30914 37.355804
-82.290695 182.82513 89.236252
11.845274 206.55919 70.799507
63.466824 286.5224 52.563049
81.310539 285.95093 70.267654
83.979401 21.886866 56.937149
-84.679153 175.50845 69.438477
82.134453 13.369982 45.565918
-10.538799 178.86302 62.679756
64.45327 6.9815636 139.1983
-18.285355 1.9932308 22.405951
21.633471 30.174219 122.40533
-42.232609 149.32306 56.345428
-7.8984928 207.14319 21.73509
66.789536 16.393705 42.404705
-45.787304 35.166332 161.8645
48.891613 -1.5478555 154.58134
-65.287964 9.9013424 2.6568742
61.923676 89.464249 148.96919
51.026527 120.07391 91.240181
28.043976 -61.175213 125.45245
49.04335 81.201134 21.734058
-76.975319 -18.072311 25.605461
83.873268 -18.288109 33.210049
69.808769 186.4456 122.93454
50.657871 190.64969 140.38782
28.173222 241.38271 98.391197
13.480509 293.36823 96.727715
29.661589 76.966125 62.224415
9.328846 64.515137 158.41922
-75.202805 -7.6751618 105.44348
-7.4654903 -8.0054045 156.62154
-40.41328 111.63239 21.734306
-23.831482 347.75214 39.184158
65.415939 -68.346992 95.072311
80.92395 -43.100502 44.570862
53.852394 337.03189 32.801662
14.652364 176.08118 67.141785
84.799881 257.83243 29.225655
86.679314 145.48421 57.192009
-70.641129 209.56036 119.07739
81.512169 271.70892 76.660675
40.431831 334.20978 76.603119
54.628815 183.00902 21.73489
7.0791569 159.57523 48.363815
28.638401 126.60049 107.37199
28.517797 -72.763504 49.281483
15.368807 132.68773 21.73448
80.218498 70.509651 28.189892
-15.420505 52.118343 110.25393
16.356274 127.16853 21.734434
8.2645159 176.01111 44.252254
83.676025 166.21729 36.285999
-4.8557453 146.37674 67.02887
-12.04315 276.07681 102.51817
-23.747707 160.71735 21.734709
83.902519 -11.770479 37.394848
-69.251694 -20.61446 123.32454
85.339844 142.46072 45.875065
-48.412041 188.17375 89.279175
-48.212246 231.53697 21.735289
-73.561646 300.17688 53.439674
19.506618 187.02756 65.026001
-15.908581 345.43124 33.956982
-34.978371 168.76764 61.674973
-55.70203 218.98413 98.189743
-51.060921 116.65281 105.8019
43.594124 5.6479201 155.22653
83.887123 282.86694 44.155777
-67.294403 41.391006 118.01747
-62.6726 295.84692 32.281662
-83.192993 -26.638605 60.026382
-57.365349 231.58644 115.67326
-45.437645 153.88449 152.00766
-63.577084 26.533342 143.16241
-67.294403 31.780809 115.31916
-10.955935 159.78635 62.181419
51.790905 156.28908 150.28586
85.02037 45.192421 82.255798
62.321335 301.60742 89.238907
81.112015 -1.3868384 26.773659
60.1045 -10.52322 34.82486
-57.390976 -59.906166 119.47137
76.100204 261.81549 59.670525
-67.65155 269.83414 11.082959
53.531662 158.6122 150.51572
26.160572 60.488937 157.92932
-75.397041 317.33408 69.278748
-7.7455044 125.05286 49.639069
1.577004 -78.011185 34.827587
-45.340385 298.30252 16.90671
-9.332654 136.27777 156.63802
-58.311684 54.153996 21.733837
-12.810732 222.50774 56.320377
76.726883 186.10321 97.664902
-79.366119 274.93622 24.601707
-44.496403 118.32518 95.830826
-78.659286 217.88184 27.919338
-72.176682 123.26332 122.02818
41.047844 -76.103134 35.834846
-81.196442 23.201517 97.79232
-73.58783 27.820114 113.06152
86.30265 41.782017 78.964905
84.73378 258.81177 12.996212
-84.591454 34.890114 70.027702
75.064049 221.06938 97.441772
49.620129 328.20596 78.106522
41.577789 176.12457 147.72722
-4.9746485 205.93921 78.258011
66.514809 263.70273 101.88127
-60.104698 -15.754765 26.772587
48.595867 19.516781 22.071951
-71.159485 282.93524 64.937988
-48.349815 53.210701 162.75349
-17.819883 122.42599 85.781036
-15.540638 -35.518448 154.50429
-52.62368 272.61331 101.09966
-14.745297 228.56143 46.44508
57.652542 -15.981074 22.748541
-61.982979 48.394333 113.34263
-75.547806 10.116674 105.84195
44.603065 117.5446 97.879944
5.0755572 -69.196548 111.3364
-80.331467 -40.70853 92.429344
84.104965 267.36301 29.737906
8.3473043 175.7852 149.57991
46.328659 -46.973873 23.971933
-6.6745648 273.57623 102.69119
67.756058 -11.211986 58.384949
60.1045 289.19031 21.875139
-73.633957 309.09348 26.284201
61.656067 80.891258 147.46774
-12.550518 160.71939 21.734707
63.209045 -9.7270002 11.909097
77.721237 248.49545 10.073529
-35.712517 18.682619 156.56122
-17.939205 -20.161608 22.828224
-85.397522 139.15828 74.245613
74.275139 3.6297271 62.131165
60.1045 255.14606 21.228571
-85.154648 107.90584 68.980888
-51.11042 -3.3288279 153.69211
-64.955154 224.58873 99.169296
33.954254 114.75252 118.99747
-78.172134 210.63132 95.6642
-30.539591 219.4826 92.223572
63.781277 252.92091 51.655823
84.903328 47.698326 45.034351
80.377167 306.65152 49.527908
-63.614574 273.72156 51.195927
-11.313488 228.46034 122.53149
-85.441284 -22.839512 30.245378
-54.81332 -42.104664 23.675438
-13.806133 141.24394 58.746696
-27.634602 240.03668 99.763443
-20.106863 -73.08371 100.04901
-83.108696 3.9893336 1.6257882
35.39394 -40.564281 151.98798
47.132469 -69.582855 45.726852
-69.901718 264.70624 49.201752
85.453629 113.26234 46.010189
-23.369041 48.397896 21.733791
-3.5989532 30.833771 122.10957
32.397667 238.40118 97.812683
-83.865303 270.36514 32.963787
-84.967178 48.499985 84.048042
-58.29837 256.82193 19.975838
66.604263 -8.0245571 61.385696
22.044163 -39.685024 153.28188
-47.774948 334.03076 73.264664
50.82354 85.585915 155.00983
-71.818741 -35.884125 25.619516
-50.441425 337.40103 64.07093
-82.787628 -17.908398 72.576302
-60.104698 288.55569 21.822187
-57.342644 84.334938 63.62775
-4.4915137 136.56664 156.69684
-84.272949 19.725006 84.950287
68.109749 292.78104 51.360172
-46.77113 -65.406372 25.950846
78.20092 -57.959541 49.832397
-48.238407 315.20193 16.094786
29.979116 323.34586 16.162672
62.042168 136.83838 146.38524
-28.835352 212.77158 21.735136
-85.329041 -21.909235 20.002972
-68.568817 202.36739 21.734173
85.064751 156.96211 72.129639
-24.709417 284.75757 17.908894
-84.320679 55.69297 63.173538
-12.265775 -35.102764 154.64574
-9.1133595 208.43117 64.784546
85.22467 -10.966564 11.526171
32.258789 258.40204 102.08002
-4.0916591 62.299385 92.557007
-81.90126 225.02393 85.517555
47.135117 -58.650394 125.4531
-56.105721 90.37429 21.734133
26.445303 340.78656 62.221924
-82.42572 144.00624 92.261894
-84.771156 176.84842 74.899368
66.630554 36.595432 24.864649
-83.309021 266.04828 14.295999
-52.883675 115.84596 56.081627
31.928768 -73.495102 26.631271
-74.556427 -63.897766 88.919281
83.587784 23.519413 47.939636
-30.059694 190.30972 91.825569
29.786367 230.85309 96.904106
51.646996 188.04619 21.734934
-49.71814 203.06735 21.735056
-85.374657 18.09804 48.52108
-70.274757 3.5095162 123.68543
69.393852 242.48431 109.89227
-34.664673 120.34402 127.44126
1.7491051 340.44421 63.610931
-4.3172154 51.365383 112.27779
38.408062 285.29913 17.868822
-83.11348 231.59979 39.778233
29.394142 219.93352 126.61304
-46.653179 -21.017813 153.80145
-70.141754 19.293034 31.205395
73.388184 284.38293 57.815567
-30.040386 -73.263855 63.117382
-43.539848 23.490454 156.00443
30.969519 344.2431 25.828148
-38.833965 222.28123 21.735212
-83.230736 -24.903862 44.104393
21.650076 238.98434 21.29563
9.8106279 -39.602211 23.438745
77.632828 284.93097 40.79118
-47.679924 322.85434 82.322502
48.095909 30.281649 131.72855
-73.826736 54.892296 113.50514
-25.045286 187.81519 92.041374
44.730419 49.801323 103.82246
-10.564116 262.94272 19.522963
28.538126 115.09702 115.31601
-14.303311 224.74811 67.125053
-71.183685 194.00827 117.29822
65.147888 -67.34716 98.551071
65.681252 36.207245 30.184399
-71.313232 87.767372 122.9442
-76.251915 14.185631 103.62956
-65.181473 146.06313 77.839355
-17.717505 176.25851 149.20712
84.978394 92.506874 67.149269
-26.367001 281.89246 99.917625
-85.380394 48.172867 76.652512
44.600967 -0.94962478 22.46204
31.147316 46.885033 114.10543
-71.353561 13.558148 18.6591
37.2551 158.12254 152.10477
41.965069 219.76712 21.735193
32.572514 104.85975 21.734253
85.450272 267.70718 53.883808
44.267128 237.75224 21.386791
7.5639257 -65.857414 118.7245
-83.125198 245.46997 69.596443
-53.214485 194.02481 138.1967
66.674438 264.35464 60.008144
-37.72934 -73.410301 71.439133
70.363808 42.697594 124.33777
60.486671 105.22836 67.694321
-60.758038 116.20722 104.87943
-69.173492 234.00887 28.542496
-38.036324 28.001076 125.27832
55.295906 195.51682 21.734993
-36.875046 158.69258 58.174091
-39.689133 219.27289 95.919006
23.244686 -67.587616 25.654385
86.277855 136.88011 52.564461
72.773338 36.695599 22.691734
