# .PCD v0.7 - Point Cloud Data file format
VERSION 0.7
FIELDS x y z
SIZE 4 4 4
TYPE F F F
COUNT 1 1 1
WIDTH 1544
HEIGHT 1
VIEWPOINT 0 0 0 1 0 0 0
POINTS 1544
DATA ascii
-2.2844005 27.714697 1.6502359
-1.0103681 3.8452015 10.881199
-17.496445 26.050348 16.514894
-2.1860921 -1.3328896 8.6617622
-10.040076 47.161556 2.7042346
-1.7140656 16.870291 11.224855
-0.76351523 -0.99852991 0.11960107
-2.0293298 20.444771 1.6521685
-6.863224 25.057034 16.926949
-18.883299 14.782009 11.298817
-12.008442 49.939194 9.5501976
-2.5182014 17.158258 1.6521659
-19.742029 0.566486 8.8301611
-1.1168702 3.7541811 6.4914312
-19.040855 11.117164 9.221632
-2.548692 48.547806 2.8831682
-0.17007723 35.718864 1.3351872
0.39364243 28.864109 8.1227436
-1.71322 26.761803 11.185154
-7.7013831 1.4016562 11.492276
-0.013954781 39.94088 8.4399452
-6.2324057 35.212109 16.356298
-18.586811 2.920361 7.6646872
-11.629341 -7.111836 7.9601307
-7.796649 1.6856143 1.7912116
-2.7537458 16.046085 1.6521651
-5.0277371 -2.7776408 2.0166414
-8.9276495 25.739281 1.654165
-18.399155 3.1438446 3.5579886
-2.0280786 24.566332 4.6744637
-11.711328 34.237495 1.6022283
-20.432152 10.837071 1.6521628
-20.966682 3.9705877 5.4071426
-0.17235461 39.124023 0.88497007
-17.659016 36.200455 1.7395314
-2.9069281 19.375389 15.945019
-18.846701 17.575184 3.9350467
-6.7368736 33.789474 16.564432
-0.54072946 33.4557 6.473815
-5.4297581 -7.0304403 6.4564857
0.087314032 -0.058805253 0.4730019
-4.6118498 19.336058 16.513262
-10.41592 28.281591 17.07427
-19.188509 32.463001 9.7185993
-2.0269301 31.657906 6.8006878
-6.3276668 51.201591 5.2871699
-12.31242 50.812965 4.7069626
-0.17196903 39.400749 8.2906361
-18.399124 3.348983 3.6384034
0.14312351 29.850147 2.8317595
-2.3464553 49.282497 3.6138744
-18.883221 30.173794 10.772692
-21.289312 29.845501 6.8504004
-0.18577646 -3.0221314 8.798357
-18.882362 24.083199 6.4064455
-12.673472 1.6384268 1.7935948
-0.0055984743 23.552658 1.6900567
-11.297327 0.58643901 11.539836
-19.642252 9.8210859 8.8445091
-0.23395368 -0.92894101 4.8080006
-9.9333639 27.077576 17.081078
-7.2648382 -7.34443 9.4112272
0.58346927 22.010466 6.5335407
-14.569434 5.8055525 1.6078579
0.51247931 15.213254 4.0344114
-2.5070696 1.8606685 5.3815022
-18.881893 11.639062 3.6847951
0.33298671 25.510532 3.5680633
-1.8827964 31.185726 10.428928
-20.201115 22.2059 3.2942624
-3.7201321 -4.6116834 9.999239
-19.265928 -2.3748097 10.497015
-2.9747641 30.585472 14.890635
-2.9668899 25.318451 15.605177
-2.6688209 38.493259 2.317955
-7.8146839 48.63681 2.894424
-0.30981117 13.509157 10.789846
-21.051407 28.189945 2.3706577
-20.416346 38.054703 4.2721438
-8.6395493 -7.1098547 6.4602885
-2.5068424 2.6371124 5.4450812
-5.7093563 35.841309 16.195305
0.20106721 5.5478163 5.6572533
-0.46793789 -0.088464797 2.40201
0.18323222 5.3705111 5.4501476
-0.56734067 38.259548 1.6881993
-1.3798509 -6.4172688 6.4058247
0.44514045 22.124018 6.011713
-4.9745131 4.3933668 1.6544487
-20.901861 25.899868 1.8310359
-19.027374 26.250185 10.408524
-2.9338579 20.825296 15.67601
-6.4080143 2.8203044 1.7339008
-0.60840136 2.8697927 7.8231635
-1.466025 28.235504 1.6405901
-2.9026477 27.903139 7.8046603
-18.549435 18.717281 14.198832
-18.401165 0.97538781 2.258637
-1.1443502 13.207008 11.114654
-20.703873 41.16732 6.862175
-13.261971 10.498747 12.970532
-7.3684502 45.01384 11.568977
-18.707464 13.264332 13.120141
-18.926765 16.441002 9.8659039
-1.0812477 41.40461 6.8796511
-19.230667 48.275986 7.7116885
-19.66325 23.284491 11.548922
-6.3325028 31.859756 16.671711
-2.5094814 0.10497284 2.7159357
-10.776276 8.6633797 1.6388986
-7.9968095 50.302223 6.9713888
0.28742194 7.1696415 6.9316602
-19.340065 37.750999 2.8494401
-8.3365879 -7.1808939 6.9257689
-0.085122347 20.000008 10.6659
-5.3640761 32.539143 1.5160271
-20.052284 3.6120749 7.0201445
-20.2689 -0.82498372 3.6822996
-15.822258 47.190056 10.937756
-0.36087674 22.13755 6.3076181
-16.993515 8.6935129 1.6392258
0.22413072 33.211411 8.7415056
-14.690172 29.547791 1.6162857
-1.5747497 23.756397 5.1085191
-21.187607 25.838888 3.4431982
-20.097916 0.96476328 1.5154319
-4.3722205 25.363075 16.694384
-21.355545 12.620806 4.6504669
-16.970196 49.31739 10.253567
-17.217316 24.781158 16.587887
-1.4554938 34.505074 5.4186201
-10.082113 23.386282 17.066111
-21.438253 15.925618 5.5857034
-7.7018719 22.798393 1.6573155
-21.292414 25.90604 3.6820788
-1.3446053 47.482941 7.4831285
0.32218641 32.204422 6.4857535
-17.585358 37.128036 1.8044132
-0.22555524 0.8676399 4.0329981
-0.5287717 0.66318369 1.4200339
-21.116808 28.374754 3.0630798
-20.971043 -2.6279647 2.1283655
-21.1042 4.8693981 5.1175318
-2.5113645 -0.98772001 3.9322453
-2.0273888 13.23875 8.6165934
-10.664965 -7.1115117 5.8030558
-18.542246 -0.17342696 8.5410309
-18.255577 49.906593 4.8527322
0.051493488 5.5041127 4.0919466
-10.831303 43.227066 2.2264256
-6.3971062 -0.86767113 1.9201727
-18.244898 38.473145 6.0426302
-10.561837 47.224705 2.7130334
-10.974736 46.633896 2.6307044
-6.7969236 -7.9206371 3.2715919
-21.286617 2.0917516 8.2803059
-10.414726 -1.3503791 11.382083
-0.20650354 39.729424 9.4999065
-16.717243 -6.7605782 9.450942
-20.430908 36.480087 2.458236
-20.513397 42.601494 7.943027
-19.871717 41.053417 7.3710833
-16.345564 48.498837 10.583727
-5.3666887 24.386864 16.766356
-0.046523839 22.203644 6.4629946
-2.5079782 -6.5053215 2.1473012
-2.3418276 2.4580755 1.8578027
-4.716012 42.993015 2.2112963
-1.7714088 21.661329 8.1802645
-18.392746 49.604458 6.194931
-10.076756 3.8443308 11.826563
-0.77160883 4.9025083 4.275373
-18.881931 14.620508 3.8884785
-6.3420143 18.04063 1.6521666
-20.662395 33.164368 4.7758656
-20.727232 1.1837459 5.6774411
-18.543114 2.3296328 7.9686685
-0.20298737 1.3229432 6.352726
-3.9501004 50.078228 6.2564626
-0.67974359 35.703209 7.1989684
-3.5750563 21.322012 16.513317
-2.509644 0.53176582 8.1090746
-8.80439 20.002674 16.856125
-4.2616668 30.867855 16.514009
-18.986889 33.386276 12.696679
-18.846701 18.52668 5.723299
0.55046248 18.4086 4.1678591
-8.6772575 27.143888 17.029621
-7.6194954 11.741465 1.6521616
0.087539077 -1.2555313 0.7229439
-0.037729599 -2.9484262 5.4630289
0.5093857 19.49431 8.8228073
-13.985803 -7.7209597 3.262126
-2.066901 -2.991065 7.3918004
-12.039144 50.46769 5.8295107
-18.401266 -2.066057 7.8852658
-21.260742 9.5710001 8.2683907
-19.34026 35.409359 6.949697
-18.402639 1.8460575 6.8507824
-20.0861 0.5892837 5.4566469
-18.251862 34.888641 7.6297698
-18.541466 0.55267328 0.49551356
-2.598793 34.547325 2.3371661
-2.3137898 26.398628 1.6534586
-9.0989475 50.995449 6.524909
-2.0283985 3.2324443 7.1400785
-11.755665 51.025208 5.8842144
-4.0183973 9.7554426 12.131224
-14.138327 47.298279 2.7226024
-0.33499631 1.6270689 5.6984239
-2.5960882 41.56839 3.7057176
-20.967022 1.6716601 8.1235752
-1.3208312 9.6297083 1.6493945
-0.18288442 -4.4965773 6.9187031
-11.663587 39.386425 1.9623809
-5.2076097 5.4528022 11.579791
-4.3296824 36.081078 16.020061
-17.890583 -5.5073824 2.1266856
-18.416389 44.277107 10.645658
-16.705721 16.288004 1.6521755
-10.60216 38.645668 15.245125
-18.401279 -0.55031198 2.3306375
-20.70974 37.836445 8.094533
-10.33103 -7.2963753 9.5452757
-20.711704 22.140028 10.74179
-19.295822 12.745564 1.6521676
-13.576832 35.441483 16.458511
-4.6453509 19.419369 16.501364
-1.5307512 4.100584 6.0326676
0.08588773 4.0599637 5.4095283
-2.6686435 36.304085 2.4608781
-20.550261 -1.5651758 3.23876
-18.000328 46.575397 10.206319
-3.8790245 13.214095 14.039696
-18.623747 3.04843 5.314847
-12.458879 -6.6408238 2.6549618
0.05161237 0.85170746 7.531292
-2.8706403 22.194616 15.510699
-11.341213 50.845024 4.707922
-19.148411 20.982796 11.527426
-1.5659281 48.071892 6.6614194
-15.955736 41.500618 2.1102624
-0.26143637 -5.2234459 3.6853681
-8.8794289 13.886899 14.756868
-20.958485 -4.7658753 3.6901169
-10.360161 19.51659 1.652174
-3.2981641 29.645021 1.6144848
-14.934407 49.981236 3.1020477
0.44308203 26.742281 8.2012768
-7.0335422 9.7518158 12.539293
-15.827488 -6.9815025 6.6404428
-16.986317 -6.5051785 6.7684927
-21.169504 6.4979525 7.203537
-3.611649 -2.8702536 2.0213189
-0.1393773 32.030342 5.0592823
-18.692114 37.967346 7.749052
-15.346339 -3.5874443 2.0575428
-17.947781 28.936089 15.62776
-1.2689612 10.211964 5.266191
-20.45985 35.838188 5.1445122
-18.882587 13.272026 7.6133709
-5.6182032 -3.7348771 10.780174
-21.443634 16.516035 6.1222353
-4.0956998 42.473419 2.1783071
-15.553687 50.493084 5.2698741
-0.1602066 -5.0596123 3.9794619
-0.24778411 33.865108 6.8413472
-2.06339 28.698479 5.2492199
-8.6151924 -7.112 9.5160513
-17.963705 1.2298863 10.820505
0.22208165 13.928686 2.60623
-10.155722 -7.2918015 3.2525442
-7.0776987 46.791801 2.652709
-3.7565403 36.570477 1.7654135
-19.126991 16.038788 1.6521783
-19.332483 -6.4835672 4.6216092
-19.6371 21.885664 5.9102578
-20.366869 35.083786 3.0284116
-19.143139 37.689125 11.873457
-5.0615749 -4.0613747 2.08148
-0.16951221 35.749916 7.967257
-2.4555802 0.37028021 8.5093508
-5.7641406 49.656933 10.131827
-2.8307347 15.025347 8.7434053
-14.173269 29.718367 1.6131263
-3.1193428 24.315809 16.236103
0.41120017 28.568378 7.6378069
-21.453789 17.631336 6.3383069
-2.0279775 11.972253 5.2650046
-1.729556 -7.0306649 4.7647896
-20.706196 37.031517 8.556674
-17.480778 22.842146 1.6572686
-1.247898 15.744316 1.6521647
0.25160623 30.661869 9.4151936
-11.70049 -7.1088591 5.904242
-17.4813 41.016708 12.585118
-1.53719 39.252552 4.2408485
-18.536825 -2.9268532 2.7493687
-15.483645 -7.3361893 3.2537751
-18.617573 42.641354 11.330713
-2.06339 16.440426 5.5254583
-8.5353279 50.192486 6.7660885
-0.11701263 -1.3649759 5.1378088
-4.9608493 41.929535 12.203385
-0.23847255 0.061685875 5.6132765
0.51720029 23.732044 8.3117952
-21.088186 -4.2415304 5.577342
-0.014673473 24.115908 10.519381
-21.288593 24.306562 3.5950646
-1.2273452 9.7167511 1.65034
-20.236496 36.728882 1.7047482
-1.5358484 19.939342 1.6521683
-17.437384 7.2916021 1.6239988
-14.242609 50.719372 6.7512827
-18.994131 -5.7775016 9.8914928
-19.22065 15.187849 11.0487
-17.75692 23.881104 16.302633
-14.358471 37.191338 16.012505
-19.012016 -0.8516497 10.372401
-7.5281787 12.908719 14.206126
-0.70729077 -0.088331014 8.5368137
-4.962914 40.001591 13.621986
-1.7241499 11.254449 12.071647
-2.070395 40.261433 3.2082191
-8.2546244 24.524734 1.655466
-2.932503 22.442781 15.65858
-0.50058436 38.03418 10.104504
-18.982906 26.637245 9.9031096
-9.8071985 31.276752 16.934105
-21.38747 16.856525 8.969202
-0.54720515 2.2887764 6.5406771
-17.989677 27.725885 7.9108396
-4.6933155 24.462679 16.734615
-15.861763 -3.7499187 2.0657492
-20.144737 37.018303 0.29444391
-9.9726667 -7.3368678 8.4072094
-5.5302868 50.599594 4.7399015
-0.51391089 32.918518 10.691589
-18.283468 41.225986 2.5229094
-1.4050992 -1.8143435 10.623667
-12.006195 -7.1085672 6.0256882
-20.824492 32.573227 8.9886074
-18.996567 33.18557 5.6643162
-21.181526 12.088181 3.7863362
-7.825079 6.3261681 1.6135126
-19.086805 11.11681 5.2842607
-8.6387329 6.095809 11.895449
0.4880603 14.248556 7.1660137
-11.935431 12.757381 14.211617
-17.412224 14.475477 14.659752
-2.6103792 30.423769 14.118308
-20.992285 36.293694 9.063221
-18.675833 14.405155 13.918823
-11.481837 46.676079 11.354795
-21.213242 8.4169025 8.3825817
-8.0231781 -4.1406012 2.0854816
-18.647894 17.320148 3.899966
-18.54137 -3.9633613 5.0082822
-14.403894 42.481239 2.178854
-0.42103288 22.251381 4.9806075
-19.485603 3.6861815 6.9186153
-19.013287 13.558917 12.803047
-16.354626 8.8955498 1.6414202
-20.881706 27.245319 10.367423
-21.278946 30.39222 7.5532575
-14.616271 18.499023 1.6521757
-18.399921 0.54528332 3.1591187
-2.9334872 26.666279 7.9892187
-20.148977 9.9147758 11.002218
-1.1699269 46.804882 5.9370279
-11.353264 -0.87226224 1.9204047
-20.304995 -6.0939293 4.1777458
0.33475924 23.751585 3.4445024
-11.952686 38.808842 15.047378
-13.343086 28.090015 16.960674
-2.668575 41.148079 5.4136777
-8.0093632 37.009674 16.2127
-7.5146365 30.654404 16.876955
-13.907041 0.33894932 1.8592288
-18.031181 48.063904 2.8216493
-16.369995 -6.4098454 2.9800973
-1.8311917 12.649031 1.6521623
-19.720463 23.503448 1.6565602
-0.64752626 40.83456 1.7056428
-13.856713 1.3588614 11.442457
-0.15861306 11.334146 1.6521612
-19.213177 48.330177 7.4937916
-5.0484467 -6.4990349 2.8521461
-19.864285 25.673656 11.120596
-8.3921299 43.260235 11.989187
0.45048934 27.02998 6.5847616
-21.24614 8.5213108 7.3723021
-6.4691334 24.546219 1.6554431
-12.342175 -2.0481796 1.9797978
-13.754636 43.636436 11.816091
-20.847969 0.063296847 1.3499616
-18.88282 13.701284 8.8638334
-0.16761048 40.658768 6.1922503
-17.416632 -6.3635974 3.2292116
-2.6168661 26.161774 6.0792427
-9.8813839 1.1183468 11.591895
-19.321495 42.093273 5.0182643
-20.424774 37.201111 1.6253744
-20.05644 42.429298 3.4771166
-8.4136219 29.740591 16.941921
-20.741537 30.543003 1.7718915
-20.356897 -6.1022072 7.6804395
-18.600477 39.712292 2.4874935
-2.8752306 20.435415 15.679065
0.43322071 12.101664 7.0413699
-5.7622433 32.166836 1.5519111
-9.2339191 23.652718 17.042566
-20.756773 1.505857 4.5938368
-5.4593644 33.743008 1.5676401
-1.3816624 41.593704 6.457201
-14.475769 50.037544 8.8170795
-5.4285908 49.889851 9.5832129
-13.135485 3.6125095 11.672142
-4.743114 48.769718 10.53187
-17.748632 13.472791 14.004786
-18.100258 37.948498 1.861802
-1.2884923 20.080227 11.46584
0.42572644 12.671242 8.3381453
-0.33648142 -4.1246786 9.5223913
-18.244688 38.744446 5.9082813
-19.07617 6.5655146 11.329294
-13.713508 16.710318 16.074198
-6.4549375 24.673508 16.883345
0.20765132 33.672188 8.6342239
-7.9999404 31.014015 1.58913
0.43340927 27.655693 4.9519501
-5.4041486 23.111528 1.6569798
-16.508106 50.301697 5.7422562
-4.3523636 3.6468229 11.382992
-6.5621934 -5.7290063 2.1303091
-12.753003 24.938707 17.009829
-0.15027606 22.113462 8.0124826
-16.410534 48.448776 10.590273
-19.832317 -3.5907702 1.8390183
-2.2420106 31.322609 5.6176996
-3.36724 25.121567 1.6548266
-21.159149 13.069038 3.5645809
-18.275803 28.706467 8.8234215
-19.948204 44.608509 3.5977492
-20.8424 2.956557 3.5305111
-3.1208806 11.293163 12.739572
-3.3940454 -6.8052831 5.7486167
-18.005028 -1.1435809 1.9341084
-1.5492139 11.115254 6.3160143
-18.782555 21.163004 13.645153
0.016137717 5.6881957 3.7508783
-3.6994531 8.9346647 1.6418452
-21.200359 24.721905 2.8977911
-0.75331604 32.020405 1.5660248
-20.724499 -0.89505816 1.4980613
0.39108539 12.753051 8.9742336
-20.022625 35.557556 8.6637201
-21.089733 21.233845 2.0054138
-20.768747 2.2296381 2.3011458
-21.253708 8.7418585 7.2601609
-1.6948375 22.370253 11.884481
-12.414871 0.93314719 1.8292172
-20.072021 9.1120253 1.6437715
-1.278594 36.308609 7.5381927
-21.46846 19.24197 7.7289672
-15.666486 50.342049 5.9182386
-16.828285 -6.7624321 6.6893334
-1.4619585 3.0588126 4.9865417
-11.92329 21.866863 1.6521702
-14.430701 -5.6468854 2.1289248
-8.2392473 43.164333 12.004567
-18.79933 20.862427 13.594103
-9.7413235 8.8554831 12.209329
-18.721365 27.850994 8.8253326
-2.8672347 26.79804 15.373709
-9.2753906 2.6819801 11.709758
-11.070287 46.802811 11.347468
-20.669687 -0.36737359 4.3529119
-20.655243 0.68459499 7.1264133
-18.846699 19.474836 4.0808272
-10.688137 40.933212 13.597254
-20.286928 40.527092 7.3960643
-20.664036 6.2278509 10.419497
-2.06339 15.776834 6.0757494
-15.347568 8.8035393 1.6404209
-20.638922 2.7420654 3.0028942
-16.750896 6.3821011 11.543756
-20.011456 22.336983 4.4760399
-1.3201002 21.678633 11.632619
-18.563545 23.514584 14.443437
-20.696892 -1.8267298 4.4099665
-4.6240854 6.1164479 11.56882
-1.0590684 9.7059441 3.5474453
-20.678755 -2.2174354 5.0094824
-1.2561849 34.56551 3.7051954
-11.665422 24.542854 17.04599
-19.264044 -6.527102 3.646771
-18.564346 36.452766 7.5938931
-4.243999 35.317833 1.6777949
-9.4480448 45.515533 2.4783645
-14.978708 45.851257 2.5216408
-18.142847 45.646732 10.435786
-14.012028 22.040976 16.882435
-2.0458705 19.854109 13.395882
-15.140302 24.597851 16.809586
-7.7848291 50.383446 6.0840797
0.36638373 30.491196 7.4466753
-15.922282 42.058372 12.105418
-18.081602 12.930573 1.6521662
-2.3536537 36.110886 8.8787165
-18.215441 15.948009 15.125174
-5.4087834 -6.6623778 3.2014916
-18.496185 25.158295 1.6547874
-8.3430157 3.0259547 11.671479
-2.6686087 36.867584 2.4537103
-16.176079 9.7864466 1.6510968
-18.88287 24.889008 9.3659182
-19.572239 22.156572 11.719131
-20.659248 15.03717 10.758603
-7.2634058 24.675734 16.970478
-14.221094 49.7929 9.9564905
-8.0029716 -2.4658875 2.0008953
-18.630793 23.133074 1.6569569
-20.534231 36.590527 2.5143478
-7.3718195 38.318546 1.8876859
-5.2094164 -2.9695413 2.0263338
-17.142584 50.277603 4.8501177
-11.450855 42.065529 2.1497762
-21.2806 9.6442375 7.2853751
-18.632271 15.989776 13.910655
-5.2692003 20.512907 16.63958
0.4394843 16.610361 9.5778399
-0.82821476 40.88575 7.0291424
-9.6575298 -1.7318294 1.9638196
-19.078547 0.9600082 0.10737095
-16.861589 -7.8582697 4.2895036
-19.11124 2.9678595 3.4762087
-19.344219 35.478867 8.6184921
-1.7952724 40.626873 4.9346399
-19.343697 32.566875 6.9060221
-2.0269697 25.235292 11.072093
-0.87098992 -2.1740625 2.2425435
-2.9331338 29.115606 15.648777
0.086563647 -2.3064339 7.8063922
-16.339275 -3.9271686 10.413368
-2.8194349 0.6361587 10.482377
-7.9251609 13.477287 14.510118
-15.852335 20.10634 1.652173
-2.883508 30.184525 14.860521
-1.6794351 0.38039285 8.5086164
-0.65357226 29.032303 10.958693
-19.216709 2.4546669 0.75034261
-11.484373 50.050137 8.0580759
-2.530884 15.836294 14.746222
-18.700228 22.900173 14.084337
0.055777229 -0.67081624 8.7069178
-6.2169075 28.584681 1.6341232
-0.14364733 39.152451 9.2729902
-15.668591 50.159508 7.4666524
-18.869184 21.532522 6.0599952
-18.241133 34.394093 2.8410563
-2.5093908 -2.3804817 4.558033
-10.013881 35.73555 16.532337
-8.5623665 19.186001 1.652173
0.2498403 6.3225541 7.5642838
-1.736535 6.4232926 11.015824
-1.5876949 35.489883 8.6245594
-18.727551 38.14854 0.3076874
-2.7301226 19.612511 8.7444792
-18.882835 24.190697 9.2845936
-13.906573 -6.2993321 2.1399214
-20.446306 40.334129 4.3316231
-2.9377272 17.01067 8.0052452
-16.879314 -7.8344216 5.1228848
-16.172361 -2.3577018 1.9954309
-19.418751 -4.6451902 3.0734611
-10.791004 50.474167 5.8929424
-21.444807 22.13699 8.6680927
-3.0303235 17.467316 15.239575
0.26161823 8.1595812 4.095448
-4.8035493 21.110447 1.6521714
-1.882771 19.919741 10.573854
0.41845751 28.185207 4.4930787
-19.797224 45.720921 3.9067914
-2.0269277 19.320951 10.6764
-18.883129 11.653554 11.127762
-19.125383 11.129396 10.86953
-0.037729599 2.6723089 2.8895242
-21.290911 23.240141 10.018199
0.23290512 5.8081956 7.0349202
-18.846701 29.486162 5.4341145
-8.3702211 9.0684929 1.6432986
-18.740267 1.5067843 0.28411293
-18.764132 34.53756 13.348324
-7.2205863 42.04863 12.556035
-12.929241 51.365128 5.2154164
-19.095867 24.404316 12.901757
-2.0274637 11.527914 8.3417864
0.12088627 10.142711 9.9913626
-14.457993 0.11960825 11.276887
-20.96998 -3.4869742 5.5374174
-1.8522035 1.7345648 10.57956
-2.1156011 -3.0908718 4.027051
-20.418949 33.279499 5.8418655
-11.946918 3.0919743 11.722171
-7.4227839 33.118996 16.694365
-15.315899 50.850037 3.9158592
-16.800995 19.188622 1.6521745
-17.927288 -6.9518738 2.1537538
-19.835215 28.195744 1.6413264
-2.474376 -5.0442119 9.947197
-20.126793 39.331783 8.7492571
-19.657278 10.765638 10.01369
-1.6431582 38.649227 10.952114
-3.0872049 30.03953 15.916533
-19.02714 18.208576 9.0367517
-20.696936 1.8406223 3.2051175
0.54618847 17.907644 6.977396
-2.3886919 -7.4583354 4.6090136
-19.172729 38.997383 1.9688296
-0.22298679 1.7085608 3.4679987
-20.018799 22.214626 8.1479073
-21.443558 21.278688 8.6214371
-18.089905 22.718128 15.541353
-2.6690743 34.170502 3.9252255
-20.70859 37.336323 8.264389
-19.167835 11.116172 8.0060778
-21.012043 8.6722937 3.1875184
-1.5133801 36.368126 4.511673
0.47944653 13.911507 7.3955722
-8.8629103 -7.1892204 8.5390682
-2.7752907 -4.2187114 2.0894265
-0.67096931 33.31414 5.9313555
-1.1560979 3.9561431 10.902027
-1.4046062 41.783081 6.0057392
-2.6951628 49.522148 6.7428341
-1.2655206 9.7080374 7.9445338
-1.8827205 26.96109 10.299219
0.31050536 7.8444343 7.3413086
-16.495609 38.405834 14.763741
-21.432875 15.605581 4.0374947
-19.896503 4.4424849 4.9175854
-18.8832 31.420425 5.2451558
-6.6805072 -1.1432248 11.167996
-17.81867 -3.0132425 2.0285411
0.052806426 30.760946 2.2010698
-7.0026908 21.108959 16.854849
-18.3071 34.482906 1.6199431
-21.168737 33.55769 8.0751085
-13.561174 7.1697564 1.6226754
-12.161786 51.362038 4.6090527
-7.472753 -7.1113443 7.9000416
-3.1445825 11.664429 12.939569
-21.44268 16.415741 4.5341706
-19.339962 37.939346 2.7595744
-11.402146 4.5939174 1.6443193
-20.569031 8.233489 1.6222082
-1.5259686 37.569965 3.5240088
-1.2599682 -4.4446592 4.2524662
-17.553146 20.641752 1.6521721
-18.843496 -0.053654365 10.431318
-11.355548 22.579184 17.018049
-20.775927 -3.69261 1.9783072
-21.312693 14.764836 9.6469107
-19.401154 33.143906 11.5044
-9.7414837 -0.18557093 11.473134
-2.008853 29.048615 1.6255307
-20.942179 4.1000228 5.8475919
-3.4294884 14.672373 14.753134
-1.1116474 25.199589 1.6547431
-2.3429549 -2.1617036 1.79852
-18.948385 40.021896 2.853672
-9.3511295 20.509407 1.6521723
-20.112316 34.592407 10.850411
-5.9918661 33.713791 1.5655968
-18.846701 16.51672 6.2577224
-3.0701437 31.96772 15.69169
-2.6697142 37.840935 2.8025601
-15.190359 51.121159 4.5461302
-10.689575 28.743687 1.6311781
-6.8629007 2.247376 1.7628381
-18.240562 27.855289 8.7531185
-2.5093501 -3.4036059 4.6942115
-19.818996 30.919125 11.017456
-1.7875555 -0.1989499 1.3576312
-21.409588 25.214516 5.4268956
-3.196521 31.829967 15.952998
-20.414116 -1.4864943 10.331074
0.55043268 -0.78779328 8.6103363
-21.251408 8.774313 5.0855641
-20.999456 32.524643 9.6871252
-18.538795 2.7522633 6.8359189
-10.21534 20.167393 1.652173
-21.391582 15.243714 8.5048103
-16.785904 45.482178 2.4745612
-18.357548 3.9191935 11.228659
-7.5360637 25.331848 16.984833
-11.456013 -7.2938313 6.0613551
-19.437691 29.200869 11.640476
-18.846701 19.338873 3.7750697
-18.242693 35.725708 3.5680141
-13.218621 8.2763319 12.087356
-20.475487 39.90963 2.7214398
-21.170385 -1.2116765 8.4070511
-13.380184 -7.1080484 6.6723852
-14.254372 6.6948566 11.79963
-12.027791 13.498046 1.652163
-15.430935 44.424583 11.52154
0.26861066 33.528358 7.6540384
-17.875505 -5.0322905 2.1183445
-12.847434 -7.1114235 7.4578457
-0.34316218 22.24033 5.2762322
-14.343916 28.250427 1.6403139
-20.706078 34.504955 2.1530244
-19.011047 23.767115 8.7685175
-0.20694169 32.363541 5.9725819
-19.987219 45.582695 8.7322206
-18.846701 15.687471 4.679976
-18.402939 2.3283358 6.7786474
-18.276651 39.68124 7.5422912
-0.31588757 37.441933 7.1759272
-0.036956489 28.958302 10.206344
-1.0717666 41.571602 6.1143894
-0.28890467 39.73735 0.85500848
-17.881466 -4.253212 10.042663
0.032545522 -2.8377953 2.9860654
-14.038863 50.085163 8.5130577
-15.488992 6.2335019 11.645551
-18.019428 14.049234 14.286863
-2.06339 27.219322 4.2442112
-10.586811 -5.5889587 10.899332
-5.7918549 -7.2086191 2.1537495
-10.582363 11.128811 13.44743
-11.231643 4.0281029 11.838665
-1.0029311 38.65657 1.8127164
-6.4333305 19.734329 16.693537
-0.6201086 35.788548 2.6138005
-7.4519815 16.232332 15.874996
-12.522526 43.643513 11.890018
0.49369946 21.429256 9.2093449
-18.798267 40.628746 4.7034111
-9.8156042 30.919838 1.5908743
-15.800404 8.0372896 1.6320982
-8.042222 -7.1119184 8.5127068
-19.602301 -0.79629898 5.3001776
-8.7487068 31.58449 16.86656
-19.3957 29.433142 11.559609
-4.5016789 28.510616 1.6354947
-9.9151268 27.26531 17.080135
-3.8625994 10.624476 12.557248
-3.2920747 19.996159 16.391237
-17.395475 20.396709 1.6521726
-3.5634439 -6.635016 6.1499224
-13.311822 47.705036 11.036039
0.55703712 19.14361 4.7714887
0.37599164 10.00536 4.7062144
-8.2203579 -7.536212 5.2066393
-14.045106 -8.1519251 5.1443644
-18.746384 -7.3289948 3.7689085
-7.1228871 44.729874 11.609015
0.091388568 -3.274852 3.4040637
-3.0958233 11.083498 12.626113
-2.0270214 25.681559 10.361027
-7.94519 51.21048 4.0236807
-5.4517121 -6.9340496 7.0549526
-18.536892 -3.2967091 3.7054989
-1.27864 -1.5730765 4.7751083
0.52283442 19.346733 8.5781841
-0.81962818 34.741142 6.0515566
-0.97246575 37.072758 3.6165934
-2.5102856 -3.0055077 3.3311329
-12.895321 15.257458 1.6521662
-21.323864 11.431959 4.6360106
-5.2193141 15.607717 1.6521647
-4.6402049 17.963562 16.228769
-2.4242697 37.731201 7.7757745
0.53949916 23.732809 5.3831315
-18.537697 3.4283831 3.7945607
0.55685163 23.091604 6.7444935
-18.846699 16.95256 4.6401892
-19.761719 17.151297 1.6521777
-10.528254 29.015682 17.051388
-17.643368 -0.037923187 1.878264
-2.7194235 34.346088 14.815578
-0.56786168 41.932663 4.0671167
-0.1355063 2.5517068 4.7107058
-20.060234 29.154713 1.6235657
-1.2534586 -2.1997275 2.2612729
-17.997772 49.624271 6.202786
-18.783562 2.114711 0.55521303
-6.4060421 -5.1564932 2.1206596
-18.941336 37.625954 12.399408
0.20885703 34.288227 8.2732096
-0.58006549 35.60479 3.8942556
-0.41535813 38.553486 5.6526937
-0.86984491 36.921234 4.9304342
-0.16741198 40.6478 3.22296
-19.081867 4.4122624 5.0586901
-6.983459 50.296295 6.7756014
-13.079014 17.137287 16.25248
-7.0828037 4.857852 1.6309886
-1.9374156 18.676025 8.7697954
-5.3031802 46.227921 2.5741305
-21.31567 28.654009 5.5767288
-1.5173649 36.91531 11.303401
-18.695667 2.3897851 8.1764116
-2.1327963 -1.2821482 8.6781597
-11.595525 39.046608 14.903715
-18.583042 24.779621 1.6551931
-7.4589548 -7.7178388 5.2053704
-18.833916 15.274427 8.7435427
-3.5688286 29.509157 16.438236
-8.8640842 46.689484 11.326752
-10.198089 36.946278 16.318104
-12.480574 2.6899242 11.649879
-1.88309 27.080608 8.9982681
-8.023119 0.29505467 11.402115
-18.882845 11.731091 9.1683006
-18.882681 11.224035 8.2244644
-14.070803 27.299822 16.918615
-2.4047868 -7.4147544 3.2092497
-2.8631692 18.444843 15.503953
-20.7069 -1.30352 3.5659926
-18.489155 14.959622 1.6521736
-3.7292907 49.825977 8.720583
-20.707827 36.480545 1.1534358
-18.249729 34.949257 7.1802883
-21.073154 29.260056 2.8664682
-9.0172367 27.107782 17.043568
-19.597486 -1.8701221 5.5379782
-14.460945 14.680243 15.001923
-2.5908337 15.739462 1.6521647
-12.961792 -7.1119847 8.9530802
-2.3545439 37.012882 7.7440443
-2.9909852 31.796078 15.558632
0.54401749 17.673862 5.9361486
-0.16632359 37.61882 1.3906147
-14.632614 40.953239 13.196081
0.34326413 9.9234257 8.5515881
-17.966404 17.736088 8.0407944
0.092321433 2.7296906 6.2804594
-1.8625464 -3.6393867 1.906301
-16.758762 1.4027061 11.175476
-5.3455114 -6.6000137 7.9709816
-1.841601 19.785992 12.834646
-4.1493559 -4.3647461 10.028895
-0.38249469 -1.1323138 10.083465
-14.693943 33.163864 1.527131
-19.069002 14.192201 12.669531
-7.3438296 31.054035 16.843414
-10.750802 5.4532614 11.932071
-2.669225 35.683475 4.8102427
-14.891136 51.22728 4.9562697
-5.2319288 0.74728 11.225851
-1.8653772 11.119588 10.673225
-4.6692662 -6.46842 7.828907
-21.299305 29.229116 5.17694
-5.4874744 47.88089 10.823978
-2.5966501 33.897564 6.5865035
-20.8424 -2.0333526 6.7666354
-19.223217 31.495811 11.484216
-1.7268043 4.1254725 6.0973024
-16.985859 7.7611332 11.648878
-0.52270484 27.462849 1.6523186
-10.086721 42.337448 12.584723
-1.1665208 44.590477 2.6474016
-4.4293623 3.4560506 11.376336
-20.92411 14.633266 11.76742
-0.91824639 23.206017 1.6568787
-12.754354 -2.6790717 11.119965
-9.5151043 -8.0292978 5.2036099
-0.97453624 26.957115 1.6528603
-18.541721 -0.3404499 0.43777439
0.31316674 33.474037 7.2673769
-21.129883 4.5525007 5.1628408
-19.089706 -1.1748374 10.382483
-20.473135 39.23772 5.0993805
-6.2464342 -0.25731617 11.215387
-6.3187084 3.5625601 1.696411
-1.2106895 39.178108 2.0770519
-18.241955 35.108677 2.2818761
-19.06859 32.439407 10.265646
-19.642498 9.8064985 3.6798449
-6.3931718 29.676863 1.6138949
-0.04210636 9.6730909 8.8800306
-2.6612201 26.009718 6.3426938
-19.698742 2.6886995 7.984869
-18.351662 33.422249 6.3247232
-1.8122103 13.64634 1.6521631
-8.6046867 41.920769 12.798008
-5.6692419 24.568069 16.798775
-1.9964445 12.63053 13.02103
-7.9390774 45.739758 2.506104
-15.123999 11.484669 1.6521612
-16.523811 31.625656 16.493553
-20.591228 0.25792837 6.9320755
0.12023878 25.285263 10.118029
-0.69828522 40.580902 9.9937716
-11.183589 50.033661 9.6478882
-18.306067 21.533531 8.6746359
-0.58669019 33.120094 5.3564725
0.47556329 16.034393 8.8718748
-6.0297847 -3.6799631 2.0622158
-18.452066 -6.5115056 9.5272875
0.086504444 -2.8223345 1.500473
-9.1801558 15.101689 1.6521642
0.51642495 15.35915 7.4659729
-6.4885654 39.476105 1.9686534
-2.2141907 20.098747 3.5383546
-18.168219 29.504219 6.8407454
-17.849174 18.51265 8.135685
-0.37154782 38.966682 4.0562077
-20.410059 36.872162 4.8265572
-19.154802 23.737583 12.11158
-20.145592 14.51052 12.89
-0.086879961 39.037834 9.0268707
-18.973608 13.289909 12.948244
-7.2535877 -5.4357824 10.747835
-20.749556 -1.9196098 9.1844521
-1.6856273 26.117172 1.6537602
-12.493555 49.632927 10.30986
-1.8119135 27.146923 12.716591
-16.431116 21.6143 16.662296
-9.2003069 -7.34443 7.2598495
-4.8115478 3.4338167 11.411744
-7.0885019 0.12668169 1.8699501
-11.037292 22.03793 1.6521701
-5.1659098 33.004124 1.5159576
-20.401535 38.726547 2.1857946
-8.9155502 -6.404243 2.1416898
-12.80304 28.538382 1.6349806
0.030400807 26.940119 1.9618238
-7.3723693 -7.1001182 9.6740179
-18.989077 -2.9238892 5.5159431
-8.0919609 39.714836 14.315005
-18.8832 21.625446 8.4050007
-14.502961 43.609505 11.773765
-12.821921 -7.2119694 6.2084165
-8.4905968 -7.1117764 7.5709171
-2.06339 16.974258 4.9563808
-19.02702 28.493057 8.8136597
-2.6597106 38.263657 8.0504599
-18.580591 49.137642 4.3242202
-5.8348799 16.214983 1.6521652
-10.657434 0.87820441 11.569341
-16.70509 28.745642 16.590557
-14.143331 31.641453 1.5775093
-1.7345773 21.833761 1.6521703
-18.541285 3.0058379 1.8218466
-18.385834 20.623438 5.4804835
-15.332636 -0.76436698 1.914955
-4.7909269 5.0597477 1.6207912
0.052549399 5.7370138 9.865139
0.44292414 27.310816 6.9065475
-20.258127 37.242523 6.2317133
-0.9250201 31.923233 4.5501523
-9.6892204 50.035526 9.6401482
-11.186144 -4.5056725 11.013403
-2.2848415 40.630947 4.5740037
-0.92436993 12.277678 11.061176
-18.280432 38.441406 8.675292
-18.426586 27.558636 1.652216
-19.471268 41.902969 3.9308305
-11.609013 -4.4231348 10.998085
-4.9782224 32.291687 1.5398777
-0.74370337 11.414928 1.6521614
-18.673807 26.670284 3.7654083
-19.218391 6.8488107 11.09785
-1.021991 2.5710185 6.1732721
-10.504706 26.369205 17.095451
-8.4212885 13.930077 14.758572
-5.3873487 43.760563 11.636251
-10.193785 18.208197 1.6521721
-20.697128 -2.7344553 9.4859667
-12.058765 -3.0206363 2.0289145
-2.2989624 19.503448 14.055401
-21.129616 6.3987904 4.7302766
-8.7126112 -7.112 9.8802214
-3.7172368 35.545326 15.922345
-18.997498 23.765968 8.2043076
-19.850763 14.296395 12.644844
-19.178926 34.744358 12.282788
-5.5097623 35.993435 1.725051
-1.614567 47.984688 4.9694667
-1.1526788 36.717793 1.7040213
-18.325272 -6.2494435 9.6921215
-4.1563139 14.416716 14.682394
-0.50796795 10.88736 10.923388
-18.882969 13.91449 9.6694489
-18.244053 40.560951 3.6257834
-18.53834 36.525536 9.0128775
-19.64329 10.766634 6.1678104
-1.9798169 -2.4585407 0.75234574
-14.645182 35.610073 16.298439
-20.206612 39.594429 6.9735441
-17.423473 28.423466 16.463923
-2.8201618 37.866844 14.444047
-2.8631473 28.841667 7.5664749
-12.133148 35.652271 16.489666
-12.901558 14.576837 15.051181
-2.0409641 23.399689 12.943516
-1.2598865 28.666744 11.423414
-7.6486268 1.4379195 1.8037221
-20.932339 35.038116 7.8576708
0.10515312 8.936327 3.0808401
-4.0980172 15.501097 1.6521646
-20.123943 -3.6249633 7.003747
-12.8695 -7.34443 5.6080146
-1.8736374 40.113052 2.9785891
-0.49541974 36.34919 2.1211765
-1.53719 35.920139 4.8293266
-21.484829 22.434101 7.2845345
-10.883824 1.4584198 1.8026868
-10.985645 30.812887 1.5928552
-1.0482593 22.239403 8.653039
-18.240908 42.123055 4.869493
-21.464289 18.784523 7.172317
-20.660542 34.945492 2.7939754
-21.306505 10.657888 6.5060005
-18.439816 21.53334 6.606164
-0.84627271 -2.4364266 10.521801
-18.199732 20.914143 8.7448177
-16.959038 19.847965 16.478739
-17.99369 27.117823 7.887177
-18.402634 3.3066285 4.7385311
-20.546568 9.9222984 10.783707
-21.283466 -2.8791864 7.746439
-2.06339 17.472544 4.1873484
-21.49181 22.175636 7.2149978
-21.165361 6.2534609 6.4920349
0.034091756 22.230219 7.4957438
-0.39518553 33.164948 5.5459781
-2.3418822 -0.79916716 7.9201078
-19.6015 -1.8288949 5.2496648
-11.138671 -0.35930544 11.455855
-2.788249 49.916759 6.6295943
-13.117531 -7.111867 8.1726828
-18.242376 34.966412 3.4304092
-18.699543 39.680538 6.913177
-0.54171032 3.3340297 7.401413
-5.0358801 2.2169371 1.7643756
-10.770498 34.412453 16.708519
-16.418533 9.5017042 12.106163
-1.2645531 32.067268 11.011773
-19.552158 1.2136351 1.5911127
-10.477888 29.121304 1.6241844
-13.153646 7.1181726 1.622115
-19.491678 41.592976 10.476807
-0.68070495 -6.1783905 4.8351812
-18.823402 -1.095717 0.15096125
0.52816814 15.922004 4.1784801
-21.072397 22.181278 7.1718597
-2.5618315 31.049614 1.5884707
-18.048534 43.591301 11.413902
-20.991467 35.172699 8.9419308
-7.6468558 -6.820962 2.1479986
-3.3883858 29.5737 16.400587
0.57657421 22.401361 4.7825303
-6.6575174 2.8759775 11.534809
-5.2441826 31.67281 16.553719
-1.8550013 16.244049 10.035788
-19.126743 48.191223 8.6001425
0.17760815 -4.3076658 5.4228144
-8.720192 18.3477 1.6521705
-20.632883 41.004829 1.9847102
-13.718089 -1.410859 1.947608
0.57260406 22.55764 4.4449387
-21.323036 16.384626 9.9659405
-2.0276253 13.376656 7.2751265
-10.386419 3.5668497 11.808371
-18.31798 40.888111 7.430479
0.28974196 19.852528 2.4626207
-19.899071 22.285294 8.0877075
0.39643756 28.334955 8.2557011
-0.22807536 -1.9383111 6.4273744
-19.393917 40.602413 10.614987
-21.179508 6.7685094 7.267405
-20.02298 38.32486 8.4561329
-18.224976 30.309027 1.6021869
-17.807812 35.296295 15.499149
-11.677589 46.679958 11.345222
-1.7069492 36.10556 12.070141
-21.452877 20.322245 8.3899593
-19.318583 41.729931 3.2214954
-18.8832 31.524454 8.6673269
-18.184908 15.324705 6.7285347
-18.055363 21.57308 1.6521708
-18.004442 20.998627 8.7341061
-0.87973803 5.3817272 1.8838172
-19.542192 23.765053 9.8205271
-6.6348915 3.5461924 11.5832
-16.247326 32.364254 16.476355
-18.565151 26.822048 5.3381152
0.57418674 21.026649 5.0114737
-10.167183 -2.0869968 1.9817584
-0.032209016 2.0623918 9.519908
-1.1730955 26.229692 11.2637
-7.8523068 18.679689 16.680185
-2.3374591 -1.3332579 8.3795052
-18.887074 -3.0675216 10.172273
0.014801731 35.888729 9.2466059
-11.051592 -1.6212375 1.9582338
-16.901667 12.449311 13.608875
-18.954712 36.3297 7.5507312
-0.38435435 22.298681 7.3315616
-13.706624 24.019981 1.6560068
-0.88988876 2.5638962 0.81274778
-21.185997 32.039688 3.7863293
-0.28625277 -2.0907638 0.54102683
-17.864185 18.073999 15.650769
-0.31907949 34.610615 10.236928
-14.951318 31.770388 1.5751215
-5.0391998 20.824369 16.634644
-5.1737823 41.162338 2.0866005
0.022268519 36.705078 9.2086105
-18.542013 -0.065273814 8.520381
-15.59708 -7.1985579 2.1534209
-7.1444054 -0.65929133 1.9096479
-13.641956 -7.34443 8.7124634
-18.239819 39.409584 3.3974175
-20.773636 10.322927 10.45962
-19.375551 26.178282 11.972899
-8.0689678 -6.7379155 2.6404486
-7.2538967 2.4740696 11.547414
-20.984337 27.536774 2.0792546
-9.5003567 20.102558 16.886425
-16.398729 49.268349 10.326853
-20.865009 14.349274 10.45895
-12.145958 14.741778 1.652164
-12.531885 -2.9024286 11.111149
-20.669424 22.225761 5.6508074
-5.2669153 10.977282 13.016302
-10.804838 15.545432 1.6521647
-2.5080147 -2.4361558 6.0432072
-8.3804703 33.455788 16.709579
-7.1265454 36.115036 16.328505
-7.2982545 34.7383 16.552589
-17.401449 -6.7865233 5.5564146
-0.97899723 8.6027431 1.63824
-18.233709 13.541142 1.6521685
0.30271268 24.919577 3.1157494
-1.9704362 31.301189 12.304079
-6.5540133 13.788202 14.568316
-14.584139 -8.1597328 3.9476349
-14.042573 7.8985786 1.6305916
-20.967115 -3.1510193 6.9453688
-7.9509182 -8.1728611 3.583339
-9.8078461 46.310139 11.442469
-15.465495 21.985191 1.6521701
-20.113426 -3.5373499 10.414595
-5.1335568 32.416618 1.5278362
-12.409039 3.0107872 11.682035
-1.8827574 18.918694 10.511863
-10.440586 2.3991723 1.7551713
-2.5179958 33.101479 5.3820362
-1.7727199 30.866352 12.391701
-1.53719 35.535179 4.772882
-6.4664202 2.2025843 1.7651005
-4.1429634 -1.3993201 1.9470252
-20.149555 -0.37500474 8.5190334
-1.5432756 47.086174 9.3090515
-7.3296752 5.0607672 1.6207398
-0.18420288 -5.1020255 4.1602502
-14.353655 31.62698 16.713099
-2.3431315 0.32495487 1.0790265
-0.49122745 39.272919 3.7136681
-0.16625662 40.167377 2.7304339
-1.2055023 22.245745 7.2987499
-21.490646 21.715155 5.0984898
-7.7854733 -2.279218 11.138982
-21.479454 22.633667 7.6100717
-7.354579 26.093487 16.976612
-21.200905 33.472488 7.4056864
-20.944872 27.870829 2.0203676
-18.892233 28.240631 8.7557631
-10.117559 24.320742 17.07547
0.41014025 28.618986 7.6519461
-7.5987792 23.974775 1.6560552
-18.241817 35.744087 3.857749
-18.221237 23.19935 1.656886
0.14885682 8.5617867 3.8494575
-0.54927814 1.8437147 8.102911
-14.962739 37.292618 1.8159252
-8.8558302 -7.2362976 7.0505586
-17.858074 23.071243 15.925099
-19.027319 20.64225 10.337053
-18.812817 17.295147 13.459182
-2.0269098 13.767541 11.372749
-1.2786855 23.481928 3.2066243
-14.455645 -7.2178526 10.024575
-0.1700428 34.763699 2.0505579
-18.387398 15.677032 5.5026765
-18.436539 28.349451 14.374435
-18.612354 49.080891 5.3795056
-18.24217 36.127419 3.7843151
-3.1631517 7.3774309 11.509504
-18.661665 46.785519 2.6518297
-2.0233383 38.959393 7.4296141
-20.308006 35.293636 6.2544756
-9.5092936 48.601608 2.8899722
-12.299021 30.40202 1.6004646
-2.3631558 25.852077 8.1945219
-14.242042 33.571003 1.555609
-3.5630956 48.386421 10.524829
-0.91890532 41.483547 6.7033386
0.39061746 -3.1595018 7.2619457
-19.012741 -6.0570202 8.5917072
-0.17109898 37.148216 0.7664184
-7.8882523 50.928452 6.6859274
-14.346436 -0.5175153 1.9024872
-19.600481 47.310833 6.2087789
-6.4504824 22.230778 16.842598
-19.419792 30.950665 11.598523
-1.2177489 46.893181 8.7123346
-1.3122723 23.767673 11.133755
-16.361023 40.321903 2.0278151
-11.210174 42.965332 12.21467
-18.378948 30.776798 5.5246992
-10.118379 12.796624 1.6521624
-0.23960137 0.55718964 2.5072286
-18.088921 4.6520376 1.6413839
-18.307096 15.73578 14.738448
-1.8829539 15.089696 9.6636953
0.32593408 16.783609 3.0662267
-18.993069 18.796806 11.522263
-19.545208 47.190727 4.2476649
-5.088469 24.069004 1.6559541
-1.4383295 42.309589 4.3268318
-7.6720743 29.043705 16.932472
-4.2357507 50.293526 5.5225139
-10.450367 18.381376 1.652173
-18.402864 1.0993903 5.5033445
0.53889704 17.116596 5.7633457
-17.682371 -7.5804844 3.2799001
-0.27721652 -2.4118447 5.7432394
-18.712982 20.327894 1.6521727
-20.491484 36.941582 8.5147047
-21.005562 29.711258 2.3176007
-5.7934942 -8.087224 3.2796023
-21.292133 27.97987 8.5648203
-19.236908 33.131256 3.9631252
-6.752492 -2.4472971 1.9999564
-0.35008803 38.377937 1.9191197
-10.306038 -7.1120005 9.6036739
-9.6660118 43.546909 11.985575
-19.646986 25.225481 11.543158
-19.50687 9.9803429 11.427822
-8.8079767 35.358761 1.6806576
-16.51169 42.247616 11.915337
-7.401083 44.655125 11.636917
-9.840415 32.39172 1.530236
-19.027 27.25099 8.9659758
-21.033627 17.921402 1.9437532
-12.138588 -7.34443 8.7735491
-10.557299 49.841034 9.1668797
-3.0580387 0.6702143 10.751291
-20.803183 8.2900391 1.962714
-2.0277867 24.936098 6.4288168
-12.547178 43.749367 2.2831142
-19.711884 25.616968 11.459896
-17.992943 -6.6761994 6.4791574
-3.9764123 27.008471 16.602818
-8.6561775 10.012482 1.6521602
-18.276773 39.195889 1.5191454
-15.994219 49.474449 10.241262
-19.368244 39.207153 10.737832
-7.1933265 47.969868 2.8094842
-0.3995477 38.607887 6.2153759
-20.968908 2.6957316 1.7953211
-13.617389 42.489052 2.1794004
-4.006391 50.496559 6.5310192
-9.1917906 -7.34443 9.1981392
-1.4998361 11.8915 11.655696
-18.263922 37.907906 14.012178
-14.547802 48.028057 10.874883
-8.4087849 23.806416 1.6562356
-17.967299 30.771824 8.0720901
-21.271603 38.029541 8.6120577
-16.873117 -3.9981818 10.070513
-17.977648 18.003326 7.9740143
-20.423313 21.862207 10.953884
-0.2562986 14.137454 11.731424
-2.509654 -2.4866574 7.4161897
-13.540676 2.8373356 11.584642
-0.16761245 40.88702 5.5957837
-18.305782 34.356743 1.7364711
-5.2315435 3.6158557 1.6937191
-0.49837381 33.153805 3.8591418
-17.591328 13.487089 14.055667
-20.710869 14.070141 12.826104
-6.3102999 -7.2776933 3.0874963
-2.6687117 33.421085 1.8710526
-7.2109356 44.056286 2.3164265
-14.797085 -8.0151911 3.1677923
-17.993032 18.90283 7.8918524
-20.494392 5.7952108 10.694845
0.42547795 27.934626 4.1457357
-1.3422915 23.764629 9.7167377
-3.6011245 50.009472 6.9969802
-21.244881 31.639271 8.0210409
-4.5912819 3.0284996 1.7233853
-17.618431 24.0282 16.524891
-6.6297894 50.287743 6.3153515
-20.067047 44.799377 4.0257998
-15.220013 43.931808 2.302916
0.53674328 21.518545 8.5926781
-18.605728 24.493534 14.154612
-2.9552417 21.269119 8.6720619
-0.46205181 23.450443 10.930823
-11.616302 48.310959 2.8532147
-6.1107502 28.060032 1.6438401
-2.5100455 -0.91014636 3.1112909
-1.9358695 2.5276988 7.7063799
-4.455512 24.404375 16.715643
-16.918957 36.484238 15.822561
-10.457934 43.425964 12.056684
-16.838036 -4.7239809 2.1133699
0.18325476 7.1334352 9.4863491
-19.941151 -1.6551887 8.2260895
-18.400354 -1.5729483 7.591187
-8.8622103 28.883255 16.991829
-21.362885 22.08149 4.489079
-7.2677717 45.152245 11.5383
-18.846699 28.914883 4.3042297
-5.673553 45.349884 11.370008
-1.4938586 24.197264 11.978345
-10.780943 46.740242 11.371975
-11.481499 -7.1244364 8.9782162
-2.508261 1.3150358 4.5881748
-14.81941 -4.9761648 10.66828
-15.843548 -6.7334146 3.087574
-21.093462 16.68774 2.0973597
-9.3537531 7.3839107 12.104631
-18.764427 18.724466 8.7445793
-19.63098 19.080341 1.6521747
-19.544762 41.478008 2.6587529
-18.673346 17.326359 3.7386656
-2.1635811 8.9224072 11.600044
-1.8315527 48.577137 6.2211356
-20.97138 3.4483364 4.7232137
-17.855047 17.722929 8.0880976
-14.365341 18.071384 16.448835
-20.660248 41.650154 7.5208731
-15.438236 14.517644 14.841228
-18.657869 21.437862 3.7445691
-19.727221 42.319595 4.2732759
-2.0269301 21.62921 5.6892929
-3.5951381 32.109909 1.5573981
-1.4789646 25.367931 11.528553
-13.764264 30.588581 1.5970094
-7.7071433 48.858566 10.747484
-20.749403 3.1720543 7.5521312
-17.922356 29.328997 15.643108
-1.5915481 30.569841 11.392651
-19.634426 23.216791 4.2512741
-18.66832 31.089481 8.7456312
-15.259047 -3.050899 10.861036
-0.90543878 22.322651 6.0238733
-19.425285 -1.5797355 1.785686
-18.42573 28.614086 1.6335785
-0.70106089 41.222141 6.6491108
-5.1801462 50.630035 4.4377565
-3.67312 48.819931 2.9169464
-2.4941144 10.508536 1.6521605
-0.44235221 14.308079 11.731881
-1.8990088 3.7160699 6.8782983
-8.4386606 -8.1685915 3.3431838
-21.09264 14.567747 12.889999
-7.5851245 31.077072 16.851816
-0.25156412 0.22666511 6.4112406
-20.743793 14.57605 11.767334
-1.3194194 1.7256321 0.3546159
-9.8546515 12.827645 14.29003
-20.007095 4.3810596 10.887683
-6.4917216 39.067696 14.595425
-2.569185 15.414242 5.7903037
-11.540398 40.099064 14.153481
0.2876462 8.32724 8.5850573
-12.486111 -7.1119995 9.0807495
-0.081106074 -0.77469897 2.0420249
-14.793281 -1.9600827 11.037929
-3.9747047 -6.7724409 7.0348172
-14.618668 41.895905 12.539716
-8.6125708 49.015854 2.9401827
-2.5662429 33.367073 5.9705181
-8.3737621 18.671268 1.652171
-10.519499 11.639999 13.723099
-20.918371 9.6549034 4.4924173
-9.9049225 44.468788 2.3611982
-19.194168 -1.6912713 8.2113667
-18.251369 36.156948 8.0608225
-19.329075 47.552834 9.0444279
-17.934217 14.835649 14.789341
-12.420003 8.2332401 1.6342266
-12.16409 24.384628 1.6556162
-20.338015 2.9328599 5.4665704
-11.569504 -7.4596815 5.2072897
-0.17032062 41.312496 5.376358
-18.109303 21.837515 1.6521703
-7.9084015 18.673649 16.680542
-19.958017 33.512093 2.7726729
-3.8441806 43.490044 2.2549684
-17.108871 -3.4471571 10.130508
-12.616165 7.4711623 12.030689
-20.270168 29.023466 10.950854
-5.1185803 48.306656 10.685537
-1.6181567 2.919486 1.1109706
-19.609257 23.480581 8.8703737
-17.491858 18.887318 1.6521749
-8.7365446 6.5921502 1.6164017
-0.49415451 22.156864 7.9999046
-5.5180941 2.9964325 1.725005
-15.4353 44.443081 2.358408
-20.7808 -1.3803718 9.1589088
-15.282137 49.963867 9.1364279
-12.822226 -7.6953249 5.2056046
-2.0862863 19.034113 13.481172
-21.412971 23.175955 8.7515984
0.19570804 32.898956 9.3095417
-20.788982 1.7602623 6.559454
-10.57871 0.13426298 11.503126
-10.132406 42.576515 12.424405
-21.107908 7.8917427 4.0039444
-3.0011854 49.4603 8.8303642
-12.291372 11.485291 13.540308
-2.320796 1.9619615 8.2621536
-9.5431662 37.516907 1.8316135
-12.513344 12.575496 1.6521623
-17.648397 -6.6459312 9.4245043
-15.557906 18.230785 16.361433
-0.50357944 39.337898 3.7497137
-0.016396735 24.125172 1.7033298
-20.397167 36.357368 4.2999349
-8.7776175 5.0532808 11.841206
-14.888868 41.138084 2.0849042
0.18830779 13.412403 2.4092798
-16.621519 22.359545 1.6577855
-19.027309 -5.2724643 2.1234536
-18.625633 29.477943 13.830564
-21.336596 27.947315 6.9150395
-8.526926 29.845242 16.943428
-20.375383 30.238415 10.821759
-2.3329234 22.477385 13.630792
-20.698563 41.299545 7.5568571
-0.051604465 32.139694 5.3455391
-14.654528 22.544872 16.83445
-18.367296 9.6697922 11.800116
-18.844389 16.418671 9.6933641
-21.242441 17.013594 3.5556998
-1.3052752 5.0424232 3.7391582
-20.573969 42.456314 5.5611606
-17.976818 26.628496 15.852693
-5.9516301 -7.3271093 7.0181041
-20.089449 45.15538 8.2821636
-19.865623 46.490601 6.8246593
-7.0926828 49.917847 8.9377079
-13.597778 38.904762 1.9286902
-0.90500271 45.187313 9.2468014
-21.492361 21.923243 4.5410185
-18.666889 20.28409 13.927736
-20.534992 35.854729 6.4260015
-9.0447655 -4.5045271 10.973298
-1.5515031 12.187944 11.807678
-2.6623073 18.315762 6.3606215
-0.34822056 2.782645 7.9012289
-19.312046 32.583885 7.043982
-20.917713 -2.1397617 8.2337151
-2.6595814 38.351852 7.7230864
-2.5213013 17.94964 14.603428
-2.0485284 9.2315254 11.597189
-1.1025183 -1.8676953 8.4765263
-0.5123685 -5.8788404 9.0584679
-20.917747 -0.31435984 1.2817761
-2.3285024 0.11122513 1.2051324
-3.7706554 4.6104608 1.6434838
-18.279896 22.568562 1.6575617
-21.483009 20.905134 4.1448269
-17.845247 18.788492 15.793107
-18.401943 -3.2430105 5.4555116
-15.121572 26.42696 16.803497
-21.213043 7.5678587 5.9349728
-2.5099049 4.3146868 2.8884754
-20.972681 29.214603 9.960639
-2.5964606 38.245071 8.7240562
-17.346087 12.250891 1.6521629
-7.6036215 21.373085 1.6521711
-10.934251 -7.1014957 7.6509528
-4.7840261 -1.0363312 1.9286914
-1.1435294 37.570835 0.24717698
-14.240109 8.9730892 1.6422625
-1.1136252 28.203781 11.100131
0.41370213 -2.9362469 7.6501822
-0.23218966 35.245987 6.9060006
-1.3096044 23.648384 8.4018402
-2.6538746 37.543644 14.122004
-1.8028321 -5.965374 2.14029
-9.2095852 51.288719 4.1375022
-21.273314 9.3122749 7.8697824
-6.5427418 -7.7933974 2.4892719
-19.021395 5.6712208 11.061588
-18.400455 -0.49170402 4.2859163
-8.9437904 11.380592 1.6521612
-10.561094 -7.1119919 9.0026703
-1.8571888 12.753769 12.842228
-2.3422213 3.1436677 6.0394201
-18.400043 -1.3613319 7.4156294
-21.342081 3.3709748 7.1685839
-1.4873092 15.306368 11.388608
-2.1618521 19.953978 3.2098908
-16.191626 -6.8125725 9.4332657
-18.543198 3.8653688 6.1894484
-10.8206 32.215721 1.5471992
-17.782455 50.146164 6.4032426
-11.449479 -7.3913856 10.392862
-2.0492597 42.797115 2.1991298
-1.5367513 38.558823 3.5087523
-3.1389952 28.08424 1.6433916
-2.65886 36.256012 7.7667518
-7.111372 6.1197796 11.775477
-8.2746763 6.6633282 11.924334
-21.227661 7.983768 6.7217851
-17.497498 41.270218 12.331731
0.34834328 25.614319 9.9407196
-2.5443087 23.684547 1.6563662
-18.705196 18.191452 3.5191219
-20.914829 4.2632003 5.4225278
-0.73264372 34.123562 7.5565224
-0.037670616 -2.5702324 6.1616383
-0.2711249 39.425499 9.6066542
-1.1150578 22.241356 3.2385778
-19.547493 -3.816411 2.1479273
-18.24036 39.896049 4.8656549
-5.7722502 12.411091 1.6521621
-15.395872 27.854181 16.747839
-18.399239 -0.91694152 3.6583023
-18.58359 27.473558 8.8261776
-19.37923 -4.0382028 2.5962896
-1.2674274 22.42651 7.3206072
-14.751491 13.242666 14.265483
-19.14986 47.802914 3.2426953
-19.111271 14.776226 12.569417
-8.625351 31.288799 16.88073
-8.9515905 38.982788 1.9341476
-6.9559984 9.5629549 12.433498
