# .PCD v0.7 - Point Cloud Data file format
VERSION 0.7
FIELDS x y z
SIZE 4 4 4
TYPE F F F
COUNT 1 1 1
WIDTH 1627
HEIGHT 1
VIEWPOINT 0 0 0 1 0 0 0
POINTS 1627
DATA ascii
56.659325 266.48566 0.24112393
127.20979 259.43436 56.351032
157.38052 253.02667 10.8217
81.358772 209.74284 10.8217
90.852951 249.03717 10.8217
114.86285 247.14966 23.0364
47.99807 203.95517 36.985062
115.3147 266.62759 42.856274
131.77847 261.80341 13.212194
33.861965 199.99342 15.392251
55.548485 231.02325 12.7217
87.416885 223.48045 17.560495
126.09311 258.36444 56.723351
121.72638 209.26309 10.8217
168.70045 261.18314 12.7217
93.371811 204.46158 22.325771
180.25296 206.05699 9.2052422
211.45392 250.9735 41.481041
46.34716 259.24353 12.7217
101.12785 216.00195 10.8217
131.79724 229.72118 13.701651
134.73332 264.78412 29.561264
202.41245 263.46161 11.7717
111.83099 252.34952 54.984425
24.014812 201.24416 20.665462
42.567867 219.62152 12.7217
57.77808 236.77225 38.270546
90.706314 202.62192 29.070326
86.214447 251.37956 20.470808
131.82901 242.38901 41.727119
216.77751 209.84605 26.801701
162.24161 208.25566 12.721699
141.32529 206.29459 29.970995
170.69205 198.6908 19.759157
209.90265 198.94945 20.326981
142.06673 202.53149 30.764589
110.25623 246.94183 22.955997
74.118515 197.57899 30.074991
132.79797 236.86472 10.8217
123.41816 218.00467 57.305466
120.87981 220.81236 15.657703
64.4617 269.306 4.9048581
159.82611 202.29443 33.164726
127.36662 239.47891 60.058594
188.55185 198.50461 22.425835
179.82375 266.85034 27.298222
77.44165 200.97516 10.8217
122.13406 222.67749 13.532975
177.26947 198.58633 38.574066
146.64716 259.31277 25.58712
178.04234 248.46774 49.663338
209.98296 259.45441 11.7717
178.63742 266.99271 1.5090405
217.39868 227.20818 20.986706
204.93498 237.95795 11.7717
57.386795 226.60519 38.226768
80.295639 209.10336 34.796333
79.930023 259.06 35.681244
171.04388 270.93799 29.29591
134.30699 247.71069 13.2564
167.42995 206.47136 53.512287
54.540623 199.34814 18.937979
127.76669 270.93799 31.498888
102.02414 251.18088 13.181961
167.91661 207.008 19.634502
90.981827 214.05505 10.821701
216.91263 206.91574 17.990601
26.006203 269.33755 20.283077
90.882812 260.79993 12.987547
179.10999 199.133 17.861935
169.18449 206.59799 37.353798
184.10745 270.12958 12.393375
87.616043 269.6109 20.531132
95.728233 202.89415 12.582988
97.895508 197.65866 26.424858
120.83638 263.53989 29.931877
45.101166 253.72934 36.547642
191.328 248.59076 12.519396
48.528851 246.31798 12.7217
179.48404 199.46075 23.616879
156.84282 262.353 21.620491
54.753731 261.509 24.675035
113.58497 248.82095 23.014095
134.91435 202.77983 15.937897
93.322052 265.13333 21.638559
169.93153 255.18243 12.7217
121.51347 250.17346 23.152473
150.69254 219.58002 56.297924
105.71252 206.29645 28.360748
35.782646 247.66501 34.929321
185.68503 238.20541 41.648205
165.07214 266.26505 7.0697479
114.80306 221.34685 23.035355
116.67522 213.73148 12.948588
89.608849 243.13895 37.738457
24.510023 208.85684 11.7717
124.249 260.64331 13.080778
208.18787 241.09229 41.708691
108.29097 212.76888 12.802252
65.41349 201.79214 8.0503378
42.54805 207.008 20.865345
176.51126 212.38676 50.341278
113.84422 266.06076 44.223858
136.40816 213.42276 13.293074
128.11287 251.8952 57.432266
181.48933 216.4928 40.73608
95.091675 264.99594 10.8217
63.105267 241.38913 38.829231
90.266022 226.0101 15.437119
41.558697 270.93799 26.86092
90.236687 264.36551 22.622608
170.47775 270.93799 29.604879
127.50447 215.64149 44.627705
60.754143 225.50716 12.721701
201.44611 263.04935 11.7717
210.3199 197.57898 35.984398
66.747292 262.81207 11.834322
198.55859 269.21411 18.657246
105.78923 245.06622 12.758588
140.92424 210.06081 18.48642
118.80966 209.13382 13.474979
137.93071 263.97189 13.319648
175.3223 266.1098 46.16774
216.09253 232.9353 26.801701
51.177727 262.45901 20.030935
194.29102 204.08694 42.67733
177.62018 197.57899 36.189987
58.160854 199.23216 27.566868
87.678207 215.48769 10.8217
147.01106 204.0235 49.257488
167.67824 198.36392 15.718748
20.42874 226.5191 15.961187
102.94212 202.35513 31.638035
99.855705 244.51039 10.8217
50.049488 206.05701 2.397212
216.88168 216.15601 17.799833
44.345795 261.509 17.161133
86.300903 203.66101 45.06189
139.18092 204.26566 49.600063
113.58354 269.30359 19.078566
180.63101 265.92188 2.2906606
88.698364 209.69296 39.119019
131.54633 223.50769 44.958439
119.55092 268.07574 39.378414
105.4471 199.62903 17.114357
120.95338 210.72284 13.023258
125.96474 247.99817 15.746474
86.561417 234.34039 38.349941
157.31537 227.24687 55.893532
103.12592 201.96259 35.101444
163.37164 266.95798 8.7253666
95.577248 239.79166 13.069412
146.52115 247.48997 10.8217
137.83891 207.08797 13.318047
155.36652 239.30078 20.304241
124.03631 270.93799 32.350513
104.30061 265.38376 16.268795
67.383949 212.82004 12.7217
126.40204 243.4411 40.616829
199.25226 252.17328 11.7717
187.71695 268.6272 10.095743
70.727699 239.17076 11.752931
146.40173 250.62164 56.476871
73.060638 260.10776 10.8217
210.76938 197.68152 26.316843
108.82837 265.27106 18.850843
22.016937 237.28604 11.771699
131.08493 222.06387 40.978851
73.447411 197.57898 30.987267
113.28987 255.2533 13.378599
28.866245 199.86655 15.990226
50.99649 262.45901 17.724064
106.99922 266.86554 41.982212
96.294304 227.74826 12.592867
154.93156 204.66072 13.616376
48.914665 205.71124 23.302652
165.90987 249.13699 54.556168
205.00081 212.12631 41.930836
51.879604 203.43159 27.68914
170.77338 205.62646 23.887299
87.051834 269.14218 39.993324
127.3084 228.53004 13.134174
215.39233 222.62627 27.266731
150.29253 223.92216 13.535407
21.128939 211.67017 20.810707
128.71147 224.40868 10.8217
162.02499 199.91995 20.476997
75.337906 230.29147 10.8217
190.97943 237.85875 42.799187
182.78055 251.19904 12.7217
124.16502 222.47379 13.568426
184.81483 205.60645 5.1961436
207.53499 200.35699 13.321248
197.89465 228.07639 11.7717
167.09145 218.20427 54.124775
59.283802 206.05701 3.9290798
162.1554 202.58435 20.676598
133.29921 267.68353 40.820503
156.17236 196.57899 34.344666
182.67319 265.26428 40.993446
175.14011 207.008 27.394543
131.67665 216.50403 56.582966
133.62131 266.37329 44.107262
79.079735 237.01103 39.851105
65.666695 206.05701 15.079673
193.82358 268.159 12.50458
24.922831 267.3858 18.591949
212.38986 228.7222 41.281532
187.03542 248.89677 12.7217
163.03633 269.57584 11.792101
53.172344 199.133 16.339497
157.49239 257.78094 21.727001
190.987 205.2645 15.020874
155.34584 208.26736 13.623607
80.155174 234.95786 10.8217
125.82327 257.80939 13.597372
145.83554 262.9826 52.995319
142.2343 263.58777 30.995098
60.92831 198.40283 7.3079271
136.66223 215.47583 13.297508
64.08886 202.48744 19.671913
213.33411 251.37157 40.759796
148.54366 205.65797 27.307041
182.8031 207.43883 47.417309
185.46751 270.93799 31.065315
63.098232 228.46735 38.82856
212.60023 218.25534 41.192211
94.740028 236.03522 32.873535
161.85728 200.17361 40.13166
175.86046 265.88864 0.083982445
138.14211 253.60889 56.642303
174.94102 209.83974 51.021893
164.68954 203.81502 5.9296589
134.33636 247.60796 56.624054
129.24513 246.95654 10.821701
114.10439 239.09561 13.392812
217.95636 229.13786 24.424526
129.42825 246.89963 28.921566
117.43968 206.50558 10.8217
195.4631 230.88878 42.595634
209.14935 214.22906 11.7717
58.249714 199.68933 7.9408875
84.668098 225.80054 24.213499
195.83159 211.91176 11.7717
101.12297 232.4165 13.166216
110.44182 197.57899 34.357502
115.02773 212.72197 10.8217
121.13971 265.39459 21.213612
90.921768 197.85507 25.495419
155.21497 202.98541 18.572233
214.26399 197.75453 26.801701
100.14748 219.82748 12.660119
192.21921 241.72408 11.7717
104.13879 266.22903 32.251762
127.20041 265.51605 18.902653
166.19971 197.73424 26.065559
102.50545 218.06651 12.701274
172.28479 254.06424 52.124786
126.69397 256.08377 13.123451
217.88422 231.82101 26.801701
60.921562 268.60297 36.465157
154.61115 206.43442 27.508354
185.45764 202.33278 45.233395
171.974 226.88507 12.721701
49.394508 222.71323 12.721701
106.96241 263.92459 49.333397
83.023392 220.97214 28.194237
120.76765 271.43973 33.651649
181.58498 269.68304 38.929302
43.830109 269.306 7.6330957
96.51725 229.28032 13.085821
144.25328 269.81662 21.502607
152.63199 197.1405 33.79744
149.51453 239.60765 25.386608
57.941593 269.12653 16.532661
140.52196 265.74829 45.901939
128.32207 214.25812 13.151868
172.47319 234.65784 52.048969
171.67857 206.05701 10.857376
124.44895 197.57899 35.188126
68.931183 212.67361 12.721699
116.79913 245.81221 55.834801
161.84357 205.0918 20.199291
79.449059 235.36266 39.777
62.907482 261.509 17.849937
156.12543 229.33788 24.924305
33.343136 205.36761 11.7717
211.35522 199.0925 19.64934
165.47688 206.05699 7.8769197
217.31479 231.78398 20.469629
176.12807 249.22522 39.570572
166.26587 199.33734 19.987999
26.368238 238.74973 32.014408
163.64014 266.32709 17.416386
177.82678 198.58829 5.0486817
124.60669 251.18506 57.354847
48.609043 198.23199 3.4946947
154.02121 240.80229 56.120251
103.10181 235.6664 12.711683
145.56825 199.39258 18.231649
96.271027 236.48753 10.8217
112.55159 214.35872 10.821701
78.763725 209.93452 10.8217
178.02983 248.38205 39.983997
215.26497 230.16747 26.785168
174.16139 212.23102 51.350288
166.6543 198.29489 11.486792
54.000614 270.93799 30.980358
91.139221 270.43826 24.442003
80.141594 255.27942 35.169151
217.84128 268.27032 23.715048
157.46509 266.13507 32.353951
76.340027 198.86925 20.704689
161.00513 244.97452 12.7217
190.08582 262.27856 17.738138
45.393661 207.8448 36.595234
144.05653 243.81213 13.426567
104.83554 224.21916 53.16087
145.23734 267.47534 41.742256
101.47591 246.51271 12.683304
179.09227 245.845 49.181206
97.283218 264.39749 47.826374
69.046738 211.46121 12.7217
91.666428 242.53714 12.512094
148.69461 270.93799 30.538469
90.692169 200.35699 13.541202
32.403877 270.05334 32.999313
134.25583 270.93799 34.026924
193.25426 219.16403 11.7717
132.45447 210.33842 56.600983
164.62483 231.95193 55.003887
94.739281 206.71593 31.177315
56.172806 201.07324 0.18645655
116.24098 216.79364 12.941009
166.05698 198.27768 19.799387
128.69765 202.65868 14.485579
148.5722 209.71262 25.452501
131.23058 229.00987 40.889309
135.87062 265.45892 15.150265
177.50233 229.18335 49.905396
105.48627 225.26593 10.821701
46.29126 266.77591 20.772057
206.05557 200.35699 13.278749
80.284752 212.45265 34.822666
106.96523 262.82077 10.8217
216.90543 262.99103 17.946163
213.62415 199.601 27.440847
188.32382 230.38461 44.563831
124.01736 208.38116 31.080803
110.77695 215.46489 10.8217
53.891075 229.41562 37.799149
45.909134 205.86536 4.7874899
119.1047 224.51053 23.110432
90.444778 237.01518 37.570717
164.85675 239.38995 38.476463
85.949615 217.54642 21.111782
111.95447 226.04651 22.985638
42.804565 205.79633 12.526127
109.63261 200.99332 10.821701
92.347839 264.68753 13.013132
19.409628 242.58337 13.212498
150.62085 200.26178 14.121752
99.951881 226.88707 10.8217
88.21402 230.56476 10.8217
89.112656 202.6427 29.650368
165.46222 264.42688 30.629513
60.600143 265.53796 2.5728025
90.226784 234.76144 38.314377
50.835655 238.03592 12.721701
116.73423 251.82614 55.826736
79.351967 219.33586 37.080311
92.382065 265.69772 27.357708
82.95459 228.21632 28.360746
163.62643 215.65823 55.351734
178.10078 200.32787 25.065163
19.782326 243.077 25.534206
141.27512 262.45801 13.37802
114.85448 208.90445 13.405949
143.83896 202.64731 14.623976
174.99417 203.15775 39.324062
166.06528 203.46786 24.928679
35.011433 247.25784 11.7717
55.878983 268.97101 1.1377124
90.456963 241.39233 37.905964
114.95044 264.92181 13.407621
172.63873 264.285 25.111008
207.31348 267.0127 41.727882
102.04852 251.06192 10.8217
61.941742 261.509 20.519339
211.30605 270.86273 26.44614
192.35785 197.57899 32.542435
178.05054 199.79565 16.441963
117.12457 214.93333 12.95643
55.819088 198.23199 3.831285
91.388161 216.50047 12.507237
140.47 266.05121 32.636879
105.54608 232.29898 50.902283
95.950363 200.73509 39.321259
58.07357 199.133 18.979269
145.81897 262.353 24.466745
47.593094 208.73785 12.7217
124.31268 217.95435 57.342659
114.60344 217.75639 55.561962
105.88593 261.60123 12.760276
126.79147 219.93912 43.846119
100.19613 206.81279 23.706287
98.22052 202.01135 34.586304
40.343853 198.73695 21.327534
80.065926 238.81255 39.653236
166.37178 269.306 4.4792552
28.818123 243.57697 11.7717
153.32635 216.76837 56.165237
200.46283 269.8504 21.66428
121.90074 268.70285 16.240768
41.468124 264.02014 20.542843
87.1576 276.2308 42.588657
120.27154 270.93799 29.966879
168.83298 199.93813 39.777855
137.86716 270.96799 28.868427
118.48274 265.69 28.019939
93.344864 245.98735 34.555447
66.789467 263.40671 22.16523
196.57019 261.47607 11.7717
88.945038 196.24579 37.184731
177.23801 199.45187 17.321682
112.95111 250.66197 10.8217
121.15633 230.8233 56.17511
123.25961 210.1666 13.063508
114.13741 212.95232 10.8217
62.38372 197.89362 33.947769
182.59106 207.008 14.090298
179.69244 265.84357 46.979519
155.19218 200.22427 40.034237
160.83353 261.67865 18.337261
70.432014 270.02606 34.920052
121.29239 200.35699 13.174479
188.91151 261.13281 44.247063
105.52135 233.87244 50.964161
99.961624 240.87772 13.145944
176.24625 264.06027 27.912071
129.7616 235.67758 58.064079
138.30867 270.93799 28.861496
107.71133 204.1188 30.317984
191.72308 199.82013 16.209114
62.164597 263.87384 26.07972
169.01137 197.57899 28.477615
38.7827 246.2386 11.829603
200.69937 204.55965 11.7717
177.65083 267.8017 42.01561
66.38945 258.43027 39.131451
129.03632 227.577 41.352493
144.07242 262.11456 29.07235
88.321167 270.93799 28.433704
55.485088 231.76019 37.994137
174.21716 213.32968 12.7217
107.08856 206.17113 29.489197
119.06009 265.33282 21.147427
50.095596 270.67493 33.404362
138.95993 198.39534 22.942612
147.15094 270.74173 36.204155
141.82166 223.78891 10.821701
94.725296 214.88213 30.871964
53.6712 269.08966 0.12720257
123.50643 265.55859 25.305357
85.790047 266.12518 33.721809
20.450748 255.52554 25.548107
190.50171 262.26706 16.6681
104.61332 228.08292 22.831295
65.567726 269.11966 8.4035759
163.64648 265.62225 27.938795
40.463341 270.93799 31.624947
131.63483 202.5551 13.38824
169.91241 197.57899 28.257328
86.087067 237.90157 20.779118
209.00772 243.12994 11.771699
92.439468 204.33542 29.780418
187.34491 261.509 17.56661
114.74957 270.73688 25.852043
177.41101 221.91898 49.945564
124.01422 223.15443 57.33028
92.562347 202.53516 29.868376
199.6067 222.4494 42.306816
105.79121 215.30768 10.8217
216.38327 219.60071 14.727418
142.93073 224.33858 56.57996
51.861408 268.38885 27.68642
161.79068 235.289 12.7217
186.77469 264.28894 18.154968
180.41068 270.93799 28.79166
43.409214 213.86981 12.7217
94.586411 266.70483 36.286415
43.031853 260.42609 12.7217
60.136841 207.21916 38.527473
67.149239 240.53229 39.194008
212.97107 240.74878 41.000637
185.82137 258.89465 12.7217
153.50969 243.26923 10.8217
140.34737 206.59802 22.693069
166.46977 265.30426 47.882984
44.145599 198.23199 15.045591
200.0338 270.36081 38.719952
129.85326 225.73299 38.316551
88.711372 266.48483 42.319778
38.7827 220.47824 12.066955
90.356018 263.62451 25.42971
97.038719 224.58073 36.777695
189.15761 263.99872 44.114311
42.208641 261.509 14.664516
142.93127 265.33401 25.03264
163.43863 246.19641 55.381298
70.040649 270.93799 28.973934
206.28439 228.91519 11.7717
135.78346 220.88504 56.630993
89.288437 226.85126 38.655968
47.04071 236.70465 12.7217
166.38406 262.353 35.439259
156.90152 268.86401 38.663086
150.58563 258.06766 56.303303
101.49693 262.74176 51.707867
116.35023 238.0235 13.432014
85.717651 242.32135 21.673208
21.603205 224.15401 14.168019
172.97418 221.48697 51.847347
153.31165 202.65831 14.911285
165.72119 224.14786 41.342049
93.548042 241.4425 26.170912
124.40675 255.72693 13.572646
52.533306 270.93799 31.49295
121.3543 199.20483 19.118179
135.66779 262.13446 13.280152
193.27879 227.48245 11.7717
22.471706 201.6274 23.75326
144.93094 265.33862 47.074982
213.20361 203.43953 40.852303
131.29179 220.47888 36.734241
163.7095 198.58832 9.568367
112.23509 203.03296 45.613022
67.301788 265.50568 21.507393
51.206619 267.63486 1.573138
98.097565 265.49084 29.998577
149.40073 218.47433 56.362995
147.58258 203.78134 30.947487
81.302155 234.1051 32.360207
57.056 227.89893 12.721699
67.267029 270.08862 22.788757
104.68668 224.94043 13.228422
123.05972 258.26184 59.631351
94.31234 227.68031 10.8217
191.39929 221.39392 11.7717
52.398586 252.82703 12.7217
87.803864 194.57013 36.967033
83.800064 204.69843 43.957672
98.898628 217.47488 13.127468
19.658161 240.85858 18.787457
112.72291 213.60831 55.176003
182.15388 269.384 16.269947
103.41087 226.79762 15.352734
128.58949 220.23816 25.405079
111.81406 232.70749 12.863743
94.717621 217.12173 12.565349
164.1178 202.77344 29.435799
119.16318 202.71588 45.053551
54.21312 209.98764 37.838543
112.14292 236.64948 15.505177
146.07687 202.93439 17.846943
74.07589 248.79953 39.711346
209.38654 253.96996 11.771699
108.72472 207.04501 20.627647
118.68204 269.48953 19.956936
100.08797 197.8927 34.739803
133.39995 257.83081 13.240545
121.27564 266.75348 37.180634
200.03227 256.64368 11.7717
216.95316 254.00255 18.240376
126.62756 219.07721 17.179855
150.72208 265.43988 26.103928
135.22154 266.77246 37.591419
132.58572 262.81113 13.226283
77.101822 228.27502 10.8217
150.00508 268.29053 14.293115
164.86455 204.5002 7.5990043
93.685081 206.36273 34.145309
56.916813 206.5448 38.169277
204.53535 200.35699 12.706295
112.23503 207.01962 54.76067
67.281281 266.21075 14.220814
131.21645 223.06082 36.41835
158.10052 263.97882 27.336191
107.43446 264.44608 12.787303
88.743729 256.64102 14.349085
134.68475 238.34183 13.262994
217.13193 247.82422 19.34244
173.02454 202.43073 27.770615
121.70823 201.87914 43.047508
135.66307 235.33746 56.630417
162.12143 260.12524 12.7217
103.35401 245.32393 13.20516
204.7352 244.78575 11.7717
125.72369 227.11081 13.595634
100.45244 265.39499 15.952573
123.08188 250.94724 28.116875
78.583008 249.36069 38.941452
36.672104 257.35291 11.7717
168.50282 206.78943 32.671078
60.23793 199.60825 24.092983
85.486923 271.52075 42.110661
48.951008 269.306 2.1101403
174.8163 262.37952 39.285393
106.3679 213.48087 10.821701
187.86455 268.75748 11.073111
144.09494 198.2771 23.500732
50.138615 262.45901 15.257064
65.633987 200.70071 6.1293759
124.63512 266.59296 35.82534
126.91145 230.19656 10.821699
156.73007 196.57899 34.850574
167.93639 199.87495 22.92491
34.336548 225.71234 34.654606
37.367523 270.93799 27.06251
61.566082 204.76628 2.0698411
96.679359 211.72548 13.088734
31.3398 219.49179 11.7717
103.50148 207.11224 12.718658
103.57843 207.045 19.886469
185.53571 203.67703 45.593056
134.53932 200.70291 40.538002
49.901764 265.05276 1.0756242
90.734001 209.87956 12.984968
191.37714 218.08913 42.880432
107.72812 266.44476 10.8217
163.04344 223.34705 34.103088
60.909348 205.54736 26.686069
23.047466 212.74278 16.308659
179.03407 269.62662 0.95839894
175.20937 205.85222 0.78898054
194.66278 209.79039 11.7717
128.12395 215.96208 10.8217
108.3374 253.25703 12.803062
172.83812 200.033 8.6550484
29.836166 230.77007 33.748108
168.46503 269.384 11.645224
19.75577 223.14235 25.508125
98.879333 267.91641 10.8217
131.87268 261.43848 10.821699
125.39822 235.7345 35.455772
89.5411 201.37041 40.693848
143.43213 201.49181 42.80901
21.682199 257.52859 26.60573
48.064842 199.211 22.337036
94.558273 220.40916 36.56076
106.5799 259.91083 13.261507
217.4644 242.24585 21.392006
178.60245 262.51312 1.4371821
168.02023 199.0676 16.154036
57.13308 207.008 26.943439
80.118591 233.7782 10.8217
120.63432 240.31812 13.506796
170.55592 261.509 12.725176
96.659393 206.73709 24.313366
110.80798 243.41833 15.481871
87.6922 265.20923 38.12302
202.41568 239.22971 42.111023
186.18655 264.02692 8.4463682
175.16484 200.55901 41.543213
56.783081 204.68951 1.239301
162.80258 269.03751 14.084217
97.586868 204.97766 22.470949
200.44814 250.65222 11.7717
132.08014 264.05136 49.861015
88.066925 270.96799 27.835136
194.84995 264.36917 42.638371
133.44376 257.23911 10.8217
95.156799 270.10132 22.850166
146.49194 268.52283 15.390419
159.93178 243.02542 12.7217
65.485176 201.98727 5.9428825
43.515133 265.35016 9.509305
93.792198 255.36887 10.8217
105.60139 229.36053 48.378967
169.29787 223.20731 46.310719
163.24181 201.49901 16.503958
83.012245 203.90137 28.221207
187.00096 199.59555 13.291319
87.178505 202.25943 34.165573
159.03859 204.49104 31.234665
195.18993 270.93799 32.278362
153.74776 261.30701 19.22089
60.852787 207.008 26.012901
104.64633 252.98096 12.73864
181.47064 269.79697 18.591373
133.97943 265.51782 21.353319
97.969833 206.15561 13.111257
161.13797 263.50543 52.201881
36.545784 232.23352 11.7717
116.39224 266.29669 43.719688
155.38914 231.85641 13.624362
39.918976 246.3813 35.682701
112.31346 259.91223 15.508154
176.0271 204.48273 1.0869553
63.780872 267.80481 25.074223
149.12299 197.57898 31.599873
90.938629 228.21413 36.666641
140.73048 203.54628 47.85387
95.971924 229.86368 10.8217
157.14465 205.57863 31.335281
33.846001 213.09311 34.561417
160.0295 214.43637 26.833994
90.964745 205.2865 22.398193
115.55254 254.08188 13.418091
89.613052 264.75699 12.476255
42.146912 227.11404 12.7217
56.954643 199.74173 16.653025
86.090057 208.00009 10.8217
156.73944 205.539 27.435474
125.24316 242.10556 60.368366
89.029938 229.91158 13.656363
167.29979 200.12404 40.190624
108.86308 219.28204 10.8217
150.52713 248.0369 13.539501
163.38065 199.211 11.752583
179.0076 203.50797 1.6541708
37.42345 198.37918 23.018335
134.10931 230.3176 13.252951
99.013512 213.59966 30.520851
216.80475 258.54001 17.32552
79.864517 214.22754 40.434513
86.561905 242.19006 10.8217
182.51321 232.2932 47.561779
104.39969 262.60071 30.509371
92.545959 208.9416 10.8217
182.76154 199.24234 22.950741
51.844963 230.35805 12.7217
191.328 266.70151 13.292839
96.432571 269.00986 17.690075
159.41777 197.57898 26.910927
144.62268 202.5751 13.83693
127.44382 221.1825 40.686954
90.842308 270.09894 22.839045
182.27798 225.44241 12.7217
35.404678 252.75957 34.857521
165.94749 198.54924 37.684933
98.91597 198.69272 21.538202
136.16306 265.8035 30.623747
123.59383 206.09557 53.651081
44.359131 203.15408 7.356966
123.76804 252.05728 13.072382
167.00891 270.93799 26.977064
41.213272 266.59692 20.153204
88.786209 205.0211 10.821699
157.07431 246.55338 55.910118
52.029957 253.50302 37.552181
44.482506 266.68317 18.276154
37.820202 197.57901 28.698807
192.3399 268.99594 17.627338
128.41454 270.93799 27.262693
24.323925 227.83151 11.7717
173.03526 204.79691 0.31384933
60.211704 199.78595 36.332329
44.974415 269.306 6.1362972
120.6142 211.78551 23.13678
125.49527 202.82306 18.313198
143.89948 231.01102 56.556805
136.36107 220.84618 13.292253
170.85538 247.1138 45.72237
123.60703 234.93433 57.313309
77.190613 215.13277 10.8217
35.114876 268.17206 13.73343
114.49841 244.49164 10.821701
61.692322 244.82108 38.694103
176.96674 264.03519 25.236483
168.45001 246.46431 39.150459
186.84616 200.22142 41.092018
109.33932 206.58087 25.914808
63.097458 235.17371 12.7217
61.009399 262.45905 10.535922
136.72929 266.80453 37.900188
83.59877 255.16992 26.801632
22.866512 208.04538 27.522987
178.76108 263.88492 23.932552
125.20354 243.966 13.097438
172.79767 229.76529 51.918385
87.804993 198.9903 20.13356
90.549881 265.49814 12.492607
174.89616 265.74689 27.93659
216.41072 202.95901 26.801701
127.45143 245.34045 44.58709
104.28749 206.12897 13.221521
98.49649 230.91689 51.034691
186.74658 259.04044 41.878979
70.727699 213.34485 12.289335
124.09731 250.08284 60.126839
216.52982 241.51434 15.630747
51.545731 235.77899 12.721699
163.05072 232.63318 55.415173
160.98941 270.31506 23.85994
166.41377 262.353 31.26263
108.54941 202.97897 17.686417
137.78903 264.82095 48.128609
77.356705 242.40811 40.377258
128.14633 244.27917 56.635891
202.21651 213.5491 42.124908
46.733212 267.09653 4.2351274
191.28496 247.02501 12.721701
102.03139 203.06392 45.347267
217.75439 220.57047 26.801701
149.32295 237.17413 56.366913
168.52216 262.45901 12.902844
149.93962 246.80161 56.335846
113.00592 212.07986 10.8217
48.242924 261.509 19.738392
63.408325 206.05701 18.887402
206.00482 235.57559 41.860855
64.888535 218.27371 12.7217
192.8887 224.29196 42.775074
45.778511 199.211 5.0640769
170.1617 270.25525 37.852638
59.909092 207.008 15.372976
49.441193 211.38651 12.721699
93.272926 224.66092 14.136926
64.289223 205.23244 38.942463
56.189621 198.87976 11.265257
49.465767 253.82565 12.721701
81.662033 266.36401 38.119244
128.67938 233.32391 10.821699
95.318848 265.27496 45.566376
54.480095 204.87141 24.401039
153.86398 231.10028 19.298664
178.81712 269.45258 5.3806648
108.5919 237.56909 12.807505
120.22538 240.35223 10.8217
182.65674 200.14336 21.783195
94.612755 212.14833 12.563519
157.94867 233.12495 10.821701
169.19754 197.57899 34.233795
173.42488 270.78546 37.272629
95.018936 207.47502 13.059754
129.74814 212.68991 58.170036
171.21724 226.23161 12.721699
108.75722 238.77487 10.8217
105.61452 236.45116 48.424049
213.92606 240.16818 32.07386
142.26984 222.54166 56.782185
104.15791 238.99796 12.730115
181.78516 201.08298 26.564413
45.295914 243.79814 36.57933
89.567253 203.18646 21.029684
78.641922 200.27461 14.062695
106.797 266.28748 32.814247
140.07866 210.16336 10.8217
174.87694 199.133 18.802999
145.81073 199.55026 17.48702
64.057648 198.23199 11.972404
56.040794 261.509 23.854767
84.782883 257.02396 23.935661
143.40366 262.80426 27.224014
133.35017 202.539 16.87532
150.23723 206.59254 27.451437
143.78766 270.93799 28.184374
92.612816 227.24448 35.437889
210.4465 200.35699 12.432479
54.949455 200.29196 36.83614
159.383 245.45825 12.078828
56.555313 262.45901 23.041391
114.74808 225.99808 23.034395
99.114243 264.54074 12.642085
48.280457 270.93799 30.928837
118.64387 215.54781 12.982947
92.67366 266.01999 30.206993
56.056438 262.45901 23.691141
183.04976 270.06393 38.587082
35.944229 213.48801 11.7717
61.325554 234.7121 12.721699
164.6841 230.64807 38.060066
176.44662 262.45901 6.6471338
131.15501 206.21582 13.201313
135.75031 252.52927 13.281592
26.263872 202.37709 11.7717
125.95021 254.2997 60.363617
59.267456 241.07361 38.43277
50.213921 201.34311 2.0066161
32.199425 270.93799 30.943644
138.88107 243.59483 10.821701
199.78993 213.05569 11.7717
69.81472 267.77289 16.917156
171.60451 248.45721 40.378216
121.2446 265.38983 20.881104
184.9953 258.22049 46.318428
123.5683 247.21399 59.946117
54.347965 261.509 22.687319
154.5668 264.95709 48.3521
90.87677 263.69727 27.566099
112.59001 245.07864 22.996731
89.168518 207.54256 13.320961
79.451622 199.68414 16.85383
186.24287 263.50461 16.832439
218.14899 211.11037 25.611902
131.3868 255.49483 37.132549
51.639 203.54453 0.43413708
87.785431 200.78293 39.166943
153.61887 245.81183 13.593464
165.16681 243.94237 26.863142
87.147278 201.4881 40.907715
46.925976 205.75775 4.0813055
87.603233 198.06091 38.59576
31.700724 268.39301 14.777439
67.956879 252.1998 39.260502
124.39885 270.20407 23.335079
42.963848 198.4411 22.727224
45.778412 263.69232 21.697586
99.659286 256.61615 10.8217
112.2319 257.04904 12.871037
156.67358 238.37167 21.179005
117.16221 262.9599 13.446215
118.16128 225.21568 12.974525
83.013786 267.60464 39.328957
169.02034 199.05386 17.78179
21.63829 226.53189 13.99283
28.913567 233.41382 33.560169
172.06116 268.64655 23.929836
65.729485 265.46945 6.3298206
190.96529 199.84802 16.077085
180.77649 242.73294 40.581112
168.85532 219.15358 12.7217
93.869919 199.14868 19.384123
215.33653 244.46425 11.7717
157.6346 247.91257 24.818769
204.98669 227.16632 41.931824
88.699829 279.47925 41.651752
119.20612 197.57898 30.085936
172.2769 199.211 24.928596
123.94418 211.38066 60.066818
159.383 262.69138 12.796491
108.47604 201.96967 42.828526
24.7258 221.88864 11.7717
120.69871 208.79581 13.50795
152.17166 210.8662 13.568205
77.892815 262.69431 10.8217
153.31151 255.57483 25.121084
116.97148 228.68973 13.44286
123.78915 202.97687 13.072752
117.46615 239.2462 12.962393
174.67201 198.9032 20.474411
45.43417 242.06485 36.60183
132.46741 208.94643 13.224217
46.394505 266.22687 36.716652
115.05096 214.72824 13.409336
70.727699 267.42078 13.276882
147.33427 200.35701 13.352774
181.49922 265.90149 46.895309
108.94193 205.817 52.462898
111.65034 197.57899 31.822277
78.130493 248.46291 40.041561
60.699646 197.8255 26.773878
52.716797 259.32181 12.7217
190.4666 232.67746 12.7217
108.88675 198.59409 22.003796
87.935028 254.79175 10.8217
172.09259 216.20988 52.202133
60.29287 233.43811 12.721699
61.210155 269.384 16.686085
165.80789 261.509 18.681421
124.89767 215.18233 15.727845
31.237602 248.08948 11.7717
54.689827 246.40027 12.7217
95.180038 270.93799 28.216682
53.423935 239.05768 37.741383
160.71408 231.78888 23.883133
148.78372 231.18152 56.394073
106.27473 218.31821 15.402731
137.76494 199.45016 37.556679
60.08485 197.57898 27.66659
181.01697 199.53459 39.612522
29.832703 264.05768 11.7717
112.56163 228.02441 15.512486
94.703751 235.18033 30.401236
116.68417 235.36443 10.8217
146.56918 227.10287 10.8217
170.96129 259.98172 52.65741
216.37679 217.33014 14.687431
138.21858 233.57959 10.821701
72.497948 198.89984 35.244312
118.85424 200.35699 11.604953
90.707657 256.6055 12.495359
167.5871 205.33984 4.0322018
174.03857 262.45901 24.041029
172.51314 224.46841 41.605534
88.025772 229.38283 16.086777
166.63998 262.45901 18.685822
149.87207 234.80093 10.8217
180.42227 235.26936 48.564529
161.22812 202.05933 35.262337
115.02108 257.86008 10.8217
122.63654 214.03316 26.705894
160.04163 231.31744 23.433084
134.79762 205.96182 30.009659
79.64399 208.60309 39.737877
157.03223 253.05571 13.65304
199.76685 270.54147 24.92837
166.50026 225.2847 27.755558
130.24805 248.85228 13.185483
140.20802 265.67285 46.079998
92.783058 220.9772 35.232735
36.732826 203.70718 35.109833
148.57213 213.05478 10.8217
124.57744 235.5275 10.8217
197.29688 225.50714 42.467815
119.30981 264.01547 49.520187
216.2756 221.52713 14.063754
127.60463 224.40968 13.139346
81.100189 207.19196 39.445694
186.77496 199.99879 10.410181
99.480896 263.27225 10.8217
208.55884 268.159 12.643544
218.02626 235.14114 26.801701
94.764008 225.59325 31.71763
95.32962 203.79524 22.267506
160.2444 245.87471 27.352282
129.19753 270.32962 23.928896
95.751389 218.517 10.821701
135.58809 203.52161 47.61956
101.33046 238.75699 12.680766
172.85664 207.008 20.706285
19.970255 249.03149 23.005335
148.85464 202.22202 33.611439
84.771141 256.68405 23.964098
172.81381 206.05701 12.621353
126.54365 255.73822 16.828085
123.28551 197.57899 28.152712
87.146118 270.64478 25.4181
95.429466 262.13605 27.43845
55.566864 249.30765 12.7217
94.997711 270.93799 33.404243
69.139061 270.93799 29.687656
209.12729 207.56178 11.7717
128.47832 267.52969 41.042953
90.296967 264.31412 23.978077
42.42609 204.60832 21.881866
86.016953 220.3499 20.948809
39.031761 248.60408 12.7217
111.75689 239.11197 22.982189
85.992096 269.9603 22.182995
174.5679 222.64194 51.179062
165.133 264.17792 5.3285332
72.453644 208.15508 10.821699
108.00694 205.91147 52.667343
85.608459 263.86447 21.937511
213.99196 238.14441 31.388302
92.339386 248.41336 35.767593
196.44119 198.12282 24.231812
129.89735 270.93799 32.07708
126.36639 200.17899 14.513158
94.122917 218.78491 36.507008
159.35696 233.89462 55.737759
94.689041 235.44003 30.079739
106.81929 270.31323 35.275726
170.00012 201.58363 43.930717
83.16507 202.50803 34.086288
216.21199 217.74257 12.612171
64.607956 215.96051 38.972946
70.990364 227.82933 39.490761
198.27293 235.47238 42.399784
170.89487 230.95418 12.721701
184.5533 253.99844 46.545143
197.53928 239.21371 11.7717
179.14543 199.45296 23.764732
166.30014 270.93799 32.364967
149.89867 263.33533 31.159912
66.876709 201.20993 39.210072
128.88022 226.14389 13.16161
214.22601 267.61786 13.983675
184.59244 198.23199 19.581572
138.22311 251.93025 10.821699
131.66367 219.52124 13.21019
117.16553 266.38031 10.8217
67.349655 201.84572 11.63751
94.484726 247.85797 33.181297
152.42386 226.91136 56.210701
168.91263 236.60019 53.448219
75.262901 247.77713 39.871372
161.26443 233.10571 24.251457
86.573257 210.51224 19.602356
86.797417 242.3452 10.8217
121.0376 240.08765 10.8217
164.98674 242.85753 12.7217
122.96196 261.18701 16.174967
43.003342 262.52374 13.268572
106.98775 209.18872 10.821701
121.31525 245.09358 56.184647
99.13633 225.14713 33.409218
118.089 266.60516 35.818604
67.076515 266.25388 9.8292255
46.378853 255.67853 12.7217
91.523071 237.60886 12.509592
65.620689 248.35768 12.721699
130.93625 217.49745 45.285545
141.20338 262.2489 30.209364
159.90585 199.67004 38.807243
121.99101 265.58542 26.8834
59.524696 265.64227 1.0415814
108.89238 255.6048 22.932194
63.657032 264.42496 38.882
92.203903 208.48761 35.930878
157.36772 250.84738 24.837433
100.46161 270.08374 35.290665
47.875134 265.73431 2.0725393
79.708046 226.45459 36.218491
55.010021 263.33347 37.936028
87.496178 214.35236 41.606155
113.24532 207.045 21.014984
138.72084 266.52582 35.479427
95.255844 219.42343 42.958141
37.694855 223.71925 11.7717
106.67443 204.07841 30.294216
183.19931 199.93642 40.255806
89.909813 226.76416 14.272182
26.546724 207.53839 31.102468
106.34174 270.93799 28.841587
43.219868 205.92419 11.164912
90.348495 251.34766 12.489092
20.61602 213.14435 22.570917
110.0288 230.21979 54.559143
170.53961 206.05701 6.1918936
140.47363 197.57898 32.167572
111.63052 224.09735 54.941368
134.90875 268.9903 17.598694
177.59589 269.31595 8.8260212
204.1886 270.93799 31.818802
103.15826 262.01855 26.535732
186.74937 211.21848 12.721701
26.479612 216.88208 31.835377
216.85002 243.54852 17.604633
103.69038 215.08099 13.2111
171.43152 265.45007 24.733469
137.26219 199.63181 37.951046
174.07486 200.93016 42.434486
134.88083 204.55634 26.933165
118.16241 245.15186 55.995556
42.26722 263.87115 10.883495
42.479767 203.2934 9.4704456
127.47176 250.90933 13.137026
179.22913 269.306 24.19379
142.60532 266.00656 10.8217
115.96509 203.1926 22.509853
210.75758 199.15369 39.983681
51.064751 201.13492 0.56778485
92.440811 215.82034 35.645351
81.388664 228.76483 39.38784
138.62595 265.37857 16.983727
136.56705 202.98994 26.61882
64.503113 266.29749 38.975525
166.36148 219.21863 12.7217
158.30801 268.9361 17.34309
182.07225 268.28418 40.957298
150.24611 210.09711 56.320404
155.52121 235.89049 56.017014
186.19034 265.48236 6.0742087
84.223633 226.84549 10.8217
150.14423 264.60919 49.073334
138.02826 270.93799 28.411598
65.257164 270.93799 29.640158
147.25009 265.22842 20.468153
109.55476 227.29088 10.8217
134.81125 217.37216 13.265203
169.20444 218.30881 12.721699
117.46165 268.159 11.062942
125.24753 246.65192 13.098206
22.63232 212.73221 15.726131
82.194298 213.17342 30.200918
58.611115 201.8885 24.803329
22.966839 229.72586 11.7717
163.18372 206.59801 31.814091
129.36143 223.34775 13.659131
167.29874 207.008 17.534443
171.87511 201.53534 43.873352
83.955414 254.82756 10.8217
140.17819 260.90704 23.660046
53.318016 262.45901 15.694373
77.804115 197.57901 28.226374
74.249756 200.35699 13.529491
160.68054 201.62428 43.718967
64.90184 262.45901 14.45883
80.798973 240.57983 33.578079
154.23917 239.78986 10.821699
138.10698 241.16693 56.991863
46.397018 267.86874 4.5034027
103.81921 261.0827 12.724205
113.58124 206.16873 29.623837
91.336166 235.70699 36.504066
120.8989 196.57899 31.824425
214.53203 226.258 30.942057
145.79044 205.03506 13.456829
113.48678 206.26591 10.8217
41.036694 245.53363 12.7217
86.991043 251.1519 10.8217
79.023598 270.93799 27.562489
32.804832 234.26572 11.7717
182.04617 269.306 2.4594512
209.79335 206.98874 11.7717
29.960793 219.20393 11.7717
117.38683 237.59473 55.907825
213.19803 210.48048 40.856251
113.57365 261.18701 16.84804
83.472961 251.88666 10.821699
94.806358 219.69821 35.951916
215.00711 257.83093 31.276022
126.41814 270.93799 33.691963
177.89049 197.62717 27.73053
121.73566 263.71237 13.526039
162.87044 212.04904 33.68589
177.90895 244.353 49.724586
111.9517 270.93799 30.771484
217.78038 255.21257 23.339714
119.47783 216.9507 13.486609
103.81371 270.93799 32.535011
163.81287 220.74052 55.286774
107.95786 218.89926 13.285522
25.308372 253.96689 30.48295
52.376457 257.75824 37.599213
186.15059 205.87791 17.558954
77.158287 255.02142 10.8217
78.783875 270.93799 28.91367
92.258438 234.03015 21.953299
178.11778 266.62778 1.3218656
198.74384 199.62976 17.109894
164.12181 257.70734 55.179134
179.90273 262.6022 23.434063
128.94928 212.16005 26.913513
158.99754 242.71066 22.734337
91.169579 233.94542 37.037216
185.06151 239.16292 46.284092
203.89288 197.57901 31.959719
59.746487 264.09903 38.484947
213.70276 228.56448 40.450752
69.559662 218.58633 39.391907
90.538078 267.22873 40.521523
143.93527 265.2659 19.5781
162.86926 242.36288 33.683056
42.858418 246.19238 12.7217
53.72015 261.509 27.38171
176.30299 204.03326 27.909264
51.269119 269.17133 17.306416
26.387486 255.32596 31.429028
112.03816 252.59784 22.987099
76.264549 250.96729 10.8217
148.08331 205.0894 10.821699
103.51347 203.80307 10.8217
144.88547 228.84502 18.209415
87.85614 223.18944 16.497349
26.867836 256.44739 31.806023
171.40543 207.008 24.238222
45.906868 198.23199 7.2334666
194.87454 197.57899 26.808826
150.18716 265.29291 19.087605
152.93576 216.04247 10.8217
27.352728 248.35081 11.7717
113.61229 201.84488 36.324333
163.36684 207.1891 34.883087
89.306816 222.33302 12.986217
85.48362 270.93799 28.48814
43.024433 203.31348 12.904364
167.42618 226.29472 12.721699
172.52625 262.45901 10.295658
43.576744 203.36652 6.6729169
96.019455 270.93799 32.681206
122.50188 198.15022 24.09992
158.07123 267.05762 43.218567
183.77533 265.17065 3.2566485
184.18494 226.5385 46.728714
92.692772 202.45688 35.34156
167.50218 244.94334 39.48024
161.59105 262.35303 29.36281
214.28088 231.91977 11.7717
71.230927 265.96649 39.541019
137.2774 197.57899 35.169464
182.93127 226.68492 12.7217
197.79181 198.85658 20.763775
48.849464 208.37473 12.721701
90.989883 220.53366 35.815208
153.85225 236.83379 10.8217
119.51599 235.16505 15.633893
50.703796 198.92963 35.191986
56.250957 236.36078 38.087826
76.832291 252.24733 10.821699
188.76376 200.08844 40.8237
35.200069 260.47238 11.7717
121.18401 234.52078 13.51639
166.77267 197.57899 29.305946
113.49335 230.795 10.8217
92.176201 265.46552 14.24217
131.13759 201.86575 36.445728
139.73746 269.66168 20.770012
66.860008 240.48219 39.170193
173.84958 207.008 24.322866
88.001381 257.7569 10.821699
143.01968 244.30896 10.8217
40.162651 238.73251 35.725666
91.909676 238.02942 13.00545
138.37381 205.39388 10.821699
192.23941 218.09955 11.7717
45.252384 261.509 23.793236
195.55087 239.8436 11.7717
172.51604 258.98523 52.031715
64.739838 238.48691 12.721699
115.64661 197.57899 33.75153
166.47336 249.57964 41.573822
113.32753 206.67249 25.174969
122.48096 210.47037 10.8217
168.76596 206.09143 52.963364
188.07562 263.94473 12.491993
54.029312 206.05701 17.983406
64.126442 202.42258 5.8082871
128.92648 225.84302 44.846737
154.68463 213.89676 13.612066
207.38814 267.73718 11.7717
117.38115 246.83055 13.45001
101.98164 202.57202 13.058289
154.99496 213.0463 13.617482
146.11606 203.61111 48.196476
94.744423 236.3429 26.153616
90.379234 265.46286 14.269172
93.415115 266.34781 33.114716
162.43668 228.41754 55.4688
214.72116 254.89886 34.25272
109.50661 258.45184 10.821699
217.00766 204.43025 18.576427
148.49329 203.42142 27.031334
141.15617 267.96136 40.389683
131.97305 214.40341 39.590347
120.75159 247.44617 13.019735
106.18945 202.05383 34.351189
162.08978 262.26834 30.745373
181.19795 206.05701 19.934839
97.421234 200.86455 39.693974
137.36945 254.00583 56.638596
159.39775 199.13693 19.438753
207.20921 244.29097 11.7717
146.46791 253.92056 56.474758
84.965096 244.78439 23.494663
153.91246 201.08202 42.135979
130.29614 250.81987 56.550976
198.32874 245.81758 42.395893
189.42085 202.54295 19.130041
204.04095 200.35699 13.380848
201.79434 228.25537 11.7717
217.48802 269.4722 26.458763
174.23843 206.05701 9.7213163
42.30444 257.32849 36.092537
193.15279 268.62231 40.485435
83.878448 202.14102 37.022179
193.35051 270.93799 32.329453
85.763947 248.48935 38.50996
149.56075 203.0224 26.559601
38.357719 251.91362 35.407417
131.39772 262.65164 53.33712
155.18213 219.57373 20.180855
186.31139 224.57159 41.78437
183.3983 270.284 9.7627897
216.87056 268.5159 22.173519
188.85193 223.47226 44.279182
122.87785 241.91663 13.056846
149.20168 248.69987 10.821699
43.214741 207.008 17.066933
162.48134 244.62103 12.721699
86.100685 229.4888 38.44239
195.63683 242.88898 42.583527
74.551811 242.43306 10.821699
38.849541 270.93799 29.301132
185.38029 199.211 5.2311583
25.027678 247.758 30.228951
160.42896 268.57379 39.50668
106.80789 265.13879 21.753319
46.054398 262.45901 17.860645
81.970123 252.2861 10.821699
151.23892 214.27664 56.270393
186.19496 261.509 20.496799
123.83913 213.57298 60.032585
41.580345 256.92261 35.974705
184.47697 198.23199 6.1617045
95.16748 243.54945 13.06226
70.727699 263.14078 12.998051
152.65282 211.59866 10.821701
102.25335 197.57898 28.087532
168.49933 212.23538 12.7217
130.38934 266.06534 31.265898
176.03139 238.54776 39.549549
97.72702 245.10733 12.617873
163.24956 242.83049 55.397812
78.076393 259.5672 40.644119
123.67057 228.06688 57.316017
129.36325 214.04578 58.669209
186.96616 214.52789 12.7217
176.31456 252.88593 50.42778
194.87691 197.66753 26.382418
46.236923 222.19073 12.721701
207.37796 256.51935 11.7717
189.9632 206.15642 43.663242
111.86892 218.56873 13.353792
170.1768 211.4975 37.698414
131.57982 242.38901 42.086601
131.53938 253.33063 37.772236
188.50131 266.70312 20.660799
20.608225 222.69794 19.136061
81.573639 252.49936 10.8217
159.23663 226.4783 55.74826
21.083099 214.32895 26.296755
171.4669 248.19781 52.453934
211.28183 198.14127 33.661366
128.58037 250.27884 38.578773
91.073837 237.91174 37.293198
167.93161 270.284 19.288069
165.98911 202.22095 33.920395
190.13443 208.98183 12.7217
52.422958 204.62424 24.169914
121.47333 266.43607 43.541878
191.40865 260.11569 42.878239
93.195648 201.94989 35.040028
165.51147 204.72894 24.473728
68.795883 245.05301 12.721701
123.35755 260.04257 13.554332
47.151138 254.54498 36.858719
216.67636 246.17291 16.534142
182.32809 199.133 13.066279
94.720917 229.82866 30.776257
44.767288 198.23199 10.918175
127.75008 248.50603 39.058136
124.80453 261.18701 30.804464
105.58833 265.28851 18.406374
127.39002 249.87793 57.47049
90.952377 202.19022 32.884296
121.87068 255.82838 58.599884
112.57766 212.04559 12.877071
149.99467 251.6823 10.8217
152.82278 260.39807 13.57957
53.218964 264.03201 1.184723
195.03503 197.57899 27.90893
142.12727 228.64818 25.850069
62.389027 269.59412 14.316287
156.60562 270.93799 29.630297
65.870361 199.79369 18.904335
117.88378 257.02029 13.458786
64.032944 206.02466 5.6392932
78.392403 213.6937 39.402786
90.929764 245.1555 37.466919
194.44241 230.57806 42.666779
143.62709 260.68512 13.419071
124.49787 231.16245 32.603184
115.22366 219.55583 55.63903
185.19421 201.17126 20.634607
88.05246 264.99585 16.022198
132.00385 260.34634 39.719475
120.20746 200.35699 12.384528
164.09056 261.509 13.186239
19.683022 222.12512 17.749601
45.400345 265.4679 24.877014
206.06303 265.53058 41.850227
140.65396 244.70963 10.821701
92.155449 203.29967 26.237099
51.640755 262.45901 7.8228846
54.754211 268.80853 18.990141
79.499939 256.55585 41.557785
134.78218 197.549 28.720192
91.393387 222.42313 10.8217
87.817513 214.60971 10.8217
163.56978 269.306 11.07712
90.987274 222.43225 10.8217
184.36115 199.58176 21.674625
25.263685 198.86137 22.91884
91.388565 200.14944 37.70322
58.543491 199.47307 0.65683025
178.63562 261.509 26.076496
88.20356 254.36392 15.656468
126.87784 200.91141 10.8217
129.81268 224.73427 57.997627
188.13148 197.62839 26.566017
102.71371 235.00357 21.086334
125.47072 227.3383 13.591218
131.18683 247.70676 13.690994
160.59027 270.93799 31.167242
115.74416 197.57899 33.27562
130.96252 238.90088 13.197952
216.70238 212.15857 16.694574
174.34383 220.13043 12.721699
173.71693 260.84354 12.7217
151.61255 247.14473 13.558447
133.30367 250.23343 42.897804
67.43541 213.1412 39.217567
25.623983 230.94931 30.544634
177.99353 265.32901 24.092199
174.28244 232.6579 12.721701
44.730839 244.94235 36.487377
65.972702 200.71899 38.273754
177.78844 233.84523 39.931519
62.191273 227.96124 12.721699
179.1409 262.96683 48.898418
84.276932 257.36343 25.160254
128.84192 210.32779 57.53083
48.169655 204.83733 1.837526
126.06778 228.99188 10.8217
94.645538 225.38338 20.990761
207.60938 265.36765 11.7717
147.20532 237.86658 18.047192
47.935123 253.62122 12.7217
29.336033 256.77051 33.646229
163.89467 220.41364 36.156109
144.57202 270.84033 36.019279
131.98605 246.21819 39.232536
123.98694 255.983 30.9844
184.89786 261.509 14.672674
117.10603 206.25949 13.445246
130.05815 265.68384 22.545216
64.373627 235.34422 12.7217
186.47792 242.34767 12.721699
93.231148 232.0451 34.69252
94.626877 243.48868 14.369434
21.129606 207.91754 22.298435
148.88916 223.18671 56.388763
180.97156 228.81728 40.623516
78.258278 258.95587 39.727421
147.54443 221.06163 10.8217
72.45932 217.57173 10.8217
58.945702 205.8607 1.6543026
107.21915 270.93799 29.623777
98.199478 201.70958 10.8217
83.111412 224.49016 10.8217
157.87314 262.24066 30.427174
83.898201 269.57104 20.343107
32.241962 219.13908 11.7717
141.77011 262.06226 28.569956
165.89085 250.14926 44.439274
215.97095 266.18826 26.801701
40.966072 234.59711 35.867325
67.591454 207.008 18.992035
131.90948 248.43878 44.69965
108.57104 227.88345 15.442819
112.80171 233.57532 10.8217
163.86319 205.57169 14.556959
160.14461 208.1842 55.513836
140.3391 265.3598 30.744267
214.0553 247.12338 40.068813
52.367966 208.989 37.598057
145.5078 264.47955 30.942663
43.33651 230.85526 36.260483
60.881119 228.76251 38.60854
167.88397 266.56866 3.7953115
69.653534 206.95169 17.31926
118.24495 206.09338 53.466389
162.10042 262.05234 28.837191
215.01312 244.83557 35.577496
45.561031 270.93799 28.140921
19.028252 245.0106 27.025162
91.188156 218.37605 12.503746
175.57806 264.02881 0.052254077
169.29736 262.45901 16.226112
81.031082 220.05676 33.016296
59.033592 201.58759 38.405533
88.381699 269.27856 40.004932
123.56955 270.93799 34.158291
167.86687 226.49037 30.761105
47.689796 269.69751 8.2894154
67.61528 260.62177 39.232376
79.289429 214.13028 40.304501
182.7283 270.93799 32.250175
120.48445 267.76602 40.184017
48.971779 198.23199 22.897909
96.254242 262.76123 22.555498
164.45815 226.4108 37.515087
57.863064 223.35222 12.7217
172.42482 202.4561 46.193504
82.820694 226.42728 10.8217
132.63022 233.13237 13.227059
184.65173 247.55832 12.7217
133.39668 242.71437 41.249844
102.14711 201.94052 35.278809
165.80957 219.02219 40.774498
172.11751 223.30298 52.192112
51.101768 235.99661 12.7217
77.419144 270.14139 23.039499
56.011082 206.16496 27.89402
86.627106 226.4687 10.8217
190.77237 251.88757 42.754169
21.767174 226.79205 27.484997
21.569212 227.50232 14.33775
211.61835 256.86743 11.771701
112.66534 262.96826 10.8217
27.637754 203.20212 31.805752
110.45964 244.59291 22.959547
50.175068 206.05701 10.365805
141.92894 266.53409 35.6082
126.27386 217.10156 57.424137
214.63785 224.12897 35.12748
117.82354 257.16818 55.962093
117.21326 233.38821 55.886257
63.128063 261.509 20.82136
112.72324 258.715 10.8217
85.267532 220.09004 22.762657
129.22916 241.16592 13.656823
176.83951 269.44275 27.882746
143.71558 251.51897 56.562683
99.180283 251.31281 12.643238
158.84357 196.57899 33.278679
118.02038 224.90858 13.461168
79.492218 214.90883 40.350349
115.9379 267.70361 10.821701
53.600567 267.24396 25.286493
42.277004 261.509 21.029804
96.734573 215.85251 12.600552
160.8123 214.69469 28.721973
126.53009 261.18701 32.425674
194.77957 268.46054 15.096124
197.54137 267.9339 42.353859
96.379379 214.42953 13.083498
42.056934 200.57005 13.118629
102.75653 221.91351 17.582304
152.39124 265.31943 10.8217
83.069389 198.07928 24.434656
118.84638 219.59773 56.036583
112.12274 225.46448 55.047089
90.572212 236.83188 16.438541
178.82225 269.42108 5.8980808
129.79605 244.7843 10.821699
85.701897 200.35699 13.319463
115.01042 214.75647 10.8217
114.04575 262.27048 53.705795
103.35062 202.85904 44.879311
127.25228 219.04791 19.798979
131.01834 252.914 38.686989
153.70709 213.26984 13.595004
