# .PCD v0.7 - Point Cloud Data file format
VERSION 0.7
FIELDS x y z
SIZE 4 4 4
TYPE F F F
COUNT 1 1 1
WIDTH 1599
HEIGHT 1
VIEWPOINT 0 0 0 1 0 0 0
POINTS 1599
DATA ascii
979.24701 128.83365 287.43933
716.50861 40.264263 36.264359
-231.26399 166.935 124.58
90.605881 118.12265 245.10425
90.348122 178.58887 245.40399
228.96219 447.27209 65.248489
621.034 13.78116 229.07477
693.18701 401.49557 343.80072
-196.23877 50.325901 129.6125
994.00403 230.64761 283.10965
40.048389 475.74652 183.99988
599.71631 5.563087 65.880676
598.6698 473.26993 24.988052
174.09492 260.08008 262.33813
695.21466 -20.028576 65.282631
221.58502 306.37994 289.78976
777.45532 400.19788 316.65912
-181.99672 409.72284 87.493904
981.1405 340.28107 285.11716
-72.314339 440.10455 136.63812
127.07144 -21.382183 25.266916
438.09601 22.412403 235.8064
-40.478725 115.1788 226.52103
27.708649 451.58334 32.49284
124.60804 29.407623 235.14436
208.6879 152.34337 282.39941
62.751888 465.3649 87.520981
601.71112 477.83234 27.693575
650.66931 60.334969 361.20209
-217.43724 290.48486 164.9615
-9.0626802 22.01758 152.08316
606.25983 -21.981091 31.947903
1028.825 272.74597 25.430899
607.72162 44.916748 327.50311
980.76764 425.64594 31.449724
654.91241 7.5235 180.4454
-29.323572 412.04279 7.4571228
912.24213 236.10179 289.45404
275.05978 244.31999 318.84744
-141.44107 7.0734844 115.18319
498.26495 447.14136 79.083504
740.69098 -28.097599 157.22916
966.3739 407.75946 109.64192
1013.4082 373.54715 40.190731
728.86646 35.139946 305.72519
91.257263 26.292995 235.7052
-183.61113 41.796024 77.302727
65.435471 204.54839 243.94328
-82.320129 468.2583 84.82061
734.00934 44.937439 14.209473
56.791691 473.34198 44.179939
168.77492 447.7652 189.33627
-48.609421 -25.391438 130.04999
331.12289 444.29211 85.410393
65.688225 39.953342 239.22269
351.90845 261.80548 355.465
-130.11122 -15.45582 74.111336
-62.588989 448.66638 103.63194
732.02527 69.573975 347.33466
174.35512 6.9881258 72.663773
176.63956 447.8381 121.03542
424.6698 200.50146 372.73557
-214.52803 224.30894 166.54785
194.47855 21.052856 223.87939
382.03818 254.33636 364.67419
-25.831423 -0.51212311 32.537014
-231.24219 111.799 56.899353
-8.1953783 442.09814 55.209278
-59.973686 45.442402 110.55205
56.423809 52.860035 239.31122
677.0672 8.948185 123.02538
850.17908 445.27191 206.93312
613.89862 449.06519 116.65314
954.75348 420.55228 160.91466
841.83221 432.19159 74.820435
731.13904 -18.649206 143.57974
880.04028 205.33199 290.00177
802.54846 -26.382473 47.25552
718.25452 428.71063 285.23276
1006.0847 393.06982 35.461731
-2.1778288 -1.12797 122.85426
915.17535 145.7272 289.45401
467.27875 10.900684 216.94438
605.17426 -15.214458 23.340366
898.70972 10.865772 161.67566
981.46863 366.47238 270.80569
1027.6404 309.94025 34.403114
654.98651 446.34531 187.42035
-78.961159 432.55695 51.885025
446.97308 49.70414 325.85168
-27.795961 -22.625095 166.27136
717.60632 407.0141 140.04395
-220.86432 326.04871 124.85457
52.254662 427.64804 121.55561
816.09338 448.54004 208.18095
-32.517403 430.31921 6.9607544
526.0661 7.1458473 170.70963
889.55768 260.8938 289.45401
718.8999 442.18115 237.67509
58.773804 -25.154655 67.152481
720.90991 444.5921 104.2226
195.03645 6.1453176 191.98981
379.02737 67.166214 349.9317
215.63298 247.20233 287.40704
94.714111 314.8602 245.40401
594.00818 7.3832369 157.44907
-202.6368 397.01602 130.36864
227.44104 333.43875 288.99503
829.78406 41.877094 125.31924
1002.09 236.28383 220.06604
339.02426 9.0219965 68.048706
13.365744 -19.991125 27.574169
81.517624 190.76077 245.02583
489.53033 124.06432 376.63376
930.43921 189.38379 289.45401
217.44225 6.1842847 154.88358
711.59821 13.823692 246.84061
548.85004 445.16528 216.10916
495.89746 402.20502 338.99942
780.55389 -22.176613 136.44708
577.78137 441.84503 222.09363
570.89978 -15.395533 22.737442
564.53595 7.8629074 120.0863
-158.05917 454.60315 53.46368
47.784683 469.03394 41.756081
993.22211 151.5444 272.1871
998.85474 140.04858 215.14124
999.65594 47.20908 34.885681
579.49292 267.44034 381.17999
889.06696 39.566235 287.3512
18.40395 467.84924 150.99738
64.857025 205.5679 243.90433
446.1665 362.0437 370.84991
601.82385 446.49829 182.69873
695.39343 -16.057081 180.9216
737.37378 64.732033 343.52777
17.65682 42.948811 151.21283
1017.39 227.76047 164.03302
375.81659 169.30289 362.90396
465.7547 405.94833 321.36853
632.98566 446.43005 190.74901
892.14258 442.2713 180.27744
212.65646 6.1751261 160.35965
439.80557 125.85581 373.02179
710.51031 145.63069 364.11499
422.52707 6.7924781 176.00864
569.2157 393.71454 365.87405
1025.9812 117.47532 27.921017
407.66995 378.39877 360.42621
809.82635 467.57233 92.213814
624.0907 446.453 189.31224
986.24341 63.360565 192.23924
965.84351 405.43158 92.392586
747.23468 -4.6433749 213.89909
740.15887 417.80228 310.44739
159.12833 378.78607 245.40401
919.99475 435.70026 207.76978
642.4267 415.7269 306.3273
-7.9049597 246.41075 237.00278
626.80786 48.782852 344.24866
-117.6022 476.96274 32.61375
179.20868 310.87585 264.50165
29.022207 -24.813515 135.80334
770.24597 -19.917652 56.771797
-70.393257 257.03516 223.8644
896.8183 442.19305 174.34538
839.91577 426.80081 61.746822
712.02197 468.29688 130.539
67.890182 463.41208 35.595879
1013.7621 148.35236 185.57678
1000.4214 293.34894 209.83163
749.59436 470.07153 176.97974
822.04865 309.35602 318.72449
206.56747 447.70337 164.71075
857.99524 9.9603901 218.09924
780.73962 -22.529026 141.4903
-13.594154 242.74129 236.17792
1005.8048 197.03239 79.863274
306.21893 441.38074 214.26088
913.7832 13.62847 169.10768
65.322159 478.81848 166.51205
653.95966 350.62909 373.45331
438.20856 12.865029 219.03218
310.98914 422.46548 247.27545
1011.4827 125.51033 148.98537
-175.2789 420.25656 145.08849
774.89935 -25.364511 150.54379
397.01749 41.120911 287.75226
461.95569 -15.276648 49.966415
310.6958 126.00865 333.67545
713.58673 423.1423 293.17679
281.26642 447.49664 132.53999
696.2135 431.6236 62.871281
438.18213 8.8454199 96.621086
190.35738 30.620594 238.37262
773.68268 -20.446022 184.54723
-16.452818 -1.12797 70.418686
743.19263 163.04991 354.3819
324.27869 8.4492493 208.69963
992.48645 108.02971 240.06833
769.59308 416.61362 2.4401314
257.40305 258.34369 309.99823
351.50574 446.06259 107.6356
117.70775 473.06693 116.62745
950.09125 29.771057 154.49617
744.60669 10.675528 147.96971
-77.74778 363.8363 215.04526
927.87933 16.104664 174.68126
-87.475731 298.2746 219.64551
714.21411 344.8356 360.8573
575.65125 57.012329 361.93451
331.73621 405.37781 307.22424
-157.27614 86.593536 182.2784
1016.2898 285.91919 150.95024
931.26196 113.63443 289.45401
531.47119 314.33459 380.76141
534.42017 446.66766 170.68332
-65.187637 216.29944 225.15002
-179.50677 20.475719 44.055859
854.86902 473.3288 130.63078
396.90189 6.7228756 146.17932
-127.12039 241.33263 206.25061
-34.114552 381.67218 223.96791
491.89417 446.20276 93.09671
177.21515 187.50159 264.22125
710.71558 426.71085 287.44836
873.8277 437.36652 272.29614
-153.75529 457.5665 62.76746
261.57678 283.74933 311.77322
896.39746 221.03485 289.45401
43.792339 427.41647 136.96342
85.3638 337.04184 244.66139
725.4198 473.59961 182.23941
1005.7402 202.65179 66.669418
658.73352 467.74609 116.02254
583.7019 61.071022 367.07077
16.187454 -14.78725 147.52083
612.73767 452.45612 96.482811
-133.63583 468.27716 66.603722
-174.18233 326.19711 179.40088
-63.131752 465.43866 99.509224
410.37082 20.077311 229.17943
179.57272 250.91348 265.6441
918.29047 -10.537469 44.444504
991.07886 75.930801 194.73007
535.04553 446.25967 105.87329
224.38741 160.99187 291.96964
286.6467 41.096077 274.258
562.44958 -17.446404 47.559715
858.80615 -21.16016 113.91896
1008.9686 274.50369 197.23431
847.76196 387.3208 293.67587
-157.35114 158.17337 194.55397
705.21051 421.55261 157.04291
-94.157059 -23.905018 128.82941
509.10849 400.36011 347.48886
765.63123 9.6183558 27.161469
645.51923 -21.572231 75.514099
-106.94308 479.35855 67.705338
717.05774 45.054016 22.190655
-234.72491 141.68036 113.70438
279.19577 284.88321 320.57397
-122.17216 471.5462 91.752136
209.07948 398.6524 259.32043
259.50845 447.52664 165.33925
624.31281 461.289 130.67426
724.33472 -22.584969 138.42688
107.53296 -18.752792 88.765381
-45.85186 427.28314 48.151661
82.361046 456.17804 117.5752
127.14208 -20.887604 55.628159
483.36832 51.930157 338.57843
942.61157 27.032507 116.74901
149.43671 178.81557 247.45641
251.62112 8.928297 207.14633
455.75876 151.25613 375.10052
203.5634 6.1177144 140.54919
927.3598 447.30698 61.071842
-230.19299 209.16766 119.35244
933.0885 23.312674 94.849556
726.36389 424.89673 141.60168
1015.7892 161.39516 171.43079
89.279984 477.89313 142.48409
318.27563 72.87088 324.52625
734.94183 -25.055521 142.11237
815.96893 399.802 61.486519
641.14532 19.562181 261.23688
971.39038 66.576897 277.47693
-202.54831 405.41626 53.440491
808.29071 184.60464 327.12411
1002.09 265.19131 232.21674
173.91968 447.73752 196.79919
804.19391 205.58578 329.2438
789.78973 45.442299 35.566193
254.69362 6.3064466 159.31914
498.26019 401.23422 342.90933
341.60352 417.04916 264.86563
115.99504 162.23337 245.40401
600.33209 446.44745 162.17337
359.1235 417.67505 264.65692
-13.364016 466.15891 119.54733
406.36911 201.17966 369.27502
745.98633 453.40927 73.911491
843.93146 16.149395 269.62021
36.479095 -20.757313 188.28421
-216.50369 373.86359 136.73895
855.40259 443.52448 221.49478
939.47595 333.1738 289.45401
570.55396 22.288483 259.27682
18.872934 257.85382 240.80898
198.57697 6.0773373 116.8634
-139.26587 257.43707 201.55136
649.24396 -15.595361 139.06509
-165.93109 88.67411 178.14484
822.37085 444.19659 145.26993
623.3125 391.4342 367.2915
177.71819 183.98483 264.52487
848.84448 293.2998 305.28088
502.02832 15.802432 225.52893
1017.39 189.51024 142.39221
-214.83972 334.21921 154.37903
900.70129 438.59982 220.44098
423.18414 445.80225 109.96844
941.49896 428.15152 119.93968
-53.601776 -23.836119 168.17787
576.00354 16.638973 234.31639
901.31598 475.79385 26.908043
1020.8289 335.48383 41.859322
64.194084 449.3085 27.004526
1016.4132 293.51056 60.36306
971.23285 387.58786 272.05249
-35.848339 469.65936 196.73589
58.676384 -4.2451239 108.54881
255.66467 -20.814533 26.964745
376.20502 -17.915901 24.793797
472.33539 215.85406 376.36557
850.15637 0.19905686 185.661
-36.295189 473.02069 21.310692
-150.68951 460.60413 39.270519
-46.043804 422.33707 15.772254
449.76462 6.8291292 185.97279
-69.970146 162.39059 223.96889
205.85892 18.66209 220.5835
1006.8085 173.87987 87.716461
367.28287 259.62326 360.33929
326.74017 313.86072 343.77417
779.2063 45.442402 21.917458
394.06592 6.9642162 120.34057
1011.1081 128.16762 130.63654
699.04468 417.10083 308.07288
887.90015 468.56049 66.775459
940.35065 118.2698 289.45401
551.74365 448.25406 77.105621
-38.983459 450.31653 211.62213
-29.574234 324.71371 229.87271
930.3219 453.42737 53.237469
-133.00334 455.87692 129.78284
767.16986 17.576614 275.96246
74.175102 447.17444 40.246841
815.85767 467.90118 101.06226
484.98874 6.6803222 74.536369
326.84601 307.20886 344.00253
-27.45491 438.354 99.324188
782.1441 438.56921 147.54277
230.06981 410.46228 266.83115
423.74261 471.41736 42.827393
32.89991 25.83182 228.74316
-137.38083 467.18408 32.834244
823.72858 -18.075335 175.13464
874.74622 -17.510571 102.88866
-29.258158 251.05121 233.90691
343.29611 424.90961 243.79425
138.14114 -14.505776 83.312454
-166.94376 198.30196 190.84248
994.09888 87.201309 91.701317
590.28625 446.47711 159.81393
548.39264 348.7478 378.93918
707.45068 470.37976 121.71039
73.96595 33.607033 238.6418
40.616684 3.1173677 82.382538
722.78302 -0.90978146 139.15984
477.30814 50.89502 333.97949
10.140639 448.79184 174.08365
535.36145 446.58493 100.41408
477.0903 6.8529377 197.68402
854.09058 57.732841 289.45401
820.46619 -25.27335 75.583054
705.21344 71.647072 356.37726
594.45416 48.01392 337.45102
-142.19879 106.46347 192.35974
531.9104 -6.9763508 60.975414
452.51831 159.77098 374.87274
719.48029 68.406662 351.77386
872.31635 261.61102 293.99792
-84.588135 466.6055 177.00526
941.42896 23.237099 178.41826
524.35333 397.6564 358.43835
149.86906 6.1882 199.7576
557.72351 293.08954 381.17999
986.69458 73.221329 199.72385
605.91064 446.59451 112.82872
441.06628 446.57828 120.38101
570.20514 -24.685062 29.559927
147.28168 5.9062901 117.67292
506.00592 12.623095 220.79495
-83.638443 -5.8232527 75.526459
516.75336 419.42761 277.41229
-34.896641 69.2342 223.40034
-189.23808 284.05475 180.33832
156.78362 6.2604423 93.352913
383.01004 86.558624 358.22076
9.0399895 3.9257827 59.319656
964.02765 50.153126 67.50782
909.17096 470.73752 41.799393
819.2738 403.31165 106.06883
818.10217 182.87192 322.04767
585.38092 6.3614235 100.98688
800.33319 188.20413 331.24139
593.77631 439.72412 225.83815
600.04163 36.953129 296.84967
61.940907 -15.119209 192.83211
-250.40201 218.09668 124.58
432.16049 24.011703 241.05396
950.53943 418.55005 195.07437
945.1626 31.812538 98.691818
152.23402 205.74609 249.14465
405.8252 417.10971 272.43689
12.722896 -11.824887 101.51714
434.42365 31.648376 264.26559
960.05066 44.888191 87.022125
808.64368 67.171173 311.81775
850.06274 11.914642 234.68254
999.09778 399.60727 44.630081
300.84039 297.27194 331.09949
270.51529 368.63538 305.09894
740.50873 319.76907 354.69556
473.56256 475.91217 25.781368
386.12375 447.13727 133.62056
130.01627 -3.4217374 135.91794
50.41497 444.72263 51.513012
36.442707 236.09802 241.99167
591.21869 6.695004 92.294655
581.09277 65.15506 370.94305
-236.97327 305.92407 93.995277
392.4404 265.98401 366.64117
433.56256 93.354942 370.01074
573.76929 -10.567582 58.998241
331.72638 36.164474 261.32697
328.35864 52.199512 319.37732
588.68219 427.43173 273.08496
816.38873 -22.112743 101.33514
330.71594 38.724209 270.75708
69.424004 -3.477813 34.567066
53.232197 432.00095 55.184513
742.20483 40.762241 147.65356
325.78467 447.39697 179.76424
44.680824 185.36185 242.5462
593.05713 419.34714 286.82053
863.90259 -21.810659 97.956818
617.6499 347.08643 378.43808
685.5376 18.003681 136.59575
488.89508 427.83429 258.75452
677.04626 14.266858 242.30856
-107.60841 -18.983837 40.669502
604.17175 7.4358873 151.33362
271.888 410.71014 280.0571
330.42014 193.03169 346.59253
-40.52943 182.38026 231.23993
976.75281 214.00505 289.45401
990.23041 164.82132 284.2139
269.77597 446.82153 204.79916
82.890678 411.2796 114.44295
122.60332 447.9097 174.19005
34.146156 270.64432 241.83708
-184.78079 36.720833 129.05655
70.192116 403.26471 42.892517
819.89728 418.27426 71.261475
367.19226 318.40253 359.57764
-64.391495 113.86098 220.55301
462.64044 447.01328 202.69838
513.53815 384.2269 370.13947
1017.39 251.28339 148.38338
752.92419 380.36133 340.41522
620.83588 281.56927 380.21783
687.521 466.84512 185.0573
714.36572 419.42926 301.24399
193.74808 -16.311316 44.59874
1012.448 214.30023 111.54131
749.28564 461.9566 70.07048
202.98013 447.69226 183.58316
793.45667 446.21643 38.957893
350.75391 421.50745 256.20734
1012.6874 222.48969 191.5528
888.88159 14.065908 233.11588
60.277412 -25.225552 72.780205
-169.28775 250.75209 189.93558
-116.21262 -20.866215 80.633469
-66.655861 160.02678 224.78743
133.93604 5.9049931 141.66484
92.986465 453.60306 190.33731
207.72897 -22.932362 27.042843
683.27295 411.28342 327.87006
488.78314 446.62222 124.47395
435.58795 436.94482 225.10986
306.36478 306.21979 333.6604
33.386036 25.333553 35.374199
538.32996 32.861214 277.40369
40.120087 -11.695509 134.92485
-73.130638 354.45786 217.71104
439.9523 447.08624 189.04056
157.71347 305.04657 252.29088
242.96268 207.36951 302.76099
815.27625 7.80233 211.49384
218.25613 378.02045 273.00861
344.23932 303.79272 352.60205
274.96036 53.310097 294.7547
455.54929 201.14801 375.11832
228.20712 194.3237 294.99576
868.71411 433.70966 283.1705
835.52991 22.830658 121.30157
430.64255 426.75912 252.4091
741.11719 473.33578 160.63867
846.92322 165.37868 306.46661
159.8354 18.363903 218.67987
433.59988 6.7498546 199.8004
898.65479 193.86742 289.45401
974.41797 60.095234 71.296265
362.67242 6.546351 185.66833
-68.214279 139.80299 222.3806
482.60764 446.83899 151.12663
-118.73843 -22.456953 36.819454
816.77472 434.35873 23.664003
812.23682 431.34979 121.9127
181.93048 325.94141 262.84845
539.67468 471.9527 46.68055
422.00729 8.0698252 78.215042
1009.3484 338.41241 172.6698
635.52527 87.152237 374.58127
1032.3666 201.50139 29.412189
391.35114 53.250237 332.332
117.25111 478.32559 42.03875
42.442642 476.79199 180.42833
776.60181 388.28467 327.96655
617.7019 434.27588 256.70206
670.42944 -21.051861 143.12494
801.20251 207.50833 330.79153
3.2539577 73.115349 233.31778
-216.9149 78.245911 131.22926
515.40778 105.77998 377.19934
-29.210667 447.14093 216.04877
124.64381 -19.687557 90.183327
-5.275548 463.05194 66.737724
-18.046478 184.27486 235.53241
-30.5453 264.54556 233.70572
651.16675 -15.061417 79.62542
931.67371 0.46086729 51.494549
16.922218 127.12928 238.15601
904.54028 134.31229 289.45404
745.24084 10.8172 124.44051
635.4256 470.7887 91.91507
700.47449 12.760578 239.48642
370.69229 403.55493 318.75818
709.70447 438.91238 251.87292
-62.857304 442.11404 73.872444
53.748745 17.736113 227.53896
35.413361 272.18378 241.92239
-78.693901 307.2608 221.66577
-159.5614 375.16132 178.80167
365.72247 38.433491 273.92264
95.797119 431.93292 230.00044
417.31287 131.90028 370.62732
5.4590778 -17.354261 93.883286
818.04321 443.44214 109.03963
132.69591 -22.062281 25.553883
998.29346 118.46724 202.9321
227.01926 251.50934 294.27887
835.07312 437.73181 269.28259
17.445988 -24.104931 7.0934501
261.74591 443.71527 73.463524
851.42035 467.88535 160.76433
7.9266672 4.237051 57.477657
632.89447 384.56836 369.47803
209.85608 -12.285166 52.246185
-251.11125 156.95923 124.58
191.47072 -15.145777 47.623848
145.43523 130.99219 245.40401
817.09131 -28.05854 79.465996
196.694 468.51514 48.127171
3.8625841 470.80933 199.94186
23.679407 -21.018709 120.31896
912.4129 125.21098 289.45401
147.44556 5.9712715 156.50934
342.85773 27.633707 238.80391
769.52637 400.25854 163.05283
798.68323 39.564388 42.96833
829.46655 8.8097801 212.59587
735.27502 -20.754042 182.68689
440.38574 -18.873375 40.490841
34.588924 455.35425 215.24309
862.50244 442.99393 225.42407
484.05695 394.83441 359.43756
727.48077 440.65811 98.342865
766.72852 422.48999 152.04608
-165.16167 28.151236 145.7771
15.975376 450.54865 147.54874
87.745209 452.58353 87.129852
34.813576 174.3428 241.882
430.17264 446.96158 126.7834
323.43771 449.53183 64.393356
54.342178 446.80093 213.80069
1018.1019 104.18167 41.142612
850.01178 443.72711 219.82269
690.87573 23.600685 86.535347
978.88977 397.59528 112.70854
423.67734 9.1976919 212.97011
317.94476 398.94608 315.91968
640.25806 99.424988 374.97665
589.54218 39.621792 305.53445
821.46448 -15.578038 144.01981
834.04871 472.65616 161.92508
972.56543 129.31828 289.45401
698.96942 -0.67728114 204.64877
449.86697 470.89505 45.219139
20.985485 -8.4957485 82.01709
1004.645 231.33081 74.333115
807.96234 282.26666 326.89029
355.42532 172.24138 356.47104
64.217766 455.35001 70.2276
-237.95358 126.09799 44.758507
108.81796 15.741572 213.06705
-210.44403 60.139484 49.465981
500.30591 317.74435 378.3483
694.21771 -5.4706278 107.77687
1002.6541 362.45175 127.44737
696.78888 341.95917 365.41687
-43.875763 37.066853 14.860048
-177.77956 62.781082 164.32982
-220.83293 224.99701 163.10985
680.40045 429.03079 45.899731
-24.730001 13.453589 147.55521
969.73608 219.60907 289.45401
968.96143 404.07886 99.174385
109.39378 476.26581 116.07648
829.9787 9.6097221 41.392097
785.90479 466.64398 107.32874
-79.015862 341.33801 216.87703
827.16492 14.266417 254.08524
860.68347 -20.97765 111.46106
454.27008 403.35547 329.65088
390.63177 -8.6978521 58.963154
593.84827 7.2560644 197.44298
783.07764 1.7248414 60.134212
-76.535446 431.28177 128.65489
680.42712 396.32489 352.82367
679.21643 23.612011 126.19237
-145.10995 133.34113 193.22141
34.90443 -26.974045 159.75201
794.62915 458.82776 210.7655
293.17734 40.416538 272.51489
277.28955 7.3029442 107.61979
20.371935 320.60315 238.82547
142.86255 62.057587 245.40401
7.0385842 460.87604 95.929657
722.64313 391.93219 347.01828
633.74884 6.9693165 155.69153
883.18073 437.96417 267.36581
781.4837 400.85748 27.649395
352.52997 -21.089897 31.357418
442.79065 407.71844 311.97363
-15.422615 455.44046 2.5960577
450.87323 -7.2290831 60.160629
-12.599037 471.38068 198.58792
978.8949 82.058502 265.64661
86.081505 406.02975 86.217888
1008.4824 342.50299 163.98096
987.52515 59.846733 183.49429
220.93628 6.1713715 140.62051
898.79315 161.51645 289.45401
747.24591 447.06378 105.73214
771.75482 437.51154 270.75049
718.16626 -9.9951344 140.47357
-229.81042 108.54079 61.652893
493.53622 -17.018679 47.233704
624.73334 16.731096 244.21419
713.18762 182.71042 363.82883
-236.37787 148.96996 150.62608
-81.189949 356.73431 215.13339
581.11096 208.60617 381.17999
446.59207 354.33649 371.48355
757.74481 439.46552 258.48203
-247.00862 192.10515 138.27226
615.38208 413.26239 312.24115
207.41643 447.336 111.71233
761.06531 362.60403 342.3092
813.79034 440.92218 119.30663
295.81241 428.74457 233.24574
295.70013 443.83411 71.066162
-46.666698 317.47748 225.99303
644.17786 313.81805 377.1434
864.19635 442.01544 233.94386
923.29974 381.23676 289.45401
813.31213 33.990597 55.004845
743.43262 110.29222 351.21094
734.56439 6.0647192 112.15062
923.89752 296.4873 289.45401
315.35147 446.29694 107.66271
525.86475 415.15497 294.30698
709.29993 -16.2045 186.92192
725.45239 24.283119 168.83112
-128.61118 467.48151 114.53137
466.6882 459.53519 61.005623
585.57129 85.205643 376.93903
155.98528 108.30322 245.91988
852.12146 -21.744228 118.74561
888.25836 263.89334 289.45401
485.19254 8.4569654 109.72803
922.15625 420.74661 283.34094
101.40654 89.704338 245.31361
265.97839 368.26758 302.91922
214.63034 438.49689 215.78731
808.3075 -15.221582 127.03344
942.0509 421.76617 82.197906
861.01935 161.22559 299.00882
878.67194 -16.401785 96.899513
300.43298 339.91092 326.30023
956.76807 401.28577 281.5
951.6676 435.73807 56.947388
145.25395 447.90582 138.51686
-38.390682 475.45651 181.43777
989.11652 361.7334 211.28165
396.73068 8.1726131 106.41498
501.93555 191.51173 378.56497
908.25964 222.32751 289.45401
-86.636909 -24.998158 131.39549
-7.5359554 469.73141 148.39848
-86.270584 224.86601 219.94315
985.67786 381.25946 85.339165
493.7959 21.560598 242.44029
874.02356 436.28571 281.21295
0.48039722 315.1532 236.09258
1000.434 293.18414 226.46793
339.63229 419.47458 258.08344
390.12213 9.1813745 94.12738
1001.0282 104.22368 106.72932
975.6178 430.77472 29.03965
950.36462 82.149567 289.45401
287.31946 39.353935 267.83801
65.41584 400.8775 134.02551
-189.90459 31.89926 42.446377
192.92989 58.58828 252.60606
184.28038 477.84863 27.008236
-129.99677 -16.994328 37.370903
1008.9816 275.08813 96.29422
-153.71324 -5.066555 53.685783
769.16608 447.04114 219.76239
478.51755 7.0092945 142.79724
605.17584 446.48495 91.625969
653.07336 46.681313 339.59485
762.00482 21.069672 152.668
272.73071 390.73233 297.36417
312.69519 351.37808 330.49628
777.45984 278.44568 341.17511
179.1866 414.41721 245.40402
-0.31898814 444.02951 175.09821
54.218277 456.92551 19.795824
403.4444 447.07355 160.62076
689.16052 52.204987 344.59229
662.54114 377.6362 367.74261
369.75381 446.7182 116.66786
386.05515 447.13742 154.43666
644.85645 105.16507 374.77435
599.3847 446.52893 188.32355
654.5531 -17.270702 108.83097
-2.4996166 -20.69146 55.03878
554.84637 335.3316 379.88068
738.76031 89.025002 351.0676
977.23022 252.25381 289.45401
65.15934 -23.209692 99.176598
725.59009 -19.590231 182.77028
931.32788 426.68152 221.05682
933.34229 20.533478 113.63271
390.75159 43.710632 296.65674
748.8905 -28.097601 158.26767
-20.98266 416.61603 30.528595
-157.1301 124.11824 187.88853
1001.8346 345.24878 193.77393
479.24298 237.42798 376.87885
857.33606 29.628658 285.21362
1014.3851 143.08868 179.98042
881.99121 -19.570379 34.666866
762.26727 450.46289 173.9935
86.159355 142.96634 245.21008
280.00897 383.69354 303.91083
716.27661 415.73398 10.882166
529.70959 7.6847258 122.09525
266.08713 82.801201 301.82309
-120.15045 474.87488 50.61145
-238.73938 189.51013 124.58
-128.41324 113.38033 198.20506
629.56305 -16.143522 66.374153
-84.655113 6.3584743 188.80333
755.83521 130.39359 348.25369
-45.546131 -19.649609 41.42421
519.77515 66.198097 369.58725
248.2804 8.0527534 96.678581
330.55728 -8.2686348 58.643997
556.31482 446.66507 105.72074
246.77235 209.56415 304.67035
508.0011 158.45639 379.01669
50.229309 436.43445 51.271049
709.70898 407.38257 333.50809
435.8082 360.57947 370.17456
980.40161 179.94604 289.19119
700.80206 472.45416 161.71213
771.08832 170.05188 343.55353
745.65222 18.234928 275.00922
324.04297 277.76221 343.26422
-195.85458 257.07504 176.73038
-15.08542 2.2984822 1.7153176
-19.938837 158.9691 235.25806
175.49124 7.035686 71.401466
782.30286 -20.319233 184.60709
-227.37 97.202347 61.946972
492.86835 165.50943 377.892
-42.139648 478.5484 172.49155
-39.261719 28.874279 138.91745
445.88306 400.11792 340.71405
720.46161 17.445656 266.26675
-238.97519 170.39861 73.763603
828.61975 354.87634 310.41528
-129.30029 157.37209 205.40715
671.98328 424.38388 102.88623
451.13519 445.40942 93.667542
-51.494572 183.10858 228.53183
724.77972 -20.640495 173.8734
-47.851379 45.442299 49.455055
-209.54553 393.1962 61.911537
-222.15361 128.89871 147.94107
817.96173 433.29993 283.25867
492.69656 225.51141 377.87848
53.414944 81.514442 241.10504
457.41608 44.045792 306.0022
847.83362 468.02368 164.57874
844.63818 451.94012 193.80792
905.90179 297.9281 289.45401
823.89709 408.3746 35.597729
1007.7058 320.85608 63.546173
-39.825623 473.68774 185.37833
76.785133 441.12222 131.15677
-228.58438 355.94254 59.455505
328.39514 161.30179 345.12955
211.76872 211.53146 285.07495
746.24878 12.97611 249.41454
286.66483 418.39587 253.96165
689.54163 -20.535015 140.25496
221.94699 444.47864 76.154381
258.26318 443.09494 210.13245
-66.301765 427.93915 32.450241
325.77313 149.69629 343.53995
7.42169 -17.6908 87.156776
34.735241 24.439754 143.9126
-234.22098 187.46042 75.830498
124.77376 350.23578 245.40399
178.36743 472.72562 40.303288
931.2345 414.17914 284.44415
799.08118 32.570923 161.90088
196.65598 144.3472 275.01108
1006.7264 252.23062 201.24469
225.02672 6.2292247 196.90211
798.97827 17.250874 137.12743
203.83932 336.84467 273.83038
64.779465 15.953587 73.404236
-234.13306 296.32996 153.23476
620.65991 250.43134 380.27206
325.67603 447.34015 171.58994
753.00891 -23.981441 41.984711
-29.748808 88.516129 227.13254
504.91537 47.319603 323.98773
767.90533 244.93207 345.07294
1017.39 219.56628 177.16217
996.78534 336.85388 73.59964
423.11197 375.80908 364.24597
417.03314 438.93372 221.4866
950.86414 293.56537 289.45401
786.55121 431.0506 145.71724
993.22089 354.97345 204.43507
640.63678 18.704803 256.94666
936.00793 415.7363 281.04529
-53.663528 33.008389 123.4631
252.57913 44.982491 280.06671
761.1424 37.067299 22.684393
543.14954 434.43512 241.47032
533.14923 -19.146769 43.941055
437.05362 7.3079863 69.990479
553.80371 136.98096 381.17697
-11.441437 -17.234444 23.695889
194.13469 159.82983 274.13779
879.43262 90.268814 289.45401
819.38672 -15.977749 182.79335
613.32422 -2.5068369 86.606277
47.860855 42.103714 127.28188
669.13708 16.890324 253.60133
744.42865 445.93304 51.238834
-206.81161 218.95364 170.75557
970.17334 44.918991 165.93332
-230.74384 109.19242 47.323048
64.02063 400.58868 105.71471
812.06934 16.629333 273.57983
730.29065 434.42804 105.74471
-215.86978 360.88129 72.032677
-230.19299 230.64011 114.31509
164.46927 219.37608 256.52887
461.17535 7.8625674 114.87426
744.8504 471.90869 177.6683
769.6684 141.36888 343.52582
-81.89537 435.41428 58.580948
600.84625 184.85229 381.17999
886.22229 440.0379 239.47577
888.06091 -15.552535 51.294086
989.90112 380.17264 64.531334
-36.293602 -18.49337 189.91818
-25.853758 438.35403 97.823578
242.38237 6.6382027 112.77132
904.50702 395.79254 289.45404
793.65479 7.1020656 8.2703352
821.41907 410.06567 82.81916
1004.4518 244.84039 73.412003
319.76077 -5.0698671 60.028858
454.85315 19.558765 229.78604
366.14981 279.67017 359.89209
834.43439 139.00969 312.08893
254.84003 31.032894 240.76157
374.65457 7.1613574 66.152603
918.54712 15.297307 181.15881
-146.24881 179.55836 198.84956
701.70392 475.54318 166.68265
-125.29398 -4.9458828 137.87419
455.34082 313.19272 375.04993
1011.7515 327.05997 154.42299
824.93665 31.711481 285.66162
101.97307 275.19708 245.40401
204.38678 22.199219 225.94318
954.46844 309.30679 289.45401
82.356331 17.585089 57.645908
46.887127 236.59622 242.69473
784.17163 149.35338 337.96472
818.70587 -12.594393 192.72241
409.43549 9.2287149 94.012596
5.6715341 429.48547 22.675085
-77.925613 -0.34199834 190.13037
630.59241 466.58441 126.77631
122.59694 299.53009 245.40401
338.69727 408.5278 296.31357
577.96747 94.541611 378.19879
321.84332 -13.195238 48.708622
-30.01827 473.34201 150.02783
410.44894 6.8101377 126.19394
349.78601 444.42316 78.23172
673.56891 443.70093 59.11533
691.14343 438.38293 250.86305
768.29834 398.20721 322.86346
389.80103 400.04007 334.19632
-82.103867 465.9364 107.46291
999.37024 146.77399 228.90746
29.432491 464.077 106.08186
1000.2573 129.46902 77.558731
302.0314 274.91046 332.2897
204.8924 6.0995879 116.9887
95.658424 52.46347 243.08453
758.97552 438.69897 26.285221
193.1713 285.60059 273.85101
212.78668 447.69818 138.18973
782.92273 26.845703 170.35599
340.10901 442.3736 213.80951
2.2290316 -17.320446 110.09583
530.37964 382.86279 371.83496
540.6875 446.95636 95.762596
785.31531 473.12497 186.4084
601.87512 135.72343 381.08871
995.57501 222.06998 267.90607
998.20441 126.3882 70.875732
892.63287 438.62955 257.89752
748.88214 15.821794 263.83768
1029.2867 219.37097 37.634403
699.08307 22.39625 119.5224
609.02924 467.98959 50.180748
1009.4684 179.81354 196.48112
993.00934 182.4149 283.56027
62.444504 434.15121 85.18605
-54.637844 399.802 49.973015
1011.5621 229.23488 193.38254
1013.2677 346.6879 55.40609
926.25897 432.9696 77.717873
60.712944 477.30109 172.13071
926.1571 438.56589 152.76823
-208.22815 55.851406 53.921154
746.47754 -25.058971 30.038876
512.38086 408.70865 316.72839
66.440094 -13.382465 143.92018
-196.15001 391.22473 106.98106
105.75455 439.56812 210.72495
-35.21693 438.71036 101.45035
815.78845 205.96759 323.24481
764.69458 -13.658987 102.75668
14.570304 437.8559 223.80971
-48.377243 39.060978 51.442791
-58.73748 43.520889 103.36888
-72.66925 460.85962 190.37978
414.94913 53.011539 334.30649
-115.03604 -19.778748 106.77883
-219.60701 139.80299 155.96466
131.42159 -12.047264 124.90659
940.78876 397.76193 289.45401
55.352264 411.772 237.95871
-28.009361 438.354 67.081886
853.18811 -21.88892 116.8801
694.79431 24.029758 86.287041
792.86084 -18.8326 91.021866
696.9259 51.752232 342.28528
420.84387 432.72968 231.08821
771.4895 465.49875 92.806976
703.03247 39.955456 23.433075
421.53482 21.045578 231.01042
740.45398 428.25278 288.34167
813.6579 -16.34248 164.16214
-211.14264 376.77054 68.634109
522.4881 58.249107 361.33932
166.86353 228.5639 257.97385
795.33179 99.428246 327.88776
666.1958 383.12811 365.60477
557.5932 226.3479 381.17999
274.2608 436.11264 221.30699
901.45947 422.71802 285.53482
-52.702744 27.000881 155.59079
760.71844 376.32254 338.64868
28.057468 420.09708 232.48074
303.78101 447.4353 187.69226
-216.30103 106.63193 110.87077
-140.23177 246.1821 201.17764
617.60107 -20.574118 34.016289
824.68781 -20.980907 164.26389
658.07709 -9.6533957 112.4753
682.95203 406.93866 129.72493
-64.536133 139.80299 223.84302
-15.060427 324.52203 233.46625
835.45825 34.03957 286.16241
238.31451 415.80847 256.95453
-47.913033 1.6068659 124.62842
989.26477 92.807251 222.69006
749.23022 473.34201 16.125845
412.08606 6.7471819 178.96718
-42.875172 436.81213 163.40971
-40.609585 437.10193 164.2957
813.4635 61.928749 306.13675
800.02704 267.67184 331.39975
133.60034 477.39075 32.128807
270.60052 6.3547001 158.85687
460.58746 133.27148 375.15463
1020.2799 293.44397 57.35371
-147.63092 257.0174 198.31482
1014.8665 265.64484 123.07367
810.76465 401.46799 300.46472
332.67853 378.04297 333.05392
311.14743 468.92401 43.761173
-167.73981 435.16983 72.701637
-217.00423 72.834343 55.657799
97.629532 464.12695 176.94798
-109.31306 -22.345526 38.791664
893.81891 302.49118 289.45398
867.48761 -12.818338 144.72955
849.48596 465.1413 115.3843
583.31384 477.48715 30.558769
195.82118 -21.83124 31.290302
744.72559 -18.745766 114.97691
-1.5635357 204.13548 237.92218
522.57068 139.39844 380.09357
55.919727 -24.523293 60.262222
964.29968 238.41423 289.45398
793.11859 17.274441 279.5159
297.54486 289.51801 329.6496
-23.61738 351.48535 230.07977
856.28595 150.35794 301.02722
140.55139 447.84109 186.24811
923.41724 438.69653 170.64786
525.30029 389.06516 369.5769
816.30103 401.33167 34.119751
366.86462 425.90439 244.24084
734.06128 450.63101 91.237495
643.42004 340.55511 375.53134
117.60481 447.92807 171.20169
1021.5403 263.27933 58.315556
799.54297 13.324498 38.772156
795.40686 439.72473 35.59827
998.23779 108.27109 89.329758
239.30653 8.3497667 92.533417
1002.5415 234.44383 208.04904
908.297 -9.9536238 22.545132
977.29694 419.03174 50.721581
-45.701111 10.463799 13.750347
-220.84161 334.84186 125.73389
292.10132 6.691308 65.224358
783.08472 445.68182 223.99803
62.587692 412.42276 86.273735
-2.8223047 -19.620262 193.659
713.10205 44.226627 43.734695
1005.4534 97.027908 156.57631
377.64005 321.66632 362.51779
192.4149 466.71286 22.484428
-250.79802 247.77536 36.90139
288.94357 445.30225 94.054932
505.19037 346.94363 376.51654
1023.9392 182.01541 51.911224
-33.291615 450.47662 213.41632
996.47168 89.083252 100.2802
992.21844 315.40002 263.90588
324.38779 348.43085 337.03442
-91.817703 477.49548 123.49826
32.644299 10.842075 5.7246418
885.92255 439.57236 250.9736
307.07477 444.22293 68.044464
2.0553851 478.22833 182.36035
941.56451 454.73401 32.717834
-58.475082 477.09744 157.38263
107.25568 -15.05304 80.393661
950.56879 34.111244 109.94131
1025.2965 190.22893 48.287315
944.28357 25.390347 165.93523
727.70636 28.268389 33.308372
590.40515 82.631714 376.16931
61.163937 472.99191 112.6113
9.9123755 441.0787 54.27037
194.50186 6.0595217 122.31865
687.86951 15.933311 33.555717
1014.4088 310.44232 168.97272
-202.65036 391.185 128.01038
431.90842 103.21738 370.65396
421.64783 17.267677 225.24007
558.76111 115.61916 379.67792
12.463278 33.417873 173.08038
991.73987 73.98584 110.9993
476.34204 59.678299 359.76529
1002.0901 261.23846 225.43973
212.53302 465.41608 53.611935
995.57507 255.21011 279.33905
656.21936 438.08109 245.56816
341.9751 449.70465 64.473175
418.82565 417.79205 271.46912
847.8277 163.61339 305.92868
-179.80344 122.42036 175.79128
298.15289 6.4240875 120.36824
138.83876 340.98181 245.40399
1002.0901 270.97083 230.57828
523.50104 411.40912 308.00006
325.6868 6.4950185 130.69557
55.633636 461.58829 59.571548
-203.10178 396.64343 136.89857
538.42548 7.2273283 141.37329
643.38617 -21.872845 43.65419
998.23419 135.18707 210.23903
1015.6082 294.80588 164.73274
244.4086 149.3661 302.43506
472.16699 -18.72789 42.239586
313.50998 446.26099 107.10509
727.2738 124.43074 358.87466
-64.19809 -9.3388691 84.056641
959.35852 291.6817 289.45401
619.0365 411.897 317.78021
335.35217 331.18018 345.61145
914.83344 30.540213 284.6304
589.11108 113.41561 379.52325
-49.165573 -0.92806721 52.470154
-67.633247 198.91692 224.54604
550.50604 446.58801 148.06389
77.684433 354.56265 243.77258
-145.28499 285.19519 199.2225
-150.1911 153.01729 197.32428
699.95337 -2.9721053 203.73465
840.3949 462.20105 71.646942
350.28564 73.822548 341.21124
670.46722 25.169197 99.358215
1007.5136 371.71689 22.935404
798.42377 473.12799 181.37328
-79.81102 431.79095 56.740986
982.92041 420.6488 37.413689
472.9198 88.928482 372.6655
69.278122 382.59106 241.95593
487.59921 14.136818 222.52946
831.21167 320.07169 313.35422
113.55882 473.5593 121.86852
233.01163 419.31232 245.27483
973.31647 418.37714 22.576338
645.77753 230.30585 377.07404
705.9834 -3.8883541 17.170055
644.93713 111.20647 375.18719
318.57147 146.62323 339.81348
-7.4212894 -27.742064 27.052734
837.40637 325.00052 309.57159
859.37366 35.439144 286.46344
65.979424 476.61963 171.84097
510.30185 104.54353 376.72299
-238.68192 169.19933 124.58
1011.0097 131.35841 186.68973
188.97894 400.34641 248.93213
124.394 473.01038 99.76561
728.547 328.83286 358.59534
509.24463 446.79166 181.19711
518.08307 447.52216 78.890427
707.51324 -28.097601 142.42618
274.26791 102.66996 310.93579
789.8175 -17.20015 190.6385
-192.99529 53.172497 126.73805
813.33179 413.84158 110.34577
691.10608 402.97232 37.364086
140.12875 469.30579 22.770231
950.34778 41.505367 240.41479
827.52258 442.02786 233.84137
89.415733 478.08035 141.61569
957.7467 367.88879 289.45401
641.96313 4.9152513 164.94855
-203.25766 325.23355 163.64674
-231.67995 230.26701 156.08546
104.22974 355.15363 245.40401
231.63936 354.66232 286.88901
881.28625 471.54382 57.509346
973.74347 382.40872 263.89441
20.142355 -25.909283 8.917551
904.49805 0.39500484 68.433723
612.85748 402.36383 352.60767
342.81796 155.67189 352.22369
-45.129642 218.48383 230.10379
351.84308 458.31815 60.578644
636.85895 412.99997 315.82706
148.78079 410.42508 245.40402
877.71887 456.57446 146.77829
-63.147602 23.585505 30.221144
990.64209 66.101685 123.99028
815.70898 399.802 114.26421
85.517952 412.91077 68.750793
738.78668 434.95557 150.91747
733.12708 469.26068 125.97196
992.70123 356.83014 67.25029
642.07074 17.349499 250.59874
695.34399 441.32581 93.354538
365.7359 456.18591 61.683426
52.13343 408.92874 128.0428
67.920319 58.449505 241.21826
454.40167 439.82788 221.29547
784.42529 470.6322 10.647969
-122.77451 378.33911 194.72409
791.31396 410.05933 37.313843
47.499878 7.6459894 12.466267
56.985916 436.79468 154.00095
1017.6657 350.10547 42.034111
506.87238 419.08011 277.3522
629.81946 183.76657 379.10583
540.30212 402.38037 343.73703
873.93237 366.43973 289.45401
-31.769552 228.09268 233.40337
972.46289 115.55917 289.23984
670.23071 417.92368 79.458488
796.41138 29.694508 290.62869
658.31018 -21.16177 126.37891
922.83649 20.75355 209.99071
728.93048 17.926641 28.631054
43.8871 32.156727 233.54506
994.94897 358.47934 86.675598
437.55243 212.50146 373.78107
947.53052 416.43713 74.637749
-168.09187 444.66821 40.573044
779.57635 -0.90198135 148.60643
618.98358 465.95535 68.319084
738.33783 285.21588 356.40005
-13.849524 409.28064 147.56743
695.66046 -12.361359 64.206406
556.51953 416.73688 292.12549
1004.5762 197.28571 74.005219
-188.87134 48.721371 126.35719
893.84082 467.58911 50.199795
35.269535 197.47057 241.9127
-199.32669 137.32291 166.69899
278.67413 447.49503 188.81592
672.44788 19.701933 112.41787
2.7822804 5.820035 218.84875
1.0260267 155.19855 238.29764
710.16541 116.74702 362.48877
524.49774 108.80598 378.10941
-78.97644 8.0011272 53.215477
974.87036 51.718697 190.02985
290.65033 463.75125 55.112743
525.74554 51.592705 342.46466
-43.127281 460.03027 205.53362
56.879253 36.605465 237.57414
939.91992 425.28735 94.298538
689.95312 447.92773 143.46928
243.78085 6.2848454 201.53891
822.94824 221.66684 319.54028
80.804817 86.099228 243.50325
-81.226883 -17.467085 65.065384
343.36102 464.20425 56.367992
-242.48193 223.88463 69.91272
714.07214 101.86503 360.31287
174.63263 154.7675 262.47299
268.11499 16.032616 218.52307
505.26215 -20.310726 39.951004
397.25461 447.11267 148.57452
403.94342 447.11603 178.10461
764.64948 456.33011 215.00279
992.71802 144.96356 279.30743
477.18073 445.81387 212.86345
743.93738 446.37299 119.55034
490.01471 446.80811 159.85907
163.37952 447.34695 79.674515
73.477844 473.05768 178.00632
447.15158 6.8759494 174.84082
392.09772 457.96603 61.088081
-58.787071 447.58737 102.99226
27.613899 257.8334 241.39737
-35.927208 464.23639 90.311653
122.23083 7.437798 200.79794
770.26758 -18.022917 110.03259
749.7489 320.24249 350.98911
176.72098 6.0723705 178.20497
723.0448 6.1828737 73.159935
320.25574 374.59448 328.18274
676.18872 408.50543 337.37692
291.66937 203.23383 327.17181
-62.882629 26.745327 101.4015
995.36066 349.94147 80.017929
298.19476 99.304604 322.58426
64.418983 430.74066 104.75303
609.70996 7.3773451 180.4017
971.25079 45.731777 183.74771
681.10498 413.64084 318.80743
598.26715 7.3960629 158.35107
266.9458 58.548481 292.83963
535.13184 254.94824 381.03159
1000.9302 200.16411 243.68498
87.30275 473.12155 162.80159
866.17175 361.00903 290.55569
55.09864 38.685169 51.287823
12.209682 -9.0119448 148.0444
791.86743 320.9447 333.75476
847.01514 386.1507 294.3739
1027.8003 312.64954 26.189152
212.73264 278.83755 285.65662
142.75089 447.88226 157.65485
661.10297 -16.461655 151.10498
304.02609 295.92529 332.7471
1012.0651 325.57901 164.84399
791.2973 -22.98028 163.2749
325.21689 48.193317 305.42932
131.65018 116.62424 245.40401
902.73529 193.49631 289.45401
-153.01227 447.98718 80.209656
424.92523 6.8296175 158.45619
208.01755 447.72266 132.33032
25.839287 69.997536 236.53346
816.98688 -15.482576 185.12848
956.30432 34.457607 171.8378
-92.92688 205.62889 218.29922
-9.3606567 34.88147 3.831202
794.05432 6.8907499 73.340073
736.38013 -22.868269 46.035553
457.47977 37.409924 281.24384
143.1015 467.30051 67.541954
973.06091 330.40384 289.45401
313.40158 111.50831 332.47577
-137.66634 444.04013 139.18719
-31.290348 473.34204 28.528191
635.03046 141.2711 378.32263
591.60693 468.54596 22.857096
1018.9365 328.42639 50.702171
825.6264 -28.097603 110.6033
476.73602 401.76059 338.33182
961.89508 48.716599 205.55211
496.86435 454.23541 63.714043
121.85086 447.92548 167.26866
708.25061 22.704245 16.296587
1021.6916 172.54015 56.071934
854.76868 466.08264 106.32289
442.54758 470.4949 45.843925
990.5188 339.56775 248.46225
564.69385 143.53717 381.17999
-112.84063 469.13968 137.8896
346.58286 6.5765257 128.15198
-250.798 215.88956 51.683254
818.99841 427.93121 106.7337
383.78958 6.9304924 119.96379
491.75504 7.0929494 129.17484
251.43311 109.07363 300.40842
650.85095 12.074076 226.50946
-136.9248 284.99298 202.45712
-210.50298 90.106567 119.15834
816.92957 470.9494 180.50302
451.892 434.78568 228.9227
858.04761 105.70689 296.22562
-232.66727 314.03699 143.30096
987.76843 369.56769 68.274055
724.94031 464.53241 207.54991
350.71442 444.53534 89.722946
967.16669 436.72235 29.949211
586.95868 -21.035767 36.334244
95.623108 340.09909 245.40399
363.78186 190.31583 359.22937
454.71347 430.89737 241.03699
-204.1438 68.293686 127.1848
148.42542 128.82742 245.40399
424.24573 469.38187 47.67276
638.39331 474.67383 40.002338
152.85637 34.41362 242.98991
948.0509 31.275419 115.8635
-70.990509 479.17456 148.50699
355.65546 463.97314 57.458775
983.91089 154.07559 286.7038
656.93176 125.48155 374.66852
156.15273 112.97295 246.53944
735.60394 473.33173 30.037102
85.492889 470.74545 173.93153
-63.326355 35.515411 77.435196
513.26453 369.69064 374.53287
992.58093 388.54651 172.3042
-86.697891 191.80862 219.83762
145.66791 457.0968 92.65535
-76.557556 450.95374 51.416016
-202.41811 48.254005 41.87199
795.60223 153.82092 332.82309
963.9881 22.434324 46.379482
508.4191 125.53446 378.16208
353.1319 435.65234 224.49144
466.08136 249.93314 375.90088
637.35669 15.597258 241.11821
485.12524 8.3015738 102.28321
966.72327 202.20282 289.45401
771.80096 438.354 55.456547
-147.46866 302.17877 198.37762
756.13232 146.8898 348.98016
995.26917 275.5687 265.37164
150.45126 5.9316463 90.972229
994.11902 323.26663 248.12592
643.69617 -20.227583 87.975761
651.76569 476.22571 103.5518
256.07541 12.829244 213.24847
370.88644 243.48776 361.48178
898.11121 308.1463 289.45401
-55.088268 24.726053 153.99399
40.590885 399.802 144.26355
352.54736 474.23907 26.027409
222.75436 109.31939 283.69397
161.78055 149.06816 254.69281
404.09064 445.21381 82.02121
67.764473 428.35022 144.04433
-67.557137 465.99432 37.827488
406.05685 36.606228 272.00073
327.88861 445.10443 209.25146
529.14453 446.77277 95.222885
1008.7803 257.63049 94.051987
817.42065 464.59747 64.923523
45.138401 41.632542 18.283022
-230.11589 139.80299 153.98894
316.57565 304.39462 338.87732
455.76511 6.9215827 156.60501
205.14659 6.1812649 197.45256
-81.164742 470.0155 80.018936
287.15088 168.38089 324.54596
756.05688 445.42853 0.75841355
881.5918 15.850453 267.1539
687.57025 406.20715 339.9158
311.93234 408.42361 293.45258
700.34625 18.485687 153.38298
777.26086 -2.4704952 149.56561
723.03314 361.14194 357.349
-249.90869 282.17438 61.757095
520.59546 456.0296 63.089539
-24.938362 478.12445 179.20657
15.910976 438.354 65.237221
-122.46867 238.19482 208.05045
-72.421898 464.3541 130.50974
-65.701981 34.104855 206.02307
648.74902 446.5914 174.04132
836.39545 11.933323 53.246674
500.04224 305.73926 378.41846
-56.363991 453.51083 204.35153
-247.19453 220.99989 138.05621
-165.55553 426.99274 109.16985
40.26078 28.599342 134.81689
348.70227 6.5710096 144.17439
1016.4695 283.57651 157.70541
59.918869 -10.244998 59.848999
813.7583 7.9740043 153.53934
461.39752 427.92111 253.50751
378.93106 447.1803 141.84695
990.20319 325.82483 269.55801
28.505341 10.339767 169.83203
804.41644 -20.777531 43.361904
884.89136 253.85728 289.45401
-200.84465 46.19751 48.74839
57.867065 399.802 41.134521
711.14746 366.49014 359.79807
447.33643 342.29544 372.47955
10.221839 259.9173 239.63087
740.92737 156.23047 355.16113
-49.744553 -24.606226 153.09633
843.45428 10.893803 226.26038
225.63477 169.57739 293.04071
-140.0847 -3.5086102 86.179199
727.55927 444.45663 228.22949
903.14929 50.454689 289.45401
844.72742 441.20789 240.60596
1001.8896 341.73325 102.8763
225.22205 301.64514 292.11432
-10.611929 27.513405 222.89937
724.25818 424.10324 168.25264
-83.249062 9.2514572 110.96174
1005.4814 73.512672 51.737366
1013.2432 231.40518 115.33298
-43.781258 412.65381 15.489296
945.95648 451.96976 31.549364
160.0612 318.24741 251.18446
952.1983 31.360382 148.35199
1019.3651 202.25375 59.689537
1017.39 205.0751 178.86566
928.61151 374.83032 289.45401
914.50189 155.84436 289.45404
603.44885 446.48334 123.84488
60.201599 473.34201 110.8191
811.22247 176.34138 325.37256
246.17577 451.66736 62.827644
-121.89157 238.60785 208.27377
92.782722 243.08423 245.40401
65.439552 472.22913 41.280861
826.35242 438.3598 264.10193
236.45422 -6.3866167 59.098717
384.00955 6.7002916 168.289
272.71658 169.64285 317.3446
-57.09687 336.96225 222.49704
1016.1772 238.43208 129.32365
313.66888 149.15237 337.39813
20.168274 19.287355 25.199242
-196.31197 391.01309 76.236504
777.92896 130.23911 339.4906
918.91113 5.8086433 62.957329
959.46582 72.096672 289.01196
744.65649 399.10513 330.67249
814.0069 -28.097601 53.431923
918.26239 -16.799738 30.104347
395.56396 463.69293 58.472088
632.0672 253.65221 378.81964
467.09988 6.837904 202.46649
-247.48897 193.54245 137.71404
-80.557365 470.28528 75.521156
553.29016 -3.8983638 62.521072
751.828 -0.63728786 128.42215
477.99365 6.9669213 176.75488
213.1076 364.32001 276.20514
3.2494955 442.66232 0.69308031
133.76135 5.9545269 172.33609
156.96645 151.64317 251.96379
397.45142 59.85775 349.50781
500.10672 102.83674 375.82275
-2.0749264 36.729988 225.73407
305.04984 254.4563 333.87781
-23.661148 -20.226419 31.63806
270.12747 446.57611 107.53442
669.92212 359.49246 370.76468
420.08545 6.7983608 148.61295
-230.19299 270.13132 76.296539
-212.66705 65.744751 61.437614
323.90866 349.06583 336.67465
280.1806 32.918995 247.61662
635.45215 38.976528 308.70108
429.55267 445.01801 93.481728
869.35358 183.67259 295.53079
-226.75307 315.7189 144.64514
69.008865 200.11647 244.18382
442.60538 446.94888 163.01721
367.9006 303.492 360.18365
459.68982 197.6069 375.42596
766.74927 26.457981 292.52182
749.61072 132.81262 350.96399
23.76857 400.4838 13.438673
786.49548 -22.253305 41.151306
94.883301 272.67084 245.40402
1025.978 165.11313 43.147469
6.1106863 428.13013 174.34082
189.16174 7.8297224 88.988571
797.0755 468.2865 14.779468
-189.33275 188.00011 180.2867
610.1449 254.05264 381.17999
-27.719551 111.38568 229.49307
836.20392 442.94342 51.512917
1018.1488 257.82849 60.312614
47.468857 471.88403 127.79277
-245.42773 154.80005 66.677788
1010.7766 200.827 103.57149
181.69719 294.40952 266.80981
703.17487 450.83066 125.33746
-26.227861 154.22743 234.34625
309.23959 340.56491 330.65167
748.78424 30.411713 296.56921
