# .PCD v0.7 - Point Cloud Data file format
VERSION 0.7
FIELDS x y z
SIZE 4 4 4
TYPE F F F
COUNT 1 1 1
WIDTH 1615
HEIGHT 1
VIEWPOINT 0 0 0 1 0 0 0
POINTS 1615
DATA ascii
74.832047 100.47816 8.6423092
93.495377 119.65782 24.824575
82.17794 119.39323 34.069633
162.1618 82.136108 23.121515
57.48177 84.323151 10.602244
221.41313 60.75576 37.821369
164.4052 117.40059 23.076576
208.79434 74.73275 8.6423101
91.19339 96.537842 8.6423101
209.83031 67.647301 16.95229
59.00708 119.71324 23.630424
189.89423 110.198 19.214333
190.30891 66.920403 14.228476
177.93092 92.270523 18.907314
81.726517 124.32697 19.479227
122.65572 121.12644 37.150295
182.94058 94.354019 25.932678
154.06682 81.364212 41.360771
114.15172 99.511642 33.657986
84.715988 114.408 18.034103
214.3772 56.056343 27.235792
61.168266 86.048378 30.77733
113.49073 59.981064 38.049145
162.2641 66.235489 23.119469
168.28073 105.41469 16.55607
179.68633 114.20935 20.399746
58.457947 101.88272 29.294308
225.33023 119.96431 37.761276
75.118912 96.553429 8.6423111
205.63579 117.86164 4.0577545
94.278976 119.82281 24.416597
167.65512 76.544891 54.53566
81.972588 57.987103 29.795258
128.60666 82.282379 24.047272
201.9521 92.707153 8.6423111
152.30656 108.68847 8.6423101
158.95895 123.53423 34.497643
65.61911 68.638443 24.634121
126.72292 124.09224 13.329245
149.67699 78.620926 8.6423101
205.79103 66.920403 7.7332487
140.54869 70.231903 8.6423101
88.322418 86.10788 8.6423101
146.67638 85.998787 33.132019
179.47177 105.85702 8.6423101
103.49946 120.81826 16.151365
157.06989 74.42691 20.198826
120.05759 118.05693 43.051315
148.54099 65.338402 38.488869
160.97856 62.506096 21.140469
201.92903 66.648766 44.61792
165.35938 63.336102 16.614584
100.03967 114.40799 17.171974
93.332855 109.592 8.9854698
201.78383 115.908 7.7606678
174.32069 80.336372 22.877949
228.99945 76.618851 10.732199
154.22704 109.20511 53.857964
115.09776 108.33347 31.506983
184.25497 116.41217 18.503971
194.53833 71.682213 8.6423101
161.09698 75.28299 16.699959
180.84949 94.914474 54.148125
154.46461 89.080353 54.834801
87.399399 66.920403 20.208025
86.346275 66.920395 11.035569
67.573822 103.77487 8.9633198
74.751457 103.68755 8.6423101
179.49802 98.832382 50.9426
179.70644 68.692787 34.560215
83.196976 83.507843 8.6423101
56.807068 62.825386 11.383026
207.69087 122.6209 21.195156
175.45522 62.506104 18.799595
99.147644 59.640453 4.8656759
153.90112 85.881241 54.834801
114.49603 124.94099 17.310398
232.67108 115.26018 35.951126
140.39929 97.460724 8.6423101
182.28592 89.094254 40.738991
152.85156 98.451233 34.619961
135.28317 66.84584 48.749138
200.47295 66.920403 3.0679841
234.88564 75.871338 29.282959
209.76047 95.623405 43.224663
56.886528 71.026321 11.027555
179.28467 69.110092 33.348503
100.35536 114.408 8.6380167
146.80942 75.682297 33.514206
68.775879 61.608994 26.361809
185.05191 78.692307 33.650948
82.1166 115.03558 1.3800101
180.4845 110.33487 10.834013
134.28239 89.292282 53.893261
169.85037 82.560799 8.6423101
136.27458 56.828472 14.107067
186.56583 71.070801 15.352911
92.15567 65.375046 28.267298
186.33942 82.349396 8.6423101
125.42754 119.58532 40.44014
169.18246 91.82164 16.512335
99.047073 81.326569 8.6423092
173.1481 95.969681 22.901438
178.85526 73.820633 32.114742
91.847794 60.172131 28.315184
103.7129 122.57246 14.995342
120.11933 72.018517 32.701992
86.247208 124.323 16.870089
161.18153 81.125977 54.701122
103.22623 61.479389 17.630161
99.473129 122.62355 5.5205641
189.11626 118.95132 0.96522033
100.4771 71.675903 22.133707
165.26428 103.16992 54.597942
110.17651 95.333878 36.110401
135.37625 104.33509 8.6423101
165.97983 113.23869 50.950222
194.37129 110.198 9.1635818
231.10724 123.27715 28.764912
91.482613 123.27838 19.134535
210.23042 66.761162 15.087579
94.470657 62.987183 27.385851
143.04915 95.671997 8.6423101
136.56921 55.786407 20.271332
143.41898 64.751335 18.548479
190.20422 78.78093 51.982052
105.57369 58.712967 9.0218143
118.43641 56.084171 24.795347
125.74545 93.747223 8.6423101
77.814941 61.590538 20.650681
49.674828 94.031342 20.184132
125.45284 118.385 21.058578
119.9391 87.659523 8.6423101
235.3414 99.944305 28.467257
184.59079 78.345169 31.962795
158.01096 107.00964 54.285378
199.99939 123.48123 0.099602222
63.31826 58.040958 24.27965
170.43439 76.231857 54.4627
69.949783 64.155075 25.544853
229.31685 63.580704 35.046844
229.35007 114.55763 10.815676
139.51868 56.247406 28.239702
190.14508 57.978508 26.426746
115.31239 113.74188 8.6423101
203.47928 61.770023 25.101704
98.118698 68.064117 36.273369
186.52739 104.90668 44.871193
180.70216 88.564133 53.132401
228.38182 63.567009 39.551483
122.73883 58.001148 10.636976
170.23854 118.30971 16.468042
139.9203 91.16703 54.631901
178.24367 80.78009 30.357731
184.24532 66.920403 11.555244
116.35126 69.376053 26.104292
181.47108 78.059608 52.645805
135.74147 105.01738 8.6423101
236.11726 105.53276 11.507344
155.30791 99.211075 8.6423111
96.881065 56.81068 27.292036
234.90826 99.757652 38.73637
236.44496 80.393944 31.15892
146.07651 66.935188 49.045872
103.50645 124.24436 29.901785
175.12474 78.668686 54.282578
168.89877 76.108849 8.6423101
50.138741 96.227203 21.452143
200.65529 108.91599 8.6423101
112.2471 84.035461 8.6423111
103.24323 110.7203 36.75177
109.65608 64.104477 8.6423101
184.22615 82.587807 52.645802
72.290962 122.47752 13.371805
115.01518 108.32432 31.871639
187.82454 66.920403 3.6524873
212.68002 66.454659 8.9404011
127.0839 85.670403 17.634909
116.40332 59.158325 36.863483
153.22485 86.620003 38.00634
184.24184 95.007492 30.685383
139.82205 74.065514 8.6423111
58.287949 87.743851 10.445604
53.43898 78.453598 11.394219
76.935951 94.516426 8.6423101
186.20888 75.8992 45.13253
55.14571 98.034149 11.019145
101.39859 119.45758 10.211054
180.19733 118.94899 33.175179
208.32047 71.070801 12.795518
185.18048 106.95713 52.787052
159.60472 58.277573 35.565716
51.066376 91.401985 24.225609
100.80711 71.96666 8.6423101
227.46687 98.26297 10.521458
180.89861 56.73315 32.37196
200.35452 69.944466 26.623211
213.28671 67.07502 40.279339
233.17509 123.93156 22.460104
172.80815 112.79222 16.755548
172.11658 94.925034 22.9221
55.824123 66.185242 11.382986
157.0761 90.052963 20.385689
178.46014 106.81686 30.979702
131.91664 83.667503 53.217934
88.044525 71.675903 28.134581
75.556084 58.945572 15.540045
195.74832 125.823 7.0508814
199.25589 94.750603 48.289669
182.62202 63.237041 9.912199
146.86403 55.908371 26.319128
50.363407 82.119987 13.881355
188.31998 106.64125 42.060993
74.862137 97.094246 8.6423101
149.85938 56.656433 31.583099
161.53801 89.643326 16.691124
157.00381 118.10934 18.217308
190.97456 57.497002 35.06464
200.98151 110.198 16.357405
119.52994 125.61235 37.427368
53.255558 69.62162 11.712323
94.558197 93.647141 36.904709
151.84019 83.448997 54.7803
241.27054 90.185173 26.848499
168.87744 126.23978 23.364288
110.18787 87.268394 8.6423101
119.47836 124.87116 27.251688
128.5083 58.390404 9.0213175
182.18756 112.24034 23.887705
60.285439 61.73917 10.751688
75.515289 122.13538 30.453445
203.70493 55.605099 26.384872
176.08513 117.48537 45.076469
91.28228 71.675903 23.036095
204.45035 66.920403 9.4029284
199.79268 106.24011 47.312241
93.340256 122.77229 0.52306861
220.90714 95.753479 9.7988415
188.86694 57.005005 6.2668438
188.02025 109.17967 42.874397
90.471893 76.941719 8.6423101
82.606888 102.20335 8.6423101
148.94821 99.046814 54.738472
199.39394 110.00086 46.935463
185.46869 65.54715 23.539951
89.071465 98.075447 8.6423101
89.021141 114.40799 22.429699
168.92879 81.209167 16.526419
140.21721 86.727333 54.670799
143.86719 90.79528 54.834801
136.65546 90.04557 54.204163
61.323627 78.517876 10.032563
74.094727 99.616089 33.848927
112.31284 69.951271 36.579849
112.23035 77.931458 8.6423101
185.39589 81.971321 52.043182
234.52452 103.04117 38.960617
152.15793 75.43779 54.414516
225.01828 78.677628 40.567017
206.69112 125.61795 18.686302
191.19751 66.920403 23.168335
103.77937 122.94075 14.635293
118.98115 53.560516 36.752193
56.283089 121.26781 16.246796
187.72556 118.89548 23.265625
202.3065 71.070801 19.175968
153.39688 77.011719 36.615738
196.32498 71.070801 9.4779005
127.10797 112.43584 49.171535
89.71833 70.120346 35.466339
109.7429 84.727798 8.6423101
91.16259 115.99976 28.421696
80.330063 73.594543 8.6423101
233.61221 62.194202 11.414358
200.03946 108.59357 8.6423101
187.48177 115.00066 25.129902
206.79985 106.02363 43.993217
197.49944 71.070801 11.340257
167.70233 99.389618 16.567656
84.265778 97.649239 8.6423101
107.4711 57.098877 14.477984
93.120697 117.09288 28.059248
238.95575 105.7978 12.740449
167.56816 92.301636 54.834801
178.03793 69.472755 52.625275
190.58084 62.442661 0.32406098
203.05043 93.711975 8.6423101
55.624954 114.96155 24.170227
148.88438 60.622093 39.402374
184.19156 97.083717 50.942604
212.2074 76.061897 8.8656664
240.25446 87.050629 14.219675
84.031303 112.05826 34.133129
81.436737 57.75695 23.341827
71.237312 57.297867 22.089556
81.77507 109.592 14.062163
176.4059 123.87262 10.319183
141.83264 117.66926 23.782406
153.02338 114.26778 42.043667
99.058418 114.59566 5.6792827
201.01239 57.07468 8.4866009
186.17615 95.072556 37.766594
173.77341 77.930786 8.6423101
232.15373 58.426136 13.47955
182.76599 117.28417 10.647371
153.57425 93.377869 54.834801
188.90225 66.920403 16.141705
151.88632 102.58342 8.6423101
86.6007 75.844406 8.6423101
151.59129 109.03438 8.6423092
130.46077 62.705605 8.6423101
177.36771 67.926353 27.841143
79.853096 117.26546 33.909096
185.93298 68.496124 23.977097
79.978569 60.420364 32.859833
74.588158 79.263603 8.6423101
179.50325 112.49387 8.6423101
75.35743 120.72351 10.269993
161.50449 112.15358 16.691795
105.91194 73.089218 8.6423101
115.68868 81.635315 8.6423092
113.63963 76.783096 36.827713
223.30417 64.471207 40.033375
192.98477 71.070801 13.312599
178.96899 107.00173 52.124657
185.21149 105.92175 45.541092
193.58934 123.50275 25.682098
185.42336 125.62703 5.0783558
185.4021 84.10598 34.932884
56.301582 60.834 22.553396
78.736633 115.41473 25.753599
97.034752 89.829445 8.6423101
87.648468 99.005203 35.929245
210.44803 123.72919 14.072969
78.022636 124.29972 5.3921957
146.66531 125.94458 21.421278
180.32642 122.4136 13.468879
140.30891 119.2372 8.6423101
60.099213 115.02676 23.998417
165.37152 95.315353 16.614342
231.85097 84.843491 10.981329
152.24159 114.12221 32.387592
195.74899 66.920403 11.096086
136.08362 108.13515 53.155342
68.150627 66.639259 28.216013
119.81102 57.483337 12.571679
157.00797 94.859283 8.6423101
93.31691 72.284088 36.049377
202.3438 113.48981 25.65469
195.67792 98.04216 8.6423092
207.19977 114.72002 42.421585
59.594131 71.471542 28.040771
81.413918 123.9467 7.3859606
97.7341 71.675903 17.461857
162.11073 123.71177 34.256329
148.02794 114.53898 37.014961
150.04607 98.552994 8.6423101
235.85536 108.091 27.870831
113.58187 79.58461 36.5839
88.273071 102.78894 8.6423101
231.64803 80.968674 40.601784
228.45889 61.886055 31.595285
187.83699 124.57455 2.227231
75.915207 70.194656 32.944038
162.08023 111.63817 52.866661
167.13678 90.847702 23.021858
200.65805 122.79228 0.34325913
62.414139 64.156746 30.107533
194.79767 66.920403 10.457879
177.19269 89.110725 27.338356
202.28609 71.070801 16.343073
165.67154 84.81311 54.826794
171.0556 57.786144 9.2016449
97.436317 83.558975 37.016785
96.452286 71.475632 36.353058
166.73019 125.76324 18.985693
234.85619 98.637863 33.853935
57.419575 114.89709 11.088071
140.13696 89.216965 8.6423101
197.96777 63.710022 -0.43663272
113.14386 124.54842 15.530558
172.4362 105.1227 54.318901
181.15591 110.324 41.098248
117.08511 98.95517 23.309433
234.42229 101.72678 36.748135
83.245987 57.856174 29.755354
214.07965 113.02482 9.1064568
130.48839 71.986862 51.489506
101.39079 69.489594 36.537704
95.351517 78.936478 8.6423101
180.21448 73.867981 50.9426
145.82672 65.483086 8.6423101
239.46645 97.480911 18.284866
77.91925 117.3421 20.823574
163.11404 83.515282 54.782558
141.78769 63.626598 21.13217
60.869774 74.426132 27.496986
127.80608 57.121498 13.469851
196.02707 114.53269 47.011417
120.12727 120.92386 37.432331
111.82323 56.025066 23.652597
134.52831 57.515251 32.96209
207.44594 64.971329 41.871334
111.25817 121.1394 36.458271
70.003304 72.663376 32.330029
192.59436 80.951416 8.6423101
131.34836 76.900841 8.6423101
241.20772 94.359207 24.276718
166.32819 110.36687 16.595179
80.53344 66.920403 20.349199
165.48431 111.99011 8.6423092
111.84021 114.34668 8.6423101
236.10623 105.05186 32.07473
91.461365 77.032028 8.6423101
114.25209 119.52626 39.902603
88.076752 71.675903 21.648586
187.32982 109.34312 44.027206
183.84232 70.219643 29.222866
233.00183 116.66516 27.961487
204.00143 57.602921 2.9571559
195.55112 115.908 25.042627
234.37988 80.029037 35.056061
199.94229 67.373131 26.812283
71.984665 76.413734 33.129517
229.88527 93.780022 10.764503
92.00045 109.97141 28.291418
86.990692 115.99493 25.595829
88.000961 65.205864 25.655369
67.158218 75.596985 9.0761871
50.622681 77.571602 20.930677
84.714699 66.920403 15.730148
172.95273 99.489334 54.571983
180.13129 121.08052 8.6423101
204.23444 71.070801 21.40419
141.27631 55.387268 23.007864
182.87927 121.8892 8.6699343
155.98203 125.0013 30.129234
158.20377 112.53587 22.929653
232.66869 117.81635 37.889236
90.85186 112.16347 28.470005
196.67937 71.070801 25.095398
156.87982 88.960449 54.834801
180.34857 59.750629 13.572188
180.42058 57.191666 11.537298
141.84351 125.41498 25.372887
97.469513 115.37123 21.717024
155.71335 55.667324 18.762854
219.56049 119.05489 9.7622061
71.840363 57.339119 20.555382
232.79219 113.57039 39.349121
79.651505 109.592 10.326242
139.56204 68.411049 23.827881
177.26476 78.351631 18.498762
64.076035 102.52316 31.326752
130.35751 63.864883 44.229843
170.08788 57.001862 11.975259
205.40759 57.117516 32.680473
157.93173 101.57742 16.763355
179.75276 79.259071 52.889099
156.92859 57.40514 33.755974
198.45712 125.823 8.65203
77.009338 97.288513 8.6423101
140.45326 58.116135 34.201748
77.991867 62.280163 4.3799849
182.7049 110.198 15.952117
235.20059 78.339539 28.232347
173.90408 108.07679 53.822475
145.0316 58.036392 34.311787
70.77536 83.207321 8.6423101
154.85565 104.97253 54.50843
97.765396 61.209606 3.1157193
165.17218 94.217484 16.618332
234.03969 63.983116 33.940094
225.9046 122.67102 33.160473
116.04856 121.84178 35.297535
183.29628 110.32399 39.558266
196.57988 110.198 24.005365
232.28162 115.37759 39.608562
79.892105 116.76418 22.7677
194.87462 61.602482 41.535118
223.36118 106.71176 40.505402
112.59963 77.966492 37.825672
157.42171 107.64938 8.6423101
103.98059 58.619732 13.380091
106.5417 59.191452 8.6423101
231.50769 99.571274 40.614346
100.36615 113.5743 36.490723
60.632706 58.443913 23.926426
165.06204 83.394562 8.6423101
170.82675 94.015915 16.505329
157.16994 86.428131 8.6423101
230.36493 122.64661 31.745565
230.09573 103.06302 10.839731
53.944031 78.406235 26.05316
153.13297 78.632889 54.616146
92.80381 115.11432 0.54946119
145.48384 60.291985 8.6423101
75.785118 98.736839 8.6423101
167.93452 87.691711 23.005878
167.23672 111.35645 53.24313
196.54874 66.920403 14.751558
83.240318 96.826668 8.6423101
197.01988 115.908 13.720174
187.88477 103.50272 43.120628
151.12549 60.656212 8.6423101
116.98408 83.456741 31.228489
185.47758 98.121376 35.209263
201.77731 84.159523 8.6423101
179.40454 86.883698 8.6423101
196.53616 57.0056 5.8444014
189.50676 66.920403 22.066904
84.69976 59.545158 32.496033
208.87624 123.49721 11.830827
127.96519 67.76284 49.110062
93.09893 109.592 16.17502
195.78308 57.004997 17.9604
98.573639 112.15227 24.742907
235.56915 92.446518 30.506721
198.47899 73.280075 8.6423101
82.799271 124.323 5.1856089
198.70061 102.20335 8.6423101
62.285881 99.77198 30.948643
88.135429 59.304138 32.641495
137.16585 118.385 17.929934
191.36377 71.070801 24.998196
60.138237 72.810219 10.399742
171.6082 96.325958 8.6423111
150.63051 86.049675 54.834801
100.64646 109.592 15.775791
157.57266 88.060799 22.502079
64.219536 113.35451 28.118145
189.39911 55.378128 26.46106
195.32953 71.070801 17.42144
179.3757 88.69178 50.9426
211.55234 63.802124 8.8037596
116.33212 115.98047 8.6423101
189.70818 110.198 11.955301
239.9718 95.242439 20.494194
72.844154 109.592 13.467909
147.39946 90.184967 54.834801
169.40579 118.949 16.785435
113.39552 116.24998 41.272881
56.728977 84.290817 10.731532
53.20919 85.620773 26.349541
184.33389 71.0215 45.242378
62.472755 118.03584 27.980413
109.99954 90.583115 8.6423092
84.221359 58.894932 31.499531
138.17339 82.713364 54.280968
180.84601 95.263779 50.9426
223.13937 110.51273 10.094116
183.26857 109.96334 45.293041
90.242653 104.08105 35.97422
184.18533 60.939419 22.331665
184.07707 78.860435 30.082226
157.88165 108.58573 8.6423092
164.44858 109.89983 53.66618
180.31133 101.07065 53.98526
197.50938 71.070801 26.368053
180.47617 102.91441 21.242598
229.82422 115.1258 37.121483
185.73497 103.73685 51.185902
118.77926 79.876869 37.250595
97.779427 80.117165 8.6423101
203.65001 115.908 6.9173489
180.49957 123.06456 10.670187
193.43102 57.342224 19.800407
120.43055 58.63459 34.274334
132.30766 99.666771 8.6423101
178.96899 95.370918 52.508553
183.27206 58.089027 36.298489
234.9064 112.89378 32.555195
233.07878 116.18052 37.663311
212.3035 120.66187 38.381863
184.72049 66.920403 11.119592
153.39101 72.244019 8.6423101
180.95815 75.437653 41.242989
66.394882 112.00714 26.974205
67.768356 57.671219 19.808416
173.63354 79.021317 54.402145
84.61824 66.920403 13.689117
86.667618 73.058907 8.6423101
151.14977 71.610992 46.234203
160.4841 76.081818 8.6423101
233.92426 62.726692 11.443011
63.889908 107.78178 9.7143822
89.392761 117.45117 28.696873
203.74542 66.920403 8.1050415
172.65981 70.987312 16.728235
158.88611 89.15564 16.744242
124.90501 71.410255 22.506529
236.12277 81.343277 34.724655
240.65337 89.756241 14.91432
158.53636 65.222473 46.770927
218.97003 107.12901 9.6173697
63.247051 67.737686 30.66069
155.21532 85.90123 8.6423101
60.828754 118.51398 27.835665
60.157398 106.07469 29.720716
123.51483 73.354332 49.207203
188.53554 110.198 17.249832
114.73863 67.270103 42.869324
113.41069 115.72141 8.6423101
234.51883 76.611404 34.712048
119.5206 125.25733 24.331764
201.82898 119.6017 40.869087
183.14581 118.949 34.567375
185.13133 60.410275 4.4354534
234.22937 97.212891 36.259697
150.01443 114.17146 49.368767
94.51265 109.592 19.523022
187.07913 86.923721 53.245403
230.30292 120.74575 36.010506
235.88774 103.46964 11.46771
152.20801 117.46149 32.264698
211.88113 55.872192 25.149679
161.03966 90.348114 16.701105
241.0871 106.16914 24.598158
140.83369 94.741867 54.751568
128.66129 118.04539 8.6423101
51.377491 92.231453 25.38662
75.974609 109.592 11.20347
155.7373 83.347343 8.6423101
76.595451 83.672241 8.6423101
157.5415 77.960075 16.771172
148.77652 104.14119 39.165535
142.02435 66.8741 8.6423101
155.6317 77.514603 8.6423101
81.179688 114.53821 27.07649
129.07741 125.13895 17.411053
173.64476 96.531555 54.651276
138.20627 69.679314 8.6423092
152.14316 73.962006 32.027359
120.13445 115.27949 15.851326
231.94736 57.665886 16.467209
74.46109 63.809002 20.699564
171.30049 71.373016 22.938448
135.05646 108.57462 8.6423101
81.073853 124.323 10.668868
59.765228 103.51266 29.737928
60.19075 117.74855 28.693859
169.44083 55.021545 22.186455
83.556595 65.503174 28.180504
234.51126 66.618958 11.426243
94.198044 118.55524 27.521832
186.76465 71.070801 22.833458
163.71318 105.84277 16.647554
195.0632 71.070801 17.368263
152.97731 96.784119 54.815594
197.95026 115.90799 8.4688377
72.460823 91.065041 8.6423101
188.8519 118.00018 44.512737
161.07219 111.28787 23.143341
177.32004 85.76442 54.400936
122.85902 69.91552 26.57375
179.80211 63.88731 20.516527
57.614986 76.125954 10.709564
183.51979 65.485359 17.651148
217.54643 71.179474 40.460724
183.61659 58.334232 21.796219
129.93027 70.722168 51.110916
80.617996 120.94242 1.8713795
236.20158 79.983711 27.900875
121.57475 88.440224 24.951578
202.46298 71.070801 15.310226
145.89911 74.553978 30.898983
183.79807 58.634247 6.9436059
79.941948 57.464348 11.237638
179.44359 64.958672 33.805061
49.644306 83.068375 16.110313
147.22769 113.2849 8.6423101
99.534714 96.301964 8.6423101
186.72948 94.289116 50.9426
144.73308 55.984001 26.69718
179.90581 80.087593 53.132401
138.37459 96.696724 8.6423101
121.47658 124.11321 31.89794
123.59346 88.430252 50.765842
100.63322 57.142406 9.2593384
80.255302 66.920403 18.479071
68.766228 104.57218 8.7674503
137.21745 108.88672 23.87483
101.37044 57.774635 21.520267
185.54999 110.31682 52.015202
181.34779 93.453033 53.132401
85.009735 60.489338 25.362524
150.54184 96.977615 26.186619
89.180206 123.80946 29.641163
122.33606 90.947639 8.6423092
92.809113 124.323 20.804676
162.1199 62.5061 18.858492
234.03735 115.80295 11.39274
170.64774 110.92502 53.251648
185.86853 76.863953 45.298927
133.83293 82.316704 17.499775
160.86374 101.17786 54.665833
124.8161 71.598289 20.05476
118.29486 117.13794 24.982704
209.7953 121.08495 17.116291
93.889023 103.60352 8.6423101
187.60075 119.53324 23.153652
155.0253 84.117241 8.6423111
172.28839 62.87833 16.659847
129.27002 66.041138 47.450188
228.08994 78.190475 40.553902
183.09602 108.9086 8.6423101
194.68109 66.920403 7.7806859
146.15918 107.55527 31.64616
178.87735 122.38029 37.599396
200.04712 119.8635 26.772869
71.39225 62.173916 8.6423101
224.25067 87.733643 10.159663
85.901428 114.408 13.690683
150.34273 72.288727 53.934662
83.062973 57.004997 10.930187
98.796173 78.279221 8.6423101
88.468414 116.62839 34.812878
106.46237 69.784569 38.881096
165.72568 86.104691 8.6423101
81.109032 57.711384 14.139119
186.83791 98.738876 51.390202
113.73649 79.906807 37.289185
76.938965 111.09016 24.006264
155.66315 56.054665 28.411627
185.08752 79.020477 50.9426
172.82544 75.532837 16.758732
61.440269 95.596161 9.917592
77.216042 76.996246 8.6423101
146.69835 121.87389 8.6423101
233.23941 84.350189 11.134718
116.95009 118.73801 30.92939
98.260147 56.874786 7.6567583
151.63188 69.620682 52.740948
138.06674 102.73301 54.061855
155.02382 62.453758 8.6423101
87.321808 122.32134 31.98056
184.72112 66.515755 41.289192
203.30225 61.525383 23.408413
179.41696 77.559151 52.889099
104.29802 55.951996 20.778763
206.63423 62.762016 19.824841
82.783463 109.592 27.584204
235.42567 104.25287 29.138454
234.89786 65.473778 29.06949
116.14489 116.13412 42.735207
157.01671 73.851501 18.604101
91.647781 66.920403 21.161489
101.43752 122.55618 11.238577
135.63271 101.06835 53.833599
136.01863 105.58973 8.6423101
97.662895 57.19529 29.805948
171.50626 86.672768 8.6423101
198.29453 99.795456 48.512886
128.52109 56.06345 18.26174
90.578117 66.920403 24.011568
188.43335 57.005001 6.8102121
116.40872 106.07808 8.6423101
127.78725 114.21086 48.71769
222.81648 124.68353 20.653709
104.31667 117.88138 36.360256
93.54129 114.408 10.618916
170.43633 76.295708 8.6423101
77.437599 82.124161 8.6423101
233.68436 63.164825 34.953629
72.522118 116.35309 11.545228
202.47789 56.928818 32.415714
207.83852 71.096771 8.6423101
81.353752 124.53429 5.0799384
187.87756 74.455383 8.6423101
176.67906 60.643913 40.317711
200.21158 57.510056 26.692806
234.98611 67.311401 30.819527
114.16986 106.19869 35.133209
78.854767 123.75429 27.512474
226.62769 58.850872 28.157656
237.80884 97.558151 11.632442
90.42691 57.48436 28.536102
179.53542 68.785187 8.6423101
118.91913 104.87141 8.6423101
144.92239 122.51372 8.6423101
146.39555 116.57126 32.325253
91.387718 124.323 16.587877
189.72156 71.070801 20.313126
187.11754 91.517502 50.942596
70.089722 92.543442 8.6423111
154.58046 123.99738 11.740223
230.57962 113.96294 34.130116
68.310692 112.34982 27.503067
103.56075 120.15132 15.819437
183.89093 65.056511 29.400766
105.14758 104.59013 39.58527
185.907 83.617699 51.475868
57.849445 65.7873 27.459433
218.84267 56.621788 28.591934
176.93102 65.09153 26.586571
184.94437 117.75809 33.257225
110.84011 58.233845 10.364807
99.224327 120.53941 20.158342
82.926544 123.27637 6.712038
72.713097 58.38797 15.837162
149.6454 55.57478 23.980915
186.60515 76.216667 8.6423101
112.89293 82.590263 44.995628
218.20659 120.47863 38.148117
97.536484 94.621445 8.6423101
91.036942 114.408 16.69006
227.59976 117.87573 39.491558
221.01138 60.94836 38.092094
181.88266 73.278244 40.371754
98.215302 114.97975 20.832048
97.360649 59.843136 22.290226
212.4646 56.204399 18.005383
157.20045 124.23665 33.01004
157.62842 66.541557 22.558231
226.4946 78.33503 40.558872
89.534538 124.323 12.908163
128.4962 108.30925 8.6423101
75.244667 120.20036 14.787592
179.12386 88.047791 50.9426
206.42622 117.45363 19.887617
92.439476 124.323 12.343982
234.72656 75.850128 37.201683
197.94661 56.749146 32.354591
184.95618 96.322266 50.9426
210.53447 68.289413 12.096729
51.557503 75.306145 12.791891
220.81949 87.722282 9.7893829
213.56387 119.02426 39.543419
74.389992 123.36544 28.669216
122.96265 59.909534 8.6423101
72.797668 98.264206 8.6423101
67.444763 118.88342 23.877167
82.532066 87.315201 8.6423101
185.78539 79.08654 38.472855
149.90439 111.06607 41.496269
210.3741 96.17067 42.887688
130.01408 78.840874 17.576241
210.24164 68.289963 15.03529
66.813736 110.05501 31.358837
118.45614 125.08083 25.600368
84.722565 90.788971 8.6423101
57.909355 77.233475 10.641538
98.593498 123.42921 4.7784433
175.69354 112.19259 52.462227
203.04611 64.651505 1.6445847
193.56332 124.77634 19.773485
97.839165 66.920403 8.6521053
85.328865 57.567142 29.461683
81.411087 71.675911 17.905922
117.24815 90.237808 47.942806
148.69736 75.116524 38.938126
92.802338 109.592 23.424894
153.28586 73.948097 36.209324
166.97845 67.767998 16.582153
68.027222 114.06142 25.882587
66.266472 58.002197 17.104435
184.40199 110.198 19.385754
197.56686 56.881546 32.807442
149.08807 72.535599 40.060623
188.51338 59.651783 23.767403
79.231171 111.26895 26.104473
121.1688 83.428818 8.6423101
170.82109 125.70758 17.721756
154.98691 106.44522 54.347244
209.79834 93.353279 8.6423101
140.24379 58.133156 9.3863325
81.234833 66.920403 3.5064759
54.213638 107.64732 25.026314
79.400711 124.45135 16.791243
197.3981 125.91435 1.2923225
235.84091 74.066826 33.539104
135.01207 69.679733 17.476166
107.86481 89.765656 8.6423101
86.357986 102.25056 8.6423101
75.236382 118.52505 22.149218
91.776382 109.8114 28.326258
94.987732 71.675903 22.935822
138.67941 108.43436 8.6423101
99.125793 123.95879 30.759768
177.65895 111.98901 28.677883
79.722237 104.61914 8.6423101
109.80635 106.11317 42.400181
54.874825 73.845093 26.065504
188.79936 87.798607 51.185902
240.75473 88.267776 25.085537
205.91281 77.697098 8.6423101
113.11864 78.990952 8.6423092
192.04364 61.733448 42.033348
89.041611 120.33945 28.751472
225.06914 121.83085 10.426181
186.46045 64.391403 46.147179
51.558125 112.00957 18.245274
84.102707 111.13203 28.265415
137.87923 82.91597 8.6423101
90.364388 57.005005 14.75393
197.37335 99.772766 8.6423101
158.99686 91.550354 23.150185
121.0918 80.328133 35.256805
183.19984 64.559013 21.173063
231.45726 81.207146 40.605896
222.01436 116.45468 40.070862
148.14529 105.23972 37.352097
65.092018 58.04084 17.554699
81.170654 120.98225 23.677402
180.29257 69.54081 13.311163
118.40356 63.565231 24.487757
157.03149 82.991806 19.047228
102.39291 69.565933 36.460945
196.97238 125.823 18.676937
208.51895 58.75174 19.726814
181.07925 83.466995 22.026825
83.770264 124.44064 3.7936468
107.7815 106.49922 41.124767
123.53073 73.112701 8.6423101
83.046486 123.27702 18.136847
162.93275 110.33495 16.663187
64.689346 89.753998 31.911245
71.441208 58.792454 12.538862
180.16014 81.513687 35.863686
80.583588 109.592 23.507059
54.507591 74.686852 25.758877
142.99724 64.840576 18.359188
163.62433 119.05447 42.567265
116.42423 99.170662 24.738628
200.62642 115.90799 5.273468
142.20271 110.98707 23.774998
236.51797 86.400909 34.007793
196.97617 57.004997 10.983765
173.38966 110.72094 22.896597
176.54657 76.687737 54.095581
60.490711 62.374138 26.717878
106.37256 71.986679 39.473465
197.14923 99.610123 49.077576
228.06688 111.56174 40.360092
200.82822 66.920403 10.31278
199.20956 123.52835 34.989529
208.41919 120.16827 9.231842
109.0551 110.81949 8.6423101
80.038277 63.201965 22.91132
177.32104 118.99932 42.981091
153.08658 115.59155 47.359402
190.27151 56.845875 4.1548605
185.49582 112.12228 51.615555
146.48312 66.435555 20.412916
51.688347 80.978088 11.65114
183.1597 63.352196 7.8410506
173.75252 62.5061 19.440327
216.16309 121.9594 9.3623924
70.704292 62.089092 8.7714148
225.23888 62.179005 33.742992
161.5596 93.922272 54.834801
60.684608 104.63184 10.168684
176.85587 111.41956 52.856346
71.604477 83.867577 8.6423101
185.28055 87.943787 34.487953
186.28207 101.3578 45.072472
219.07982 82.227173 9.6219654
151.39832 125.97787 23.764
125.73663 82.623413 51.262363
96.327942 72.878372 8.6423101
54.245899 63.644192 22.152925
169.27821 71.32988 22.97896
149.43021 101.10701 23.813234
190.28777 117.41448 45.16703
235.20143 102.50288 31.680767
182.72458 79.862572 50.9426
116.47617 59.74313 35.944534
212.01521 99.454376 8.8443031
157.05835 110.10189 19.852894
196.75381 63.651222 25.829472
187.00063 80.181923 8.6423101
101.68672 79.295341 8.6423101
184.5715 68.009911 22.69525
141.24689 110.58013 52.972626
83.589706 71.675903 26.760952
120.1656 54.852158 39.764656
131.99658 118.88198 8.6423101
74.861649 82.704117 34.053352
128.21858 109.81329 8.6423101
233.12268 65.863907 11.272837
213.24971 67.685631 9.0094318
83.182114 93.680992 35.550365
72.737755 66.075546 15.970564
102.33463 122.22768 19.717669
134.31221 125.03833 27.570637
116.20782 80.750549 46.833347
235.2702 101.87094 31.639782
146.79185 84.379257 54.812004
59.187836 68.950256 24.95977
204.58344 125.80846 11.822525
73.762192 61.308697 19.392735
184.79359 110.324 41.105167
104.56831 85.140419 36.110401
239.58667 113.46193 26.25939
157.01692 80.69812 18.610691
186.12598 76.335541 8.6423101
167.07254 70.510063 8.6423101
94.168365 71.675903 14.14864
220.89423 124.89622 24.924486
136.1068 65.598305 8.6423101
148.43605 87.726067 8.6423101
190.01855 125.50198 5.8703113
110.54902 56.726196 15.625742
88.219482 114.408 17.000469
191.86166 115.908 24.037865
81.847061 78.163727 8.6423101
56.765152 74.144196 23.516235
79.060089 61.224197 33.257515
147.33797 86.27079 21.169334
136.39464 106.68639 53.467838
70.300095 81.075592 33.131496
80.735077 56.896461 20.804813
99.743713 123.81675 18.490866
194.82095 115.908 5.0497961
178.66315 62.506104 30.442585
194.11371 125.823 15.645372
89.076973 63.464802 -0.69109094
169.00713 100.24467 8.6423101
190.84637 125.54946 16.502195
184.08896 106.79431 45.567406
197.76613 83.685013 48.916359
80.629509 71.675903 10.697298
225.56415 73.382774 10.350343
177.2979 69.381119 8.6423101
124.73862 69.272224 17.730642
67.753746 120.67072 26.478348
152.75078 70.564201 8.6423101
125.89616 62.55965 42.157684
191.07004 100.98995 8.6423101
143.60318 82.072853 24.302917
197.3746 87.858704 49.196762
166.08905 61.721828 8.6423101
82.937828 121.73699 24.701597
183.92049 64.763351 46.633446
178.52603 125.02107 14.220582
235.45914 89.058685 31.63055
191.92995 79.398903 51.34827
65.799324 109.79636 27.508499
235.57391 89.022598 30.552631
165.9281 97.686897 16.603191
198.16669 55.701233 27.98579
138.48425 67.056595 8.6423101
233.1322 59.008888 30.176991
154.84151 81.688873 54.72031
226.63736 61.461952 37.784973
179.70042 55.485332 17.254778
187.26949 125.74922 22.027056
59.701321 61.668213 10.859771
152.04439 71.859589 53.789375
55.630081 82.82383 10.943102
201.93163 115.90799 21.193686
50.896851 98.073647 12.255504
204.1851 62.975578 22.615959
158.92387 84.104973 54.802658
203.24356 71.070801 19.246714
193.3782 122.71047 37.08194
100.3174 95.010437 36.630497
214.03574 124.47878 30.447767
136.04633 102.69915 53.808922
173.15935 66.535294 48.88155
133.36736 62.294941 8.6423111
168.56744 55.03289 22.50021
51.030033 73.373703 19.657749
83.423767 66.876373 34.055454
84.201019 117.00658 28.280701
76.261604 71.222443 23.347889
151.73947 109.31863 30.549944
131.19547 95.002533 53.119186
200.97937 64.732071 24.667274
179.51625 81.714577 20.228188
92.555573 123.31377 7.5617714
64.481476 80.179375 31.552227
90.32959 67.819275 28.55121
194.46336 91.521347 50.600475
150.35513 109.09933 53.89418
190.60234 76.433578 8.6423101
103.4195 104.02711 8.6423101
77.143784 117.56781 19.538298
59.196045 63.422699 23.716316
54.07402 72.512032 24.224152
122.13251 124.31613 14.315977
74.233475 81.607506 33.870167
60.818718 120.81473 23.850254
87.517334 68.781708 34.794357
150.57126 96.415771 26.29282
182.34128 58.262154 19.650103
107.41244 91.139114 41.976467
90.636948 71.675903 12.129287
102.60233 122.30173 19.217144
111.42091 71.746246 8.6423101
121.35534 56.541321 15.780859
75.08712 116.15175 21.870113
185.58716 96.221588 52.170681
148.62523 85.012436 38.730938
96.202171 61.19772 26.52211
186.02641 84.010651 37.218399
162.94 121.23516 8.6423101
80.521362 106.76029 8.6423101
205.83949 123.36804 4.1866274
66.386948 58.930832 13.268002
234.06888 105.40108 36.952377
150.71695 110.17453 39.526321
184.72034 104.26508 50.9426
225.94516 76.699196 10.392695
173.13464 98.071716 54.622215
148.16525 121.76505 8.6423101
97.286163 111.41058 36.32032
57.443108 117.73771 23.564463
237.69499 111.7408 11.775909
186.20012 96.14209 37.854271
190.06145 123.21007 26.386017
184.58652 67.053169 31.94721
218.66235 121.00238 37.559933
140.80669 86.620003 21.22858
90.269409 117.674 28.560568
195.72452 71.070801 21.010025
177.32767 87.103661 54.400387
229.95993 117.63169 32.417294
138.31911 86.620003 19.172983
143.76987 86.620003 22.921879
179.78322 55.721478 15.993652
187.71516 65.777344 25.243542
157.58296 103.13541 22.513065
193.68683 83.298302 8.6423101
231.89777 65.021965 37.645634
182.77887 66.680206 20.426411
125.46189 80.737709 17.667385
73.015137 69.45845 17.472672
72.421913 118.12054 14.260263
58.325371 97.934441 29.510387
172.51303 90.681007 54.745262
154.18002 104.14011 8.6423101
105.41364 78.594978 39.965851
105.68546 72.84391 8.6423101
171.36823 111.57144 53.039719
71.788902 123.91934 20.476734
149.95135 79.884018 24.748438
177.50826 105.14325 8.6423101
180.90163 106.7656 8.6423101
98.279984 66.609467 36.10799
95.746483 64.651871 23.652536
174.14244 117.10147 45.567806
224.15833 61.397903 30.627155
195.6118 66.920403 19.143087
232.55927 116.62631 33.3881
186.69278 87.682495 39.938538
125.51025 80.204483 23.539883
61.784889 73.286621 10.096093
152.19496 77.218979 32.216927
224.35252 65.995079 10.265692
106.37668 78.087402 8.6423101
159.97462 72.720718 23.165331
188.83401 59.675625 25.788347
101.25273 109.592 9.5189381
130.65172 72.498253 8.6423101
141.52377 103.31509 17.869406
176.68701 88.065231 25.885586
63.887081 67.115471 9.8929806
80.173889 123.82431 11.430658
89.611801 71.675903 27.308525
232.77811 113.47961 39.423351
183.13058 102.04639 26.618462
180.3013 57.384109 10.183167
196.0761 66.920403 2.248024
97.489349 124.37106 5.0063715
130.5596 125.7422 23.037533
186.69588 71.070801 15.882196
182.80118 90.435745 25.429533
100.50871 59.086269 7.3935575
206.0457 125.54086 19.799431
188.37355 69.43457 25.564137
130.43242 72.986511 51.671623
145.69415 86.620003 28.544453
81.374649 119.93431 23.795635
214.24417 122.55871 35.817192
182.61905 57.805515 20.142773
230.88647 84.778023 40.66745
184.36566 71.0215 45.176876
68.048302 76.481773 8.8947468
186.3531 99.198395 51.185902
183.03296 104.20969 45.177155
219.63211 89.29744 9.6589556
172.97638 100.04086 16.786526
220.2276 73.556229 9.7571545
224.09541 58.106148 32.291862
85.907547 114.408 3.1150937
135.07086 73.352112 8.6423101
94.447067 92.816437 8.6423101
180.76921 64.153206 15.533361
139.99953 67.888565 8.6423092
66.138969 65.306885 9.541563
195.77231 78.166542 49.452129
209.03221 125.52542 25.521496
101.26334 111.30365 21.720625
235.59589 85.238327 28.572123
127.46278 124.56978 14.958041
65.195053 58.848812 13.87042
67.851921 119.12869 31.388241
92.609146 123.56071 28.196785
162.32245 62.5061 23.020569
156.75281 63.991318 8.6423101
78.836365 124.07818 20.931993
165.16942 85.416611 8.6423101
66.867767 108.88779 31.290232
107.14647 84.890778 41.607262
138.16747 69.645676 8.6423101
115.76117 55.159416 38.489899
172.38725 110.33525 53.36375
170.85869 125.7357 18.042763
81.538528 109.592 9.6479654
154.46352 103.90965 40.85276
116.04652 99.986427 46.805859
150.84833 66.835075 42.052673
182.41464 110.198 8.752121
68.519417 81.673325 8.7430611
95.778244 83.123749 36.844913
104.73079 124.36082 29.313135
92.959717 115.30881 0.55496949
155.11507 76.079651 8.6423101
234.18687 80.972221 36.550045
194.68141 93.053337 50.495342
69.991211 108.46724 8.6423111
112.58253 100.72636 8.6423101
179.10555 80.06794 32.833855
184.3869 118.13602 44.363842
160.25171 97.399704 23.159779
122.2991 125.28109 20.092783
182.88188 118.949 38.198589
194.4919 124.1224 27.349764
62.855579 67.5569 30.475346
158.21112 92.484795 16.757759
126.15517 92.90522 51.742142
200.34425 110.198 25.878944
198.32185 90.133011 48.740021
91.868393 116.71725 -0.27410063
131.00359 95.3918 20.777637
150.76416 106.93868 42.01762
235.75308 80.464058 28.085682
86.476822 124.27174 25.125547
210.27606 115.59745 9.2582569
52.097801 72.209579 13.735285
109.50883 68.343094 40.385822
204.7326 56.860397 16.406687
175.56432 93.196983 54.526699
106.97505 111.09334 39.332684
111.62383 119.1442 38.831055
210.30263 66.339035 40.935631
128.15054 106.97603 8.6423101
184.02377 71.070801 8.9772511
57.528133 81.641518 10.637797
127.52931 96.587143 17.625992
117.69743 82.920815 24.320288
204.12311 61.169365 24.774448
161.35767 112.08133 16.694736
208.15842 110.198 12.892517
82.744431 124.323 12.920317
232.07431 67.643028 11.111297
105.57466 94.678383 8.6423101
240.72046 97.319977 16.861696
174.22583 118.949 19.91795
105.05612 65.544334 36.545204
164.56981 93.161163 8.6423101
153.19058 99.655922 35.860695
148.58904 105.81837 42.548306
232.23097 112.78275 28.19124
128.51228 81.214638 24.049158
73.988686 64.145874 19.816277
99.767365 76.794426 8.6423101
221.73587 105.4677 9.9248095
117.69468 115.37601 26.815453
71.434113 109.77118 32.251701
85.902206 114.408 8.5925903
185.0433 80.334129 41.201241
117.62422 56.19455 36.211178
211.7896 122.49789 36.241615
124.85029 98.986023 21.080297
184.67479 90.332756 53.874115
183.06474 82.683853 26.380795
91.819313 63.772442 -0.28143284
152.56166 77.724762 8.6423101
185.09575 83.494926 33.811405
102.77802 118.38187 36.217316
186.32443 86.96785 53.461796
117.93329 64.218323 26.589806
159.55725 117.63187 8.6423101
72.342026 61.310001 8.6423101
135.33829 80.756195 53.822689
184.50006 55.101105 23.836132
103.76611 110.15727 11.685444
148.25337 105.31819 8.6423101
189.25009 66.920403 13.811024
171.51227 86.422676 22.934208
77.698021 116.60187 4.7206211
153.19855 77.993561 54.59436
173.1685 109.52593 8.6423101
172.99857 109.20345 53.683914
65.077682 66.038811 28.017994
169.17853 62.456245 8.6423101
101.286 65.321342 14.925924
178.96899 75.935051 52.35902
114.14438 124.73799 16.145203
185.15102 88.144005 41.171036
218.17938 117.63841 9.5977583
74.132996 71.675903 14.683151
97.218414 109.592 11.621756
234.00992 60.742764 11.547663
189.46266 57.352551 34.849121
185.37381 107.91364 41.082706
193.38754 119.74895 25.63512
149.38478 125.26067 27.365387
147.58676 94.448235 54.834801
99.78286 115.93698 6.1250825
197.26093 63.788342 27.220505
129.32445 56.422485 28.499092
169.82449 103.5511 8.6423101
195.83713 57.039295 18.467518
94.302345 109.59201 26.154835
51.996105 111.90952 21.423552
198.57445 57.28381 33.946255
159.9565 85.491142 54.834801
55.864853 64.77494 23.933712
156.01437 69.476517 8.6423101
197.46986 56.625217 27.188692
178.293 125.53081 28.438898
217.58337 56.485275 18.043446
169.99992 77.206993 16.466955
204.53775 122.12489 22.34437
137.48456 78.382263 53.981297
136.81285 111.22015 52.169785
225.93103 78.011192 10.391126
162.58145 72.424904 8.6423101
199.76903 126.01016 21.72966
170.41788 74.608139 16.479408
237.08653 91.480194 32.363724
234.69299 108.48064 30.548611
60.239891 110.02994 28.021767
195.83449 71.070801 20.427046
65.369637 59.030708 24.013233
118.72664 56.855965 40.229141
190.88777 91.108604 8.6423101
209.41992 79.31575 8.6423101
185.81256 115.908 10.15726
109.11301 102.15644 36.114204
71.72171 83.611488 8.6423101
180.31815 117.94519 36.317581
138.58659 70.496567 8.6423101
197.70676 125.823 13.498866
89.585144 115.23165 34.825565
125.33739 99.180702 23.384792
57.789734 64.026237 26.708698
234.65625 85.192184 35.247566
67.641983 120.77873 25.60173
194.59764 72.777664 8.6423101
91.829086 109.592 9.7610254
196.13928 110.198 19.946537
150.24896 70.462967 8.6423101
178.87524 90.268494 54.289539
166.14183 61.701008 8.6423101
197.65852 77.114098 8.6423101
219.61057 117.25316 40.023216
57.975845 122.00868 19.653305
99.809471 109.592 17.892582
117.02324 69.638199 23.070621
232.69702 59.706543 33.257053
143.76405 109.71751 8.6423111
126.94904 109.05794 8.6423101
108.00971 114.3858 36.220306
180.74339 116.82547 15.413042
120.23203 121.63562 35.929707
236.09128 80.319855 34.610249
170.59863 87.32016 16.490868
99.452728 110.40327 36.633049
184.74489 109.42609 32.526985
168.66832 97.638474 54.786469
165.01175 115.52538 23.064426
178.00787 82.381226 8.6423101
152.86551 103.11784 34.670994
135.00137 111.00336 17.476379
121.1127 96.07959 49.663876
236.42346 98.440285 32.965851
181.77922 100.56592 8.6423101
58.033688 114.25132 23.593885
169.95786 125.65356 17.223623
179.35567 88.178223 20.066202
185.22021 101.23783 41.151623
103.578 109.592 11.296643
145.5385 86.566422 8.6423101
178.97055 126.06053 20.598461
88.93383 61.866608 35.01878
88.298187 98.805359 8.6423101
193.10782 120.15185 41.010826
190.14537 109.09818 50.970783
149.66885 63.626598 34.067112
232.4548 116.49124 38.831749
157.0222 101.25137 18.76885
56.47636 105.56142 10.922981
192.42068 106.24185 8.6423101
125.74232 63.626602 18.845917
192.96982 57.005001 12.22448
107.27216 58.55452 33.450546
238.14435 119.59123 20.285011
115.21758 89.17852 8.6423092
210.41876 56.600449 15.277791
148.4034 102.46244 38.093632
67.489128 64.323616 25.934229
126.85367 124.52491 30.591225
198.32912 110.19801 24.483528
145.42628 104.23411 29.540594
84.182205 57.237366 0.64034468
157.74988 81.430145 8.6423101
93.175072 71.151779 28.032125
56.777763 68.723587 23.443752
122.93536 105.72237 49.558285
67.426201 64.64032 26.183174
98.739609 83.002533 36.790909
211.43741 74.989159 41.459442
137.21202 87.052841 8.6423101
78.996361 110.03639 25.987329
116.62612 74.741096 23.919531
153.56325 108.44877 8.6423101
194.95746 105.62424 8.6423101
225.08144 95.510239 10.249315
202.68005 66.920403 18.108267
177.88396 110.47744 29.324333
191.75491 103.0368 8.6423101
147.05371 63.626602 23.801884
140.02252 99.408997 8.6423101
83.788559 115.9599 24.826754
80.29628 123.84953 11.91914
184.44186 104.71756 53.367577
205.70572 63.604836 4.0685287
174.24196 81.160583 8.6423101
184.41864 63.900909 31.332617
205.60664 55.884476 28.161938
94.704071 57.915497 1.2976954
93.011414 57.005001 17.891724
55.550236 96.892403 28.258234
114.33463 68.952316 36.906013
146.00291 123.00511 8.6727133
151.96753 105.90961 31.384569
155.31134 107.15398 44.661957
83.890068 72.164268 8.6423101
115.04227 62.01239 40.452797
55.700321 121.22035 17.452236
64.148262 72.646111 9.6850271
142.10706 121.18196 38.089409
189.06908 71.070801 25.776894
194.69101 110.198 10.487472
115.9854 100.28807 25.689522
108.66211 97.879295 42.433022
196.21806 115.908 11.98963
210.77646 55.96196 19.738132
87.009026 57.004997 21.228554
149.26257 74.229591 23.525864
229.89624 85.277657 40.6721
157.09311 107.91556 20.895712
108.38319 75.70845 41.627052
116.59642 106.5433 24.42939
232.19507 63.792023 35.977982
87.435944 57.005005 20.168058
161.53378 98.049538 54.772465
89.759521 109.59201 18.63142
61.425415 119.71098 26.458605
136.336 90.176392 8.6423101
233.62692 119.7757 34.250633
139.60521 121.51324 37.316872
216.98061 61.552727 38.964642
200.66797 124.53656 24.61034
232.24269 120.11484 36.114876
70.36631 76.2658 8.6423101
90.731667 57.004997 10.527567
177.42703 89.902008 18.596685
57.821178 109.70474 28.200619
174.1945 74.838837 22.880476
102.3277 71.675903 17.614634
90.277405 64.686478 28.559324
207.85344 59.305973 20.906736
68.701408 94.600639 8.6677494
70.528839 61.933334 8.808733
175.94331 113.27531 23.748972
180.1339 72.300018 20.851212
118.26906 60.815845 38.322571
185.34512 110.32399 40.251152
148.33966 73.128441 37.910488
157.78792 64.166023 45.221161
96.842003 95.92778 8.6423101
74.118866 104.01083 33.558998
113.20258 101.5016 36.125584
187.4537 109.86335 51.632893
156.98227 79.820328 17.571346
90.308296 114.408 23.816498
150.15067 78.215729 41.69154
138.92757 99.73378 54.318153
155.09863 90.627953 8.6423101
185.86504 98.687431 36.627571
93.325371 117.24516 0.30729812
95.392311 59.195023 33.272243
184.15005 108.69864 30.349436
136.49303 72.081146 8.6423101
167.78967 99.842728 23.008778
184.19263 64.241302 19.308643
187.2028 102.65958 39.622253
143.3412 78.507454 8.6423101
191.0437 58.043659 16.568714
188.52789 56.879929 3.9902527
239.16516 93.278587 11.754053
95.224541 86.515686 8.6423101
220.33379 77.654236 40.558701
150.8351 70.161308 53.244785
135.13252 99.406914 8.6423101
123.00802 55.624435 21.779299
164.96715 64.901985 8.6423101
229.61115 58.861477 32.651997
110.2674 118.72301 8.6423101
56.890938 75.800903 24.24662
187.088 88.349968 50.9426
181.7695 76.031342 52.5527
78.056519 90.46447 8.6423101
224.82196 123.21175 31.874817
225.01697 124.38998 27.020416
61.277519 66.518951 10.386721
156.95657 114.98268 16.8004
199.42145 66.920403 3.6984069
228.22348 111.49171 10.666796
59.389198 108.44157 10.528899
234.65501 122.83549 19.53339
109.53169 62.270576 8.6423101
154.79181 74.88179 54.353661
231.3873 65.305252 40.033684
134.46796 97.862343 8.6423101
216.23329 77.774078 9.3131666
87.726128 120.86356 25.787813
79.673317 124.323 15.599538
143.6279 63.626598 19.295425
186.58195 105.37225 38.987938
148.38593 95.558319 38.043427
189.15747 125.823 18.822752
194.6098 120.27359 40.669502
157.85248 97.75766 54.78241
87.739105 124.323 15.63949
124.88757 116.18648 22.198498
173.98274 58.99194 37.590248
206.58034 120.36713 19.994892
77.952271 120.42398 4.4257002
183.52116 96.535255 28.047144
124.74986 81.994049 18.067629
185.57042 118.80721 23.635715
190.04886 71.070801 16.282215
220.94543 88.13121 40.6721
101.67361 62.080009 20.953442
186.27902 99.351997 39.453712
234.81805 89.60524 36.571156
186.34325 98.1362 50.9426
181.8242 119.74455 18.732988
183.06825 111.27835 26.393459
229.36839 119.04623 38.407879
188.66122 93.339378 51.185902
156.98938 110.18033 17.784439
109.62505 67.009659 40.081886
118.42192 66.563408 8.6423101
122.66504 68.898865 47.344444
88.731636 114.408 23.741573
183.11032 113.5434 26.545362
157.08188 72.882339 20.559078
193.39293 68.223251 27.182487
117.65005 98.073975 26.963428
203.56271 81.613716 8.6423101
236.10469 92.932854 11.425063
177.1994 93.07283 27.357676
159.22859 63.523445 23.170448
167.66374 97.165649 8.6423101
174.69966 75.627167 54.099384
185.68169 94.032883 8.6423101
209.78801 58.246937 17.149975
176.43112 88.152245 25.150398
212.24144 73.642624 8.8694487
179.54745 105.64101 20.259663
129.19292 75.895828 51.868866
67.909576 93.642647 8.7997007
176.39351 118.94899 18.981533
135.42918 74.457886 53.256691
74.500847 87.109901 34.099575
130.93474 102.0694 8.6423101
129.20467 102.46335 8.6423092
237.85236 116.04973 14.891928
182.11789 62.788372 19.253954
156.99249 57.659981 34.274178
90.493423 114.40799 14.068075
72.810371 113.87988 8.6423101
92.088585 124.323 13.211222
72.72123 112.71277 9.9719477
81.708855 66.812111 1.8431945
118.05978 84.29686 32.308552
183.67973 79.903183 45.464378
153.32637 110.43221 8.6423101
100.49664 78.037453 36.486938
190.9729 71.070801 18.422089
160.05618 117.04558 16.720804
199.50435 71.070801 24.091782
202.48564 121.83808 1.2509531
185.86771 68.340485 40.810753
207.23546 61.39016 39.878128
234.01936 66.959129 35.620754
219.17015 117.786 39.983799
187.20929 110.324 43.313431
207.11971 66.85582 7.4950085
90.559288 71.675903 24.319084
234.78479 102.80006 34.172825
165.25981 57.144722 11.696209
159.20422 67.364197 8.6423101
157.00449 76.087463 18.236977
133.94925 71.809555 17.497446
191.13141 110.19799 10.46675
199.41176 66.920403 9.7571754
153.30623 80.978806 54.69611
