# .PCD v0.7 - Point Cloud Data file format
VERSION 0.7
FIELDS x y z
SIZE 4 4 4
TYPE F F F
COUNT 1 1 1
WIDTH 1613
HEIGHT 1
VIEWPOINT 0 0 0 1 0 0 0
POINTS 1613
DATA ascii
202.12051 129.10432 102.84003
286.41501 20.723616 42.002895
335.41568 192.61484 3.5804369
278.89081 -10.189648 13.231156
133.95464 27.92292 58.167065
373.50995 50.796638 86.424011
378.49805 127.10607 24.5165
136.90379 170.81346 50.920345
331.05341 163.90401 17.048016
328.77325 134.90131 17.279177
249.55753 68.076469 55.565311
26.998985 93.07444 53.256466
310.73776 194.838 23.381506
371.49884 188.76956 32.375401
268.09882 24.758509 62.789616
228.85524 173.55902 47.360287
335.30185 164.77347 0.95935476
323.56256 54.173504 68.839554
73.152222 61.17828 49.261791
344.7934 -12.038727 17.687929
248.81985 171.49635 56.460224
169.98474 48.010513 99.828468
304.80576 78.776772 67.941544
341.63049 190.97934 60.819233
375.9538 174.4543 60.215225
161.70755 14.917439 51.525578
39.225224 72.530281 1.0342183
144.16641 43.030663 62.904987
356.45502 21.041 56.641037
74.572754 21.348938 62.764633
322.96616 -4.7560663 22.191828
237.6678 23.724289 40.641541
353.53586 110.9325 64.149208
70.744385 14.074282 31.491753
111.63446 19.82597 50.616829
207.22197 164.18301 1.4679358
349.95847 99.119003 18.082317
309.83185 99.728706 4.2201104
257.00308 39.143631 36.569107
398.229 112.79694 63.555935
14.056474 123.31441 5.4596
220.42538 181.66861 1.3607899
409.96106 160.10748 88.09729
286.96075 50.672241 71.231308
287.39273 158.97287 61.935989
338.18015 180.894 38.243858
35.49588 130.55186 2.259973
168.32033 62.15255 100.04204
107.74618 177.07288 36.788433
367.97141 47.787106 59.896038
408.34561 124.43365 33.422291
24.779823 48.213448 32.343102
285.79944 -1.1294676 41.248051
340.66135 83.306755 20.960659
111.03343 127.8562 51.143143
278.15225 157.38776 15.601425
55.857937 39.777111 35.550106
151.70743 11.170253 7.7534232
184.93541 28.327885 24.327118
265.70334 69.307014 46.853302
26.754808 138.92337 16.616781
281.2811 65.614639 120.50755
302.33234 59.529503 58.008755
95.555328 112.61334 1.1996449
396.91125 75.124084 31.716024
293.35098 76.593056 69.277596
287.6181 157.05618 52.825165
355.74432 59.5746 5.6894422
331.07938 178.186 48.634087
408.85822 22.041748 99.509247
153.89027 135.47513 1.1940935
107.88515 90.097 42.08078
28.016441 38.736145 30.232552
75.102921 157.24927 19.002411
315.50726 178.186 28.378448
354.42035 146.00954 92.166824
153.68495 105.37764 24.786074
186.08853 166.19749 31.704096
159.58249 163.75485 1.3328553
55.348297 165.3765 11.454078
228.23274 100.517 9.8556128
370.58179 145.56131 60.839691
304.28818 60.033279 80.012604
317.16785 64.249054 113.32916
28.016964 76.164429 40.761768
290.49188 61.402813 109.52165
408.59061 68.953285 28.184895
103.07117 171.7789 38.542
68.3125 -2.5400171 52.40197
158.58626 79.918633 95.118805
348.15485 169.74844 28.988449
285.6279 192.4507 27.83626
40.424469 169.42938 2.9669228
150.78058 48.403984 1.1677788
246.94791 145.64114 107.30103
290.30368 12.828074 22.064577
96.303413 -11.328631 9.8823166
68.721794 63.015503 27.730022
368.3472 55.647095 70.513046
284.33609 18.184223 69.590927
100.33448 131.82501 54.680832
321.06494 11.890771 57.738945
352.58572 106.07579 40.704655
289.09119 156.87071 64.762306
357.78293 176.88322 63.824459
312.60883 133.825 16.378963
370.00012 9.4894562 4.1252255
133.71429 42.570553 12.987707
400.49271 16.593422 34.402283
268.48767 175.09102 1.5947165
284.39835 192.004 11.473243
300.12469 180.00156 1.3830304
102.6432 195.10898 49.285549
413.25992 100.68315 109.92493
63.217316 185.05589 45.759689
122.12868 79.625015 40.089367
47.159172 76.304054 57.160095
266.59238 168.44649 34.518997
371.17886 3.8258619 35.984589
35.490463 159.592 21.698599
50.729 94.971146 1.060097
341.01047 93.84108 21.402596
364.34015 161.09105 68.426682
295.11978 193.78732 22.945774
229.89514 38.617546 26.71142
272.05554 166.45694 72.516418
309.5614 81.665909 55.322906
20.577751 144.63455 35.32814
240.20941 56.946518 15.861612
25.500168 26.994392 36.788975
119.44365 79.237282 1.1213369
116.56247 129.38843 40.893715
289.73935 144.03467 61.160488
336.77368 59.5746 2.2295668
191.35309 158.93614 24.869015
308.64157 93.814262 4.1255589
173.31407 173.28648 1.3130481
317.15475 61.016502 92.111053
352.25143 64.082512 30.908833
236.71994 90.390732 115.10236
227.86116 166.46513 63.914742
320.13007 100.40608 57.705002
162.89781 37.244644 65.088806
222.4937 166.88348 70.607231
286.20996 74.94574 63.922722
105.00874 15.948729 40.462212
353.89813 109.92415 64.773582
278.5751 100.08017 15.042996
91.591743 -11.1807 9.1492691
88.569885 107.1531 8.7686949
42.598999 2.8403525 31.422117
367.97824 20.025366 19.97323
55.172363 160.17375 54.729366
38.998886 124.11263 60.636597
305.43048 54.693596 53.520668
122.08556 174.94893 38.85556
102.14236 69.637062 72.66069
74.985931 97.849281 62.241783
373.86996 -0.3644858 46.500431
130.97089 65.883194 1.0952874
116.7914 85.43544 55.471786
345.5444 6.5056958 41.292694
322.74176 12.109829 39.565884
168.19109 150.90907 95.154594
121.59621 166.60275 36.429607
101.41846 51.398682 59.47274
294.1199 108.61745 103.39436
283.92477 80.084526 22.654751
98.035828 50.347527 61.190575
424.80371 56.187393 106.839
138.00702 189.47858 5.1542516
120.36032 -1.1799135 7.8904247
293.71576 44.219337 85.478157
152.02621 71.129807 15.75565
133.32898 33.534416 68.161148
14.081165 36.10722 25.977985
201.4214 7.134099 45.172638
31.153008 70.334381 54.834427
46.338562 112.96041 31.954609
134.43201 173.38716 64.62326
321.46365 184.77194 8.9000416
360.39075 125.83897 38.591187
340.2558 125.41547 75.463333
271.90091 152.40054 104.14137
411.17447 57.786701 71.337784
67.720299 63.384583 56.032684
259.69012 36.53941 94.569016
344.19281 -1.3203049 56.217144
77.803017 192.58055 20.172039
55.560226 182.40211 6.5056372
91.693108 100.98911 1.2123127
130.21458 9.7662563 34.171307
327.78323 183.77795 62.275055
71.355316 -12.20514 29.645226
61.78767 30.722361 39.766964
329.38586 88.0177 83.29673
249.45502 167.50467 1.598667
112.75487 50.071625 61.073479
186.11926 123.12902 109.99569
98.859032 69.32489 57.193031
366.25223 192.685 14.823626
146.77205 152.74565 1.2469438
172.49971 40.870087 30.29063
290.07419 82.530022 104.2516
386.168 166.25241 7.4139252
31.615154 24.12258 47.036957
148.60226 170.25644 10.651403
225.26341 173.62009 37.297359
322.67358 85.767052 1.1135523
273.95898 45.017216 75.775909
123.04391 181.57146 7.9792056
103.10492 78.504623 34.332848
136.49283 181.27075 26.659931
411.77643 85.292023 59.979858
208.79764 20.523706 84.488327
323.88135 31.882042 68.696495
400.95795 173.02106 101.78172
187.70676 65.882217 27.238159
353.98438 102.92372 18.571812
276.14005 48.021877 97.550636
316.54962 94.865662 115.34039
346.07175 117.08353 41.151276
243.68961 80.474838 114.99644
339.16153 188.57986 58.859299
91.298538 146.75159 52.435112
96.32338 160.70668 62.28027
335.84772 -13.8882 46.556717
99.382919 136.29997 61.394695
81.688049 168.64038 12.039048
300.29224 82.696259 1.1044564
274.65881 127.6272 114.0304
141.01085 163.24197 42.797859
267.71472 166.70087 72.301704
310.72086 -2.7473123 5.9453526
98.075439 93.984528 26.220413
163.38527 75.952805 1.0880393
314.42651 171.1188 13.322937
348.18665 4.2483778 33.921261
407.44897 78.483932 16.887758
319.1666 -10.834592 50.808361
256.38937 67.811829 73.805489
183.8524 163.98383 51.568375
187.28256 154.68175 94.792366
235.71927 14.439105 31.420687
359.03406 67.353386 35.657036
272.79889 14.83284 51.542801
213.84662 40.95472 112.84088
386.168 180.28888 35.192863
167.24188 38.951862 32.828514
164.40146 74.367371 9.1534538
6.5301142 67.685616 1.0370048
223.72348 20.690409 41.647514
332.38696 0.056111 17.959316
26.419464 71.342667 3.6641402
409.21875 84.744141 31.877098
104.09996 72.870392 65.90033
36.795563 61.958389 2.0588937
85.386276 -1.9495361 41.356117
367.90421 -11.583128 32.375401
389.81128 127.15218 77.771057
154.513 107.47758 4.6372023
320.21768 52.086746 50.592178
111.2177 80.995216 41.213428
342.39029 88.095055 70.924759
405.44492 20.801701 67.615875
119.85875 175.40109 42.302826
136.70755 183.98219 36.708233
325.40289 107.01592 31.044868
48.018387 148.65016 28.812429
39.706192 35.12727 41.802765
414.77301 145.68655 109.49283
325.44485 39.384678 54.799877
67.4888 136.5396 51.006226
355.53589 82.151947 32.555962
239.47031 161.88634 21.186577
294.16327 44.207512 113.79092
12.021635 19.893139 17.315041
190.86055 10.415556 59.827812
346.34274 26.626774 91.844452
354.08456 175.44672 42.361721
110.89133 -10.937418 51.3437
88.835922 85.881668 72.301735
329.57831 160.01132 65.088875
143.57466 48.924461 1.1417778
82.321579 51.71957 1.2506003
117.62798 126.4053 46.027092
337.03687 44.389778 98.98996
247.48424 44.563862 52.688332
81.318085 102.5029 51.180077
207.93039 80.517303 6.628221
16.587524 80.940994 46.321213
286.54187 114.31245 109.91241
295.5152 9.7309752 19.505138
173.50957 167.83896 68.341736
292.35895 -11.985173 30.375336
15.018856 81.091156 1.0402369
338.10425 149.85954 70.899071
103.68674 181.63866 23.7223
346.18045 79.590462 104.647
199.53287 81.001884 26.022308
282.02188 2.4820051 38.979595
408.77191 130.4249 70.19088
231.56129 168.5504 67.056587
2.4848573 76.989502 6.159687
109.41277 50.196888 1.2180059
62.698326 134.98862 58.282646
284.37994 43.782814 93.555969
221.27879 18.614817 40.243717
320.10242 182.06216 30.994034
326.14249 40.630142 21.890369
283.52948 182.21136 7.8599296
105.53891 27.450338 17.139912
333.24841 4.08325 23.764313
394.72101 10.718678 65.22506
352.00043 148.40979 1.2632449
170.73753 172.14865 54.511959
241.75191 38.040333 28.392195
308.23438 49.561764 57.743744
78.551506 81.702568 48.563812
116.60217 4.0043364 53.514359
385.63748 182.05632 16.624207
49.645424 46.584301 34.133415
306.07416 174.32124 64.649551
262.45074 56.820408 80.177811
103.82884 184.537 33.352352
250.20515 80.517303 28.593781
78.368385 126.49193 1.2265058
408.50427 62.144032 70.443901
278.36447 36.787086 110.76374
345.60239 141.96124 69.840591
166.44159 100.52245 23.940916
292.54065 78.672287 64.096931
237.39352 68.980255 1.3225839
330.95938 176.867 18.653038
180.1682 26.623158 69.126122
311.78299 4.8074751 15.359787
99.456726 57.757748 20.42235
65.356354 90.180183 62.225857
387.78577 34.300499 5.241127
152.4213 65.537308 13.009636
363.50641 157.69736 8.0775719
433.70294 93.34758 111.69969
266.50345 140.52214 113.77161
55.431732 14.222215 3.7447505
302.55078 187.19 43.837383
92.657761 70.735809 19.334642
329.04074 117.34778 35.471943
7.1228094 26.605211 5.0508919
110.24255 165.728 21.073467
407.06104 56.721672 89.192413
334.69623 143.1469 14.707275
373.98932 123.33658 10.381346
43.700821 16.524992 2.9052656
20.12994 12.884206 14.37978
253.09851 92.629059 115.51617
83.261871 34.969696 36.089802
81.746193 48.844772 1.2465239
274.84058 144.51233 110.41384
199.92842 79.949181 27.317852
301.38742 10.866562 51.330051
73.399017 170.91296 47.074619
366.31073 11.406054 11.743683
106.58049 -11.126329 13.299438
272.02325 1.961169 21.430204
211.31308 100.517 21.430241
26.629402 88.89048 34.845665
384.65009 0.063761473 20.360649
381.02875 84.985298 11.73007
151.27632 33.710388 25.010189
76.977364 106.9787 2.7307796
392.18674 -11.7708 98.285606
337.69983 3.1004665 36.374023
317.34576 29.750931 61.584923
267.54279 121.65631 4.111774
267.65918 172.01959 46.833538
143.04521 150.69968 1.21692
273.08078 59.39109 121.11454
78.294296 152.97395 66.281242
72.966339 51.211914 38.277344
52.043278 137.35829 61.049866
370.01447 190.43903 3.1642447
87.549652 127.325 42.733643
88.898621 19.200029 53.107201
18.037165 83.982491 46.810387
257.22699 76.831116 20.09111
216.5434 7.8878789 28.377831
152.39285 44.199669 56.60376
395.30664 151.67183 9.393528
54.199726 23.433796 43.218506
224.74765 146.71909 104.67898
408.55182 56.477165 34.890018
295.79517 11.340259 52.779057
74.538429 191.34898 32.37426
314.56332 171.95267 45.953426
68.27668 134.5603 51.930138
337.14886 14.593763 55.32196
275.09311 165.9877 3.9538901
338.25919 2.0826745 15.876871
90.02079 138.43091 52.869843
183.61247 50.606495 8.7686968
178.08939 186.52126 1.3113525
312.08902 32.443924 108.65753
32.57238 47.059074 1.0236617
108.2618 122.70373 53.420605
41.060112 23.730183 53.206432
141.03737 150.0769 1.2255206
33.708355 97.984154 55.805088
-3.0505545 76.989502 8.3532896
265.97186 13.286842 25.005424
260.05591 36.519829 108.39456
82.134155 186.17766 33.842232
39.923977 166.07812 50.19537
315.98251 160.86984 48.950912
257.30042 28.85537 88.591782
9.8465281 23.619797 20.536423
347.17856 58.664974 59.933418
216.90985 -1.0107479 1.3418167
346.10318 91.332039 32.530434
92.543114 34.520779 36.226284
275.04016 17.275343 57.96891
154.36862 165.98322 53.559212
294.05304 129.5705 100.43089
305.22287 -9.8306456 51.443764
319.37131 194.83798 48.245258
365.61084 26.661625 63.5522
332.51035 8.5121336 32.749722
216.40573 159.7592 37.241249
274.92017 42.142868 41.539799
413.52713 76.62941 68.647011
88.550629 40.028305 23.063278
340.29932 7.7843618 29.669479
222.28265 62.523563 1.3130269
142.9476 158.5386 36.250053
267.58093 40.882545 109.39221
90.334145 57.097115 48.901619
326.19131 62.136341 71.765564
282.89835 -11.0545 20.484489
161.85829 11.052936 62.197639
308.56088 125.06418 114.24213
141.53645 50.745567 65.610786
328.80225 10.446432 49.938786
278.81244 3.401433 13.034872
125.31625 89.677414 55.303307
281.94739 9.0728569 20.887121
18.900007 87.984406 35.503536
263.55286 10.305831 13.714264
240.69244 106.70537 114.71442
89.431259 78.480438 9.8169641
141.96736 20.46698 1.2437276
350.62006 -8.6887674 50.766029
192.23901 44.770477 1.3093364
327.47916 116.09006 1.276534
174.61214 93.516403 104.74929
256.46289 55.360008 114.60325
279.07794 -11.0545 11.077427
280.03748 66.08017 36.777317
302.02548 115.81989 103.01395
242.07895 14.39611 49.559357
353.15619 150.85887 1.2823771
95.156631 -9.0259838 59.63625
211.41789 56.631794 5.1728001
236.45013 81.764977 29.330708
61.328697 159.54785 1.1375184
330.11273 131.04724 44.359383
63.121574 92.152451 18.586443
323.30289 -2.8130713 50.268982
375.28851 54.749016 19.36437
289.42688 2.7943027 48.471336
214.00964 26.656925 97.620056
305.87869 44.724899 9.5845814
82.373795 17.635653 8.5823917
103.57506 0.98070991 17.370396
278.9151 33.276104 21.148266
414.00067 73.69017 68.673798
158.00867 27.503908 33.755291
332.39386 76.869957 110.31064
290.07086 61.740959 64.213394
147.30635 51.87553 66.860504
354.43121 97.104225 37.857971
304.85715 33.862118 59.931282
164.61807 8.8917179 17.763256
187.27983 21.043163 84.804214
262.41324 67.402649 98.206078
123.81345 160.95337 19.637293
376.6611 31.807665 4.6938992
375.32257 183.57623 33.373707
23.644138 129.28574 36.560028
376.85437 155.46201 40.786125
94.491348 0.39179108 37.77774
118.84128 178.186 34.862629
407.08716 50.87492 45.769848
130.67261 162.7171 66.965675
121.42538 192.63101 12.281303
322.77832 19.239202 7.4285622
289.57672 134.28999 9.7091007
140.94617 61.636871 54.645229
59.255127 39.351917 50.518532
315.82434 165.51459 58.280872
34.033203 124.3951 24.923985
246.87003 49.354771 114.05268
167.46634 77.270935 4.2481575
62.672543 180.84154 4.7655048
170.10767 7.1252022 32.028423
315.52518 -10.083073 4.7191916
379.76208 72.796852 21.102116
308.30579 142.88155 12.07637
222.75519 68.545349 12.491486
364.32019 87.104637 29.110378
300.63522 30.821251 1.1715671
146.59976 160.82515 12.117889
314.81735 73.254059 14.543485
31.138033 21.997873 42.125111
310.03656 129.18411 29.323475
346.51089 86.120598 36.338375
280.09567 20.079 4.701335
357.6543 24.594406 63.890804
293.18964 43.566624 62.114899
359.33194 176.53641 32.896088
62.500336 30.630264 51.353626
398.63031 36.733643 15.288772
361.49277 30.915977 84.771873
146.94864 85.485725 67.557167
147.98868 14.437832 20.992599
348.05618 99.317421 39.735588
52.828583 171.25801 31.873899
108.7573 177.9344 31.229647
186.79927 137.87785 108.9852
7.3593054 118.69778 25.668554
316.15134 80.402802 65.515106
378.90601 127.18839 27.846928
341.9245 118.16283 21.477705
109.71348 40.423294 43.463306
256.48657 158.89752 17.797079
200.60886 26.194942 14.38849
375.92654 54.396168 71.866135
207.34723 7.2631888 6.4848237
94.656326 107.59573 57.208992
72.196068 17.114088 17.992041
299.27014 67.799515 52.754589
202.35283 60.464272 31.580578
312.93222 194.7312 38.340343
136.16576 127.69197 43.823582
315.58844 141.59163 90.472092
371.55676 158.13071 3.6461678
269.12872 31.746708 89.678055
278.30466 16.822563 24.517963
138.41185 185.65167 1.3280878
339.91382 79.171288 47.401917
71.452805 -7.3395605 28.790823
62.413521 72.741127 20.147099
359.51456 54.231461 94.31311
338.39511 174.98013 59.217476
236.83394 159.26479 45.369053
196.5704 22.578661 88.031662
330.88971 160.68208 2.0135829
111.38383 1.0463251 44.749226
64.216858 44.273384 47.190159
257.4458 33.65633 23.310326
261.84137 82.915428 115.60284
252.80591 30.655621 92.46524
59.4067 117.64713 4.9771576
11.940889 141.60196 9.069067
368.3335 36.274754 80.109314
51.186203 33.879517 7.0672054
332.40671 42.010403 64.10025
136.22412 11.433683 39.706177
266.20477 66.244293 6.8117399
192.707 93.944237 17.720947
295.05389 7.0928574 23.77655
37.128445 122.66262 56.200428
90.4366 -5.968667 12.098871
25.900822 156.87354 40.770149
409.29779 71.888069 30.61935
221.57173 80.502403 9.2862253
131.63696 108.20543 59.804543
231.91385 110.83537 114.332
49.723591 31.295422 37.488167
222.44328 39.883511 112.93727
99.138054 48.174313 12.727023
86.937355 -10.83598 34.546181
79.169243 161.31598 41.398067
41.921932 50.040615 1.0233209
397.56238 166.15656 30.304436
45.85347 79.32724 62.680626
356.04114 -3.4095716 43.263931
404.43402 159.32253 87.823036
342.07114 157.70456 52.79504
328.3685 18.799046 41.056709
41.510395 24.378937 53.800827
48.256618 -1.7487237 34.307152
58.088924 133.42496 34.739616
402.28186 65.032654 27.017523
163.94185 7.1892514 49.312237
332.32129 2.7636099 17.626114
327.35693 182.97766 34.426899
72.787697 166.99655 1.2192296
37.897839 133.66702 26.878433
321.90536 147.93652 1.1380228
395.50537 7.9822292 64.487274
178.30374 162.11298 17.768169
80.226738 74.000458 2.7307799
119.05135 145.45857 52.724842
58.761772 134.28702 48.530544
248.11418 35.669777 112.94398
263.12961 172.6795 27.95348
158.73984 103.40678 13.300106
39.290138 42.859188 41.708134
362.73633 25.693787 45.392853
207.13988 77.854736 27.47451
317.26566 187.0177 28.823324
217.05322 14.558564 20.694567
172.18713 14.850368 58.857086
95.643005 123.37958 1.2261441
222.43082 70.138306 28.588345
52.933369 151.31566 59.873077
126.24805 153.68434 65.650269
312.31442 192.35286 13.615934
337.53122 119.92911 59.341541
19.918812 66.7491 51.86311
377.99005 173.6991 7.076664
334.15469 166.8056 10.434584
62.364594 66.093689 60.198746
39.094788 176.14473 1.0074958
230.99432 -0.31342006 1.4098829
187.96301 80.517303 11.75835
372.77905 11.390666 55.38678
304.37964 147.33943 97.008972
333.89667 50.785194 89.585007
63.353317 134.28999 7.4500632
262.58051 20.291084 56.739342
335.65607 79.455711 78.778076
119.80053 171.38464 59.027981
349.37695 194.838 29.204426
47.784782 42.658669 58.514107
174.09418 44.142044 101.7112
119.66174 45.717155 49.381622
32.763016 35.971767 46.561653
91.071724 148.28278 51.957764
300.99133 168.36299 23.789162
337.35745 146.56161 43.375313
348.47141 -11.1807 33.777866
295.84332 -12.516472 30.562677
236.99129 166.52229 53.191788
96.509323 144.05594 52.551476
385.58749 51.313522 62.669476
279.03336 57.782425 100.12418
279.11072 81.165222 59.766731
351.67981 19.6336 21.331959
25.769081 96.391327 32.72213
25.042141 127.1964 43.781868
242.51544 159.04984 47.173019
249.28946 69.415016 38.267101
161.3398 52.563606 68.453812
58.176201 76.936523 16.391151
255.93375 172.29353 1.6441174
402.14948 76.241623 17.817202
343.43085 162.78992 74.490402
89.289345 -1.0077534 3.5763907
284.70721 1.5528907 43.152382
65.251976 62.880745 23.507401
-6.2074003 73.29686 4.0704432
270.12988 20.230776 13.395893
353.37671 127.94536 22.418741
99.047318 1.4971473 24.100044
75.628204 10.6954 38.97831
259.88959 71.721191 115.19641
242.08669 173.44637 41.9506
389.32318 18.77508 45.350868
324.26819 -2.1308656 26.469009
402.98114 15.562262 32.413956
23.835995 49.438835 4.0638232
271.49469 166.31392 51.234871
236.56705 14.437531 7.9294672
281.72864 10.268227 1.5061201
31.820652 5.3342199 3.1281495
101.37708 22.483425 60.005867
250.86127 45.708355 5.5674915
314.51202 179.9015 53.514442
294.13422 135.8306 104.03657
324.40491 74.325981 79.907379
98.736397 -0.54552436 8.3390083
105.14543 -5.4516973 31.245426
376.82861 192.685 17.797232
301.48349 -6.1289215 37.17411
140.39119 36.380215 35.901089
147.49487 13.881805 66.489243
242.4866 38.911911 108.61597
81.867126 90.374695 64.603844
353.79312 -2.182622 19.672188
289.06989 62.672226 65.939438
275.41049 61.114895 11.402073
287.1918 80.174591 52.423203
164.04501 166.05392 4.2325492
327.18484 29.039284 63.931908
293.97867 132.90329 62.817337
116.9493 149.82298 8.9970036
143.10425 -7.0425339 1.3354832
87.164841 70.703888 70.703133
260.11121 15.66251 52.32753
61.906883 86.125412 52.039391
343.11044 168.98013 6.2328291
309.81973 98.831924 4.1472578
140.95341 135.90274 64.992096
347.32697 91.713768 43.60994
349.00116 86.389915 89.981918
213.00179 31.708778 106.69732
146.71852 150.77953 83.198235
191.40343 30.126381 89.67189
295.11655 10.457777 64.023308
153.05214 37.412979 29.732086
350.16888 -4.4776211 13.006441
124.21438 -11.1807 29.520189
266.37296 12.460573 23.751635
197.4445 111.55415 113.54556
345.41867 35.786022 12.067298
131.83853 38.24379 17.202343
151.88586 44.662197 56.595253
387.28564 78.598328 73.464584
195.20595 166.24915 66.113121
200.87418 8.5044403 17.669056
402.48145 20.195387 37.005478
123.13982 67.11055 70.838539
311.70132 51.805508 7.0819955
143.84135 140.76334 1.1818353
324.43488 32.367619 102.9023
377.36426 9.3751392 30.175259
354.6969 108.37958 65.056374
150.76508 99.234383 90.646477
135.25101 107.57257 67.4394
208.40533 80.517303 2.6281455
203.44116 8.8235922 19.171
353.04819 120.77391 43.045017
367.88565 -11.7349 42.374588
324.49481 154.91383 45.531887
177.18375 7.0653753 48.548615
47.662197 113.96667 2.8226428
69.917496 176.37794 37.612297
215.18329 166.38333 45.100121
21.47617 138.35356 10.247686
93.67318 195.10898 46.851112
261.38223 60.986023 15.914633
140.65396 121.04532 65.908981
260.38235 58.926994 12.059493
328.70499 191.1577 15.160892
170.99792 155.91258 86.940628
40.722198 73.773949 57.160095
328.8118 192.13098 8.4400473
299.16754 177.89705 43.569878
242.83186 45.492195 43.51276
123.20748 59.617001 46.689518
259.02026 158.76408 15.881863
2.7537751 56.440819 1.0336548
347.86212 20.775414 64.745201
106.80675 179.91895 45.047882
339.80457 164.8587 13.412018
65.880234 150.26627 46.210453
297.06732 28.638302 102.7728
268.00943 39.024002 20.848728
351.17554 117.76408 43.801044
377.62442 151.1156 37.792717
316.37787 122.28173 92.670944
42.462349 66.556175 62.097916
380.33514 60.616379 72.515198
290.59183 130.70367 53.618744
339.69983 84.19825 57.190464
234.29176 103.94986 1.280802
19.442842 156.67659 29.629299
363.01135 115.3293 55.688148
140.93588 90.947083 40.592506
96.319763 100.06696 18.246082
275.79117 160.22089 5.2979379
350.58868 103.12589 35.841263
410.39011 49.405479 64.861694
258.38947 22.147755 8.5660915
108.0895 128.47218 41.913475
344.11725 148.54807 71.679565
350.92017 105.92834 13.171898
379.97546 36.94241 69.007301
348.89008 24.949287 33.240887
145.1833 19.436899 65.307594
343.20193 0.056111 18.226906
38.800823 32.610607 43.055817
345.50342 142.00826 49.355297
62.959854 125.76601 4.0627804
220.20743 11.453642 20.992599
336.76685 182.0918 29.54991
301.87204 128.67043 114.13996
287.02545 101.88612 2.527035
39.853836 34.965031 41.051388
255.31091 164.66049 16.693777
335.49603 -13.8882 10.769854
290.51358 99.596954 66.706467
17.770187 51.043911 46.741535
329.50018 17.123686 29.005527
293.51141 72.579102 119.32491
113.80648 79.362228 24.586533
114.35023 128.51997 73.437485
308.05621 31.930195 54.152378
217.82422 29.042023 102.31808
291.95383 86.734291 108.82552
177.40472 99.637756 12.354521
98.57663 175.37518 62.126797
271.86481 146.84372 110.70183
286.67661 58.575813 89.055443
195.65858 147.36356 109.51556
135.72662 53.086395 1.1362145
342.73264 104.94621 34.857521
81.442184 18.790199 26.296225
327.72955 150.13226 45.542126
86.603897 14.451007 40.35862
94.893005 186.9433 34.435738
174.06123 20.513149 16.112934
100.79876 -6.8737025 1.8795781
69.230301 42.708015 59.40731
375.51132 122.21486 24.335695
292.32996 88.603783 109.72539
45.680779 49.912491 33.686134
10.141659 154.41844 25.825258
92.461044 159.58592 59.411182
69.128548 89.598991 45.418411
360.5307 112.84087 67.173706
388.229 62.160732 41.311676
176.87502 50.234589 6.2619915
274.17395 171.83188 61.773766
334.5354 176.45212 59.967651
55.805229 104.91418 57.160099
19.469585 84.861008 53.461372
363.83759 58.564186 46.248901
213.11201 40.386871 66.231186
318.39713 175.28624 48.483257
277.62457 32.641212 60.06723
393.61707 161.9321 66.614571
78.967331 56.023693 55.028481
199.71675 100.517 11.688751
246.09779 170.74437 58.353752
405.20358 69.589958 66.063522
293.35593 94.573196 108.54394
111.15751 141.15149 8.9380093
354.78009 144.71796 6.6537676
76.108681 133.61377 2.5638084
101.29455 1.8543231 58.415642
102.96599 -13.888199 10.510033
351.68329 26.410709 22.733414
74.916733 59.782555 38.573139
301.17331 77.381378 118.26721
72.151184 90.310913 40.023193
93.894592 33.164631 45.712036
404.36523 180.1295 105.93559
257.75528 135.24194 114.02645
83.954437 157.5542 59.405197
251.38448 50.767975 1.438628
114.73353 148.79584 33.321835
121.50885 36.073284 50.626854
396.94983 35.216873 73.519325
141.50781 56.950394 65.933472
349.88586 126.46986 33.673897
312.30334 191.86662 12.22936
209.47836 40.427147 112.73158
299.026 133.00081 97.519257
285.76184 94.462776 120.52235
245.15546 90.387177 29.066875
34.415386 143.91486 29.482906
93.999519 10.697007 47.598877
60.890251 23.62952 47.444359
70.27243 82.268341 30.604664
422.00787 56.723091 93.122223
386.0119 128.8197 72.202095
387.67877 68.525742 35.078007
409.70111 124.12061 47.308308
293.59891 54.413719 80.29377
23.861904 71.815475 55.637871
239.98523 138.36784 113.40889
385.67706 61.914684 37.569744
384.03833 -11.7349 56.830097
89.561852 189.17763 57.818474
310.3468 114.70131 48.988159
60.371223 132.76039 23.815914
294.07956 100.50462 101.60505
137.54034 171.21846 25.881618
64.754425 157.07771 42.086754
261.58612 32.428432 97.130211
345.36484 124.72591 44.492138
414.01007 13.542002 108.51358
146.67633 91.806526 63.813919
152.02223 104.51001 3.4749875
362.24683 -11.7349 15.654992
236.60822 14.436798 10.858822
319.45544 141.78018 88.635582
212.97455 166.36658 27.643415
272.46744 96.242401 19.543011
162.01215 26.981693 24.062956
99.772362 152.23596 16.823339
190.40903 125.90234 111.74217
298.59323 53.004738 106.62617
346.29135 75.276581 11.063667
268.22058 59.511963 33.994396
140.93323 59.32563 36.900692
258.83844 100.517 26.497297
77.495934 62.858849 48.048225
413.90131 131.99918 70.715599
335.47113 77.652542 42.496971
134.80904 21.55261 65.939857
22.086126 83.56353 4.3345346
347.95663 72.010544 36.836586
25.278532 12.754564 25.458157
309.92419 -11.1807 39.606758
376.62469 39.266911 74.527283
284.28311 184.86842 52.991493
288.72479 19.79744 70.342491
300.00742 85.954399 49.47826
331.83701 166.23569 0.50324136
47.397663 87.68737 1.0400453
119.9614 148.11641 29.174765
16.843515 87.706039 35.679424
365.29205 167.95772 15.778938
69.916885 176.51363 27.997553
284.10159 67.339943 92.923553
336.71622 137.55576 94.05999
348.57449 161.92615 10.928612
355.10248 73.533112 36.053593
261.84161 118.44334 114.96579
87.841064 154.15057 53.32148
274.2872 158.85228 14.047373
291.48184 35.516544 112.96101
331.05264 8.2099848 18.4753
300.65927 56.615417 65.010117
20.285372 18.712669 16.869513
167.69786 77.337357 7.5986466
281.41357 10.763298 56.440941
347.81308 126.53368 91.436256
115.87677 162.16 11.287402
236.67302 58.958618 5.0104795
256.01584 50.550125 73.39521
114.42403 12.267041 45.602345
249.35519 6.0277719 1.589841
202.00258 59.875633 31.032595
134.23088 51.770447 11.827044
57.787922 170.86667 54.626911
368.48352 162.95189 3.0153458
52.873566 137.88858 12.889958
201.08467 144.8506 97.694969
363.90399 132.825 35.704556
322.42456 1.951738 40.458561
358.07547 127.59894 85.182121
346.37415 -11.180699 18.191433
323.14465 185.93329 26.303921
318.39136 11.773042 1.8401343
221.32291 72.789871 62.464836
337.24872 187.44843 24.439274
304.91949 127.325 37.291462
186.21187 70.515488 110.46325
61.653595 52.16552 4.5296712
298.23819 87.790848 4.6040549
362.38831 81.360405 29.256105
127.18114 173.14967 43.090408
59.602852 -1.372632 1.1220378
168.20703 160.00014 19.613447
301.02106 84.066643 50.519878
303.7099 11.731353 16.103657
78.015503 60.908836 51.670101
336.51419 109.46547 37.003006
234.07425 68.577667 59.269829
252.81323 46.090172 69.147125
149.76909 108.83976 12.172037
138.40822 165.35052 26.224602
225.12506 43.405907 30.536505
281.01129 176.69394 57.214703
405.81171 124.23314 79.619446
278.09308 18.620012 25.662037
90.853973 69.324898 30.21258
389.54504 14.386322 33.758644
194.07823 147.89487 95.651581
109.76499 86.734116 60.812923
252.12714 47.644009 90.728432
11.419607 76.989502 20.488239
293.65479 1.8231373 35.838799
124.22264 139.93286 23.480419
374.83847 69.714386 29.157516
231.13953 76.031677 11.826843
11.039902 139.72047 24.187452
370.13181 151.33492 81.077972
39.360939 10.689621 22.925495
132.99934 125.11816 14.59428
206.52057 170.80762 14.317939
51.174358 153.11572 5.605278
52.179012 33.679459 43.769775
302.51837 27.903755 52.08762
297.55472 105.13034 66.215553
253.6188 80.517303 19.513414
358.26288 63.570137 24.925642
357.12256 134.43907 95.659538
344.513 194.838 16.138191
356.66629 128.22701 69.84185
334.224 -12.328549 18.468019
366.34583 145.79369 74.671005
268.66479 73.679977 26.883741
339.74368 0.056111 41.241653
200.56636 47.482674 1.3215711
129.71013 88.531052 38.080837
22.160612 43.410526 44.915726
94.849785 173.43188 57.380123
379.03201 48.354485 72.555969
21.605604 148.41705 2.2046101
123.54172 76.682854 34.766953
287.02869 43.100365 113.82846
359.66724 155.45901 62.526455
326.23795 141.62126 82.505013
53.641609 17.28278 1.1015759
307.00381 14.085018 52.880104
323.8075 105.325 6.4142137
349.05029 6.0428462 26.967264
337.20145 104.29427 35.738632
77.242874 99.908318 57.772125
27.715336 40.666756 39.346313
167.72183 40.190159 27.276918
357.91321 32.602066 1.2953159
69.876373 103.90018 1.1764262
167.13571 164.21623 18.363375
138.65141 20.525496 25.577866
359.54575 166.793 31.698063
120.13882 -11.1807 17.790638
77.352707 101.32729 50.82505
93.206009 -14.159 13.370741
325.66858 17.617733 73.821472
16.633207 160.55136 32.397686
92.478455 172.23923 54.705963
127.92313 119.15555 57.94453
137.38737 177.77928 63.044228
160.80009 65.36248 9.9493427
365.60962 109.16095 30.885876
300.42743 191.18042 8.5141201
323.85034 -2.5932183 26.447803
142.38773 7.3128371 50.219059
61.673195 4.9874024 11.547419
340.52548 158.63583 12.651048
366.28183 59.853668 35.633232
388.229 83.428139 56.599228
258.09653 92.296448 30.225681
136.78543 177.38144 24.790531
225.8374 51.11306 25.45623
28.401676 133.66701 43.380589
208.84877 166.33792 11.421085
350.15887 96.615303 39.824898
320.63818 55.861786 66.737724
309.83441 192.16577 33.038658
77.865417 156.49873 30.322588
359.45667 177.35483 22.674219
50.732899 37.313271 61.274498
342.05511 59.206947 52.710716
287.96802 141.64693 107.14641
335.26352 0.95171392 22.886953
124.74544 141.97968 24.304859
96.933456 177.26981 36.340321
137.63562 -5.0273666 19.914883
71.291885 84.375534 41.937763
312.87735 14.768171 16.517773
111.72375 180.87489 26.66003
326.63669 122.96897 112.75116
125.00566 141.58185 9.0862942
307.93085 9.6735096 10.302649
333.50613 175.35818 57.930344
277.83569 13.955072 32.240749
333.8772 2.7636099 11.265072
385.55826 51.669647 50.914093
114.82578 97.552261 38.720955
378.10712 114.15868 37.751179
325.50613 180.894 12.652887
52.404633 156.58501 52.535828
154.29599 102.48862 2.1175189
97.450676 98.779526 1.1934283
6.55092 55.834 29.443029
90.416962 71.324898 36.957649
183.11348 7.2176657 15.511799
109.49109 49.873772 61.518883
300.25403 66.9338 55.843903
364.57922 146.24289 78.027733
247.97714 161.42676 44.716103
161.91968 35.011551 75.592072
364.58932 158.15839 48.524612
-7.5121975 95.869476 1.0406847
39.699738 68.069351 10.006723
388.94983 160.65421 55.468468
16.791336 110.69917 48.728901
182.27513 166.17238 25.239874
19.082985 56.008923 1.0304009
43.582695 30.702215 33.104023
365.41254 155.57701 60.053852
104.46498 180.89401 44.25005
193.98138 34.831268 87.330612
72.129097 -11.277456 36.647171
161.44287 24.992636 25.195324
230.83923 9.2922697 20.992599
342.71893 93.145309 46.160572
242.33478 38.339844 109.24223
351.61249 105.62472 42.87159
198.4209 17.83951 10.49126
96.666412 190.21825 39.126099
142.60709 155.18965 68.157951
291.17178 34.233936 112.51611
330.39725 190.35654 14.465515
343.74069 18.399305 51.936913
322.98056 59.917061 77.712112
62.737484 71.502884 50.579323
190.32011 32.537148 20.452225
27.991716 58.996819 53.633564
138.26964 97.085793 46.890999
104.74319 -5.7855253 35.714417
345.10388 22.505711 26.448814
261.62527 188.94249 1.3710458
72.089828 56.337269 54.729385
58.176201 47.030766 43.115574
162.57483 68.243744 1.1202714
325.46176 -8.9550295 60.879009
130.85365 170.3233 38.308281
340.87415 162.20454 58.058945
343.58026 76.663483 45.446518
407.01129 152.97011 49.847252
113.38474 104.15565 61.885071
68.234642 88.831802 14.384869
19.258688 109.57188 1.036765
85.354591 20.093395 14.838135
144.93051 160.43698 65.527031
93.875885 144.11218 52.16243
357.79358 0.68516874 38.965248
115.30994 7.9789991 2.9115729
245.48482 173.42709 36.352783
343.54266 68.675262 73.094635
289.58984 106.65829 119.83405
249.28828 162.05774 23.259272
330.26846 180.894 47.945076
199.67543 16.317642 10.049894
109.86321 126.10309 38.718727
16.003273 50.669498 31.217651
271.32263 64.400398 103.26186
387.78528 33.185726 37.245178
6.2438679 76.989502 15.8365
307.13702 3.1696029 34.543312
52.778488 34.815624 3.3875597
262.60666 157.0947 94.786568
27.169065 70.325958 33.258522
274.17902 179.13304 1.5490271
348.92996 36.640728 99.359558
383.55487 45.982666 79.855019
342.13016 178.7318 45.439934
193.58733 143.88138 88.334282
120.3959 144.60577 37.376064
41.869759 141.52365 58.615978
348.18164 153.04826 60.618141
193.38176 13.844654 66.456482
254.03835 -10.443408 1.3218002
388.229 113.15608 51.501274
139.99312 125.1193 48.073097
247.07866 23.940475 94.33667
239.16855 9.7810278 1.612112
140.93822 77.049347 43.845383
107.26453 148.09235 34.276054
27.401522 103.96 24.48712
107.9546 131.825 50.109413
88.783493 69.32489 12.381439
121.55411 170.29068 6.8358774
164.88644 74.070694 64.466705
104.70341 131.11124 71.686279
297.72794 91.638527 8.1469288
309.62042 126.00059 95.102112
205.21899 71.758125 1.2290045
307.40625 177.47118 23.211712
269.1088 100.49356 16.718128
347.41895 124.06772 45.45536
341.76373 175.339 24.671343
393.88171 86.659187 74.368591
73.899078 5.4254384 28.385002
130.39041 144.68391 20.456089
120.88525 189.1655 17.384745
323.95367 173.93866 25.469456
340.73792 42.334732 104.74743
322.48871 166.892 32.226654
181.08389 166.1609 48.069427
327.95819 53.047089 75.220314
347.31497 180.54413 20.06403
40.66333 156.69736 50.258125
363.36664 119.42415 58.558876
114.70659 192.97485 32.296093
-6.3299198 113.95309 2.0074425
49.835167 28.35203 47.217583
428.93256 32.934486 112.47011
300.13086 9.758152 58.222687
94.152245 2.8306949 21.71312
368.51514 142.2751 9.3584776
351.41595 107.52069 35.259384
326.03119 183.31778 22.919731
71.458733 161.12195 35.883408
224.23376 20.56517 31.166586
403.5976 1.4159536 101.96676
330.98718 76.871391 37.840702
341.38422 190.9332 20.560661
333.47141 -4.108181 29.67997
5.354691 149.01933 11.328843
86.366425 183.47055 42.633492
35.95953 38.477516 10.33788
204.79727 168.06479 3.7970264
363.59973 67.499336 42.125904
70.470177 -0.68776417 23.597315
143.59888 159.48581 5.7734876
101.94537 169.54486 38.542
359.7056 20.412661 24.669033
41.359379 74.203285 45.062408
253.6442 80.281342 20.576557
278.71213 17.137835 73.481842
280.19476 0.73294306 16.497169
38.127075 112.20123 60.598755
131.48453 165.27205 47.350983
411.16071 69.764915 26.903976
340.38318 92.561462 68.603622
29.645908 65.456711 34.57909
173.76981 75.289093 1.1289811
187.57559 34.366669 98.753975
181.20111 96.635033 2.1485221
345.83435 103.05907 64.182518
107.25375 142.91893 43.321289
299.32428 61.236206 118.16702
112.93321 -6.242559 34.052536
213.18069 28.494083 13.283296
123.45534 -10.7158 12.856694
272.37915 56.568497 5.2116737
135.08376 22.052788 73.91523
105.83963 178.186 38.193153
102.96971 13.835559 9.368494
230.07967 135.76497 1.4111429
327.46707 4.5900002 23.317171
411.22433 106.25037 53.702957
74.180359 85.789352 63.444214
167.77625 160.76471 13.832453
365.85712 88.547791 8.7683001
163.98557 14.894559 22.947161
180.35994 153.77399 88.779648
284.82773 192.004 42.576393
350.44617 157.98602 1.29923
406.3638 26.801685 64.489586
76.174698 181.50169 18.355598
28.444489 153.89473 44.49329
350.24994 -11.6807 39.429535
385.3205 36.81189 35.720715
356.89612 178.85628 41.292099
345.40436 121.37486 36.397041
374.19293 157.8895 40.25462
270.07025 147.10156 105.73843
80.408165 58.539318 71.586021
307.92307 14.799525 48.340546
71.166473 4.9326005 16.27297
329.12646 190.53841 60.866505
339.5014 -11.481339 60.510902
294.39661 13.166586 32.39481
257.8302 33.880108 92.13121
282.80243 161.81795 1.4464433
84.465492 82.361832 3.5737782
101.08731 41.888309 1.6048154
402.07983 153.62447 70.930908
365.37479 12.863462 19.16563
83.60186 86.430634 4.0582924
86.200699 38.508636 18.846134
297.72238 120.96699 8.185276
159.92329 156.91962 38.785896
106.04166 78.944153 73.246582
23.921877 77.141853 32.014385
309.11905 111.84747 3.3526871
302.78772 83.752151 46.995941
326.46115 137.46141 89.817451
98.43335 20.4771 54.906662
348.11166 125.77142 33.100708
225.13135 173.78783 1.5119612
293.35706 37.226665 69.55146
298.19537 59.126839 80.299828
269.38956 35.813549 104.23283
41.82272 159.13359 1.0216584
358.0408 77.652664 35.909157
293.34857 141.15948 109.24287
292.17181 8.947752 1.4362439
120.4236 -13.888201 36.854256
374.82523 8.2289028 6.3393707
137.94022 145.5302 1.2142749
278.60544 10.100329 41.380707
134.6409 190.77832 51.570885
125.15559 165.75952 45.780869
144.99226 141.03735 84.239555
329.38074 42.716331 92.69326
371.80994 45.895485 86.673882
296.0972 160.4212 36.612831
277.11591 45.529266 89.872574
374.18658 93.852371 71.669289
76.735374 67.4823 51.255402
47.692211 46.584301 43.053047
141.48151 110.49691 31.513344
277.5506 74.565407 1.095214
345.10403 18.198944 17.384371
406.15521 128.35938 17.440727
51.726601 139.35303 14.583159
319.59775 148.37613 47.174324
271.95569 26.10148 95.914162
415.16037 82.635941 109.93176
306.98691 61.98457 4.5106916
226.30026 166.44814 11.614821
352.34583 106.58759 39.381649
98.019669 27.536633 1.2957476
128.59523 18.559914 52.215752
82.943573 20.861679 56.590172
388.1243 88.518837 22.678772
95.872498 148.6935 50.601421
136.93568 132.08917 66.962212
344.12955 50.814739 11.349419
83.480492 -10.9467 18.874134
189.60498 34.793514 82.603653
340.14801 -11.1807 11.56329
380.20306 5.1036558 8.7168522
63.617764 34.830982 2.2126226
332.67126 160.34866 36.534542
334.13947 181.05811 27.511311
375.38422 68.638153 41.116138
286.37659 148.53369 41.897457
343.22455 67.04126 27.808079
141.85345 162.71251 68.243454
102.16989 162.61644 41.804794
340.6795 -7.3383226 46.553253
277.55096 16.509691 77.693726
382.03592 192.68501 22.945808
245.17209 46.873329 113.83071
254.84772 49.495712 78.328087
33.24704 140.18655 51.562996
123.18249 -2.79074 28.155622
372.86279 1.2038188 24.68363
2.1811986 107.87491 5.4596
29.619349 49.529724 52.548794
295.31528 13.227663 31.912596
201.23688 19.290878 22.343086
379.96368 38.922249 44.714737
105.89857 18.220688 28.15991
343.95319 34.876907 66.217041
302.5152 53.327168 113.72105
306.39478 64.44529 80.012604
175.13022 41.885193 1.2730745
399.43469 128.6834 73.631027
276.14502 49.755161 25.633915
123.00871 191.166 20.260635
21.142017 16.989019 26.165325
292.86823 14.040998 35.929623
235.62726 100.517 6.2449932
371.17676 165.54358 46.551071
295.86121 177.20364 1.4115579
370.16684 175.54836 36.384628
327.89972 21.280979 70.717751
139.22163 75.089844 45.69529
298.84402 -4.1113482 28.119656
75.753548 107.61691 70.781036
292.84857 85.724045 8.254159
306.46436 192.49072 30.006292
81.630417 -2.9984889 28.636917
142.37149 60.433182 84.951965
159.0406 182.5265 1.3044031
371.37585 50.018974 9.9030275
4.4970651 53.565552 1.0319736
89.65731 179.49504 61.274124
80.809631 27.526695 37.801552
336.5741 191.74216 50.813263
172.59476 9.7997322 57.786594
400.89752 95.629639 28.684074
86.435905 44.310551 71.049339
267.16022 62.662125 87.102982
170.69652 151.25255 86.930511
341.30707 133.87022 98.139969
192.33978 160.24178 84.322952
136.49005 28.9095 1.2489557
321.78934 -4.5522556 26.9632
401.47995 82.956993 48.388725
265.89886 18.035204 5.1739445
137.60333 9.5783958 43.685715
328.14645 159.909 54.386387
301.58575 64.258781 76.940201
187.36139 150.4221 76.071793
335.6944 70.000671 78.750488
335.27222 95.572983 78.373627
89.148293 133.89259 56.035782
25.138475 162.65944 1.0204246
122.48627 91.38089 46.748852
292.89499 53.016457 61.372459
220.83998 11.502326 64.547455
40.10545 146.75217 56.998245
96.60598 92.354996 19.54608
103.75883 4.4431729 64.204193
328.07071 1.5841312 49.605469
337.68634 40.273407 108.22202
43.839943 34.144421 49.873352
214.79865 162.13036 38.745636
186.17427 147.94646 73.014603
103.98511 185.00108 34.799576
26.07091 172.36792 2.9609044
244.21928 76.090141 52.101891
17.766266 20.446259 22.943199
312.61108 77.321068 95.385437
87.17836 99.629318 43.302814
411.43976 109.17385 60.121067
350.54428 81.568832 38.001068
205.64565 142.20532 104.96559
121.92677 19.766096 59.430054
325.98395 43.447529 60.584579
283.28018 25.060749 33.284931
111.85749 194.838 46.466061
111.21967 82.700539 44.208832
411.26547 37.665199 68.590347
64.989983 61.111145 1.147963
151.91869 140.06335 88.393829
114.74941 61.447914 22.963165
161.38057 77.400414 13.470703
370.63788 34.74781 9.7764969
132.36714 163.46802 29.796661
374.13782 136.55997 10.465702
340.79587 80.426094 3.8759131
340.33835 160.81554 48.764309
117.94319 21.039835 58.0979
278.57095 65.723373 33.066914
130.23753 115.6798 64.752792
95.069305 181.60785 24.441261
376.71048 103.29802 40.643986
45.289764 37.441872 47.407803
33.96125 73.332466 25.113371
371.15161 -3.2298412 3.467978
121.06239 85.120605 42.743168
25.386822 71.463837 56.303398
117.48699 20.599388 63.574928
45.831818 27.679907 51.20948
74.266693 70.906769 54.740791
382.9968 143.30707 37.797882
48.89254 41.718109 38.520996
163.73358 166.05278 9.3476849
154.64983 40.641201 35.224533
316.55453 63.104019 71.675018
85.126389 24.883766 49.301125
259.87051 60.406929 11.237185
383.53836 63.613953 68.42762
339.75668 105.0947 38.410988
340.41528 81.365982 69.8685
115.5779 70.024567 73.93985
293.32898 40.514465 68.303146
184.77299 34.354233 11.81669
204.0152 15.591338 1.4633312
85.864975 127.325 12.629121
8.0207071 151.04488 1.0358204
48.813583 33.973175 14.386793
93.872498 36.552166 48.87891
24.962259 120.5358 3.8895831
30.01 140.21761 11.548113
27.96743 149.75346 39.993614
387.52423 121.08031 32.774334
108.08383 137.65012 56.533073
293.91446 47.3237 94.286995
197.50906 41.202019 13.940965
339.1106 60.324902 23.157932
103.44876 194.13513 45.946472
17.893358 142.31036 1.0254406
133.63742 94.06292 67.862679
275.36798 101.40857 112.50697
385.26013 -0.6069684 33.067154
145.90529 157.46796 68.49649
203.46632 100.37614 108.6573
365.55341 192.68501 27.030277
373.69586 130.94255 42.865299
136.94214 9.2879677 23.949884
304.97986 65.536911 50.358177
33.537994 173.9841 1.009117
207.6646 39.350689 107.03147
245.83136 46.05302 1.8364177
291.12778 5.0052495 47.352638
324.83615 147.72289 46.422089
252.94872 32.58931 55.169113
40.622395 73.805489 59.288631
322.30008 86.834351 58.770561
35.106026 12.010931 43.604198
45.468533 25.87727 30.467093
171.66876 149.62814 58.387253
187.04367 6.9439244 37.819717
350.55167 24.731428 55.263382
339.99014 21.623478 65.866867
82.732033 34.254051 59.201664
127.95612 29.047913 55.05555
408.49161 37.995728 28.280579
199.98312 162.62143 26.264111
108.94836 90.156174 42.502541
389.03784 141.39444 13.39982
379.09827 121.14784 8.4398766
180.90291 169.59998 7.0983696
145.16222 38.824299 61.302639
341.15213 -5.2029829 37.869698
70.479599 -8.0394125 1.7228757
345.65042 83.432487 4.8236055
362.8652 0.66863555 1.7073745
158.17023 174.2787 39.780205
307.71112 117.56377 3.213644
269.22421 0.61542547 7.5966854
128.47806 84.52739 65.95359
303.8877 108.78761 117.62773
364.79089 48.13802 8.623601
113.16541 3.1143169 25.088062
61.582146 137.56834 35.899059
311.23669 150.01236 88.401627
247.22516 166.58434 46.686108
331.57745 92.552414 43.155319
278.40341 18.332424 20.967335
85.701668 174.82071 59.064949
203.46562 33.672421 107.51056
126.56087 81.41423 53.483917
288.46161 35.979557 62.525124
274.15955 18.986101 8.5016642
65.321449 55.195957 44.631607
411.34717 114.74576 60.977821
335.32141 180.02942 43.039539
202.3046 177.71251 1.3547194
305.94861 58.940067 76.940201
344.09247 126.89973 105.27533
71.90023 190.59476 43.993103
81.368324 77.628189 2.7396173
70.92012 189.80142 4.4224973
269.44092 -0.30740106 4.653616
339.83154 75.065117 38.39941
90.979828 33.296394 35.21143
24.341934 127.72165 46.868275
174.7308 14.827283 35.898991
352.87283 88.730453 85.242661
246.50871 59.062023 56.217388
322.95001 -2.9811606 30.303902
363.58511 61.172306 69.388908
41.279503 87.836304 5.848011
211.32658 28.898111 101.59892
120.23023 104.32358 74.375023
235.29976 88.546257 115.00331
143.39444 83.13636 72.072525
154.66879 104.34378 16.315781
95.492973 143.39168 49.340721
209.89482 15.330847 8.8646593
112.31358 148.31961 14.10708
323.93079 188.29617 37.727402
390.47357 146.649 6.803453
212.02141 150.41367 104.55301
419.97577 65.275658 109.99384
43.610596 -1.9647994 26.179438
293.33057 118.0369 104.31915
318.63293 29.444828 73.039558
140.94131 80.337555 48.181332
352.17804 98.316116 86.09314
210.24675 74.111198 5.2537661
92.367477 67.125252 13.977761
332.89594 180.894 38.302998
227.42186 7.629425 49.31337
121.61282 96.034615 36.531269
400.5647 163.36349 16.039728
122.39632 104.58594 42.068581
408.49072 160.18353 89.505325
91.464615 35.901733 29.053659
239.55981 173.47647 40.398224
118.02503 71.95665 43.160381
311.2746 32.786339 60.895882
187.87436 23.279066 18.846607
160.46132 43.204796 1.2262778
201.29263 7.2529421 48.539257
305.43573 14.004707 51.615429
151.83295 53.285137 28.297411
120.87885 40.119381 31.771122
106.36629 107.70707 38.301926
265.97729 41.543331 3.7557466
230.65408 168.14444 67.95443
15.892003 87.484047 46.257805
323.11163 1.5697296 45.751091
54.64175 100.08562 10.096299
293.65753 -7.1352053 1.4198385
99.236496 74.118439 61.127209
284.68707 102.56211 8.1800003
102.10387 114.64732 46.831573
254.32895 133.70203 1.4632529
124.67023 43.089882 9.3252535
365.14688 14.740116 2.3304567
247.91905 86.949738 115.32209
174.84781 101.64295 5.0912638
219.42416 30.306522 104.60615
299.74896 25.888231 48.67128
254.86945 14.321054 14.539914
67.333946 102.00984 1.1614509
145.06808 159.33871 34.250412
356.45972 187.00572 12.89005
109.6703 185.22484 60.504539
371.71481 15.010576 13.736881
295.00116 13.393514 28.508297
369.16086 150.4454 84.054703
345.97308 146.649 2.817342
170.10478 6.9473343 34.124542
25.612516 141.44096 1.0214021
118.83181 159.78391 58.357513
33.438145 31.883547 54.778233
110.50472 90.751228 45.933743
372.68875 -11.7349 47.440994
288.27661 55.926804 47.180565
301.66681 77.806664 103.27243
114.29962 191.66602 51.419975
64.493103 157.89674 43.694225
324.25308 190.88779 44.902855
404.06842 -10.248782 105.1448
75.239128 134.825 17.178295
137.62862 10.045142 55.586479
262.76733 2.5778234 3.1314731
351.96887 89.571487 38.621552
372.57751 70.765213 43.404259
222.99467 33.130058 110.94366
93.600662 162.30243 60.477386
281.10764 -2.6974261 42.885895
149.04315 172.30956 19.595827
145.46889 41.957623 1.1778138
425.02429 23.238276 111.40532
