# .PCD v0.7 - Point Cloud Data file format
VERSION 0.7
FIELDS x y z
SIZE 4 4 4
TYPE F F F
COUNT 1 1 1
WIDTH 1553
HEIGHT 1
VIEWPOINT 0 0 0 1 0 0 0
POINTS 1553
DATA ascii
14.056025 1.7321681 0.19254954
12.737976 1.7443151 0.19362983
12.636113 1.7687366 0.19400401
12.778021 1.7617779 0.194175
12.503839 1.7990079 0.1946089
13.695593 1.8229489 0.19568084
12.28118 1.8839612 0.1958774
13.581068 1.8995297 0.19800979
13.739979 1.9178476 0.19824804
13.034298 1.9210306 0.19887903
12.382459 1.9349768 0.19643772
12.773384 1.9933232 0.19860052
13.898172 2.0115833 0.19737291
13.883486 2.1432428 0.19745415
14.060394 2.1536689 0.19647551
12.328322 2.2066729 0.19613822
13.077284 2.2190607 0.19690119
13.327558 2.2552948 0.19623941
12.899477 2.2816896 0.19575527
12.225962 2.3217182 0.1944862
14.080118 2.3504 0.19407788
12.547593 2.4076247 0.1932347
14.05582 2.4571135 0.19221595
13.243325 2.4781568 0.19216762
13.366162 2.5111189 0.19156429
12.38435 2.535763 0.19087812
14.131561 2.5411472 0.19070798
14.179581 2.5576913 0.19037148
13.647813 2.5612531 0.19064587
14.105925 4.3396187 0.19931269
13.317653 4.4564838 0.19207217
13.069964 4.4983735 0.19088757
13.210443 4.550663 0.1970228
13.983728 4.5562401 0.19801325
14.200723 4.5559902 0.19021255
13.592541 4.5954828 0.19340988
12.930696 4.6415482 0.19753329
12.846416 4.6832304 0.19873467
13.973639 4.8174992 0.19756159
14.085306 4.8472924 0.19353475
12.622685 0.57889301 0.20662335
13.636564 0.63271534 0.20956866
12.561415 0.68244517 0.20018184
14.149033 0.72206789 0.20722657
12.360312 0.8213203 0.20298299
12.351727 1.0259503 0.20433892
12.250798 1.267213 0.20953268
14.229914 1.7712728 0.20534596
12.385302 4.0419664 0.20479751
14.199325 4.5961976 0.20404282
14.171779 4.6640673 0.20020865
12.855511 4.726613 0.20160857
12.844219 4.788744 0.20531668
12.745111 4.8092337 0.20493992
12.474217 4.8642712 0.20135748
14.085342 4.9188919 0.20177042
13.534175 0.57889301 0.21499932
12.830199 0.63570511 0.21054859
14.248932 1.4520729 0.21506068
12.492812 4.0191388 0.21099991
12.335279 4.0217829 0.2180706
12.473414 4.5722985 0.21058236
12.28038 4.5908618 0.21534136
12.533718 4.663342 0.21991259
13.376997 4.7636132 0.21113029
12.936745 4.7733817 0.21556358
12.965357 4.8626518 0.21963981
13.022868 4.8954268 0.2197074
12.710272 4.9174042 0.21114121
12.544356 4.973587 0.21040833
13.753852 4.9922795 0.2155962
12.502203 5.0248013 0.21261689
14.036675 5.0576596 0.21211715
13.867766 0.44996265 0.22309504
12.494583 0.62127876 0.22866091
12.554699 0.72418106 0.22084102
13.895 0.72475135 0.22337258
14.20306 0.72149366 0.22227561
14.046538 1.3481255 0.22368217
12.362381 1.4202324 0.2206571
12.209052 1.9496595 0.22866431
14.260674 3.1657605 0.22779843
12.189734 3.5224957 0.22969201
13.101839 4.9791894 0.22466572
13.362267 4.9972286 0.22587363
12.64757 5.1310248 0.22384232
14.059566 0.61409628 0.23335391
13.895 0.87354517 0.23484293
14.129492 0.89303255 0.23304275
14.193291 1.2875334 0.23300442
12.313984 1.4222598 0.23113585
14.259966 3.5322919 0.23031019
12.562747 3.9707811 0.23637407
14.16172 4.6085892 0.23773189
13.138849 5.1010561 0.23223002
13.201375 0.21922933 0.24912252
13.018843 0.36545444 0.24061897
12.438174 1.3617518 0.24829949
14.182641 1.3644243 0.24923474
12.208217 2.3426907 0.24594039
14.173952 4.4461341 0.24189287
13.581841 4.8744168 0.24753682
13.073145 0.1318872 0.25918981
13.146931 0.20076224 0.25130266
12.926606 0.23227197 0.2550866
13.9424 0.25815439 0.25241226
12.755903 0.26794913 0.25588375
12.443669 1.3651527 0.25594628
12.195974 3.6323273 0.25056389
12.309431 4.3021698 0.25263181
14.109929 4.382071 0.25045043
14.11174 4.4062386 0.25648925
13.713489 4.8037701 0.25272292
13.292891 5.2112646 0.25291479
12.349062 0.95194465 0.26206532
13.895 0.96827102 0.26828924
12.312742 0.98554224 0.26989529
13.486856 4.8037701 0.2626951
12.611684 5.161387 0.26944476
12.768236 0.028135411 0.27654964
13.817384 0.080885179 0.27520165
12.577297 0.13232137 0.27253366
14.109958 1.1631759 0.27494663
12.498142 1.3049309 0.27550304
14.228268 2.7617903 0.27711087
14.219849 2.8820386 0.27616525
14.188688 3.2221847 0.27732819
12.231 3.3458934 0.27007741
14.134995 4.4287639 0.27112773
12.344737 4.5140314 0.27132028
14.2144 4.6219764 0.27964532
13.997269 4.6841607 0.27480677
12.959851 -0.10823785 0.28561363
12.809567 -0.099414445 0.28672573
13.573392 -0.071813405 0.28268576
12.775219 -0.039637599 0.28254554
14.240683 0.67347217 0.28478661
14.206524 0.91009647 0.28730065
14.209799 1.2787971 0.28988674
12.256895 1.6520709 0.28513601
14.170806 3.4284806 0.28164929
12.449492 3.9223168 0.28584573
12.671101 3.992939 0.28763729
12.403618 4.2956443 0.28014487
12.6711 4.3613777 0.28812459
12.758187 4.8249741 0.28147596
12.70346 4.8861108 0.28552637
13.589228 -0.2107785 0.29739872
12.768023 -0.13435106 0.29119709
14.121729 1.0196152 0.2932564
14.119614 1.0698659 0.29304561
13.973296 1.2997359 0.29598552
12.206316 1.6745508 0.29523075
12.207327 1.7696905 0.29329577
12.317789 2.2973201 0.29681408
14.254818 2.5669415 0.29934168
12.195065 3.3183322 0.29502735
14.095995 3.3837345 0.29972541
14.212404 4.0588627 0.29064029
12.361533 4.1122675 0.29446369
12.349899 4.2518158 0.29341754
14.175642 4.2686653 0.29053152
12.245202 4.68431 0.29890937
14.102937 5.0611563 0.29510021
13.152353 -0.24391456 0.3009401
12.254467 0.652897 0.30877191
12.286011 0.81467706 0.30457827
14.055805 1.0528749 0.30624545
12.200448 1.5578392 0.30478108
14.242982 1.5976975 0.30255884
14.241519 1.6310337 0.30032972
12.361229 2.9717002 0.30154347
12.421991 4.3415885 0.30119789
14.190634 4.901185 0.30086625
13.325794 0.58750331 0.31368673
14.240852 0.66980374 0.31903258
14.196924 0.80805278 0.31934339
14.168749 0.83712107 0.31559041
14.12501 1.0632397 0.31179261
14.287055 3.7989929 0.31970537
12.3247 4.253984 0.31835127
12.305573 4.3439474 0.3119373
13.7786 4.4071355 0.31930301
12.252715 4.6213279 0.3178646
12.307853 4.6232419 0.31485313
12.27594 0.35510981 0.32392204
13.357519 0.58885038 0.3201783
12.960175 0.59068936 0.32872862
12.412176 0.66198927 0.32044512
14.045649 1.0246129 0.32187027
12.498095 1.3779883 0.32220381
14.124278 1.3753511 0.32250512
12.202239 2.2620299 0.32141134
12.393874 3.9800858 0.32908088
12.524097 4.6280169 0.32152891
13.344498 4.8299785 0.32284135
13.815147 -0.1876502 0.33253762
12.478543 -0.077511862 0.334571
13.970525 -0.077223293 0.33526284
12.335526 0.15443459 0.33139405
12.281339 0.58837593 0.3381218
13.959422 0.65379667 0.33723176
14.148525 0.68306106 0.33446482
14.189569 0.90089929 0.3311075
12.344802 0.9591136 0.33824912
14.031258 1.2852554 0.33075708
14.066619 1.3088244 0.33527932
14.218228 3.8871825 0.33666316
14.092357 3.9138937 0.33799529
14.109756 3.9155498 0.33096918
12.322891 3.9766078 0.33290005
14.117362 4.2997975 0.3357076
12.254269 0.65271467 0.34059364
14.103189 1.0599856 0.3432914
14.218483 1.492283 0.34006834
14.084501 2.868053 0.34174591
12.345897 4.22579 0.34256759
14.188827 4.3049474 0.34737781
14.203742 4.636054 0.3495034
13.908591 4.6891537 0.3408924
12.649038 4.6971712 0.34832606
12.849907 -0.23318839 0.35446528
14.159429 0.8220914 0.35976759
14.188436 0.82917869 0.35707107
12.323901 0.95347732 0.35299402
12.382715 4.1134419 0.35419956
12.313064 4.1364784 0.35137734
12.343636 4.3072085 0.35952473
13.059819 4.6669803 0.35743144
14.205036 4.7010174 0.35014969
13.166529 5.1333895 0.35815299
13.895369 -0.13875207 0.36538404
12.548456 -0.082180157 0.36072823
13.879206 -0.041092694 0.3626253
14.216454 0.77997857 0.36771053
12.422921 0.99935651 0.36157191
13.900634 1.4027518 0.3699294
14.242853 1.4862494 0.3685022
14.256541 1.989697 0.36264884
14.0845 3.1267107 0.36738861
12.170233 3.5274112 0.36316794
13.987442 3.9065528 0.36029482
12.441786 4.0002489 0.36469686
12.32032 5.0629253 0.36094999
12.671865 5.2003455 0.36974484
13.953398 -0.081367388 0.37677184
14.225259 0.81811154 0.3743785
14.164743 0.93309319 0.373081
14.123511 0.97747332 0.37878895
12.422899 0.99997002 0.37507141
14.12463 1.044595 0.37301201
13.895 1.3346412 0.3739911
12.41868 1.4069526 0.3755675
14.202225 3.4871659 0.37536252
12.16461 3.7275376 0.37507427
12.159781 3.8382468 0.37596944
12.311442 3.9730847 0.37295747
12.562684 3.9721665 0.37924394
14.141923 4.258091 0.37005416
14.116827 4.3398051 0.37182176
14.033945 4.3849201 0.37566209
14.251367 4.7268529 0.37952733
12.749691 5.2119346 0.375368
12.337217 0.7807284 0.38518593
12.382608 0.79763341 0.38667762
13.895 1.3108965 0.38860023
12.427368 3.1848466 0.38832477
14.282742 3.6616628 0.38826543
12.383806 4.0886087 0.38243708
12.375087 4.1196351 0.38672924
12.322275 4.2632217 0.38611645
12.671099 4.3158445 0.38452119
12.6711 4.6424799 0.38687527
12.409193 4.6973047 0.38362747
13.146235 5.1397104 0.38305318
12.49521 -0.090869263 0.39496446
12.736076 -0.069267057 0.39087594
12.312173 0.6560486 0.39523637
14.135872 0.7292608 0.39328015
12.345171 1.0441657 0.39543006
14.117294 1.1248807 0.39597213
12.343612 1.220999 0.39319184
13.69506 1.8330905 0.39712226
13.724057 1.8609161 0.39375672
13.804306 1.899171 0.39343256
12.743933 1.9741514 0.39504492
13.654823 2.0355999 0.39541271
13.673491 2.0450807 0.39553905
12.807743 2.107594 0.39623505
12.958683 2.1063988 0.39622435
13.598262 2.1144373 0.39629614
13.945696 2.1177993 0.39632642
13.452583 2.1785581 0.3968679
12.622458 2.2590168 0.39758554
12.548327 2.3052347 0.39799774
12.933566 2.3064582 0.39803255
12.979438 2.300602 0.39798298
13.640763 2.3154216 0.39808857
13.579369 2.3490851 0.39838877
13.933285 2.4259214 0.39907405
12.827283 2.435544 0.39812708
13.41317 2.4421268 0.39921856
13.538743 2.4787989 0.39954567
12.987441 2.5591912 0.39849079
12.492136 2.6080873 0.39605188
13.02319 2.6025324 0.39992416
13.859477 2.6092477 0.39812973
12.666248 2.6259668 0.39549214
12.809151 2.6408377 0.39502978
13.888166 2.6704395 0.39675641
13.614403 2.751812 0.3999601
12.793786 2.915504 0.39626849
13.714903 2.995362 0.39471477
13.831469 3.003046 0.39272064
13.750952 3.0786369 0.39357555
12.839441 3.0965688 0.39931563
12.59834 3.1299417 0.3926785
12.506745 3.2108445 0.39093831
12.591863 3.3503039 0.39847684
12.671101 4.0350275 0.39768922
12.316848 4.3468523 0.3992179
13.948942 -0.081928782 0.40003893
12.594921 0.6075784 0.40725243
14.129062 0.7496208 0.40227324
14.12747 0.97748381 0.40497765
13.971492 2.0028453 0.4073863
12.185711 2.1165943 0.40741068
12.185767 2.1460955 0.40587726
13.754329 2.5371885 0.40006658
13.666479 2.6322863 0.4008992
13.035316 2.7929826 0.40205821
13.443548 2.812506 0.40181205
13.447228 3.0025301 0.40160823
13.491234 3.0074289 0.40038532
13.359818 3.0418847 0.40451032
14.280439 3.0820975 0.40027002
12.939535 3.3563695 0.40534863
13.381413 3.3679519 0.40729663
12.468329 3.5186 0.40326977
12.165649 3.5372891 0.40889725
12.87571 3.5621281 0.40920818
13.847058 3.5734663 0.40716064
13.591709 3.6261454 0.40977919
12.891366 3.6431978 0.4099313
14.049831 3.914479 0.40897378
12.278525 4.3470173 0.40344229
13.415473 4.8298025 0.40640372
13.628388 5.1195617 0.40605098
13.573021 5.1238341 0.40050733
12.744905 -0.20802298 0.41792059
12.564368 0.61327368 0.41638595
12.514687 0.66675079 0.4120298
13.998256 0.67959666 0.4168382
12.554701 0.69299179 0.4108139
12.329268 0.77580816 0.41630846
14.102534 0.83396161 0.41874021
12.34867 0.96131372 0.41056979
13.91558 1.3952156 0.41882521
13.154453 1.4161911 0.411549
13.375776 1.4548303 0.41154903
12.940691 1.4822198 0.41935551
13.261591 1.5888809 0.41154897
14.259596 1.6010035 0.41862279
13.144321 1.6159825 0.411549
13.40217 1.6219547 0.41276985
13.365819 1.6983814 0.411549
13.283181 1.8127158 0.41154897
13.174814 1.9746685 0.41154903
13.376402 2.0203388 0.411549
13.00321 2.05146 0.411549
13.231129 2.0839968 0.41154903
13.143719 2.1352053 0.41154903
13.364649 2.1673243 0.411549
12.428522 2.1936123 0.41314691
14.154474 3.4676025 0.4190771
13.454109 3.6960478 0.41040272
13.869085 3.7517703 0.41898769
14.224325 4.0130434 0.41742265
14.164329 4.2376132 0.41991264
12.411592 4.3787007 0.41977078
12.250374 4.5984306 0.41870826
13.919884 4.6861238 0.41463882
14.105181 0.7700749 0.42489904
12.328565 0.79348791 0.42114508
14.140937 0.83833206 0.42271426
14.109194 1.1814246 0.42831808
13.579241 1.4747577 0.42977411
12.68947 1.4993377 0.42977294
13.82642 1.5452909 0.42934465
13.998878 1.7981863 0.42559049
13.052975 2.4228475 0.42235869
13.050836 2.4724741 0.42540729
13.351512 2.9159336 0.42495966
13.038024 3.1930838 0.42679924
12.297026 3.999475 0.42051563
14.144344 4.0805779 0.42921633
12.383419 4.0969467 0.42323828
12.382915 4.1091456 0.42369717
14.162591 4.6141047 0.42387709
12.257467 4.7114859 0.42179602
13.742474 -0.1418484 0.43940806
13.868496 -0.044369407 0.43968847
12.33969 0.59632432 0.43257248
12.389536 0.82703221 0.43841898
13.26231 1.2925062 0.43346196
14.108417 1.304719 0.43811804
12.532425 1.3735631 0.43841615
12.676475 1.5008985 0.43054813
13.495752 1.5567253 0.43060678
12.331125 1.8227991 0.43863371
13.089074 1.9046079 0.43561316
12.318675 2.0381844 0.43865916
13.346121 2.4450464 0.43217504
12.246311 2.563139 0.43951759
12.294579 3.0368543 0.43941474
12.233293 3.1299431 0.43677121
14.16248 3.18116 0.43427417
14.009924 3.4091945 0.43915746
12.494983 3.9887304 0.43331593
14.145617 3.9875147 0.43339413
12.356436 4.1070156 0.43526244
14.085672 4.1215801 0.43564951
12.367797 4.3220277 0.43814442
14.078814 4.6011658 0.43937859
14.053825 4.6235504 0.43280533
14.170049 5.0218043 0.43381071
13.600298 5.1672649 0.433292
13.657162 5.166091 0.43373936
13.437592 5.1771092 0.43282622
13.831692 5.1761074 0.43873605
14.04915 0.60638225 0.44339734
14.033297 0.66442186 0.44884583
12.349541 1.0786979 0.44295168
14.118803 1.0890511 0.44865602
13.372716 1.4508719 0.44560379
13.798324 1.4880909 0.44128186
13.87178 1.4850963 0.44893789
14.053475 1.502321 0.44936243
14.136149 1.5057828 0.44425902
14.120067 1.581037 0.44460201
12.313448 1.6750653 0.44011796
13.247187 1.9274313 0.44701698
12.266876 2.4442284 0.44410884
12.182493 2.812603 0.44244194
14.042919 2.9835286 0.44534925
14.025593 3.0861084 0.44764051
14.073121 3.1612079 0.44211224
12.361477 3.2128377 0.4499853
13.776592 3.7615201 0.44010651
14.079498 4.0076361 0.44030684
14.200233 4.21732 0.44217455
12.27493 4.2406769 0.4427892
12.733038 4.7705498 0.44578263
13.518772 5.2403593 0.44145089
13.954216 -0.12880224 0.45936966
12.314495 0.66552842 0.45491666
12.373121 0.84509504 0.4589127
12.344729 0.93392223 0.45848864
14.048666 1.2772689 0.4525004
13.956048 1.361672 0.45673829
12.498257 1.4742063 0.45450723
12.598882 2.3167789 0.45469475
13.053077 2.3344295 0.45358875
12.340542 2.6954103 0.45886412
14.097733 2.9360499 0.45477816
12.259838 3.485805 0.4500142
13.626202 3.7792873 0.45776519
12.336725 4.1134181 0.45608044
12.274334 4.2041655 0.45512921
12.333801 0.044615552 0.46662489
12.29027 0.88556063 0.46784997
12.230818 1.3936081 0.46577403
13.499053 1.4375827 0.46263748
13.801323 1.4460126 0.46337616
12.182493 1.8912575 0.46436465
14.15669 2.1880615 0.46059269
12.181689 2.2192907 0.46913594
12.356611 2.579247 0.46047616
13.009265 2.5856829 0.4646993
12.173376 3.0692863 0.46333444
14.015835 3.1485157 0.46502712
12.169415 3.3097119 0.46777865
12.287777 3.3716719 0.46953085
14.232772 3.9292774 0.46308103
13.778601 4.0196047 0.46000314
13.966485 4.0126872 0.46659723
13.778601 4.0483999 0.46513638
12.344406 4.5203404 0.46354705
14.025418 4.5911255 0.4661319
12.534711 4.640502 0.46051472
12.379139 0.60502386 0.472756
14.019268 0.67242002 0.47003621
12.288494 0.69730538 0.47877952
14.139953 0.86199439 0.47355482
12.254568 1.0587374 0.47184986
14.181662 1.2972255 0.47139433
12.308713 1.3595417 0.47288114
13.604889 1.4282697 0.47470874
12.467265 1.4886705 0.4711234
12.973392 1.7469397 0.47839302
13.844666 2.9512651 0.47654489
13.532056 2.9725113 0.47816318
12.391573 3.4134083 0.47357565
12.381185 3.9274373 0.47837156
14.208191 4.0294828 0.47534317
14.084699 4.1448603 0.4746924
13.210386 4.6669703 0.47028667
14.210855 0.61456907 0.48143995
12.336661 0.79539102 0.48848283
14.115407 1.0328388 0.48023379
12.502318 1.3631966 0.48365808
12.359039 1.6741693 0.48262805
12.524666 1.7673697 0.48239654
13.418366 1.9104518 0.48075029
13.930026 1.9116752 0.48979142
13.003207 1.9229063 0.48455924
12.626001 1.9519527 0.48562258
13.047964 2.5717993 0.48543209
13.886111 2.8876774 0.48213422
12.957006 2.9661188 0.48111144
13.816554 3.9321661 0.48108971
12.358639 4.1279898 0.4899489
12.293599 4.4060826 0.48652893
12.293283 4.4455605 0.48113009
12.501221 4.5903244 0.48212832
13.646671 5.2604213 0.48116884
12.703574 0.641958 0.4995361
14.244501 0.67792189 0.49216622
14.155441 0.86530775 0.49275708
14.139608 0.87025416 0.49463397
12.33916 1.1302078 0.49190468
12.523909 1.3646214 0.49669689
13.031042 1.3943616 0.49678996
13.796274 1.4098898 0.49798363
12.45874 1.4622207 0.49453485
14.264444 1.6039503 0.49841765
13.029303 1.9303629 0.49898237
12.554142 1.9540416 0.49732733
12.180566 2.1229451 0.4903748
14.110861 2.260886 0.49148741
12.308126 2.294225 0.49829537
13.471211 2.3772464 0.49816617
12.3652 2.8200059 0.49041477
12.670992 2.9751363 0.49009871
12.458186 3.939404 0.49944568
12.253302 4.3739715 0.49826309
12.534932 4.6155553 0.49155924
13.45323 4.6132994 0.49076226
13.978319 4.6697598 0.49329951
13.222918 4.8781061 0.49824092
13.988719 -0.11913309 0.50486428
14.272446 0.61378336 0.5015983
14.231147 0.62704086 0.50946993
12.682969 0.64256161 0.50080675
14.162812 0.6940335 0.50765395
14.126085 0.80769515 0.50038826
14.101236 0.86441106 0.50508159
13.427969 1.4320815 0.50658721
12.971762 1.7113738 0.50190681
13.457674 1.7991433 0.50156879
13.069356 1.9462578 0.50227553
12.3652 2.809232 0.50031579
14.160123 3.3852108 0.50552636
12.476066 3.9354663 0.50089443
12.386524 4.0308452 0.50409901
12.515803 4.0374212 0.50720543
14.20813 4.387475 0.50350904
13.783051 4.6512985 0.50522566
13.897551 4.6524639 0.50151211
12.522627 4.6762304 0.50251561
12.335918 0.81215656 0.51856983
12.357777 0.82868421 0.51684445
12.30711 0.86587572 0.51890439
12.50774 1.2560811 0.51382631
14.218323 1.302449 0.5166958
14.072681 1.4164739 0.51299489
13.974921 1.6673621 0.51619929
14.068834 1.7555645 0.51917595
13.45566 1.8854188 0.51116288
12.784632 2.3112748 0.51209849
13.454255 2.3220596 0.51783162
13.342567 2.358748 0.51244652
12.582341 2.5127454 0.51555264
12.384876 2.912966 0.51497525
13.052577 2.9124637 0.51689672
12.550626 2.9206338 0.51378608
13.343254 3.2119873 0.51858741
12.671101 4.1247797 0.51674116
14.147139 4.1484947 0.51926911
12.342151 4.5666566 0.519243
13.708108 4.7614079 0.51056808
13.469824 4.8296452 0.51671362
13.691578 -0.25346911 0.52393335
13.025328 0.65354741 0.52381593
13.379164 1.4531314 0.52426195
13.378317 1.5456636 0.52309108
12.181223 2.3914459 0.52641797
12.406778 2.4333091 0.52494377
14.00201 2.6984856 0.52495337
14.12085 4.1810169 0.52876908
14.053371 4.6566186 0.52540839
12.327701 0.025861997 0.5399304
12.279274 0.70060378 0.53652561
12.256229 0.92120188 0.53788358
13.895 1.165231 0.53765512
12.537039 1.2645775 0.53988731
14.093258 1.3390578 0.53185958
12.244033 2.2256999 0.53151178
14.209914 2.2702396 0.53724694
13.857394 2.3281813 0.53239876
12.405413 2.3494759 0.53091007
12.179419 2.3879197 0.53363001
12.624273 2.4329376 0.53316712
14.084499 2.4482877 0.53494716
13.530254 2.5142531 0.53896224
14.194189 4.0464983 0.53589463
12.264305 4.16888 0.53011006
14.101641 4.4427395 0.53556383
14.176477 4.469492 0.53894597
12.455636 4.5867996 0.53547156
14.207258 4.5865574 0.53318906
12.396619 4.6580153 0.53371215
12.530431 4.6649308 0.53055876
12.902811 4.8299708 0.53908604
13.288044 5.2892637 0.53217918
12.559131 0.73745376 0.54695725
12.418127 1.259366 0.54310215
12.531409 1.5861423 0.54197752
12.971568 1.5946555 0.54018104
13.131243 1.8187646 0.54878163
13.124012 1.8833683 0.54799396
12.177445 2.0657573 0.5451045
13.618489 2.5048192 0.54086339
12.497282 2.5437841 0.54181659
12.630684 2.5502985 0.54012281
12.347729 2.5913856 0.54691172
12.736619 2.6187816 0.5467853
12.813327 2.6226647 0.54618001
12.163827 3.4869113 0.54072386
12.534225 4.5540543 0.54798454
13.555786 5.2615347 0.54931504
13.9544 0.63578093 0.55853188
14.103354 0.65951729 0.55009609
13.953865 0.71246862 0.55281079
12.351475 0.82166409 0.55337632
14.227093 0.85665202 0.55206662
13.895 1.1533598 0.55728161
12.404892 1.3280618 0.55854589
13.966759 1.3245503 0.55406678
12.500678 1.3318558 0.55908489
12.256765 1.4185512 0.55809224
12.689213 1.5005074 0.55800164
13.990053 2.449472 0.5563522
14.050087 2.5731087 0.55344468
12.721008 2.7855024 0.55606997
14.285558 3.1390088 0.55835086
12.156643 3.8177803 0.55290568
12.295652 3.9556067 0.55190003
14.232276 4.0434179 0.55811852
12.542208 4.07339 0.55672765
14.205484 4.4515367 0.55722946
12.463723 4.5437222 0.55689526
12.296752 4.6442847 0.55673355
12.2019 0.51398706 0.5613963
12.429619 0.72616231 0.5615958
13.895 0.80189586 0.5670588
14.197417 0.85340226 0.56267059
14.218647 0.86172688 0.56906545
12.939166 1.3291562 0.56004465
14.168408 1.3374724 0.56217837
12.662298 1.5359526 0.56264019
12.964749 1.5809777 0.56806207
14.097535 1.6984231 0.56308782
13.798267 1.9494948 0.56821471
12.597177 2.4334629 0.56427366
13.413576 2.5509195 0.56751132
13.055264 2.702049 0.56864065
14.06171 2.8032918 0.56626654
12.788874 3.7962408 0.56112981
13.460786 3.8127484 0.56414622
14.058928 3.9617682 0.56139642
14.111462 4.2085352 0.56264555
14.184036 4.4631901 0.5679189
12.99995 4.8299694 0.56740522
13.35252 4.8297787 0.56228352
13.180394 5.2669396 0.56448352
12.928673 -0.29275289 0.57083923
12.653461 -0.23481603 0.57198393
14.237938 0.73929262 0.57328796
12.636048 1.6988285 0.57496452
13.58235 1.7043946 0.57518512
12.733145 1.7731611 0.57663715
12.947562 1.8192909 0.57704908
13.497091 1.8432662 0.57761973
13.764891 1.8403584 0.57765675
13.543111 1.8832455 0.5785135
12.521325 1.9265671 0.57619095
12.774446 1.9468284 0.57995331
14.269129 2.1600444 0.57352304
12.958144 2.4153612 0.5718016
12.537799 2.5444744 0.57356888
12.667374 3.7857349 0.57006931
12.992884 3.8177123 0.57391375
14.180103 3.9673324 0.57452106
13.933689 4.0434475 0.57575113
12.398546 4.5260849 0.57490474
14.160954 4.5225954 0.57155013
14.185717 4.5547547 0.5799287
13.206454 4.6667461 0.5713439
13.198484 4.8299694 0.57947582
12.502299 0.66216242 0.58135825
12.378931 1.1961092 0.58596528
13.949706 1.1936772 0.58286577
12.472456 1.3127178 0.58366495
12.306612 1.3233176 0.58207864
12.35024 2.1095326 0.58196235
13.13295 2.1833034 0.58903599
12.181479 2.3192284 0.58056378
14.281188 2.9638922 0.58644819
14.0845 3.3279424 0.58912885
12.750138 3.7676072 0.58420658
12.804626 3.8009176 0.58402252
12.509502 4.0664897 0.58370054
13.7786 4.0655279 0.58543319
12.6711 4.2620826 0.58413678
12.414335 4.6316376 0.5819
12.377926 0.90861678 0.59029132
14.219068 1.2844915 0.59726119
14.058517 1.2966869 0.59887052
13.743633 1.3089616 0.5912025
14.260463 1.395749 0.5943588
13.985186 1.4437068 0.59389329
13.612069 2.4281609 0.59608757
13.004893 2.6748505 0.59779656
12.510382 2.8425393 0.59158212
13.33427 3.0360041 0.59801644
13.043012 3.3196943 0.59578109
14.22763 4.0730991 0.59645057
13.7786 4.4051404 0.59222758
12.253738 0.19556269 0.60451782
13.691823 0.71824801 0.60120797
12.590634 0.72774857 0.60965365
13.710979 0.72396982 0.60629445
13.987076 1.1737822 0.60085154
12.732128 1.29659 0.60038096
13.980731 1.5285276 0.60242671
13.920444 1.6652399 0.60768878
13.923038 1.6986709 0.60894281
12.180416 1.7799579 0.60697234
13.031305 2.4819064 0.60826063
12.3652 2.5129144 0.6038577
14.273415 2.6716843 0.60040319
13.393023 2.7266078 0.60230452
12.331478 2.7336731 0.60028768
14.143862 3.9946511 0.60711586
12.52837 4.0815997 0.60010588
12.348567 4.1129236 0.60308629
14.134098 4.1161466 0.60209167
12.3761 4.4936485 0.60329843
12.244295 4.5233207 0.6026023
14.014281 4.6102495 0.6053825
12.316828 5.0133739 0.60041726
13.11548 5.1934896 0.6014123
12.259682 0.18212166 0.61757469
14.221267 0.78063184 0.61460173
13.913433 1.1916668 0.61913639
13.67978 1.2765808 0.61963755
12.538748 1.3452828 0.6156652
12.911055 1.4037707 0.61770725
12.178699 1.92295 0.61070877
12.526154 2.2579162 0.61050206
14.03158 2.3463917 0.61680317
12.97163 2.4513283 0.61384004
14.084501 2.6459541 0.61650008
13.059676 2.713583 0.61712492
13.360897 2.7709677 0.61178368
12.351306 3.4376466 0.61496323
14.134125 4.1268525 0.61093587
12.345345 4.2135029 0.61291575
12.422575 4.4820924 0.61289138
12.326057 4.5052395 0.61909443
14.1265 4.5170269 0.61393178
13.922308 4.5844588 0.61081809
14.023756 4.9341464 0.61867344
13.657291 5.1918354 0.61910486
14.136206 0.72459984 0.62441111
14.160303 0.72851086 0.62965912
13.089077 0.74467731 0.62470281
13.615903 0.74155736 0.62192911
12.250526 0.78175044 0.62448716
14.006374 1.1754178 0.62631691
13.759083 1.2688829 0.62935996
12.726146 1.2700686 0.62549794
12.788002 1.2710714 0.62261635
13.876931 1.2972637 0.62132919
13.030877 1.3719033 0.62811202
14.26588 1.4493246 0.62374783
14.112136 1.7405741 0.62258166
12.525338 2.2397022 0.62934637
12.340315 2.3243904 0.6239993
14.057937 2.7680564 0.62828243
14.043262 2.8579533 0.62290323
13.066498 2.9554873 0.62739938
14.282545 3.0814672 0.6217044
14.285801 3.3177989 0.62824023
12.292436 4.010355 0.62952483
12.470337 4.4643779 0.62689644
12.409742 4.5009351 0.62508547
14.085682 4.5033107 0.62313682
12.474016 4.5695739 0.62755674
12.496899 4.6024861 0.6243633
12.247334 4.8831196 0.62931263
12.243881 0.30190358 0.6398474
13.934337 0.6933645 0.63057679
12.350198 0.83512342 0.63204265
13.895001 1.1143038 0.6399821
12.244132 1.159359 0.63630283
13.375969 1.2384157 0.63957679
12.294682 1.2765988 0.63587606
13.0538 1.3752909 0.6338163
13.917573 1.3740965 0.63191628
13.850409 2.204952 0.63258827
13.4382 2.366359 0.63287014
12.401957 2.3763604 0.63996524
13.316624 2.9598339 0.63994139
13.294535 2.9719529 0.63989991
12.557472 4.0969601 0.63947845
12.242746 4.4482059 0.63020897
14.035505 4.4814315 0.63829756
13.881018 4.5525246 0.63438153
12.396922 4.8702006 0.63254589
13.708446 5.0940371 0.6340574
13.316895 5.2029409 0.63839865
13.550777 -0.28725559 0.64838767
13.755298 -0.24959941 0.6431486
14.117413 0.0029518437 0.64243484
12.258637 0.85286796 0.64191091
14.225835 0.88671577 0.64139354
13.914444 1.1679931 0.64771873
12.844784 1.2394847 0.64883101
13.47097 1.2435868 0.64035594
12.404173 1.4046973 0.64628625
12.302894 1.7357888 0.64205194
13.060668 2.6730089 0.64047962
13.149647 2.8968153 0.64946657
13.165476 3.0025165 0.64870012
13.229527 3.045814 0.64156944
14.052065 3.4105568 0.64363635
14.155668 4.4370475 0.6414783
12.540487 4.5021801 0.64425051
13.592579 -0.27785614 0.6584307
14.027727 0.82500684 0.65221775
12.325559 0.87490189 0.650702
14.150693 1.1102251 0.65004748
13.384841 1.219785 0.65708351
12.393256 1.2537448 0.6508885
12.976975 1.3349366 0.65534598
12.198505 1.3517821 0.65327388
13.621778 1.3989089 0.65496981
14.036507 1.8989007 0.65655851
13.429052 2.1939552 0.65138978
13.332619 2.7820561 0.65751225
13.246534 2.9051185 0.6541214
13.41953 3.4791679 0.65855527
14.046799 4.070447 0.65894139
12.508801 4.471571 0.65002412
13.390203 -0.28587013 0.66871953
12.333878 0.011724252 0.66195118
14.076464 0.77850789 0.66814834
14.164873 0.84985888 0.66012365
13.984578 0.85878682 0.66694647
12.260744 1.0561538 0.66576713
13.917118 1.1042583 0.66834724
14.264375 1.4316506 0.66757715
12.320967 1.5838243 0.66924673
12.358594 2.1137786 0.66005015
12.392135 2.2340789 0.66280854
14.276286 2.7286563 0.66437972
12.3652 2.7491755 0.66362774
13.265016 3.4224772 0.66695225
13.092383 3.5493112 0.66433161
14.019232 4.3363547 0.66722453
14.045005 4.3462486 0.6663903
13.980407 4.4347048 0.66166705
14.206129 4.5577898 0.6673972
12.65444 -0.22285604 0.67757058
12.99715 0.59003574 0.67953694
13.134387 0.60708141 0.67836404
12.516091 0.62133849 0.67812091
12.983308 0.73638666 0.67976499
13.090357 0.76047397 0.67925119
12.284895 0.87430209 0.67353719
12.360237 1.0753095 0.67900759
12.807321 1.2154422 0.67292804
13.089153 2.209574 0.67407835
13.671609 2.3762355 0.67548579
12.406778 2.4234195 0.67161226
12.991837 2.474926 0.67492735
14.0845 2.5050797 0.6782378
12.250153 4.1979823 0.67566162
14.174074 4.1956806 0.67047632
14.082317 4.2983894 0.67106855
14.135657 4.3479447 0.67296571
12.316919 4.5117059 0.67978138
13.974309 -0.13226493 0.68735373
12.214991 0.48346162 0.68686992
13.202079 0.48280442 0.68691516
14.237614 0.51853538 0.68445653
12.486395 0.55907023 0.68166751
12.235662 0.89999044 0.68003893
12.243974 0.9003762 0.68294781
13.976145 0.94266307 0.68827695
12.407678 0.9597128 0.68984997
13.98768 1.0123239 0.68897176
12.231339 1.174068 0.68601006
12.326361 1.2006218 0.68359703
12.476868 1.212616 0.68510771
14.039526 1.4548522 0.68858469
14.035111 2.0010495 0.68610579
12.180756 2.1936114 0.68887854
12.362028 2.7189715 0.68839514
14.038385 2.7307243 0.68913567
13.996145 2.8160574 0.68810081
12.891789 3.369884 0.68585265
13.059931 3.3700619 0.68947828
13.802428 3.4638917 0.68977094
14.229937 3.5123837 0.68809611
12.854328 3.5597501 0.68228441
13.194058 3.6725223 0.6806978
13.013622 3.6890838 0.68414849
13.033047 3.7171116 0.68919075
14.029181 4.3808146 0.68287736
13.294314 4.5148463 0.68852419
13.590073 4.7115211 0.68756956
12.733 4.7777629 0.68572438
12.868305 5.1602259 0.68622029
12.95706 5.1611586 0.68442827
13.395942 5.189795 0.68401992
14.029488 -0.088520028 0.69221592
14.102696 0.34655619 0.69949359
12.926478 0.35298049 0.69868487
13.297884 0.37069431 0.696455
13.382125 0.39581931 0.69329214
12.206252 0.49210304 0.69164646
14.26355 0.63978851 0.69133818
12.480392 0.78266621 0.69995588
13.48699 0.85879713 0.69720459
13.396227 0.86194932 0.69863886
14.237929 0.97227198 0.69619203
14.004056 1.161109 0.69430929
13.426849 1.3289996 0.69294304
13.703692 1.3756871 0.69550341
13.381082 2.2101815 0.69826567
13.211994 2.2659795 0.69766986
13.903406 2.3559711 0.69556081
12.176773 2.5546865 0.69887716
12.787039 3.6498895 0.69383967
13.698219 3.6881027 0.69985664
14.214097 4.1002073 0.6963408
12.521574 4.1616535 0.69787216
12.471383 4.284575 0.6901378
12.497745 4.3218107 0.69145745
12.506474 5.032382 0.69821715
13.677035 5.1523991 0.69678789
12.338321 0.27174562 0.70891106
12.744277 0.28942895 0.70668501
13.803234 0.31752449 0.70314825
13.36369 0.32823184 0.70180035
13.833581 0.32100976 0.7027095
13.040132 0.33688515 0.70071101
14.233885 0.93175507 0.7084192
12.393579 1.6077199 0.70827043
13.295142 2.2888227 0.70857573
13.362664 2.3088279 0.70603931
12.393147 2.9156792 0.70711577
12.16386 2.9573252 0.70972443
14.290008 3.1767747 0.7008841
12.970787 3.7980776 0.70134091
12.76804 3.80792 0.7055276
12.315252 4.1018543 0.70464087
12.951017 4.666605 0.70899844
13.606464 4.7407575 0.70404553
13.052996 -0.27173516 0.71272933
14.009026 0.24076952 0.71281046
13.399466 0.25501081 0.71101767
12.517875 0.81598353 0.71590734
12.234859 1.0904462 0.71989924
12.42658 1.1156718 0.71393216
14.174718 1.1205761 0.71899986
12.541941 1.1468393 0.71187556
12.622316 1.3472058 0.71831548
12.365992 2.106256 0.7118333
13.26221 2.2778668 0.71811867
13.119016 2.2830644 0.71637666
13.34862 2.3853517 0.71641469
13.079885 2.525413 0.71199918
13.525417 3.3203199 0.71475083
13.737749 3.323154 0.71140397
12.317535 3.452709 0.71478486
12.158258 3.6873384 0.71932638
13.990554 3.6957512 0.71081054
12.158225 3.7275436 0.71902579
12.538494 3.7372522 0.71058965
14.040112 4.4069505 0.71839023
12.7823 4.5180593 0.71896952
13.692008 5.1376224 0.7141059
13.032922 5.1699672 0.71780252
13.94246 0.14448015 0.72721839
14.24068 0.48513168 0.72508526
12.365536 0.82031208 0.72034168
12.520735 0.83573663 0.72403252
14.286945 0.84104341 0.72789979
14.233015 0.95226049 0.7221089
13.908392 1.008962 0.72088659
14.034923 1.0795234 0.72674048
12.907953 1.1547768 0.72669518
12.401628 1.4011266 0.72878605
13.133615 2.3394263 0.72060657
13.488685 2.3348856 0.72946441
13.795597 2.3396103 0.72195405
13.159683 2.5041242 0.72769713
14.273485 2.5075431 0.72862059
13.993656 2.5444138 0.72759438
12.321291 3.405829 0.72555679
13.894646 4.2627082 0.72342229
12.211358 4.7000051 0.72802007
13.432897 5.1757545 0.72251135
13.22473 5.1883378 0.72816402
14.152186 1.0761935 0.73216569
13.016623 1.2911805 0.73478305
12.404335 1.588865 0.73489285
12.368846 2.0283458 0.73708361
14.108704 2.1066363 0.73110521
13.73386 2.333456 0.7352345
12.557959 2.4389584 0.73796481
12.168492 2.7368326 0.73303115
13.351397 3.2491326 0.73775351
13.967331 3.2750592 0.73309785
13.394463 3.4014599 0.73491681
14.181925 4.1874914 0.73749822
12.489372 4.1907907 0.73908365
14.251337 4.3036461 0.73762971
12.216951 4.3921952 0.73329455
12.782301 4.406148 0.73222893
13.12468 4.5500097 0.73151457
13.70812 4.8177834 0.73096365
13.72154 5.0881681 0.73277593
14.183167 0.27147821 0.74326605
14.001007 0.88867164 0.74677795
13.823765 2.362304 0.74936426
12.325987 2.7283099 0.74007308
12.331469 2.7755041 0.74508137
14.060805 4.3783803 0.74911183
13.997585 4.8506422 0.74820256
12.380797 4.9398627 0.74276364
13.255585 -0.14087069 0.75259411
13.972615 -0.10316192 0.7531327
13.781981 -0.093796648 0.75326645
12.844356 -0.054660592 0.75374633
13.179749 -0.04703857 0.75375777
13.772777 -0.042976983 0.75376391
13.163092 -0.0024421248 0.75382495
13.880178 0.0039930926 0.7543093
13.668703 0.012143578 0.75557625
13.137441 0.093619853 0.7592274
12.239706 0.47670642 0.7546227
14.249479 0.61983538 0.75579774
12.175035 0.72911179 0.75005686
14.090929 0.91949034 0.75033599
14.156785 0.97617346 0.75742865
12.283951 1.2706199 0.75793242
13.99611 1.6217496 0.75946617
12.365842 2.9804106 0.75850958
14.289142 3.5037529 0.75642115
13.661342 4.1550126 0.75350261
12.167398 4.4886398 0.7556172
12.849986 4.8299627 0.75204539
13.624015 5.1505995 0.75431669
13.078316 5.1724029 0.75333089
13.38805 -0.2266525 0.76956218
14.169027 0.24331769 0.76204443
13.995901 1.5373975 0.76272625
12.177148 1.6346943 0.76451766
12.283164 2.0916319 0.76939183
12.345863 2.4229093 0.76720631
13.176392 3.2112474 0.76706386
12.732208 3.2605562 0.76340568
14.284609 3.858469 0.76574099
13.686805 4.8285141 0.76808554
13.834856 5.0078526 0.7655645
12.246184 0.50582838 0.77482009
12.545923 1.2836908 0.77758026
12.730965 1.3223311 0.77203864
14.268625 1.5105748 0.77169621
13.873731 2.4476869 0.77583623
14.0845 2.6554704 0.77606332
12.819702 3.0247128 0.77388835
13.95492 3.1416383 0.77262902
13.412876 3.9399233 0.77965856
12.251576 4.7742605 0.77329707
14.134218 4.8271003 0.77201486
12.456688 1.3003926 0.78668082
12.355984 1.3650651 0.78716993
12.290915 2.2630997 0.78394616
13.820032 2.3698902 0.78877568
14.084501 2.4766974 0.78057975
12.168976 2.7176611 0.7858479
14.036139 2.9502473 0.78273267
13.213467 3.2786415 0.7810657
13.005207 3.3655181 0.78181952
12.163357 3.4770398 0.78952086
12.186441 4.5254984 0.78282863
13.071501 4.66644 0.78465283
13.87725 -0.13965613 0.79744393
12.590137 1.1188408 0.79123735
12.992265 1.1150291 0.79126495
14.109978 2.0908368 0.79454958
13.67897 2.2935452 0.79704392
13.819202 2.3609581 0.7956605
13.499501 3.2722692 0.79628503
13.022169 3.2938204 0.79412353
12.379702 3.3872399 0.791327
12.838285 4.0075464 0.79641503
14.281698 4.0382433 0.79190087
13.06648 5.1567249 0.79548979
12.849477 1.1139746 0.80619693
12.384996 1.9095581 0.80014014
14.283979 2.9758773 0.80145639
12.856968 3.0361931 0.80558515
13.681808 3.2543902 0.80892658
12.17136 3.960712 0.80737621
13.629915 4.7409916 0.80503523
13.069902 4.832283 0.80931807
13.206146 4.8711181 0.80149662
12.283419 0.37174204 0.81879979
13.963821 1.1053689 0.81179392
13.800292 1.2590377 0.81163269
14.064175 1.7540597 0.81048125
14.009253 1.9619081 0.81633657
12.175549 2.0848098 0.81222761
12.786476 2.0965259 0.81751037
12.499689 2.2067964 0.81088853
12.875915 2.276345 0.81837124
14.031588 2.9219677 0.81802386
14.284939 3.1301975 0.81521821
12.842878 3.2838218 0.81943578
14.284258 3.540834 0.81034982
12.790632 3.9625869 0.81564999
13.590223 4.7235317 0.81328988
12.793461 4.8300681 0.81130046
12.212484 0.47724316 0.82864714
14.029456 1.2109932 0.8248207
12.303909 1.2323582 0.82031894
14.271294 1.358301 0.8212086
14.135086 2.081455 0.82694012
12.659472 2.0927992 0.829207
12.690661 3.198046 0.826397
13.463878 3.9260826 0.82252669
12.869303 5.1222811 0.82027262
13.413004 1.2330432 0.83128935
14.268778 1.8803935 0.83003527
13.815836 2.3102465 0.83962017
14.123338 4.8273888 0.83692741
12.26088 0.68474513 0.84829748
12.348492 1.2946777 0.840321
13.020646 2.1081161 0.84723938
12.226097 2.246325 0.84973061
12.178351 2.5233643 0.84380758
12.177452 2.559859 0.84332281
14.277333 2.7984693 0.84499133
12.650975 3.0667069 0.84810895
12.707762 3.0793042 0.84691691
12.192966 4.2784815 0.84989274
12.230353 4.5373082 0.84991956
13.685706 4.8393221 0.84496891
12.990953 1.0804114 0.85431367
12.272776 1.1368456 0.85435498
12.270912 1.1993198 0.85376024
12.305521 1.2043955 0.85669595
12.32971 1.211504 0.8508991
13.070608 1.2237217 0.85300434
12.347178 1.7223859 0.85547197
14.082449 2.082339 0.85620558
12.351572 2.6319942 0.85698849
12.174102 2.7783148 0.85997283
14.280149 3.2773099 0.85272658
14.087749 3.3931074 0.85645938
12.583827 4.6616974 0.85913169
13.492735 4.8236957 0.85521901
13.397509 1.0741153 0.86441374
13.700049 1.0865712 0.86210334
13.759754 1.0813577 0.86859298
13.054957 1.2090377 0.86742735
12.456622 1.2265562 0.86893219
13.516874 1.2348484 0.86334443
13.67718 1.2398438 0.8623842
14.272065 1.3414636 0.86170262
14.047303 1.6478252 0.8616972
12.179696 2.0436411 0.86142111
12.180204 2.1277494 0.86479712
13.030222 2.1368778 0.86841089
12.406087 2.2123082 0.86760008
12.416495 3.2905579 0.86729664
13.80229 4.2644444 0.86338043
12.878763 4.3039055 0.86984378
14.234694 4.3564939 0.86389267
12.891751 4.3671846 0.86874628
12.227161 4.4363894 0.86272365
12.983812 4.4453864 0.86163819
14.011374 4.6989107 0.86207962
14.15441 4.7333636 0.86350095
12.884021 5.0631289 0.86427081
13.130513 5.1154242 0.86726367
12.33837 0.006603092 0.87342185
12.275995 0.6431123 0.87072551
14.043346 1.2318254 0.87772459
12.173207 1.3714899 0.87205517
12.360524 2.6360848 0.87439698
12.413794 2.9067001 0.87770951
12.421768 3.2729268 0.87335432
13.878986 3.9138749 0.87317151
12.436394 4.2254977 0.87162101
12.483788 4.3024759 0.87740052
13.234182 4.5226202 0.87413126
13.734386 4.6265893 0.87531519
13.150249 4.6664271 0.87277454
12.322707 4.7602816 0.87237734
12.557005 4.8254681 0.87773144
12.821453 -0.2360895 0.88156813
14.069818 0.015228714 0.88411206
12.533655 1.0623012 0.88104576
13.80141 1.0685478 0.88860065
12.178684 1.1715701 0.88973832
13.283375 1.2168573 0.88364291
12.433327 1.2367921 0.88030791
12.487587 2.1944726 0.88453996
13.053061 2.3527894 0.88795054
12.864305 3.1376212 0.88773
12.677849 3.2814958 0.88507259
13.579378 4.1154118 0.8856355
13.23951 4.4282041 0.88516414
12.246086 4.4653988 0.88823557
14.173762 4.605865 0.88588226
12.390784 4.6611099 0.882936
12.976891 4.6825643 0.88457298
12.998215 4.7128716 0.88457298
13.603445 4.765048 0.8819226
13.55221 4.7800574 0.88457298
13.96728 1.2249599 0.89838409
12.181802 1.6655335 0.89773327
13.055178 2.2241318 0.89210391
13.563875 2.2233095 0.89811373
12.59056 2.2568731 0.8949976
12.207254 2.3447444 0.89626002
12.367859 2.5550675 0.89169121
13.953266 3.1875014 0.89194667
12.676217 3.2619474 0.89995182
13.932901 4.523644 0.89873719
13.345266 4.5451617 0.89094567
12.893379 4.9937525 0.89243829
13.462107 5.0111775 0.89698684
12.515314 -0.13081057 0.90561116
12.193172 0.73465359 0.90278971
12.399436 1.761654 0.90765035
12.556299 3.1081884 0.90533185
12.641896 3.2230413 0.90577269
12.591812 3.2436404 0.90274024
13.043092 4.0924859 0.90253109
13.25599 4.2153521 0.90922397
13.685732 4.5293508 0.90437585
12.767885 4.8981476 0.90882528
13.431379 5.0007219 0.9025383
14.254358 0.84937602 0.91309309
12.650258 1.0535176 0.91811019
12.38567 1.9305284 0.91639042
14.238745 2.348382 0.91754657
14.0845 3.2284412 0.91427261
12.801982 3.2351186 0.91644561
12.887479 3.2854636 0.91526872
14.233572 3.7050815 0.91980284
14.055635 3.8098524 0.9143213
12.216984 3.8449235 0.91108483
12.612579 3.8863866 0.9193396
12.341324 3.8966618 0.91145504
13.760597 4.2558513 0.91344279
13.871222 4.3138723 0.91720796
13.986048 4.6038299 0.91311413
14.063458 4.630734 0.91914761
12.525305 4.6597052 0.91677243
14.03643 4.6655636 0.91128004
13.100134 4.9767289 0.91448772
13.117922 4.9835176 0.91378546
13.165604 4.9847393 0.91567779
14.132505 0.57735801 0.92852515
14.24857 1.3552581 0.92126024
12.389017 1.5521519 0.92670846
13.508757 2.0441518 0.92131221
13.491646 2.1982431 0.92950469
13.067677 2.2788751 0.92434031
14.030204 2.3092194 0.92569989
14.0845 2.4235263 0.92812091
14.261799 3.1665936 0.92245597
12.836519 3.2795858 0.92032123
12.907077 3.9164047 0.92407209
12.594562 4.2659149 0.9293443
13.78734 4.2985401 0.92238295
12.579723 4.3068552 0.92488497
14.031956 4.5749192 0.92599022
13.715942 4.8102551 0.92937303
13.611156 4.8472424 0.92936331
13.584301 4.8881173 0.92146152
12.344295 0.010291809 0.93776488
12.190492 0.81193435 0.93580031
12.659309 1.0431123 0.93678021
13.432733 1.1233523 0.93751395
12.197496 1.2440845 0.93313128
14.004281 1.8351976 0.93332148
12.489678 2.1333675 0.93923378
14.257839 2.8979168 0.93576026
12.937088 3.1024871 0.93880153
13.157906 3.3049874 0.93725944
14.226692 3.5398021 0.93567103
12.388172 3.5696745 0.93070328
13.002778 3.879745 0.93845028
13.756715 4.3572202 0.939605
12.454882 4.4796796 0.93651897
14.001057 4.481986 0.93592083
12.325148 4.4989824 0.93442774
14.035646 4.5139823 0.93711072
12.745717 4.7829785 0.93683922
12.334707 0.46485049 0.94140589
12.382979 1.1225635 0.94220996
12.863211 1.1609352 0.94987047
13.349674 1.1601926 0.94946742
13.318823 1.1727518 0.94009924
14.25312 1.437759 0.9494471
12.303514 2.0547738 0.9440307
12.383502 2.0711229 0.9420405
14.25466 2.3139246 0.94338804
14.002844 2.7487516 0.9429124
14.252298 3.0281599 0.94702214
13.872871 3.2446465 0.94469434
12.27962 3.4006658 0.94530076
14.21454 3.6175995 0.94823223
14.054741 3.7330852 0.94802684
13.064833 3.8486359 0.94507098
13.935131 4.0932541 0.94753492
12.590471 4.1614547 0.94067514
13.86478 4.5997195 0.9470731
12.361663 1.1002846 0.95921546
12.702372 1.1554859 0.95310694
12.214874 1.3968934 0.95787287
12.922082 3.1206131 0.95485628
12.413067 3.1314611 0.95657945
12.743282 3.2110622 0.95007735
12.523804 3.2336705 0.95666718
13.274874 3.3474138 0.9582895
12.235001 3.5351949 0.95285654
12.542112 3.9065325 0.95679867
12.539283 4.0543833 0.95039076
14.137731 4.3236027 0.95816714
12.4469 4.3911171 0.95418793
12.888353 4.7665701 0.95377177
13.538937 4.7621288 0.95722449
14.0655 0.19999225 0.96751362
14.267244 1.3402386 0.96528763
14.001756 1.5232701 0.96588677
12.747556 2.0236485 0.96547711
14.241804 2.2357392 0.9668408
13.997284 2.4519267 0.96140355
12.87596 3.3629985 0.96150655
12.642456 3.7971072 0.96731901
14.047468 3.8569865 0.96808821
12.428416 4.2836099 0.96989024
12.43669 4.3147149 0.96598762
14.001424 4.3648643 0.96089768
13.83361 4.6225419 0.96358609
13.762757 4.6331644 0.96790791
13.066139 4.759552 0.9657284
13.582806 -0.24424343 0.97721255
12.446712 0.99823737 0.97994375
13.877903 1.0152718 0.97683477
13.764645 1.130875 0.97410297
13.48472 2.1585011 0.97807544
14.050923 3.3391776 0.97551924
13.091707 3.3637004 0.97290701
12.424837 3.7613263 0.97527301
12.346949 3.9688101 0.97166079
13.854473 4.532382 0.97726285
12.706293 4.5831857 0.97845685
12.730314 4.6259322 0.97254419
12.743761 -0.22129352 0.98769951
13.725075 1.1245378 0.98333824
12.396084 1.3403455 0.98566002
13.999856 1.3724337 0.98436224
12.277243 2.0424967 0.98408115
12.600451 3.1589594 0.98002577
12.424751 3.674731 0.98135024
12.555797 3.7222724 0.98424101
12.666245 3.7806499 0.98035115
13.738605 3.8171904 0.98510349
12.670599 3.8805861 0.98113799
12.848438 4.6057162 0.98583716
13.483077 4.6443229 0.98556578
13.058999 4.6690307 0.98466116
12.439542 -0.04897571 0.99571466
13.029823 1.0119709 0.99567413
12.384721 1.5916734 0.99111342
13.507414 2.1462662 0.99223822
13.841476 2.1808801 0.99541616
14.084518 3.100312 0.99841136
12.282746 3.1195903 0.99524826
12.620325 3.3277273 0.99149287
13.324533 3.3595884 0.99375439
14.172878 3.3728273 0.99093217
14.109243 3.4257154 0.99631858
12.25751 3.4809036 0.99351227
13.962222 3.5822387 0.99425489
12.281338 3.8266573 0.99378854
13.715071 4.5017667 0.99624765
13.600479 4.5561805 0.99558318
12.942106 4.5824299 0.99558908
12.423135 0.98268819 1.0036389
12.877263 1.00481 1.0021071
12.228353 1.3081477 1.0062783
14.01732 1.9619757 1.0057886
12.310324 2.7179244 1.0069368
12.247355 2.9299803 1.0073351
13.998121 3.1176798 1.0012311
12.410891 3.2638688 1.0023264
13.029353 3.3579795 1.0032593
12.726566 3.6961 1.0049826
13.539418 4.4978933 1.0098941
13.206009 4.5769763 1.0073812
12.428818 0.020992465 1.0127029
13.17786 0.99772227 1.0118152
12.320129 1.0040116 1.0168998
14.091461 1.0022194 1.0102541
14.065131 1.0211257 1.0180615
14.011896 1.8431712 1.0100343
13.051658 2.1463315 1.0141532
13.824089 3.6317463 1.0191294
12.776949 3.7067747 1.0126919
13.660666 4.3959236 1.0180945
12.766396 4.4188476 1.0123342
12.854028 4.4426455 1.0153445
13.281598 4.4951882 1.0199851
13.201408 4.5185204 1.0172307
12.481964 -0.12826595 1.0213047
14.198497 0.67990047 1.0203444
12.397882 1.2452434 1.0229574
12.758736 2.0554628 1.0280125
13.410692 2.0665059 1.0258807
12.63628 3.1438265 1.0233614
14.262081 3.186492 1.024713
13.319022 3.4541509 1.0277989
12.27661 3.5691218 1.0279489
12.813798 3.709933 1.0216622
13.798623 4.2704206 1.0271418
13.706953 4.3069458 1.0286361
13.563393 4.3732939 1.0287783
13.522411 4.396142 1.0267326
13.405698 4.4062014 1.0296266
12.927741 4.4127188 1.0238938
14.008575 -0.0066378526 1.0314662
14.009912 0.023612987 1.0375166
14.213264 1.2187576 1.0345483
12.887098 2.0554957 1.0322553
13.596497 2.0667293 1.0312514
14.143917 2.3763869 1.0380864
12.55461 3.4626207 1.0352588
13.480618 3.4885626 1.0315297
12.91893 3.5522432 1.039362
12.687277 4.219574 1.0371482
13.555593 4.3309956 1.0357466
12.870193 4.3439212 1.0324445
13.489883 4.3632145 1.0332029
13.38784 4.3905816 1.0327892
13.299303 4.4084182 1.0333668
14.05802 0.42250204 1.0467128
12.50882 0.97911298 1.0401326
13.319578 1.0863917 1.0440009
12.23782 1.4299192 1.0416934
14.01205 2.7212727 1.0454711
12.625452 3.1845129 1.0439607
12.324438 3.3152194 1.0440471
12.75827 3.4821749 1.0415329
13.187716 3.5067437 1.0482541
12.515119 4.0776896 1.0413575
12.579453 4.0811167 1.0472405
12.728993 4.2053199 1.0424838
13.543404 4.2663689 1.0453995
13.103902 4.289813 1.0476005
13.306505 4.3138175 1.0460422
12.680568 -0.17894392 1.0567204
13.806617 -0.17997059 1.0543361
13.136135 0.97166127 1.0566519
13.994627 1.1067679 1.0553021
14.197557 1.3081686 1.0544233
12.250064 1.4098098 1.0581218
12.254229 1.8754249 1.0515547
12.301245 2.8042178 1.0515366
13.991846 3.6101713 1.0573933
12.447557 3.8405092 1.0551355
13.907379 4.0238466 1.0521792
12.817298 4.1487908 1.0573115
12.794273 4.1706982 1.0525533
13.259808 4.2317066 1.0580291
13.482184 4.2385864 1.0511363
13.181195 4.2559605 1.0544003
12.610685 -0.17154671 1.0677975
13.817005 -0.1752567 1.0672936
12.916275 0.96733862 1.0666678
13.08742 0.96693128 1.0668063
12.659775 1.0574759 1.068047
13.278629 1.06864 1.061622
14.183022 1.6811302 1.0637857
12.073348 3.1535592 1.0653081
12.688308 3.2769744 1.0612369
13.921883 3.6480062 1.0644757
13.85964 3.6682267 1.0669014
12.52213 3.9133551 1.0626408
13.430237 4.1575708 1.0645567
13.679352 -0.19379723 1.072751
12.641922 -0.16460958 1.0786601
13.595927 1.0380731 1.0766735
13.45854 1.0443661 1.0725269
14.013664 1.661474 1.0737225
12.376513 1.7128546 1.0745908
14.161657 2.6029813 1.0764388
13.573711 3.6601059 1.0799787
13.017277 3.6874256 1.0713043
13.895115 3.7948573 1.0793983
12.859218 4.0326014 1.0751615
13.106318 4.0734138 1.0782497
12.946362 4.0859413 1.0725286
12.417013 -0.0036892854 1.0863508
14.04977 0.081575483 1.0813816
12.864239 2.0566716 1.0832884
12.33008 2.2779951 1.0891815
12.330938 2.4163804 1.0833042
12.454393 3.603406 1.0882058
13.980936 3.6193726 1.0895109
12.971958 3.6606421 1.0899401
13.692968 3.8264329 1.0892354
13.474086 3.9495697 1.0874903
13.572416 3.9848228 1.0811906
13.334557 4.0287061 1.0823534
12.705044 -0.17042258 1.0999365
14.083509 0.28525633 1.0937015
14.029425 0.55905747 1.0958703
12.997379 0.95692497 1.0969074
13.007488 0.95236963 1.0946339
