# .PCD v0.7 - Point Cloud Data file format
VERSION 0.7
FIELDS x y z
SIZE 4 4 4
TYPE F F F
COUNT 1 1 1
WIDTH 1606
HEIGHT 1
VIEWPOINT 0 0 0 1 0 0 0
POINTS 1606
DATA ascii
268.07739 -48.0779 16.271305
257.35904 -57.077896 19.389156
164.66541 16.750301 0.27005464
225.593 -19.252148 40.383556
256.61566 15.711138 19.9361
315.77011 -2.4283669 35.4361
294.61523 -48.035614 28.977345
246.82059 16.6721 29.309734
162.97171 4.9220896 27.579723
192.4864 -47.97633 43.541904
279.26215 -55.781799 21.591009
234.42163 16.9221 22.273777
147.20302 -50.628529 31.139532
246.593 -17.571804 26.144983
313.95599 -42.20435 32.904697
314.0787 8.0477686 34.436096
271.3873 -45.798302 33.993362
219.44797 -57.0779 49.172752
267.85007 -38.240662 35.013794
293.52429 17.754158 8.855463
216.88007 -47.053543 77.244118
133.37436 -5.5811725 21.831507
245.89331 -1.6633101 19.9361
237.03331 -45.082344 17.9361
215.47121 -32.994476 17.9361
136.77541 -3.554513 20.981247
180.95599 -48.636925 20.845808
143.74286 17.9221 22.718842
166.75598 17.320202 19.265259
296.95599 7.9880915 29.912144
230.1627 -6.1102629 56.96859
228.89528 -5.9487147 40.008698
313.95599 -32.099361 35.273102
268.60172 -48.077896 19.358301
265.86859 -53.827904 40.187225
162.59384 14.14346 34.9361
164.59877 7.8139935 2.4136748
203.60446 16.6721 45.397781
224.49783 17.9221 26.188614
142.38884 17.9221 29.716011
199.06549 -25.108513 19.9361
266.56763 -58.505051 9.8848467
174.19482 -45.0779 23.980812
159.98895 14.981775 34.9361
291.34085 18.5481 22.661146
262.95599 -5.7949247 30.720142
243.78169 -8.6338797 30.521088
180.46236 -53.222279 31.342632
189.593 8.7714443 25.258656
155.51263 -63.04892 8.7516394
148.94113 -22.861597 32.570919
141.33244 -39.933174 45.248672
282.19385 -48.077896 25.940966
154.42738 -35.094582 18.178125
161.42322 16.436676 0.10086471
275.56705 -37.090591 38.1861
225.29071 -58.077896 25.202089
248.83415 12.4156 30.029839
168.80199 9.7739944 24.790379
245.84537 -7.3519573 77.936096
204.96857 16.6721 27.389912
191.03271 -36.605797 17.9361
132.62149 -6.4022765 23.274311
296.60724 14.181837 61.810493
173.21356 -57.0779 42.585144
192.46693 15.028373 37.328701
273.59299 -56.276417 42.576553
235.66524 -35.418053 19.328699
239.18518 16.9221 31.504107
146.95599 -24.167423 28.680231
262.9639 15.315441 37.328701
153.57391 16.9221 46.106064
204.24251 -56.8279 31.148783
307.30194 -25.409475 63.243923
192.76294 1.6628389 19.328699
131.33325 -41.131264 29.339409
296.95599 1.3462057 28.846682
252.27339 1.5414772 19.9361
284.36871 -57.077896 43.624134
279.62091 -53.671501 31.800507
274.93369 -48.0779 19.206173
227.15826 -56.8279 47.558113
271.19034 4.9220901 26.419334
171.66727 -8.8296709 50.745602
237.60468 -43.255402 77.936096
316.5 3.3841238 45.925766
249.10051 12.4156 44.804916
251.18462 13.608573 64.294662
143.97812 17.9221 22.272774
185.6478 -48.875572 55.053162
301.10931 -35.686653 30.9361
266.58841 -20.178225 43.154549
154.58246 16.533171 47.457554
143.3862 -1.7669334 18.9361
260.4072 -28.48629 28.238701
258.81097 -39.736382 28.238701
149.05728 -43.524761 32.666573
247.47545 -26.295708 36.653702
313.95599 1.4698231 30.985672
275.327 -50.861 38.1861
266.44376 -34.256947 42.498165
257.83978 -40.738232 77.936096
311.40073 -38.539612 55.046883
279.14114 -26.422703 37.9361
294.17426 -4.2713094 33.226933
288.41199 -9.6370907 77.936096
228.86014 8.0494776 76.893631
296.72531 16.9221 44.079475
209.91028 -3.8160703 19.328699
274.91284 -52.915565 0.89476442
241.67816 15.446171 19.9361
266.39005 -54.119915 24.271824
266.37875 -57.077904 39.830666
291.35623 -10.867996 77.936096
296.95599 15.696259 29.15247
196.31786 15.101433 19.9361
149.63966 -47.717628 33.146172
146.95599 -17.739882 30.175777
187.92635 5.9382577 17.9361
171.60469 4.9220901 27.448854
193.47836 -40.350441 47.945118
298.50125 10.193641 38.1861
256.07248 9.4455605 44.94276
225.09924 -16.299309 77.936096
262.20959 -24.167019 77.436104
260.48688 16.6721 36.541382
227.74243 -56.8279 45.460155
236.25101 4.8536806 17.9361
159.50931 -35.213177 16.982382
226.9073 -13.669241 19.328697
180.95599 -43.646461 25.465292
218.53119 -53.827896 37.579609
231.97824 -49.028988 76.619064
274.91006 -54.983147 59.013302
192.41174 -26.761848 19.328699
185.78491 -12.881573 51.583473
201.84708 -21.237101 67.440933
280.67731 16.948778 34.9361
229.86374 -52.5714 47.492935
202.60104 16.6721 34.473061
146.95599 -17.214205 24.847342
319.42896 -12.72636 57.233192
247.29233 -46.97345 36.653702
157.39023 -21.81711 48.354019
154.06107 -55.291306 32.901161
225.1031 -21.045406 43.328701
227.35205 -32.787987 33.004501
310.55911 -23.014702 30.9361
262.95599 -2.3303037 22.599916
267.3761 7.9220905 20.796007
295.74048 -57.077904 42.934959
285.05005 12.840937 0.95958567
222.65804 15.460297 56.27047
194.49132 17.9221 30.771
262.14978 12.832911 67.655792
219.02144 13.564344 64.486343
262.06735 1.9220901 80.028755
145.8367 -57.077896 44.916248
271.44894 -58.703896 27.320499
273.59299 16.326159 42.975342
296.95599 -36.634796 23.669989
168.5097 -42.706482 17.007563
156.85849 -59.577744 2.9606791
317.60025 -21.589457 29.15745
149.41789 2.4178789 19.356833
272.44711 5.3127956 37.9361
260.26971 -20.464754 19.328701
297.72162 -9.5436249 19.9361
261.15369 -51.697132 73.252785
272.1752 17.9221 36.625526
301.85815 -37.22068 30.9361
267.33234 -52.571396 48.92202
287.51865 -42.455116 77.936096
252.55492 -44.569466 19.328701
317.50473 -4.6703959 28.680113
262.95599 -36.814194 25.878937
218.66194 -11.151303 75.936096
264.71545 -53.546394 65.239288
286.97311 11.508937 73.393143
225.05042 -35.00708 28.238701
247.8632 11.104476 28.238701
271.87933 3.7764053 77.936096
226.77348 -14.778533 17.9361
142.38696 -4.3687754 18.9361
190.77336 -3.0476532 46.967987
203.653 -49.713486 34.281666
209.73102 -56.895054 50.728649
204.24333 -42.632225 17.9361
241.05717 -51.333977 74.826492
224.48598 15.479419 56.187611
317.19769 -19.782791 27.144793
298.10196 -36.589336 75.936096
214.08594 -42.683029 36.653702
180.95599 -54.009827 24.217566
299.7825 9.5911121 19.9361
226.84921 -9.9299126 19.9361
143.2326 -57.077896 42.951122
231.0616 -53.159336 66.916664
227.52072 -57.132874 30.9361
278.7233 17.087 6.8130908
246.56171 -9.5844402 45.673679
207.22141 -39.745716 17.9361
311.22794 -23.646786 55.392338
288.57718 -56.623558 12.161901
195.81764 -38.692711 50.107452
228.95496 -5.9698596 56.876945
228.28926 -55.598984 56.344936
271.70102 15.6259 15.415535
244.77805 -57.077904 35.11573
316.5 -7.3902445 48.321678
264.31241 11.834133 32.824463
249.98286 -55.075897 58.611633
180.95599 -26.896088 28.467682
169.14005 -44.969959 26.839214
242.69775 -10.653367 77.936096
166.77327 8.8279819 28.449049
267.04791 -3.6921384 18.973293
223.13873 -20.796089 19.9361
224.41472 4.9220901 76.281342
256.48544 3.4098046 19.328699
217.0249 16.9221 46.006233
283.06226 12.908062 34.9361
191.77567 -12.8904 28.668194
177.26721 -52.904739 17.736776
272.88428 16.187315 53.120129
188.52917 4.6221905 19.9361
141.15344 1.6020241 18.9361
216.66452 13.6721 40.45723
313.04282 -28.966528 51.76284
310.74988 -26.701908 56.348442
313.95599 -23.442833 33.722286
213.73531 -8.3377771 76.195869
305.15439 -17.243975 20.035295
184.80133 2.7378216 17.9361
206.2715 -45.537601 28.238701
220.16136 -56.827896 29.393665
239.94116 -56.827896 35.729198
226.26193 3.3750131 19.328699
246.8259 -32.339821 77.936096
153.51707 16.9221 40.961884
208.50728 -35.380177 72.534073
282.09039 11.746213 0.2738722
146.95599 -17.136368 19.675949
173.33253 23.611015 15.871381
286.80136 -48.134975 37.9361
197.33469 16.6721 48.925377
285.83331 14.365414 34.9361
264.43069 4.9220901 27.752218
241.12527 -45.590881 28.238701
172.93686 4.9220901 24.799557
193.10136 -36.605103 47.332584
263.98526 -20.896149 31.339714
173.73357 -55.94186 36.883968
233.34361 -51.775208 19.328701
265.12973 -7.3792849 19.424633
196.78302 -29.359236 45.828701
154.20621 -34.67033 36.906864
198.88962 4.9587479 19.9361
165.42825 -55.356148 19.816385
203.85735 -13.380039 68.978226
211.13812 10.619804 46.053101
291.78625 16.9221 39.969349
266.79349 -39.786964 34.143665
245.52736 13.6721 41.241539
155.78668 -12.381038 17.858292
154.67789 4.9220901 20.490602
322.7482 -11.442098 29.428413
195.72314 -41.018707 48.014397
233.18719 16.6721 30.944405
271.39685 -51.29303 2.5483875
225.83043 -56.951508 17.9361
220.31529 12.4156 35.283218
224.23366 11.737583 72.402336
166.41739 -15.02295 37.9361
232.593 -54.243107 43.282356
300.84476 9.5027618 19.9361
208.66106 9.0243568 19.328699
301.92786 -11.063138 30.9361
267.25705 -30.125883 77.936096
263.81641 -47.18644 27.758392
250.86142 -37.461899 25.462463
260.68121 -34.070206 43.115551
294.67938 -53.060032 67.346924
206.88116 -57.077904 33.162796
297.77118 -43.46167 30.9361
313.95599 -35.372078 33.450439
317.03812 -49.664543 26.347055
220.60799 -49.064938 19.328699
206.7019 -57.0779 49.496189
180.95599 -36.244274 27.164825
146.95599 -21.361338 28.195143
177.14674 16.9221 37.701981
180.95599 -8.3544483 27.117174
202.61224 -12.8904 37.072296
150.8907 -25.267462 47.265266
266.65286 2.4631009 33.980583
190.10379 -12.627128 17.9361
224.20407 9.987505 44.935966
231.23473 5.2859955 64.540817
230.76006 12.153366 70.600662
258.14557 -24.428898 19.9361
240.31032 -57.0779 31.958784
253.75403 10.334974 76.131805
176.99957 -9.2336817 19.005173
257.27939 -51.271687 19.9361
168.61963 -53.712997 8.1490564
258.89066 -52.434944 70.055496
156.61295 -36.680733 37.9361
192.23868 9.8285179 60.093277
239.40666 -36.311367 17.9361
191.2999 -39.265865 19.9361
317.95599 5.725843 32.016308
203.21623 -37.724739 19.9361
312.57507 -19.282228 30.9361
288.95825 -8.8327198 37.52248
168.95593 -31.598129 17.112558
258.22922 14.581825 19.9361
265.79758 -13.293309 19.26749
173.79588 -45.0779 25.546244
151.51877 12.814498 30.807476
204.45709 16.9221 44.798801
290.68152 -55.506203 56.746716
261.38898 -6.9235344 21.151405
271.56873 -46.302334 34.142776
204.8689 -31.295105 69.751762
295.04828 -46.399059 38.1861
198.35905 16.841669 50.284569
305.23685 -46.31802 67.374268
326.06299 -5.6602774 52.054043
310.53445 -2.1738729 30.9361
257.48227 -55.291504 57.677368
278.96344 18.5481 30.218493
181.45685 -45.296909 17.9361
232.3011 -36.436764 19.328699
219.83719 -12.8904 24.862766
325.79272 2.384419 36.324768
310.43958 -45.634865 30.9361
279.16586 -34.98024 37.9361
297.45557 -33.954891 30.9361
262.95599 -45.973801 22.531242
299.23941 -27.270344 75.936096
188.39397 -35.967064 57.153164
136.65428 -29.426426 21.011528
155.43599 13.540708 37.919617
216.4352 16.9221 18.227364
300.08655 -32.639557 76.225906
159.82297 16.9221 39.392471
254.58417 -19.248661 77.936096
283.24582 -23.098118 38.1861
262.85886 -19.582933 28.238701
197.57074 10.443076 64.170776
216.62694 -12.8904 34.884266
160.53708 5.9200993 8.5124846
146.95599 -54.861736 29.123312
254.64621 -45.0779 76.810387
326.06299 -18.505619 50.200031
203.91827 -12.8904 21.980263
280.99921 -55.781799 22.658611
224.59419 -13.218995 43.328705
200.6644 -23.959845 66.536522
141.79111 -33.623459 45.470146
159.42404 -12.57631 17.002445
156.0197 -50.369015 48.006531
191.73819 -11.8904 38.897644
276.26904 -25.702858 37.9361
217.48553 -3.3417873 17.9361
215.78195 -24.283794 76.878082
211.02959 -57.077896 33.292088
177.05048 -2.1932242 19.017155
189.45099 -55.783356 55.545887
292.77161 11.545476 73.234772
189.59302 -30.137007 33.346607
290.17029 -47.800224 32.637604
215.2142 7.4354138 19.328699
218.3535 -48.873978 76.670738
134.67126 -34.279243 34.464821
267.14783 -18.973179 45.693573
131.34811 -36.587357 28.367359
164.49428 -47.136288 6.6045046
296.95599 -13.579123 22.96389
316.5 -7.0448971 31.990194
226.25305 -58.0779 29.803711
314.23441 -13.834366 30.9361
283.0462 10.033775 31.451202
307.36752 -1.9772193 63.112831
162.21129 6.7006855 6.9061675
260.61578 -25.501266 17.9361
280.74957 -57.352737 0.12321132
269.10583 -0.53123522 54.580399
207.27805 -46.280647 19.328699
242.2002 -33.927181 77.936096
174.97958 -47.315811 31.971663
280.39981 -57.077904 46.765259
175.59164 4.9220901 18.729549
232.53363 1.9961702 57.157539
207.79401 14.35492 61.060455
186.59143 -31.954292 17.9361
180.95599 -23.450794 28.748299
230.79877 -57.620655 24.4361
217.75928 -7.6210217 77.537193
267.12646 -48.879799 7.5939693
159.26044 13.824698 20.245388
224.73743 -56.977287 50.372215
296.58572 -1.9159408 75.936096
214.04509 17.9221 24.657578
259.04526 -12.5544 45.854122
255.36591 -16.516638 19.9361
230.09752 -49.795074 76.363708
191.47644 -6.3602052 45.561844
262.30988 16.9221 48.96698
166.78616 -46.38575 2.2345846
244.20786 15.860901 43.328701
283.69669 -50.42112 75.936096
197.74309 -5.4662261 19.9361
237.15164 -53.184784 66.806396
234.73148 16.6721 36.911327
195.79572 -57.077896 41.646461
135.14915 2.1806257 21.38781
193.66602 -34.004143 56.442341
311.81961 -41.939365 54.209141
278.53915 7.9220901 28.488306
307.07043 -10.699871 63.706982
208.3439 16.6721 23.847357
313.95599 13.242986 48.193748
266.57175 -46.697903 43.078922
241.36026 16.6721 20.10104
164.42307 3.195776 49.532104
232.29123 -6.8125095 55.421818
176.69955 13.456616 20.699665
200.23567 -47.95681 17.9361
295.09125 -19.717981 32.471783
204.6176 -37.489346 19.9361
265.09589 -55.018478 58.860428
198.93329 -57.077896 39.998573
177.88731 -38.410011 51.787537
148.61224 -54.542274 17.165394
247.66321 16.6721 28.53801
189.593 -31.703226 30.127047
187.50398 -41.966599 52.389248
241.8456 -11.422985 17.9361
318.84006 -23.240118 44.074753
203.27859 -48.340141 19.328699
132.86082 -25.642876 26.439318
234.41644 16.9221 48.172131
203.29778 -56.8279 44.61602
279.27521 -44.351402 80.936096
238.12125 10.305292 76.141708
304.91522 -27.75671 19.9361
163.49706 -47.60136 6.9058943
160.27335 -45.0779 31.745945
266.11417 2.0045114 41.002178
261.38901 -11.171559 23.158375
296.59906 17.9221 29.915905
268.7901 -20.252903 53.147289
234.3062 -45.114922 59.787098
303.24945 5.8923607 19.9361
251.32895 -57.0779 22.656422
304.34146 -24.140934 19.9361
291.81595 -13.597513 18.726679
142.82986 -6.0445814 18.9361
150.05966 -45.378632 33.492062
284.22675 13.169625 37.9361
245.36542 16.024879 19.328699
296.91025 -22.699404 38.1861
277.47983 -56.411739 18.140162
247.93338 -17.587067 19.9361
226.71545 -54.863453 59.532227
296.95599 -11.194408 20.293829
238.63983 -23.572544 19.328699
317.93845 -53.520683 30.848366
237.96851 11.103463 75.150131
296.01715 -51.183388 75.479065
168.51732 -28.535194 17.009354
287.26923 -25.429827 77.436096
219.48825 -37.461899 27.150501
210.45779 -52.231548 70.937042
292.95599 -36.603958 77.909073
262.95599 -19.846359 26.308201
229.70357 -14.313727 30.828697
305.04465 -25.861561 30.9361
261.34219 -43.132454 45.416489
253.30515 -16.701483 19.9361
226.99561 1.0356287 77.936096
146.95599 -22.265287 19.191284
174.27567 12.326279 16.252243
311.72687 -31.179348 54.394585
223.81441 -51.363304 46.053101
326.06299 -14.841186 48.448841
177.53714 3.2229898 33.751633
197.444 -42.102482 43.718506
193.71355 -57.077896 45.723324
317.24988 6.1783919 34.4361
212.22348 -7.9994416 46.053101
169.71823 -47.283005 2.0351305
208.89586 -57.0779 44.670589
264.76987 10.177529 34.900852
280.2851 -57.0779 38.53614
194.83223 9.3197308 62.076595
269.23901 -54.907204 32.224159
211.25436 -57.0779 42.157112
137.13016 -52.54464 40.862579
247.52478 12.444539 17.9361
218.9476 0.77727604 19.9361
164.30362 17.788719 14.030516
156.97546 -60.349586 14.454185
137.7708 -45.95578 20.732397
282.34247 -7.3664856 77.936096
174.21428 -40.480125 36.48811
295.74072 4.9220901 20.313963
157.93185 -16.919294 17.353542
140.78166 -57.077896 34.987846
146.996 2.7527838 46.56979
246.99236 -57.0779 41.65873
210.34024 -8.6338797 33.119629
215.1507 16.9221 21.564434
232.64174 -2.1521311 77.936096
290.34018 7.9220905 16.509312
268.89316 -15.315503 53.615051
206.70407 -50.873253 71.155777
155.48557 -1.3872151 17.929142
235.65495 -53.523991 65.33651
267.05624 -44.396889 34.360069
220.362 -37.865486 26.228529
266.11963 -6.2416449 38.1861
197.54366 -19.818321 17.9361
266.21475 -7.4684005 56.950211
140.06026 -38.034187 44.777809
237.62889 -13.98498 17.9361
211.87584 -53.835678 19.9361
283.18878 7.9220896 16.089151
274.8299 -58.0779 36.501423
288.6514 18.5481 27.387285
314.39435 -49.565842 24.655281
221.87985 -3.7206697 19.9361
311.9863 11.879225 30.9361
300.90347 1.1240888 75.953613
182.27036 16.9221 41.684734
313.95599 -4.5076265 32.468853
268.83533 -55.561089 4.5925918
310.57727 -29.592945 56.693611
211.88033 -44.524315 17.9361
283.37515 -48.0779 8.2059097
238.87891 -6.0913086 19.9361
161.51309 17.98296 26.132671
251.23799 -20.500431 19.9361
241.87338 16.9221 19.489395
309.34171 -15.64462 30.9361
269.09213 -24.495739 54.518143
233.00359 -40.197777 63.514359
180.95599 -1.22773 30.679394
268.58035 -48.0779 15.094065
186.69368 11.575336 51.045383
175.49048 17.55463 31.550932
304.38263 16.9221 45.203495
221.68478 -50.882145 76.00135
134.51527 -16.468376 37.135345
191.47842 -53.236191 45.55785
156.0675 -33.390579 37.9361
253.30733 5.4518461 19.9361
242.82397 -28.238064 19.9361
178.51712 -47.041874 16.384003
264.58698 -36.567978 77.436096
248.007 13.6721 42.640297
183.20073 -33.374554 53.113548
219.80795 -56.8279 25.037529
317.27338 4.8979068 43.762035
203.25624 15.798698 54.804047
236.65762 16.9221 23.091513
221.1239 -31.31555 19.328699
240.7541 -35.382042 35.081856
241.51791 -53.083965 67.243271
199.16972 -22.06481 19.9361
180.48967 -22.401497 19.82638
145.75305 -21.1595 18.9361
198.48462 -10.117198 19.936098
283.68387 -12.209794 37.9361
287.46643 15.625901 16.421026
197.80109 -51.968624 19.9361
294.0928 17.323156 9.0803299
168.41745 -11.753423 16.985855
207.55811 -3.0538187 19.9361
209.95319 16.9221 47.345203
274.02353 -58.0779 37.465271
192.59299 12.277647 39.324142
210.51047 -41.868713 74.066422
277.27197 -48.077904 25.057785
226.93573 -36.077377 19.9361
269.11945 -23.608315 77.436096
251.77902 15.052214 17.9361
218.54926 -32.742172 19.9361
224.69241 -40.007965 46.636162
268.65729 18.055103 25.773489
222.68381 -21.024294 43.328701
264.93671 -45.299309 58.351181
312.36136 -52.748093 38.1861
315.04163 -53.864807 24.978912
256.72116 -57.077904 23.382008
235.86282 -15.85503 77.936096
195.71176 -56.827896 23.091312
278.92316 13.649665 0.11024025
154.24446 -63.64056 20.687401
214.57288 -53.325741 19.328699
212.94983 -32.699356 17.9361
199.38246 -2.8949871 65.556213
264.90598 -21.262804 19.477282
301.85764 -5.6868715 19.9361
172.87991 -13.791284 37.58699
253.81653 -11.192088 46.053101
225.3373 -3.4180002 19.9361
304.84973 1.7355179 68.147812
211.80772 -17.448092 35.328701
220.362 -46.407825 25.658806
310.15668 -50.075268 30.9361
189.593 -50.081017 27.695139
263.40927 -49.979702 31.309387
263.40265 -19.551701 52.592045
238.53926 -50.650185 17.9361
134.95561 -54.216553 24.8116
257.44574 -15.659666 19.328699
263.09189 -45.74498 75.936096
268.62167 -15.101405 35.649242
212.33644 13.6721 42.252285
268.36292 12.868889 67.499878
261.33942 16.6721 34.806988
181.74367 -11.370121 17.9361
134.60741 -53.133198 25.723139
273.90155 17.087 18.538431
144.68782 -24.72286 46.226204
147.51434 -15.222934 19.80472
317.73853 -41.889 29.848906
205.22273 -48.408722 19.9361
326.56299 -5.4707427 43.535435
275.99927 13.070131 31.358688
291.15097 7.9220901 17.961197
231.70691 -54.453876 61.307053
186.15297 -56.985603 50.336155
231.01453 -47.491699 62.137859
267.98035 -51.251312 75.184738
223.15796 8.4801702 76.750076
184.28476 -57.077896 22.930304
270.10895 -27.901087 36.826763
148.8813 -8.4744673 19.483089
291.28815 -8.2035017 77.936096
290.06732 -48.767544 36.609138
185.85223 -57.077904 42.823021
249.84164 11.253647 74.499413
163.50798 7.3053923 17.164724
283.27985 4.9220901 27.274611
170.24133 -22.955719 17.415005
192.79768 -56.8279 48.315079
223.75653 -12.8904 36.309284
250.19435 -22.433983 77.936096
248.37823 16.6721 44.555504
245.23253 -17.848547 77.936096
189.593 -37.84544 19.766602
230.15637 -7.3436112 45.732262
220.362 -46.302185 21.260908
254.02786 16.6721 29.261917
281.80124 7.9220905 16.545105
317.78195 -23.675125 30.065842
196.19824 -33.28289 19.328701
215.87688 -5.0896726 19.9361
285.07645 8.2629929 76.822464
207.3889 -41.774979 19.9361
219.18134 -52.5714 45.913094
156.2122 14.015745 20.004232
280.15839 16.006645 0.056784347
241.98849 -16.421549 36.467041
200.08438 16.6721 21.28549
219.33128 16.6721 32.413216
198.50111 -22.246809 19.9361
312.95599 -29.378025 42.831482
304.79483 -31.570528 38.1861
271.87354 -45.077904 18.408346
179.36969 -13.536282 32.242481
244.5448 16.9221 30.981594
192.593 -7.6743703 38.470016
210.75842 6.4755602 19.733812
264.41016 8.355588 32.133644
146.95599 -30.744301 29.945093
154.64462 -60.035507 4.716023
296.95599 -11.218792 24.528893
257.17096 16.63608 19.328699
294.64651 17.9221 32.54541
241.2789 -3.5208111 17.9361
304.22797 14.73259 59.423843
325.00067 -16.726631 55.210022
316.91934 -46.0779 29.38468
259.65607 -44.620712 17.9361
161.86671 6.5399938 20.781244
210.48207 -58.077896 26.350435
267.99945 8.9478931 75.936096
208.11461 -27.265402 25.857735
189.66104 -19.385452 37.328697
294.23395 -26.152655 33.177773
275.88049 -52.407959 70.172569
286.03488 -10.173138 77.936096
269.86884 -57.077904 40.95285
153.50969 7.6437764 26.41045
277.50345 4.9220901 32.084591
220.21484 -52.5714 28.738895
262.09183 -57.077896 46.080807
196.56355 16.9221 38.963364
306.38177 -58.077896 30.340141
146.40546 1.8059726 46.484695
276.19684 11.200315 38.1861
197.39424 -26.2654 42.954292
295.15634 -25.773329 77.869308
294.95599 -34.905838 76.868027
281.26672 17.087 20.92211
268.63266 -10.625401 77.936096
230.66641 -42.422276 19.328699
202.59302 -18.688301 36.470276
250.31573 -6.6649857 17.9361
234.97919 -56.8279 23.719065
281.75983 17.071117 37.9361
253.15645 -33.594936 43.832199
271.88489 17.222601 29.615936
248.41115 16.6721 32.457134
194.96188 -27.764853 17.9361
225.86833 -56.8279 46.056648
255.46179 -30.479029 46.053101
251.68524 -55.104225 58.488876
234.22394 -44.135109 61.517479
317.59726 5.6712608 29.142426
169.78291 -54.733089 50.334545
284.84543 1.2526503 38.1861
313.95599 -55.624733 42.806652
299.65326 -56.800327 19.9361
303.77957 -37.800671 38.1861
156.28873 11.353295 34.735771
304.36038 -4.2006955 69.126846
296.95599 13.763992 28.207478
232.12558 -42.95591 55.724586
176.35968 11.753618 30.835085
229.46976 7.3358402 58.816895
285.12244 -57.242802 18.891769
305.19345 -57.0779 40.607899
261.35162 -32.021622 77.936096
211.3194 -12.8904 19.960453
275.92764 -15.122474 77.436096
252.31522 16.6721 44.959759
316.5 -7.9582157 47.64608
160.61105 -48.947205 7.3373842
269.88971 -22.404945 36.693508
295.80847 17.747314 27.994755
274.0564 16.934729 14.458398
252.60143 -56.827904 31.771557
274.81439 12.043329 34.9361
217.10278 -12.8904 25.742975
251.43445 -56.8279 26.41391
192.593 -51.471306 41.013256
270.56891 8.4502678 4.2327662
146.95599 -42.337795 29.685287
290.83765 -50.800484 27.470257
229.38168 -57.0779 37.91151
241.09122 -22.325361 19.328699
176.49828 -10.351728 18.887226
234.67859 -51.282604 75.049103
264.60306 -24.653177 56.0019
158.90076 -47.512596 48.567295
283.97211 0.035328116 77.936096
296.7572 11.456028 38.1861
181.1696 -45.16576 17.9361
189.593 9.860651 33.652233
317.9549 -30.175367 30.930588
222.5504 -12.8904 36.170727
314.20599 -2.2607424 43.944473
217.22617 17.9221 30.275745
220.29633 7.3162451 19.328699
201.13937 0.75707722 19.328697
301.89899 -9.0175009 19.9361
169.68976 10.187937 26.385038
242.5701 0.20666742 36.631935
263.4498 -48.240677 28.90946
268.13275 -8.6161804 35.246605
269.2359 -26.900183 36.155083
241.91415 -45.077904 77.392502
191.7697 -4.7675138 44.975296
177.03903 -23.651514 51.645435
260.23453 -44.769035 41.559013
178.2547 16.9221 42.539036
131.32713 -17.062265 28.451435
166.9191 -41.341972 16.633303
312.62091 -49.433548 30.9361
307.59326 -58.077896 23.918457
268.85904 -23.495001 35.844727
133.46913 3.5403106 31.813765
132.95599 -32.094513 30.965212
265.75009 11.796675 56.819168
180.95599 -9.4011354 21.117483
194.79762 -53.105263 19.9361
231.47678 -36.032864 51.725197
246.62576 16.6721 36.612461
282.18634 -57.0779 43.263687
260.88089 -52.571396 40.732994
180.95599 -23.2962 30.050325
276.05676 -48.37368 30.272259
268.16913 -5.5564041 77.436096
252.27191 -8.6338797 30.608683
264.83163 7.7890654 56.248711
198.6196 -56.8279 29.142967
259.17896 -16.335295 37.882938
293.14069 -52.657784 69.089989
270.55881 12.908406 67.328705
151.61018 -40.707626 47.385788
263.07996 -47.793152 31.085464
235.73264 15.376402 19.328699
169.24506 16.9221 45.127743
154.15515 6.3819942 5.3209553
188.71016 -55.729507 17.9361
260.28302 16.6721 35.868362
217.70004 -46.728069 17.9361
204.95702 -27.07074 19.9361
204.46875 15.009239 58.225067
188.16841 -57.077904 47.843994
211.33151 12.433544 19.9361
259.88306 16.9221 18.597248
234.85329 -28.04394 17.9361
316.5 1.3699528 45.32914
265.77676 -25.971607 77.436096
312.08167 -29.779213 23.49893
189.59299 8.6442604 36.786682
145.35754 9.7141542 18.9361
269.71454 4.9220901 24.208523
169.90347 -50.520233 30.308619
169.53339 16.9221 40.120155
134.34775 -43.984726 34.758358
313.95599 8.1687384 43.887779
259.96423 -31.5219 36.803757
210.17905 -36.99427 19.9361
312.95599 -35.277222 39.128639
209.61961 16.9221 42.509514
192.14049 -31.49613 19.9361
293.68716 -44.242775 79.627869
229.07549 8.6208334 19.328699
313.93414 2.1426203 24.425171
279.93054 -42.077896 79.9879
132.3688 -39.685738 24.554132
296.33475 12.108359 70.795586
298.07568 -23.362053 75.936089
195.29761 -37.187523 19.9361
266.06049 -14.6642 61.505844
272.49469 13.6721 37.623047
202.87276 -23.203018 17.9361
208.82547 -31.5219 36.569843
155.62788 -2.0874739 17.895657
252.79405 8.5175724 28.238701
312.38605 -34.185699 53.076279
164.16214 4.9220901 18.491184
311.70166 16.9221 32.335625
232.75467 -52.043472 71.751999
156.07693 -57.077904 43.971512
183.68442 -10.626661 19.9361
325.08505 -22.502014 39.625065
270.0592 3.8961825 80.936096
212.82028 6.4755602 21.337793
275.28082 3.6693473 80.936096
149.32123 6.2050643 32.883934
198.02322 -42.247646 19.9361
232.74545 -47.255272 57.340118
169.27533 -43.102875 17.18771
313.42307 -57.077896 45.135212
313.63971 -45.629108 24.277954
222.60844 -44.543579 39.378601
165.78232 -33.718578 37.9361
313.95599 4.390873 49.034954
144.5088 17.29657 18.9361
170.92232 21.425198 3.9434795
211.81113 -8.6338797 28.586544
276.18481 17.9221 35.138321
177.07837 -46.587723 34.129433
204.18024 -43.22427 19.9361
148.49231 -14.170298 19.574614
301.039 16.249884 52.848907
276.77478 16.771938 50.586803
260.29648 -3.0609341 41.774796
262.95599 -32.765381 30.168739
288.33328 -57.0779 44.131641
262.01834 -17.419811 28.238701
225.58594 -52.5714 36.254562
226.84253 4.4028482 54.124008
191.03276 -51.232567 46.449512
168.85201 14.186356 31.078892
301.06439 17.9221 28.514969
226.84573 -7.431489 17.9361
229.06659 -43.181038 63.968102
210.63977 -9.2699623 19.328699
133.22318 -26.014099 24.064444
244.5092 -53.564102 65.162682
140.12952 5.1139021 20.142721
298.30856 -52.832523 68.332634
225.55789 -57.3279 44.879875
296.95599 17.439121 28.379818
163.98083 9.7167645 31.670479
172.47607 -45.0779 27.321505
186.65906 0.61627674 55.826477
243.91107 -28.387718 19.328699
280.53339 12.634865 68.51413
153.84396 -63.827316 20.935936
267.90784 4.9220896 21.477268
239.33026 16.036964 53.771553
247.34952 -41.751705 36.653702
214.73093 -55.964699 54.760201
184.4599 -12.329384 54.144745
245.17487 -34.491901 44.573956
290.38599 4.9220901 79.732292
263.37015 -56.8279 35.338261
224.76501 13.370867 65.324753
268.85822 -0.77122688 35.84404
224.83183 -56.8279 21.472849
162.21136 16.813227 26.060209
207.62761 -52.567436 69.481567
226.20598 -5.3352442 28.238701
267.62152 -37.959415 77.436096
146.24289 -30.585258 46.486698
311.29996 14.812444 30.9361
230.12074 16.9221 19.119209
307.54791 -54.774437 59.917847
285.52164 17.087 8.7807026
276.86884 -5.0181456 77.436096
253.70547 -50.612484 43.832199
208.2401 -8.6338797 34.300285
312.95599 -22.44038 37.446095
200.74655 -7.0823736 17.9361
203.15167 -56.234188 53.592426
233.66412 7.3358402 60.142166
243.9852 16.6721 46.125668
250.04086 3.1955485 17.9361
228.30962 -37.533966 63.212967
250.78391 16.9221 47.639866
262.95599 -37.633072 25.907036
150.72238 4.353466 14.805689
302.59988 -12.865242 19.9361
238.00882 -45.960934 75.936096
260.20822 -56.615974 19.328699
266.49725 -31.5219 53.409607
310.57233 -45.253551 56.703121
256.1142 -15.5244 23.283829
245.08253 -58.077896 25.340729
286.64694 -45.0779 32.988617
313.25745 -30.029755 43.4361
143.03618 -58.0779 24.76203
230.87581 -41.369091 56.478764
234.4955 -51.198803 17.9361
264.83289 -50.162663 11.214342
234.03214 -41.672428 61.935928
244.99402 16.9221 21.814178
268.61792 -53.8279 41.01012
185.76082 4.3534603 55.139572
189.593 -29.813225 26.253096
170.86325 16.810558 49.095554
239.31409 -55.851578 55.250401
296.95599 -50.256592 30.883404
289.90439 -56.066723 15.813779
257.01617 -52.960751 19.328699
262.95599 1.7629769 24.183641
229.40553 -42.68428 56.877247
267.17224 -33.255272 45.804405
249.06058 -49.509319 19.328699
179.27342 4.0877886 50.178844
172.79996 -0.13145471 37.652832
239.97787 -35.004517 77.936096
260.1445 -43.274448 28.238701
170.91441 11.026535 29.661308
143.93362 -32.086304 46.099865
312.32355 -1.308579 30.9361
203.5461 -50.778858 68.74028
265.73492 -7.5256786 39.28088
258.33759 16.9221 34.576694
282.66882 15.6259 23.223021
223.39969 -19.91156 77.936096
133.31448 -2.2534666 32.872559
170.82739 10.718426 26.47003
284.89432 -51.131096 75.705627
268.56998 16.650089 51.114655
199.40935 -57.077904 45.931736
144.75928 -11.72629 46.238174
224.13202 -54.237518 19.9361
266.14908 2.7578673 57.037994
145.11464 -38.856998 18.9361
211.4886 -52.670612 69.034332
267.56683 -42.761284 34.78054
148.26924 -7.1229997 19.6271
260.62341 -4.5456629 19.328699
270.40494 -45.0779 27.759754
267.87869 -40.723515 34.99007
153.09814 8.0549603 35.99435
283.74243 -9.6946659 16.827028
170.82951 5.2691808 37.9361
255.3887 -51.272984 75.090828
213.21759 12.4156 30.113567
305.14709 -36.01675 67.553482
309.33044 -42.33363 30.9361
188.72823 -18.210745 17.9361
221.3783 -57.327904 44.188591
293.7471 11.418974 73.782921
152.01031 10.012944 35.09848
188.55692 -30.004471 51.401794
170.20567 -32.404236 37.9361
209.59302 -1.3336287 26.094883
264.80673 8.1020451 28.573967
221.78624 -13.828798 19.328701
240.58929 -56.8279 21.714174
319.26242 -17.15424 31.785015
232.31155 -27.59584 77.936096
256.18942 16.9221 47.636536
266.62988 -30.745094 33.961662
160.45766 7.9724417 37.9361
313.95599 -2.3839679 45.467911
172.74628 23.33783 12.121541
305.58691 -33.809998 20.251574
209.58296 -14.528624 73.356674
287.51935 -57.077904 46.051228
187.46315 -39.26347 56.441368
225.211 16.9221 46.925911
150.23975 5.8570404 18.613365
234.64471 -25.330902 19.328699
209.87244 -47.440136 73.578369
261.87927 -55.230232 19.9361
260.78201 -6.545928 43.832199
283.55045 15.6259 24.023396
142.07503 -6.8039846 18.9361
133.71901 -45.945049 30.96594
259.45255 -52.5714 34.709061
264.54678 12.366874 69.675262
313.95599 -55.566711 33.791492
224.78018 13.6721 40.201317
248.72087 11.056559 75.353348
229.28969 16.6721 32.157108
227.80231 -25.673229 28.328697
197.79478 -28.286324 19.9361
323.56006 4.9909525 46.71125
309.18463 9.4609642 22.050413
228.92268 -5.0266762 40.133026
304.40616 -28.2344 38.1861
131.13174 -23.160704 29.23296
248.60359 -46.631401 20.762053
141.68817 -32.920792 45.428974
254.98662 -25.416899 19.9361
249.83742 13.6721 40.366177
280.88257 -55.813271 7.8191395
273.32159 -45.077904 80.884865
149.69696 -0.45501208 33.193378
215.7601 -17.526634 19.9361
271.72198 -56.781578 20.645222
157.01819 4.9220901 22.340855
261.72961 7.6569405 46.765621
222.91882 -8.6338787 30.909538
189.87593 -36.622833 19.9361
217.04326 11.790617 72.172653
296.95599 -40.139427 29.220947
236.86853 -32.726261 77.936096
244.23581 8.5044327 19.9361
248.27478 -20.923588 19.328699
170.55734 17.426712 34.9361
241.30156 8.4719934 19.9361
182.99428 -11.909032 53.024456
302.9892 -12.816401 71.86908
205.74158 4.719017 28.238701
279.54199 -1.8199029 77.436096
230.17979 1.1486559 19.328699
164.78462 -55.501255 7.7429996
269.26929 7.3358402 59.466438
235.32645 16.6721 32.277187
290.74103 -52.015427 36.054321
281.69296 -22.818869 16.344799
134.69321 7.3845115 34.593716
232.11533 15.941983 54.183144
160.7099 17.724819 27.274281
313.95599 14.823209 47.318447
282.18613 -57.242802 25.594662
291.52481 -17.692791 18.658178
211.07094 12.4156 34.107349
311.71609 -39.397751 54.416153
193.97244 9.668313 17.9361
248.05632 -56.8279 48.968811
171.2487 -45.0779 24.094143
294.05176 7.9220901 18.8396
290.54471 -48.232567 5.7517772
152.52208 13.90696 22.884472
245.75522 16.9221 49.714737
219.46901 -16.756186 19.9361
197.14296 -30.464111 63.843636
261.38901 -8.7737923 23.867622
242.12964 -38.593071 19.9361
312.95599 -35.588451 42.682495
265.74069 0.53826606 56.816456
284.2486 -27.123278 16.946127
197.66208 -30.455101 19.9361
222.74197 -57.0779 42.792744
252.13377 -46.631401 27.696898
287.2944 -48.0779 24.324234
180.95599 6.7597032 27.993607
317.53754 -33.475971 28.843897
264.117 -42.890251 31.937664
233.60541 4.0460033 19.328699
286.45087 8.9784327 38.186104
245.9115 -26.819456 19.9361
276.07928 -57.242802 15.4253
197.297 13.468044 63.961597
188.7312 20.683758 53.120621
162.31549 -53.410755 49.051086
146.95599 -45.614464 21.42642
285.61877 17.9221 37.516003
213.49353 -1.1713614 76.115273
191.83159 -22.387762 19.328699
285.1564 -15.126485 37.9361
262.95599 4.480021 23.224705
264.70422 3.3133574 38.1861
225.30905 8.9745378 48.783623
270.99521 -25.349655 37.55661
206.18048 -55.716881 55.834076
138.63257 17.723463 20.710579
268.03012 -32.379551 35.114796
132.78625 -8.4381723 26.737549
169.32315 -31.446276 50.352932
303.78107 -54.113152 62.783279
212.40898 -4.434103 19.328699
238.9946 -35.043667 19.9361
194.95624 -56.8279 47.578468
184.19255 11.556127 52.526306
179.10118 6.5041761 32.463596
229.40561 -47.534725 77.117149
254.81917 -33.25156 43.832199
230.93681 4.7458258 77.936096
192.42491 -58.077904 24.47254
148.41649 10.672585 11.75856
287.47137 -44.736763 17.704422
224.58269 -45.82592 77.686745
230.31728 1.9784083 46.46265
150.53999 -57.077904 43.838264
164.64032 -22.175064 16.097113
205.97688 -56.827904 44.681782
186.37877 11.344043 19.9361
256.32086 16.802994 50.452141
296.15567 -57.077896 35.543968
245.95303 16.9221 34.625988
162.02144 15.347828 48.958763
173.08374 -16.750153 50.98288
313.95599 -0.64859056 48.227863
254.27953 -56.8279 27.251604
225.11841 -30.272007 77.936096
187.9106 -14.627936 19.9361
216.38304 10.357518 36.653702
189.59302 -40.347408 22.197313
180.95599 -22.484106 20.289322
193.42337 -57.077904 23.585958
298.55316 -53.60667 30.9361
220.01337 -20.731382 19.328699
255.79282 2.6098232 19.9361
223.37683 -12.8904 20.833103
254.26828 16.9221 32.888779
266.60065 -48.489048 22.549906
188.36925 16.9221 43.698502
210.99515 -57.077904 38.26149
226.37845 -47.783512 77.034225
229.47842 -12.138926 19.328699
245.87479 13.6721 42.171234
226.77249 16.6721 27.533066
238.60445 -31.51034 17.9361
227.02098 16.9221 44.934723
220.05164 16.9221 23.331503
273.57538 -52.868149 68.178375
219.18173 -16.924274 40.328701
283.23651 -52.672039 0.402652
260.55753 -42.562927 42.683849
217.33827 -5.3868022 77.396851
312.28238 16.9221 45.93848
189.593 -13.475813 26.083471
258.91492 -50.299328 19.328699
207.95781 -54.011322 63.224747
152.22833 -44.911884 18.695551
198.95508 15.987702 19.9361
215.59698 5.1439223 19.9361
158.68796 -51.158356 37.9361
205.17838 -56.8279 27.4748
175.02316 16.9221 39.6605
199.36096 -12.8904 21.176987
267.67966 -56.659218 51.750656
150.79895 -53.522648 16.720118
167.57391 -55.812805 10.078876
215.88403 -12.8904 21.462601
170.99207 17.9221 36.452805
230.26204 0.9151234 56.543968
272.3161 -42.879417 79.936096
189.70853 6.2423534 19.9361
164.269 -46.195232 49.506294
247.23056 -23.501385 17.9361
198.02409 14.191241 43.328701
215.83908 -12.8904 19.905579
281.97043 -48.809013 75.936096
178.37424 14.237472 12.770725
207.42242 2.7484519 36.653702
191.593 -24.05579 42.107269
250.90823 -24.946072 17.9361
220.42618 -30.568665 19.328699
192.38252 -34.222466 50.459248
218.8754 -21.459959 43.328701
266.099 -57.100296 8.100193
312.46133 -47.366432 23.688763
266.52234 -2.0809853 19.096962
161.19925 -58.784973 14.4474
246.59299 -41.855377 23.667025
239.10486 -46.891663 77.331505
246.59323 16.9221 18.88228
153.64053 -33.758457 47.725895
155.30682 -63.054825 7.6168885
322.41666 5.2195702 44.676674
296.61652 -14.878925 31.215673
181.91545 -38.316338 52.462303
207.50299 -40.48518 36.653702
158.96802 -27.765974 37.936104
259.69052 -48.957672 17.9361
306.35193 2.9752464 30.9361
316.33038 -47.886726 34.436104
317.34937 -9.9809704 27.655628
156.04597 3.8258424 12.429154
262.92172 5.6406975 19.936098
315.94995 -8.9988918 25.433073
290.87073 4.9220905 79.294258
224.0533 -49.601398 45.730328
271.78174 16.433483 11.132445
289.9043 15.606667 36.743382
295.06854 17.874565 14.566844
243.18256 -7.6040554 19.9361
316.5 -19.71949 49.342182
186.55214 3.7707741 55.744701
316.84335 -9.287818 30.9361
306.27606 -51.562569 30.9361
222.48087 15.684357 55.299538
251.54073 -10.786425 43.832199
266.04208 -4.7848744 40.675018
316.5 -16.665493 45.989815
230.17403 -57.0779 23.970268
250.58612 -10.914454 19.328699
317.8327 -18.929878 30.319824
308.08023 -24.286524 61.687469
153.49435 -37.833687 47.701408
295.33063 2.2806394 77.811226
257.31635 -56.8279 28.52368
312.95599 -25.056259 37.142368
197.34723 -16.721664 63.999851
194.13739 16.9221 43.205624
311.82718 -28.148361 30.9361
194.29407 -58.0779 26.677784
216.68762 -31.5219 31.169067
238.88904 16.6721 24.928947
218.59744 3.5100145 77.816582
262.7489 -44.236073 50.315445
166.54646 -57.903805 3.6183739
281.62354 -17.99165 38.1861
177.76985 5.1873617 29.673744
205.83693 11.674581 17.9361
228.98235 -3.9442778 40.40387
160.87454 -43.23922 48.937683
228.82834 -8.6338797 50.712357
251.53851 -56.827904 28.827694
164.46167 12.897596 37.9361
192.59302 -0.029278278 38.319553
289.33563 13.308937 65.593109
249.68744 -10.775722 77.936096
189.593 -15.040092 24.35302
219.71661 12.4156 45.560402
179.37161 2.8221319 32.240883
293.85977 -38.432323 77.936096
133.97388 14.916484 25.63489
316.87372 17.9221 27.073458
326.06299 -21.433781 43.01844
261.38901 1.6675072 29.124739
233.77142 -52.339977 70.467178
290.05389 11.026131 3.7482944
224.4455 -12.8904 42.888199
242.71095 -57.0779 19.355099
161.50974 -41.876049 49.044086
237.49149 5.7002087 17.9361
297.50723 3.091325 19.9361
196.20537 -24.6717 43.30917
282.42844 5.8448114 77.628517
300.52438 -51.746464 73.038994
202.07199 -53.499481 17.9361
300.66351 -49.967712 19.9361
313.58716 -50.302673 50.673653
244.19617 -16.887722 19.328697
160.8438 -48.838688 3.0492539
285.86923 -3.3533096 77.436096
290.66675 -2.9256949 38.1861
249.18941 -56.8279 46.689678
271.90826 6.617588 37.328701
269.15814 13.595239 64.352371
237.55615 -29.046921 17.9361
282.95593 15.67818 6.9941397
251.01743 -57.0779 18.263052
146.95599 15.694271 24.2313
179.45355 -15.355124 50.316574
131.74864 -12.299815 29.9361
264.27682 -25.511759 59.679184
150.28922 -39.446449 19.15181
236.76102 -47.257946 19.9361
153.23914 -30.719379 36.110455
300.02441 8.5931282 38.1861
293.48648 -42.283733 79.895477
315.17581 6.3069029 34.4361
187.33878 1.82269 50.663422
166.62265 -55.733913 22.97847
271.88855 -37.768112 77.436089
282.39835 15.6259 24.32505
285.02377 15.6259 16.277981
226.07578 -6.8961577 51.453789
272.93951 -36.844208 37.328705
226.33644 -15.340752 77.936096
220.63959 -57.0779 19.00074
180.95599 -33.408249 20.317936
225.06964 -27.2654 22.565563
197.49802 -41.316761 19.9361
228.75023 -13.8904 32.627766
175.68724 -5.2131109 18.696396
214.50798 -56.827896 36.804749
219.09128 -57.0779 39.534126
240.31519 13.82242 19.328699
155.76743 7.2330146 37.936096
304.47601 -55.241653 30.9361
186.95377 16.186874 53.122105
259.00671 -19.476528 19.9361
160.61096 8.3134251 34.9361
207.47845 -42.311882 19.328697
289.60818 2.2528291 36.987236
261.38904 14.11579 21.702368
220.362 -1.718688 23.358978
134.93666 -3.911447 38.472698
179.91328 7.7719831 50.66814
189.593 -36.480637 36.088047
266.72961 0.61256123 77.936104
241.8775 -44.485809 19.9361
285.4281 -45.0779 18.523586
226.28067 -54.785397 19.9361
138.5368 -30.661224 20.540897
204.55684 -46.335171 17.9361
305.52106 -19.109005 20.218647
222.29085 -12.8904 35.25811
225.59299 -21.266447 34.782616
225.70322 -42.508183 19.9361
299.27179 -27.365231 76.497482
278.37885 -42.0779 80.675522
286.47058 13.482798 64.839706
270.15521 16.751001 16.123613
252.61926 -33.692089 46.053101
132.67896 -32.273628 27.166725
279.76065 11.476024 0.012093263
181.03546 -16.847647 52.314896
222.77397 -54.451683 37.328701
193.15707 -39.521236 17.9361
152.60745 11.197187 47.389118
287.3541 -49.055595 37.9361
263.638 -53.8279 43.310089
190.79449 -28.216274 46.926186
153.37251 -46.882469 47.610336
211.65717 -34.491901 44.617443
296.95599 -10.96026 25.525539
133.48909 17.627817 27.803745
316.03278 -36.714245 25.474501
237.6998 -17.058422 77.936096
257.48895 -2.2648106 28.238701
262.6358 0.14560838 77.936096
192.53201 -53.395245 37.328697
250.04604 -1.9402599 19.328699
265.5253 -58.533375 13.209903
206.57553 -39.88773 19.328699
273.18964 10.155351 34.936104
258.0054 -30.6339 29.544182
300.16302 -55.337021 19.9361
194.60028 15.608183 55.62957
229.4557 16.6721 47.073639
232.59299 16.135689 37.851582
175.87534 -36.080757 35.120163
181.74617 -12.134032 19.9361
269.03906 -14.017242 55.86116
195.51854 16.6721 34.963764
139.61771 -9.4564257 20.27067
312.50027 -23.630066 23.708237
192.20102 -33.8592 47.69281
286.99243 -4.7417297 17.591738
207.78516 15.823173 17.9361
215.93903 -15.743617 19.9361
242.24162 -53.827904 41.285923
201.47287 13.487596 64.819046
208.64111 -8.4394045 72.636429
162.1356 -0.87809324 16.364426
244.19519 16.9221 40.695198
286.38373 -54.917564 30.37278
155.25648 -33.526886 37.771809
241.37506 16.9221 40.162971
282.06281 -10.655676 77.936096
294.98688 5.7528801 28.671291
200.52753 -12.8904 20.6159
235.45969 16.10235 53.488213
257.76797 -17.828993 19.328699
281.06476 14.8399 38.1861
177.65099 -47.110031 10.88599
234.16223 -31.967173 17.936098
156.53496 13.194822 13.338882
208.14326 -36.724178 28.238703
224.29904 -57.327896 46.311989
243.75082 13.6721 42.055809
249.81766 -38.86095 19.328701
182.901 -46.265862 52.953091
134.21503 -22.192978 37.003101
201.70163 -24.415415 37.328701
243.99702 17.9221 24.97426
192.35585 -35.543846 46.959934
244.05653 16.6721 45.091366
322.45142 -10.83602 29.336866
168.78442 9.7657499 29.840958
193.91931 -42.262615 55.36171
256.33615 6.9724274 75.936096
135.63733 -23.686119 40.873905
280.63235 10.949297 75.818207
160.01837 -58.383598 9.2988977
265.07043 -8.5021257 32.67741
228.32458 -32.454041 37.418552
268.52258 14.71016 35.520359
198.093 -26.186424 40.279465
262.95599 -37.320869 22.477154
153.08194 -3.2574906 35.980995
211.57455 -31.309996 74.879898
223.69003 -5.6318932 19.328699
296.95599 -55.087631 25.856146
198.87975 -55.349438 17.9361
163.39005 7.2503972 19.997776
171.34738 -47.571751 28.868084
292.59674 13.668009 6.4421043
265.59558 -58.477341 19.297287
249.7532 -33.075882 43.832199
284.14816 17.087 22.509951
268.25351 -26.410723 50.711975
159.00818 -25.187422 37.9361
275.43561 1.9559044 77.936096
235.05292 16.9221 47.405613
142.27351 -53.156811 18.9361
291.92203 -24.086412 77.436096
250.797 -32.544811 43.832199
211.7942 -27.752579 17.9361
189.82503 -55.004578 58.247742
254.34018 -44.602524 17.9361
263.68686 -56.8279 37.23098
149.67899 12.113194 46.857838
237.92761 -11.239232 19.9361
210.11365 -8.6852274 19.9361
142.08745 -39.458893 45.571747
258.39767 -42.619167 19.328699
307.90619 -42.857128 62.035538
225.77966 -53.827904 38.629902
233.91991 -55.723515 55.805309
166.56871 -31.047791 16.550856
277.01129 -51.094551 75.863937
189.593 10.192868 19.977009
280.99213 -36.89537 37.9361
154.71072 -60.773037 26.826155
288.31827 16.393232 15.117418
184.01294 16.9221 36.781059
191.94806 -31.763664 17.9361
214.71831 -46.631401 20.33042
298.83362 -8.5008259 75.936096
280.56888 -47.252296 38.1861
281.07019 14.03371 0.15923636
155.29254 -58.061539 33.915356
208.61397 8.0765085 19.9361
209.89041 -6.728508 28.238701
263.49948 -53.827896 38.496689
261.38901 -28.06522 27.508886
153.49068 -52.267456 9.0819645
314.04205 -2.3904099 41.038609
188.61143 -12.586275 49.909897
313.72348 -6.2640762 50.401356
157.8082 -51.397575 1.0884926
238.51945 -50.045296 76.280304
224.67772 -51.062939 75.941086
223.71526 -54.335564 17.9361
146.95599 6.4307661 21.217545
303.24609 -12.707525 19.9361
165.65323 -6.1051531 37.9361
233.85162 -1.108799 77.936096
289.33014 17.087 15.447954
313.10837 -30.990826 24.012291
216.68596 -12.8904 28.13273
172.71284 -43.303997 8.012886
262.95599 -33.490772 18.458818
249.77492 -31.014303 17.9361
247.92413 10.201679 46.053101
180.33563 -26.933649 31.446991
221.30144 -41.010109 36.653702
309.21039 15.824219 22.063303
234.91672 -25.23081 19.9361
151.54326 1.6972995 18.856743
274.828 -47.19875 77.229141
252.16322 -32.619446 46.053101
246.9695 -53.157948 66.922668
155.4917 10.509064 34.079361
268.38965 7.3358402 59.77681
159.01195 -46.661797 48.603363
307.08026 -43.110168 63.68729
175.68011 -45.0779 24.249264
268.05682 -44.49538 80.936096
265.65619 -34.361176 38.923653
291.49103 -27.884552 38.186104
293.37018 -22.346905 33.889122
167.11084 -4.7220259 37.9361
273.69659 -57.0779 49.495319
133.80257 -5.602715 21.724455
239.64095 -38.852341 17.9361
160.1824 -49.147141 22.972788
185.23283 -57.077896 43.016117
242.57922 -56.8279 22.508808
239.88571 16.87879 50.123741
210.80942 -56.827896 25.754053
229.70891 -56.8279 43.787605
268.54102 -42.812195 35.535522
154.78796 -51.662533 3.6974428
273.42413 -56.939201 19.359804
279.74512 0.88259518 37.9361
249.162 -8.8870573 17.9361
280.38721 -45.0779 77.63488
248.30534 -51.552338 73.880173
282.70935 -41.817856 38.1861
201.58836 -27.2654 27.790047
210.49893 -8.9207067 19.9361
244.52768 -12.495416 45.787834
221.9789 -43.308319 37.186207
308.3642 -3.6302612 61.119576
149.1503 4.9220901 28.794027
286.27509 -45.077896 22.95171
270.2868 -19.342113 77.936096
249.45419 8.5064564 17.9361
285.0202 13.508659 37.936104
283.80182 -38.278919 77.436096
257.77576 2.4226513 19.328699
240.45001 -18.998737 17.9361
256.07373 16.9221 21.724524
166.31477 4.9220901 26.781765
204.64955 -3.003649 36.279758
208.75824 -8.6338797 30.534584
252.12292 -5.1681128 19.9361
276.85571 -18.083141 77.936096
216.85931 -12.8904 37.120804
312.0347 -36.691521 30.9361
137.93037 -8.1838751 43.910484
313.95599 -31.231522 43.934677
191.02185 -7.7703972 46.471386
186.7265 -48.837769 55.878036
218.95599 -5.3176517 77.570457
229.75754 -56.827904 29.779236
309.66125 -39.214153 58.525627
268.11707 -29.915283 77.936096
278.42371 -20.728563 77.936096
271.38269 5.5660257 59.998528
203.81509 -1.7517538 68.945908
219.1861 -51.33746 74.811386
212.38034 -52.571404 45.527477
231.28366 -0.73336554 17.9361
196.37167 16.9221 21.86249
199.96327 -30.495455 17.9361
302.66547 -7.5959454 30.936102
244.89011 16.6721 24.798592
171.67282 -53.861176 19.964602
235.8353 -57.0779 40.435123
220.362 2.1192122 19.465504
209.72052 -10.053888 17.9361
141.63162 -30.668152 45.406357
238.8927 16.6721 43.767899
297.28372 9.141839 30.9361
222.37051 -8.6338797 29.726704
296.95599 -57.046852 21.227726
244.8866 -13.512576 19.328701
285.56775 17.964302 1.962265
298.44421 16.9221 45.237152
239.15176 -56.827904 44.584137
282.45062 -31.791555 38.1861
263.75571 15.885452 31.641956
260.98843 -57.0779 19.514198
167.87163 16.9221 48.097519
185.45378 -15.730887 19.9361
316.5 -7.5236616 53.37672
295.46921 -40.367729 32.160511
164.23248 -4.7617712 49.500179
261.922 -54.746052 60.040939
270.5285 7.9220896 5.9325724
226.58537 14.292646 61.330345
304.22119 -7.8833027 30.9361
261.40509 -57.0779 42.029404
273.85294 -12.499954 37.9361
289.44098 15.724709 55.124683
265.9899 13.652105 8.263793
236.02315 16.552622 17.9361
245.27657 -33.208969 46.032818
153.39403 -16.459389 47.684601
205.31256 -30.133825 19.9361
252.75346 -49.848946 76.345749
189.24077 -45.574871 50.033489
157.68071 -50.562031 34.936104
168.30269 21.265461 3.9767008
223.10281 -18.190556 43.328697
236.89313 10.119413 76.203659
168.26942 0.47384304 50.176422
229.83623 9.3174543 76.470978
281.69144 16.9221 45.375404
226.58435 11.92123 29.520134
