# .PCD v0.7 - Point Cloud Data file format
VERSION 0.7
FIELDS x y z
SIZE 4 4 4
TYPE F F F
COUNT 1 1 1
WIDTH 1613
HEIGHT 1
VIEWPOINT 0 0 0 1 0 0 0
POINTS 1613
DATA ascii
48.482338 103.43912 37.166039
63.364338 190.15109 29.751131
72.034126 13.911232 26.639038
38.93486 112.13717 9.2832642
3.9394507 155.181 19.691822
19.218576 104.40813 11.5305
34.865936 134.49629 16.731062
14.486144 123.00401 9.3560123
73.162323 63.069511 29.709145
8.5997696 193.32138 14.413806
6.7527838 161.069 16.945999
73.281891 109.62393 27.963297
61.232025 140.37851 37.390518
62.231121 122.69931 23.086243
47.914474 5.5906205 20.84037
20.336237 182.47263 38.232174
8.6347303 109.74651 37.431927
58.792721 72.115379 55.040665
42.863995 86.862411 15.746207
71.255096 41.095482 25.374184
45.531883 91.20665 12.150953
29.854351 120.63791 24.097477
66.762901 131.51816 9.4130077
23.54192 133.69284 38.495296
38.800919 141.97324 35.25499
60.746452 10.321688 35.16151
38.102097 110.52902 16.213243
39.67429 137.09012 22.289955
33.194447 149.44064 10.232027
17.503689 125.70099 11.564754
32.31498 194.24628 19.367752
65.501617 75.310493 30.057318
56.967667 186.76373 12.534481
39.435204 165.16547 40.295586
63.357048 5.8077292 35.871094
14.318876 95.051285 9.1689291
68.571884 179.83855 38.402679
19.931496 113.11381 18.336485
38.862789 156.28494 40.614445
50.551212 119.27577 11.494374
56.862984 94.126144 9.1627378
63.1455 87.927666 26.292994
16.168419 15.984695 11.427563
73.511772 91.209267 22.250992
58.220497 111.46417 11.5305
53.131306 8.3597832 21.948063
63.098579 105.78851 25.068867
62.826103 63.741608 40.845821
58.000771 65.348755 11.5305
54.423706 120.57118 11.508198
5.3000536 37.200844 11.920094
11.242393 133.09964 13.140161
34.858955 78.265305 9.0565948
19.181261 173.79761 11.484176
0.88786089 37.230106 30.548058
43.010326 154.35147 10.484486
50.228218 167.60567 39.858715
19.391232 112.01427 11.5305
34.30621 131.14503 15.852335
36.766987 101.87404 22.438946
69.776474 33.584778 12.303031
33.455261 192.09888 20.174332
43.815502 85.773453 14.46072
71.926254 189.26633 17.16235
60.787254 142.95215 18.98922
31.544121 55.127068 40.781418
26.97084 130.8414 11.5305
17.871254 18.684414 38.111137
40.739796 104.59643 39.108635
57.810497 125.40465 11.561028
9.852087 115.97208 28.467628
71.560081 196.27995 20.574696
6.9991779 196.21082 32.176506
13.770229 81.248474 9.0765505
1.9029762 124.67822 34.236889
26.098833 41.097916 10.111762
7.5191269 181.75969 37.304405
56.290386 108.92072 37.291363
71.934654 197.35912 18.971991
17.177353 136.99367 21.573637
65.519409 103.95851 15.221232
31.415375 140.45721 35.240658
72.41243 171.35411 31.352116
73.613991 115.44348 23.437077
8.572732 137.99597 8.2126122
13.095988 132.1031 11.5305
35.940689 138.93459 27.807316
38.75312 53.401672 9.462163
3.2239652 178.57721 11.858811
9.3259811 51.989311 30.097843
65.895332 71.767616 9.0130816
10.24437 84.108589 9.0956917
72.436638 92.69339 33.262047
6.6668062 195.0542 25.247953
7.1694384 38.855091 25.909601
8.7893791 187.20882 35.545578
1.7625935 43.766342 32.779373
9.9323816 55.819256 13.594313
19.587912 56.022503 40.19228
55.082638 3.6786623 15.206741
49.543762 184.48808 11.343943
63.09446 132.91997 26.831907
29.159187 52.320789 30.288721
63.732712 152.7448 23.95001
34.373631 162.91974 10.924965
43.659996 65.485603 8.971036
2.2357945 15.697805 32.407478
7.631341 165.00648 38.395824
44.998161 78.438049 12.76942
53.901302 115.12517 24.239788
66.309631 108.5892 9.2595282
68.43811 10.216156 15.680765
18.265312 7.1055088 22.626814
8.7277555 110.56687 25.518404
5.5289564 66.090805 39.210678
27.571018 66.865326 11.532049
35.750305 72.929863 9.020875
26.068359 93.565826 25.775841
65.520546 105.98039 13.220681
44.299789 55.06464 40.700584
9.7104883 56.355236 13.115461
17.726301 25.962547 38.712772
73.232323 53.533329 15.874054
35.553577 192.2505 19.66503
62.870838 136.09477 25.448254
26.485252 64.311066 47.071136
62.116768 115.77948 23.539385
68.520805 43.350239 22.555182
18.890764 113.64119 9.2933388
64.240753 157.66725 3.3444548
73.263123 27.056141 25.664639
0.47080058 126.50651 29.147564
31.567974 101.57988 16.887478
65.839958 55.30584 14.07246
66.970306 73.058975 41.492165
8.6573801 75.049973 20.806023
63.943592 157.99763 17.866663
0.67533863 119.77119 29.467609
51.720657 79.776123 9.0667009
34.34951 142.00668 37.26067
72.82077 106.48598 13.748825
10.074051 151.36737 0.89057529
66.685616 191.92302 15.622253
59.832275 25.098406 38.21064
3.9961059 147.26065 20.979706
65.517303 100.1888 33.549755
58.050301 28.043877 24.260534
14.741434 99.720184 11.5305
2.2539582 12.202766 23.390835
2.3430953 118.30923 34.388592
11.286347 133.5101 23.997374
49.039581 106.31203 41.068558
65.489449 58.39949 19.336128
62.100624 193.52487 15.323161
47.93322 87.569344 11.531401
55.081818 6.1885257 21.232792
4.9252486 137.96681 38.663063
65.505516 81.658875 37.561886
71.904526 195.87762 18.971422
21.98209 118.49895 11.5305
16.1077 45.986023 21.281643
6.471941 47.978859 12.326635
44.228172 132.93849 36.802036
20.177351 16.017872 37.441223
4.8881631 146.40393 15.085722
5.5555606 9.1666803 22.385101
17.826515 34.686378 39.155159
32.136574 106.23888 24.424898
46.421394 181.88416 11.424797
6.6652622 45.152367 20.882902
11.287167 136.1134 24.75692
3.8181646 40.826962 22.105188
72.418617 115.27757 10.696207
27.190891 57.890724 9.2251549
2.3402848 12.680162 32.680721
16.66885 11.511697 11.537048
1.2632906 28.952648 28.406437
73.702148 151.72992 25.884373
13.315338 138.63525 17.139843
68.538544 137.68634 16.383926
47.110657 167.26317 11.148252
21.293528 94.80764 9.1672993
66.30645 191.73259 19.542362
50.946564 107.14735 28.946575
52.565815 53.72485 40.164982
73.024376 65.126488 23.638994
15.904882 57.145798 39.916931
55.722084 186.83821 36.689499
50.09446 25.728329 39.533245
29.288773 139.97221 28.36911
60.66748 25.4233 25.03437
22.24103 47.777695 9.7590904
1.6719869 112.58993 11.139757
44.473694 96.305878 9.1773243
4.380692 35.524734 5.0726376
65.697311 187.84351 35.291641
65.148697 169.9353 38.217918
1.6941646 112.99744 32.699097
48.672867 194.08757 18.798538
55.65313 56.310123 16.254324
35.348267 55.741642 24.541916
30.606848 19.850163 11.233576
32.983578 101.11168 16.901886
55.051849 82.28112 23.663889
71.647888 180.68736 13.922667
1.7534653 66.279541 10.2227
0.38546616 108.91753 29.521246
62.077816 15.723076 37.776279
11.280496 118.63808 22.765781
14.67393 104.38241 38.690311
65.517967 122.80754 34.887592
0.70208645 129.68896 30.087486
26.503307 78.77713 9.0600157
62.875999 130.14853 15.97721
46.577225 64.156197 46.969574
26.696285 134.25781 40.182781
11.280489 118.63266 19.91185
1.1988426 65.578041 29.029091
55.697906 17.311989 38.058296
70.463432 38.242039 22.03569
6.1455383 153.58603 38.577309
67.164238 46.42363 6.6654239
3.8187938 142.50839 4.9146233
11.971078 42.462154 24.910755
22.853771 138.43227 26.621733
53.175331 52.68811 20.28751
44.053772 113.17166 14.449793
18.392744 91.649017 26.237057
53.725304 99.165886 24.324219
40.849327 37.676399 10.292408
27.632891 75.475784 9.0379143
18.575291 140.35059 28.786192
59.706223 142.17023 40.260403
71.347946 153.36464 36.373798
61.00914 194.04976 19.591236
4.6584039 42.599731 2.7391682
32.311363 133.39539 14.354476
32.770817 72.399002 55.383919
38.198135 61.934254 18.445475
59.720711 183.03427 37.571972
50.894768 102.16813 11.5305
27.78204 82.49585 22.245285
9.8654308 147.58528 19.517778
28.121243 67.346115 8.98349
58.050301 45.610554 10.738295
37.940285 136.58305 21.399292
65.504868 80.544586 26.046097
8.6419497 125.09283 33.357594
3.5432334 192.72461 32.988503
65.519257 103.69054 37.433704
32.746593 112.45479 14.704214
3.4617424 44.299431 37.695938
71.479309 69.244698 36.209137
65.340332 14.448584 11.418758
20.813906 69.931519 9.0007982
70.185394 156.58374 21.923025
10.195595 159.74268 6.2869873
16.498531 29.784367 38.755089
34.003265 130.88492 28.213892
49.097195 81.987137 24.1411
73.133881 111.20008 15.895354
24.095545 183.27148 11.344049
52.267784 68.021469 8.9880114
6.9818325 19.764492 19.559986
36.726326 160.81186 40.510578
31.306999 128.30046 11.59736
0.72326064 132.61453 26.934692
64.291283 149.08189 17.398973
60.953598 137.21565 21.714481
45.462273 110.67505 11.531395
10.990048 63.76329 31.627054
65.529373 67.950073 8.9875288
4.3545122 41.60078 11.177715
46.331631 132.09448 34.168999
22.161724 95.101799 11.5305
20.918951 73.935684 11.5305
16.990774 95.854935 9.1743078
16.1077 146.59741 10.824588
10.745861 111.65973 12.423909
30.78484 106.36201 25.053446
23.764858 7.3400612 11.680283
26.937298 116.77776 9.3143301
50.100994 147.7623 10.145746
71.983368 176.6916 29.427771
62.699497 17.01557 38.120934
61.695961 89.43898 26.448784
55.762436 8.8297005 24.928677
50.446426 82.114212 23.168863
2.390866 6.6281056 19.020977
69.782448 191.17732 20.410671
60.881149 55.236221 30.327362
58.050301 37.999195 16.790428
45.17767 133.4238 9.4257574
26.119301 183.68256 11.344014
69.458099 31.364441 16.096371
72.618629 173.37334 22.066252
72.197159 171.17841 29.633663
23.908203 128.57249 9.3932867
22.54789 81.848694 25.857224
8.6673594 57.315205 26.415609
64.239815 39.284321 6.6072917
44.857735 99.534058 12.957245
30.787357 95.147064 15.069243
28.877306 7.6831884 24.800875
13.109908 110.97776 9.2755127
55.884872 104.52281 39.251408
1.3456464 109.23011 34.544559
55.727749 108.75957 36.38625
73.614906 136.20215 22.942142
25.76099 62.436874 8.9851322
40.677929 174.28291 11.509125
58.583023 166.31491 39.259766
68.163719 8.1137037 15.662624
35.315315 151.51059 10.33844
36.453674 5.0308628 20.291084
23.911865 41.631176 10.083607
7.5277739 7.4901824 14.578377
3.6907725 35.003334 23.052601
4.5591826 142.84778 23.081772
56.076683 134.25177 15.781105
59.950832 140.63448 29.096865
49.845768 92.858902 25.962763
53.066334 135.11368 17.74592
7.8285828 189.90149 14.400032
65.293045 41.166405 39.485538
20.373011 55.53083 30.402409
41.911972 140.32912 29.21258
0.5022862 110.74126 22.07473
54.51976 114.66343 11.442552
57.80093 68.584183 11.5305
10.698751 85.805573 9.1070499
30.319 196.88759 17.794373
22.372208 105.46223 9.2385979
2.3307395 140.19226 18.123764
1.8087456 80.666367 33.51083
48.597069 66.319183 41.738697
67.454445 196.87634 20.783628
9.9409904 76.84655 11.5305
65.497757 72.953323 19.53027
0.48173159 12.190229 19.862217
63.405388 140.68216 10.338436
71.204216 133.5314 37.149479
19.460201 52.491684 39.941826
72.801254 122.43759 31.486305
50.170227 58.978844 13.406757
39.68808 63.319798 31.36195
1.8267418 169.21744 29.203335
61.198204 57.683022 11.929203
10.361353 112.40739 9.2850838
45.694927 76.669205 9.0459051
4.0011353 138.62697 10.688484
13.779821 64.529152 42.158875
10.815577 150.98334 2.8434401
15.191589 105.06503 18.866871
4.3025331 75.373489 9.0372171
9.3372831 5.9311862 25.436668
15.626655 135.84384 13.197542
42.331078 78.844315 9.0604687
23.134037 16.611408 37.402676
63.64032 37.928322 4.7432532
73.042747 70.754677 14.9125
61.902058 65.360855 43.047447
71.542145 69.935196 36.071804
27.528879 61.352318 9.0423946
10.968495 140.36833 34.84301
58.050301 41.555504 16.043612
64.458984 67.380905 33.579178
29.543575 65.56752 13.055758
7.8979325 6.5306163 25.671349
3.9186163 149.73669 14.309517
11.096544 63.974106 40.828693
3.8460586 140.26257 7.585783
63.641567 158.16916 17.815245
10.262054 59.65205 10.183395
12.855598 87.248032 9.1167068
65.498833 73.747093 20.130289
72.725067 161.8006 32.236229
45.667965 13.128854 38.231079
71.408958 137.05623 36.647465
9.7040462 104.28339 11.5305
36.10709 134.3132 9.4543524
19.56225 61.035301 41.822037
20.080654 120.26903 23.970684
3.1809349 57.89632 37.378887
11.072891 129.97055 9.402648
1.3683617 29.412884 26.204062
57.312485 65.216614 32.188103
50.289059 130.59155 25.499317
23.181419 39.927479 10.173557
72.330612 188.21834 22.46011
63.294296 51.740265 28.54215
58.050301 27.07531 15.63892
12.768459 68.059647 46.127895
7.3798299 164.5865 38.42363
63.726669 69.535149 46.393013
33.903633 114.62462 24.496235
56.955112 37.942451 39.206184
68.644577 136.03708 13.749208
73.469444 112.68502 25.369982
49.7005 100.78958 28.942162
8.666317 58.990475 29.17296
15.610186 28.273071 38.530945
58.050301 48.30901 10.568756
9.8659391 34.86018 18.898708
9.3284912 139.14328 17.527349
60.428307 8.9126911 30.323067
58.985489 69.822548 38.601952
42.319145 185.9299 37.701771
72.086525 22.606295 22.957695
0.82302284 55.047691 22.682949
65.51548 97.246513 37.900131
42.584377 164.37146 10.999595
2.1895313 126.18882 35.382896
52.447609 71.558945 55.795235
32.784367 52.675129 26.909664
43.999336 196.30779 16.115929
20.290545 107.56771 11.5305
62.352699 51.740608 28.328629
24.425097 140.43031 39.512234
42.473999 132.12761 34.607632
26.310955 5.5532656 21.938612
21.7173 8.466362 21.378193
63.496254 156.15842 21.669146
65.922714 77.357155 44.88839
17.415472 141.65356 9.831708
27.419659 112.53252 20.802639
70.88327 35.961552 13.994234
7.2906666 155.28163 18.451967
14.478092 28.034964 25.927647
1.0268527 65.198662 16.903646
0.48083147 161.86417 17.175915
22.74357 57.364346 40.686871
73.322014 127.1611 16.382811
54.498245 195.23692 15.095819
72.599121 31.003788 31.190994
50.861649 148.32611 40.854019
57.81871 17.756336 37.742588
12.101204 51.249702 18.211508
50.005074 85.403831 11.530656
45.01532 82.579659 22.205975
9.5043564 110.69123 27.788668
12.160714 101.68013 9.2132921
10.554205 40.653061 25.524202
1.8498447 157.3454 18.062172
14.289378 102.7986 16.862757
31.814789 124.56787 13.484711
65.520676 106.21449 17.627628
68.223228 45.555954 23.083925
63.886444 41.616634 17.854412
62.871384 124.94212 29.26536
42.564964 112.41779 20.960442
72.954117 115.40941 31.105244
65.024139 93.134064 11.5305
30.730667 133.23425 12.774339
27.727804 66.91478 11.532119
27.17708 140.4409 35.958771
5.4890323 35.647686 0.23085158
43.353874 74.761795 14.926653
52.788357 69.799347 32.991722
63.875671 157.85442 13.925159
43.095444 69.655563 39.160587
45.637066 126.27676 11.530691
29.748583 70.2117 40.860691
72.777267 91.35302 32.024994
8.6699295 60.530128 13.625401
3.5749121 141.92488 18.772074
17.301514 130.95973 11.622938
53.528854 113.01936 18.767506
16.737152 140.39587 35.118263
66.315895 17.250587 13.573414
55.563061 25.318302 10.944876
28.38052 69.027138 34.622238
45.394104 20.701393 11.188634
22.364529 171.94559 39.472916
8.6653156 60.604202 28.053791
6.9164934 23.226219 17.206158
8.8125858 164.67624 15.843693
19.785149 158.54681 40.092918
8.6396399 194.61096 16.832447
40.265625 65.274521 17.495104
50.645634 103.29335 36.920712
28.415218 127.22369 9.3842545
3.4365258 77.589569 37.400894
69.608543 22.952015 13.47702
46.102608 196.84087 16.767273
21.601011 132.5231 12.257242
55.36721 166.25948 11.096655
69.129585 174.55646 38.730453
66.09034 23.846102 18.498674
12.187511 95.848808 17.040146
21.379196 107.86933 41.077103
15.917569 4.8369179 23.030842
52.415306 67.680008 40.523548
9.3222857 175.33411 37.846024
41.840714 66.163849 8.9755764
46.890007 108.58029 9.2594585
63.160892 104.8174 32.630428
65.516357 98.582848 28.948668
31.240541 112.6747 18.708324
26.028063 56.222885 40.682373
1.8107034 131.57741 34.632874
39.237701 101.33432 9.2109709
63.20565 4.1243944 21.218195
8.6396065 102.08008 15.209661
3.9158828 145.23126 19.298416
6.6089029 189.86798 11.995831
1.4144994 99.30703 13.162829
58.656521 107.15408 28.728209
57.066757 112.93867 22.414352
54.932808 131.86072 32.023674
4.5226407 125.32753 9.3715706
6.4830146 165.79219 15.478037
52.982132 157.4985 40.245865
64.238991 140.36101 35.209656
72.638054 108.44162 34.770332
13.279438 134.93506 10.377542
0.60072398 19.796028 20.456532
62.875999 127.96131 17.208878
21.722614 96.654243 11.5305
9.8656883 150.83304 19.319035
73.153702 146.7196 32.366173
1.3556224 91.156822 13.382804
0.80478323 57.963272 30.191265
37.56229 104.65096 16.976089
9.9354687 62.81773 8.9696474
45.737312 189.82361 14.321229
25.545998 56.412086 30.499601
37.485203 169.62643 11.269745
65.507782 85.463776 23.397606
70.304161 34.050632 3.9215794
25.976616 117.60542 11.47642
58.749844 49.65691 19.849743
70.542145 33.492683 11.494442
65.258713 60.96236 9.2938948
60.383202 70.707741 41.505085
0.6769492 156.92169 25.099884
53.563461 185.85657 37.301414
25.038681 66.304962 48.478603
57.400017 8.9975166 19.256145
3.6933017 41.895767 20.574856
31.294804 5.1957631 15.00079
46.484509 173.75099 39.554554
53.718216 190.7774 27.147507
1.8415102 15.777334 25.178406
71.367386 174.25002 12.341992
60.939018 55.421055 39.41692
8.6465015 91.075546 31.683483
44.580433 68.055351 38.337532
21.635025 77.317314 11.5305
60.296272 102.79876 35.034595
6.7426987 197.07312 35.799885
10.827918 140.33025 16.150675
66.462624 93.545837 9.1588535
27.581375 138.72847 25.658228
49.369038 123.15826 23.653387
42.608456 116.15903 11.461918
68.946564 127.47278 38.570496
23.242033 191.87512 16.935738
17.080963 130.06377 11.5305
47.249859 67.472328 37.166531
26.344673 127.02566 23.093229
34.750824 22.624147 11.087118
44.587536 55.070538 19.857841
53.308861 15.999157 37.48785
57.764069 67.818604 11.5305
53.385395 74.027542 34.634422
8.5115051 101.3344 9.2109795
1.738178 145.68399 33.687538
41.630287 165.01337 40.247551
11.105479 34.630585 26.355511
45.178268 66.065971 32.498932
36.918816 160.56177 10.803745
8.8579702 135.58925 30.745543
35.839554 101.70296 16.888033
71.38295 152.49799 18.911106
73.552963 158.03123 25.221169
64.342644 177.04041 37.722622
9.3532114 181.35164 37.200493
41.805473 174.76099 11.533701
15.540283 51.745461 25.023697
56.286995 81.093475 38.303276
49.587227 188.76819 35.474648
38.495377 54.995392 40.799534
69.203522 12.346217 12.323423
60.311104 97.883102 16.982178
32.875748 72.110718 56.455185
2.9119239 85.992493 36.559036
50.240353 52.247959 9.5230751
5.2967243 147.04669 10.535183
5.0667048 23.968861 18.415506
10.39601 6.5623088 37.319901
60.494553 134.70227 16.544237
29.984119 63.874687 46.815403
61.28693 26.638552 25.552435
4.561563 23.746017 38.405045
58.050301 145.29262 16.908197
42.929237 28.590982 10.772089
71.310455 18.597424 36.180271
38.60891 95.950623 17.743605
64.677498 54.607738 18.088963
19.532623 133.93417 9.4348688
12.067385 29.737926 26.213497
45.837894 143.31093 9.9169102
8.6641836 70.027267 17.574127
13.551777 193.59872 16.291132
1.7551134 16.465887 25.176384
54.61533 45.056473 39.695404
40.885803 29.646675 10.716351
37.485291 128.70319 11.602342
11.279409 115.95556 16.862305
3.6712844 194.5459 25.685505
1.6577015 108.33628 11.128801
36.133148 51.851616 28.451967
36.983849 2.5334854 14.019772
52.580032 82.531494 34.332939
41.135162 93.716705 25.704699
72.332687 36.678932 32.994644
70.045837 34.572876 38.283257
69.534393 93.888565 9.161149
63.902542 160.96814 16.585077
71.174675 17.937874 36.506432
37.71796 71.005623 56.189037
6.5374098 194.4649 15.273403
23.859722 70.710205 9.0060101
63.93795 39.084518 24.049313
8.3827629 167.97827 38.268017
38.222374 167.27417 11.148817
58.90773 129.34753 11.5305
40.628197 140.98041 40.908203
60.313828 148.73351 40.195732
22.888016 117.95316 11.479487
66.601219 44.447327 3.9420543
43.648216 69.210129 52.297287
6.9099188 8.3122482 23.914566
63.043674 104.80833 37.293247
0.75491869 117.45792 26.620003
65.605553 80.011078 49.633392
35.02906 104.30188 38.134712
72.732613 61.695183 13.756724
50.140968 191.91489 18.215014
30.589846 47.80204 9.7578058
14.540051 184.55298 11.343938
0.7280606 95.124825 17.939367
44.740993 100.35257 24.008003
70.126358 39.42337 20.204268
45.428364 57.435677 9.2491808
2.2379465 28.897678 34.832951
23.566952 90.577126 11.5305
68.243668 138.57239 17.091894
6.4044819 58.23608 39.475098
63.746761 86.083908 11.5305
11.873888 62.246754 30.986605
57.905426 193.73062 16.196331
62.418999 177.06952 37.990841
71.090408 186.4731 15.626812
8.7302113 7.1647854 21.811234
61.950558 140.37494 37.019531
2.3895373 13.525003 14.480587
29.260473 71.245293 9.009594
16.164064 74.282837 11.5305
4.66219 115.32567 9.3046207
29.900059 90.7314 13.869819
24.328949 140.42995 38.206619
8.6416225 133.76903 37.626713
63.219223 112.05733 15.891134
1.6957662 166.7921 28.973524
63.381584 32.771385 2.8778794
27.023598 191.73126 21.105474
17.098581 94.700287 25.478624
65.548798 194.04137 16.828041
6.6580629 23.029509 9.2690859
18.116789 142.63943 9.88239
53.906891 76.777794 9.046629
32.831608 51.9086 30.301291
37.442101 100.81755 19.564545
3.2856925 42.248077 24.983345
66.341049 83.778229 39.459408
15.082814 141.91228 32.594296
69.014801 75.643524 39.184727
54.254993 95.377335 9.1711121
15.435911 10.412845 11.560764
46.343441 72.294739 56.314297
1.1609534 161.30391 23.098789
35.626015 60.606922 41.10556
65.520615 106.10985 30.48851
40.930302 61.712341 9.023386
10.487369 144.60547 19.213518
0.74528742 105.95633 18.127718
43.930813 55.682999 20.348911
19.451979 8.3216133 20.504414
28.711952 141.75659 41.943932
65.467064 80.352364 47.37188
40.467442 108.25661 33.84444
6.2570381 195.84846 20.442001
28.591042 69.498642 39.019333
1.5195119 68.477036 11.023952
70.378464 143.22888 21.162098
53.941345 71.406044 34.233513
6.5040908 61.842228 9.0437889
37.956745 140.47543 32.089653
46.572258 97.117805 11.531893
5.8458452 199.14452 20.289898
3.9515166 51.044586 18.422476
10.149344 29.187393 7.871232
58.653008 163.71648 16.152411
5.2367926 47.968151 21.275873
62.875999 130.65785 11.954222
57.739315 113.23348 19.378056
1.1338367 67.538528 15.01297
49.66777 167.20636 39.898563
72.268814 175.25519 16.789217
48.581459 160.0412 10.776983
16.1077 27.895041 25.797865
41.515724 131.49164 31.471222
8.6597462 73.303871 23.748985
16.757029 143.21671 40.486263
65.519508 104.12825 14.04361
73.00808 76.4077 30.747778
71.745026 60.360462 35.710503
61.476578 191.35207 17.682407
57.047935 60.178741 40.985344
64.061821 111.09601 23.453119
4.3270049 87.457924 38.200382
71.622719 155.44739 35.707718
47.558464 69.608246 39.011765
35.150017 155.80693 10.559307
60.919281 80.174675 11.5305
45.300499 21.89023 39.389137
19.883608 16.611017 11.404593
49.420315 188.41782 35.940262
14.557915 190.34439 30.003393
3.0998344 35.642197 37.218906
29.230759 131.55508 31.550632
39.797207 192.29967 17.956308
72.145775 170.78889 13.840811
70.347733 146.53113 9.2957945
19.453627 76.437256 9.0443487
72.387688 86.910416 33.522499
8.6484909 88.024078 16.767763
28.374672 7.7381654 20.745363
72.75705 84.691727 13.2236
67.349113 29.956371 24.49851
66.682877 116.85488 37.233433
63.602154 141.88736 9.2394447
39.913712 46.231598 9.8407202
43.659573 108.41797 34.74823
10.466136 7.6465063 11.669638
19.22105 140.4072 36.583008
65.693405 72.93634 9.0209045
42.053818 56.196289 30.495554
27.093267 27.207394 10.845137
48.207588 138.05673 25.637093
11.206264 97.470474 11.5305
11.162498 137.54803 23.821461
45.735374 97.029922 9.1821699
51.101654 131.04478 11.5305
49.74987 141.60199 31.732224
39.299423 83.956673 18.365517
62.878319 113.00379 25.724747
54.728966 140.45657 40.644165
62.871857 132.35457 14.85418
36.425835 67.433136 41.079048
0.83515888 57.470329 19.086681
61.241982 114.42123 9.298563
15.866082 95.956451 25.14044
13.782058 103.86611 9.2279215
38.585251 107.05402 27.954523
47.946987 115.28014 11.450621
36.141171 125.51443 23.404476
9.1209288 19.519167 38.881428
0.97879297 40.325516 27.601406
10.542343 141.98499 36.35743
36.044552 36.27771 10.366253
31.861364 39.918003 10.174058
60.141045 138.17459 23.850399
1.4963067 191.10724 17.69264
3.7714591 27.668537 5.4714022
45.986176 162.32338 40.28363
10.666713 160.58141 11.943869
0.25067359 143.19443 27.306316
27.431084 7.6546783 22.353619
5.2981443 151.79568 15.116272
5.3248615 189.59145 38.714035
12.944625 146.16904 19.35321
68.530281 191.07571 17.025982
19.642216 113.9362 11.43448
63.735584 147.59515 1.5649011
65.509735 88.45369 35.845718
36.772747 105.7863 38.189342
66.674133 142.02965 18.811272
70.765671 68.18071 37.504219
32.610825 176.1537 11.544223
48.805153 179.70798 11.478554
55.11124 13.322165 37.251812
0.70796794 121.36844 26.044619
60.736504 141.96504 35.732681
64.552673 189.72235 14.525661
65.515755 97.667297 19.905548
54.509911 102.28648 33.945419
9.0088358 133.89719 9.4915905
56.219364 168.50272 11.211976
65.491203 59.60553 22.252331
39.968243 15.157476 11.459445
40.311012 27.461273 10.831733
66.735085 7.3838334 12.032751
5.9835272 90.412552 9.1378832
69.235657 123.22031 38.221245
13.166486 51.860489 39.376518
65.960793 69.730957 41.45253
1.4464138 135.36285 33.493721
4.9264731 33.256958 16.674379
70.968224 184.29498 34.678394
27.443012 7.1621408 22.696892
9.8672428 34.455688 9.3843517
43.65799 38.311928 10.258853
65.5056 81.797157 11.885524
11.602537 5.0476508 14.268414
47.833149 121.37654 23.94043
11.05089 84.537392 26.091066
11.286442 133.81389 21.830093
6.0294108 12.527818 11.470777
65.300644 27.861576 23.136887
26.581505 21.355257 11.154112
8.8910465 37.632786 26.059973
7.6266069 73.869598 42.944725
28.577246 133.60872 38.539127
33.808498 104.09448 37.990074
7.3488483 99.842125 9.2009916
15.254676 55.592045 17.015055
25.145084 100.56367 27.850498
73.391228 80.916298 20.480671
11.282 122.7023 15.864557
0.027152874 145.05478 19.487309
55.284309 138.0704 23.937435
47.320717 140.49979 42.451031
28.677341 118.82542 11.49087
65.251884 40.76759 1.5008596
57.129639 141.94012 34.049778
4.6670504 156.95033 2.5459247
63.926041 59.656387 30.651503
58.050301 33.069351 22.452997
60.911701 146.68311 19.346344
27.98143 66.705399 8.9792013
53.159374 63.941784 40.472748
63.111996 135.80058 21.996267
4.5450726 186.29314 11.497846
31.566822 181.24586 11.407307
66.936134 193.65907 19.601343
34.528778 41.161503 40.334381
41.590359 132.83319 36.652969
0.75283909 84.16658 21.312174
9.8671665 146.42386 14.379982
73.562958 96.821663 22.661163
64.290985 152.97269 15.337881
53.983711 158.19934 40.138439
64.646729 145.86224 0.94163132
69.818832 153.12854 24.33079
17.301998 61.896255 30.810314
65.520164 105.31155 18.406626
30.973587 133.86777 14.44507
37.262203 90.064903 22.544186
64.292015 34.965088 6.8624239
48.666145 131.74026 32.223629
40.260967 71.125916 17.511694
72.385406 70.372536 32.960869
6.3845325 24.459412 38.979637
2.0080009 13.775858 30.76017
64.14875 172.17496 13.38665
53.936745 8.3420353 11.634469
9.3252897 17.404819 13.940706
68.582947 4.5946803 22.799002
16.978655 41.427883 10.094341
16.379477 31.399183 38.822815
58.050301 141.88814 18.612097
66.49942 191.11331 14.719034
11.282 131.49173 14.128061
9.2479153 101.45775 9.2118034
69.867416 29.074276 10.851612
69.282555 35.445423 8.2730331
64.597206 173.06651 12.938318
5.1622343 34.07523 14.345176
37.919289 86.16745 17.834991
63.338669 31.168701 22.101259
71.711037 193.00642 19.152716
47.6595 142.56287 9.8784533
62.871563 124.71912 18.535896
57.40102 67.656265 37.022617
11.863794 11.916736 11.556969
49.628548 196.14972 18.561113
47.175316 132.83017 36.358704
70.44117 31.628525 37.832249
11.428975 163.5378 38.968788
62.87188 132.51447 14.080851
4.7331867 37.342476 8.3519621
0.63113356 111.34103 24.526211
40.408161 98.147537 16.975021
31.586338 71.84684 55.138512
44.612968 112.39211 21.623419
8.868041 4.0802078 18.629015
14.619086 120.01123 23.748894
16.046434 190.58846 29.023827
47.896255 36.049911 39.931595
58.050301 142.12004 16.887766
65.515228 96.858444 30.742146
24.733534 141.98734 35.81348
19.341463 108.04958 33.082134
73.19001 154.45599 24.167831
48.542538 133.83456 38.98735
62.112511 40.375435 39.074482
24.800459 100.36931 24.120148
15.71777 118.34221 9.3248072
29.716898 140.73363 9.7844152
73.441093 110.71994 28.473976
13.880172 140.38287 38.591419
16.1077 21.720825 13.298991
73.63488 131.32697 23.009369
73.489067 95.411385 28.979015
13.227867 142.03806 40.142128
0.59280771 112.87488 20.345394
0.81144953 55.160751 21.586159
53.203091 136.22725 20.115229
13.150167 9.4034615 20.003532
31.175512 3.1257744 13.994441
41.325302 122.19685 9.3506031
54.682903 79.127419 11.5305
9.866951 39.157196 11.565844
53.741055 16.907656 38.334831
65.513618 94.389557 18.875782
56.409595 107.71188 31.461582
51.365982 67.948044 40.59922
64.514885 42.294285 23.310982
69.858131 49.43766 20.075249
45.713116 118.17365 11.531322
7.9570136 82.065208 46.36187
73.106209 58.851166 27.617718
33.443726 69.496658 52.790237
12.184028 132.0273 31.47455
73.448044 99.71685 25.271517
69.352295 148.99068 0.34736755
72.819611 29.553761 29.644447
56.882244 86.522667 9.1118526
23.289637 128.23521 11.593941
73.508926 51.980633 19.118608
9.8653917 145.47067 18.470255
1.1577621 65.152985 25.419664
18.996788 190.92209 25.555662
31.227966 67.812561 36.623184
9.8668137 153.29568 10.20784
8.9902115 192.01839 18.424665
45.19342 6.9648461 11.721464
20.532818 45.88192 40.006691
11.855494 125.858 22.575726
3.7630177 144.30898 5.2548494
23.861427 16.574257 36.833321
53.883148 59.09499 29.852894
63.695709 43.357628 15.233886
68.194252 9.8003597 38.09391
32.561771 52.727684 9.4977474
70.379982 152.16966 38.020943
37.362976 103.8364 17.643925
25.291653 101.91949 32.946457
71.922722 168.53127 33.396679
55.398537 181.26025 11.344652
16.544785 5.1908841 13.310892
72.181778 109.0931 33.716389
60.293934 104.18567 11.5305
69.556274 193.93985 20.461506
61.768852 74.129868 11.5305
8.6427536 96.825279 18.302649
72.174805 114.2905 10.201348
24.154549 139.54825 9.7234774
49.101997 135.77831 19.579559
55.47998 105.39294 20.573175
39.367085 103.3155 36.115265
56.534698 145.02626 40.532757
61.757198 119.64008 11.487197
56.939911 70.447617 40.199131
35.360168 135.50592 18.894806
55.486374 8.7994967 16.845715
28.42347 4.2379713 17.032278
24.642654 89.958801 11.530832
2.590204 145.02141 19.269945
32.643986 112.79813 23.781794
58.050301 150.61067 18.840225
1.0318196 101.51147 30.679161
23.385687 129.67497 22.481697
16.764009 53.914757 39.733154
32.857658 86.580215 9.1122417
72.962547 82.766525 14.168455
13.033852 99.850235 9.201045
8.6452293 93.026657 14.224911
70.239548 34.99152 14.330914
32.873581 39.440517 40.268375
58.917633 140.16272 18.112717
51.404274 104.28935 9.2307501
0.92598712 101.63278 16.34498
16.1077 21.188046 19.604767
11.448854 55.329105 17.291576
8.3626766 57.316994 39.470936
46.786366 120.81313 11.530922
8.6527815 81.057755 38.835434
13.774059 66.123672 8.9753046
71.752922 18.913183 34.929958
0.8857922 74.08287 19.554117
62.875999 122.8864 16.265884
29.839472 51.744499 28.679363
12.990378 36.720047 38.937492
13.018834 160.2594 17.188688
61.076584 6.6193027 14.002176
69.288994 33.875019 8.4692497
72.490593 87.868088 11.989058
67.423203 191.10767 36.866707
61.855103 190.80182 25.800362
28.513746 68.31279 11.73695
18.626545 7.7698383 20.161871
64.456863 131.47131 30.038494
53.093052 86.146324 26.989929
68.017853 41.736359 25.156864
16.689701 191.53903 15.960455
26.016834 10.08255 36.839264
3.8500504 144.40714 20.113445
3.3122969 174.46272 36.603138
18.211479 82.748604 21.415371
73.023476 104.41362 35.344368
66.976807 194.1767 34.149551
3.0917971 10.296473 26.720734
62.038757 132.60962 34.195301
9.8662958 153.52344 16.759026
32.46682 65.774406 49.191666
48.119987 51.75005 22.059839
43.56279 25.534981 39.616077
1.6152868 118.7735 12.762181
67.377342 112.12316 37.864918
13.383627 33.556793 26.324345
70.959732 136.18811 14.180352
38.28236 180.36531 39.041885
64.651512 52.305367 20.662857
15.542895 190.68938 28.376482
58.25988 106.37307 25.069023
18.26333 6.4525056 19.88736
22.555546 178.14159 11.510703
6.3225222 151.29662 0.24690773
11.791871 32.720718 26.300076
73.314064 90.193451 26.788872
31.10964 7.4390078 25.340054
50.85807 61.317055 42.126091
8.6560631 76.022415 21.95472
35.30537 90.848351 17.15933
33.559265 100.31786 16.922184
70.500237 158.86093 9.0269213
64.290298 35.020222 15.549288
16.1077 46.780334 18.377359
12.967347 100.63629 23.846989
64.291283 148.47147 17.249962
71.317703 35.769226 36.670647
23.970818 66.082428 48.105827
3.1024022 168.52316 36.273907
37.638542 62.391495 30.977625
70.664352 187.76587 12.503344
65.495407 71.208961 11.569728
62.875999 118.21211 17.692957
54.559074 171.01218 39.307869
63.124741 138.18115 23.313725
42.785004 84.296768 26.9314
11.282 122.31813 13.214024
73.448669 141.0972 25.251591
64.424591 7.5750637 37.7286
59.498604 149.44954 40.289272
62.021545 71.11673 11.5305
70.378662 158.40146 9.1805067
69.746765 139.26306 18.709236
70.627121 37.786041 26.041121
41.344128 7.2525907 18.393988
24.392708 66.321739 40.703003
11.13419 70.757477 38.621479
69.857674 86.370911 9.1108294
7.075088 8.1682482 25.505337
37.363617 105.09132 23.552248
8.6428375 96.696648 25.214823
51.377987 108.98372 9.2621603
12.138007 19.216097 18.254047
4.2649465 148.98378 4.9083643
5.3202572 155.40411 39.070419
17.233501 68.588257 50.579891
37.23941 30.008366 40.011627
46.960091 100.63603 11.531594
53.859367 63.009151 31.1873
65.501999 75.983742 34.612442
9.8688192 149.37669 13.207948
47.473743 19.662701 39.10091
52.702427 53.303894 40.233486
57.755524 88.358994 26.744026
14.641047 86.060928 26.881618
34.918137 67.594597 36.970638
55.443604 79.037033 37.128914
13.658901 123.01756 11.5305
2.5354104 175.65298 33.596096
69.625778 81.670677 9.0793676
71.486488 184.58607 14.323467
23.386444 3.6173515 14.425301
65.50547 81.580864 13.20327
34.713226 7.0448418 17.898809
56.954933 21.397249 38.28828
70.447533 34.400524 22.409115
18.349833 100.54695 11.5305
54.198387 121.01707 11.5305
56.652977 174.60458 38.904137
2.4611201 35.820396 35.867821
58.050301 161.57227 16.51033
13.053034 101.26037 16.9051
30.539927 195.65805 13.601268
41.611504 140.46181 32.169334
72.311905 9.8728104 17.950411
2.2212329 192.433 16.494579
50.272301 23.647549 11.033087
13.177736 116.92812 11.5305
72.950836 153.45598 29.394323
61.228561 133.95917 14.724714
39.564461 54.812195 25.379715
28.310158 56.540627 40.793072
34.286457 57.210918 9.2610464
60.239262 160.44183 17.134003
55.037338 84.881828 9.1008711
44.919968 89.334389 12.974499
36.702644 124.99829 16.296223
1.535768 100.55562 12.615452
41.111095 65.132309 32.11253
11.282 131.30821 12.74713
45.27486 191.27011 24.821827
67.22612 92.754845 9.1535606
19.687851 21.277946 11.158194
69.113716 169.79329 38.96022
22.316658 175.0329 39.268814
6.5965014 59.683968 10.150062
69.999359 201.77548 18.979874
73.452957 87.306595 22.383547
13.54959 190.56073 28.582321
33.161987 99.717865 17.043728
5.2154722 166.28192 39.03199
46.084282 68.497253 51.307121
10.8788 132.72058 18.144693
15.280867 135.74969 12.928799
61.314682 46.606808 39.277645
41.273903 4.2136559 25.860191
34.283924 20.31242 11.209169
35.650455 108.02557 32.543377
72.38916 94.229858 10.435318
65.515785 135.63338 33.042332
6.815197 24.620235 39.117489
39.755947 162.76314 40.422485
9.1732426 192.14612 17.792397
25.520508 141.49561 41.990097
10.967259 140.36833 35.3871
70.513161 185.16296 12.468188
2.6513515 195.5537 21.680246
8.2893658 150.95435 39.307816
65.523415 116.26637 32.40778
70.517448 159.71307 12.825188
6.0623417 152.59953 18.894356
62.088676 10.742437 11.59169
8.6399364 101.48827 24.190094
11.186507 150.22639 19.285788
9.062582 59.374275 12.758635
46.171974 69.003845 42.917477
33.771717 26.069054 10.905238
46.989395 56.145817 16.532513
52.041729 50.167679 28.126953
52.881218 182.66025 38.268513
2.9056475 14.181629 36.025185
50.790413 18.798544 39.325977
22.216036 6.2094579 26.591482
73.646042 128.73717 20.843256
52.828156 61.728302 33.295334
1.2186142 30.33709 28.295826
45.761635 192.08392 17.363115
69.431046 41.331089 25.294291
7.360477 193.44145 32.140759
1.544428 72.941017 10.72234
12.512424 167.20328 15.01568
59.581337 122.56253 23.403738
23.530031 158.19559 40.367882
59.279434 177.48141 38.370468
35.211292 104.22162 9.2302904
37.382874 102.30134 23.947836
4.5870833 137.58167 14.824449
61.87273 51.929855 21.095354
73.297562 102.49673 27.908018
41.41684 122.82051 23.80682
5.9365911 46.917961 22.087894
10.830279 44.116417 17.529572
53.514412 58.38504 9.1990576
72.668526 12.662969 15.941975
11.280023 118.29862 18.879597
2.8456991 149.42734 12.062872
25.835648 196.19652 18.549719
64.291321 148.76515 8.3082933
68.55899 74.646484 39.294483
60.979702 161.21045 16.903608
53.540489 32.74651 10.55269
60.795868 140.38049 32.982834
66.486565 4.1353836 23.711273
63.703621 34.03833 26.338322
62.361801 97.907898 9.1880465
58.046661 54.335106 18.424084
46.297714 69.027168 34.289825
40.790749 190.90634 14.842936
58.997963 71.174408 40.244064
62.946365 134.41965 38.683014
16.926155 120.13149 23.877825
56.808674 160.66368 10.808985
10.983043 104.1116 26.738783
56.714607 84.784271 9.1002188
64.877426 62.678513 31.204273
54.020939 36.979744 10.329188
24.887794 38.149803 10.267412
40.009144 22.920824 11.071455
31.565052 104.65169 39.425945
17.65563 113.07266 9.2895336
43.934029 67.831154 8.9867373
3.6687641 39.872059 21.798336
73.654984 120.4208 21.246098
0.63249868 102.5248 20.379513
35.868431 102.82188 34.427376
9.0887566 179.09952 37.412102
31.193203 7.4298677 23.00803
40.521198 115.19056 24.576351
68.720932 47.91861 12.868134
46.977371 107.54575 30.706711
44.777462 62.892372 45.613182
24.645082 6.907445 11.696032
9.8620424 148.35818 0.51032698
22.869701 61.299652 40.609894
19.002628 24.116213 11.008342
18.346411 182.18213 38.125904
2.0860457 176.79283 28.621595
1.8646953 167.33971 30.234459
1.3292704 154.38017 30.013044
0.84309834 61.385117 29.902439
56.230968 8.5377636 30.873497
4.2546706 198.07146 36.300701
58.972179 133.1172 13.204089
63.611385 7.0968838 24.760197
48.213062 62.591171 40.758007
48.161167 144.2439 9.9648724
11.104033 104.66293 18.635756
8.6401739 101.06259 36.151718
5.098547 57.373173 12.206024
41.551613 37.141186 40.19162
7.955472 74.043327 45.368011
63.367706 139.91322 15.400856
19.587896 93.645035 9.1595173
57.662346 188.99019 14.025906
16.1077 158.03143 13.937265
11.711555 69.933769 38.472649
39.924961 131.43889 15.811046
46.05706 32.035873 10.59021
48.842026 127.78004 22.923973
70.347977 144.15718 22.017532
8.6553307 76.690247 33.578773
5.4539599 152.00294 38.762135
65.516098 127.19028 33.175949
42.196075 19.250874 11.265216
8.6568365 75.451447 21.507299
50.367947 141.61725 40.879089
71.956932 33.011162 34.867767
8.6404171 123.25157 31.278978
19.75387 190.58688 29.034924
31.269556 87.966751 26.805975
65.509285 87.762657 32.779434
65.504883 80.560608 20.485636
63.734421 34.40802 24.298887
35.912384 132.42664 35.575596
1.21837 30.654116 30.943754
7.5796556 186.30913 14.008628
1.1093163 70.799736 28.356194
49.167095 133.63998 13.895386
58.050301 49.472244 11.104992
61.83342 93.634216 11.5305
64.330063 59.264191 12.885201
1.4691066 17.213306 17.412998
16.1077 140.17015 13.809086
46.485855 164.93835 11.028738
65.494568 63.648857 27.242794
31.150902 54.786587 30.420977
8.9509249 4.8615007 36.637367
43.513817 122.8662 11.53656
26.119305 100.41409 24.046026
69.701355 141.84026 3.7062497
28.532282 127.92411 11.530561
8.6445141 94.125122 18.808706
58.050301 55.449898 11.633396
72.158707 46.104439 34.009243
2.358103 18.791328 20.070007
7.8310814 108.33112 38.18631
67.253876 196.5119 31.147758
4.1319275 140.13591 18.102682
67.946358 193.13057 17.083477
65.510284 89.294708 35.518169
8.6563911 75.780403 27.125015
63.422699 127.22194 9.3842478
21.51877 14.434325 39.278454
1.6984754 14.037938 30.362457
53.020203 54.559704 18.21821
72.402153 169.09891 28.632299
72.267967 174.04939 15.071291
62.847591 121.57713 11.619154
31.972845 60.175804 42.603363
15.125213 87.006424 26.884872
0.86856651 58.689507 19.252876
67.19548 5.2269368 36.662476
16.732172 70.761612 52.265789
9.8656816 143.7822 15.447704
36.091904 86.7005 17.8155
14.265626 185.31937 11.567262
73.710739 104.98447 29.802046
65.300003 137.31339 28.393808
65.299599 138.21629 30.141651
33.503738 152.33113 40.946674
33.914673 43.473598 9.9863338
0.8245852 78.698257 21.969633
44.758961 135.0313 17.788158
47.632519 142.246 9.8621635
58.050301 32.181492 25.214714
29.27796 141.96619 34.700592
65.400719 3.1572526 23.331657
35.253429 9.8555784 37.694954
3.6238949 99.052643 9.1957092
30.709784 97.501411 9.1853256
10.503601 149.71008 24.231794
64.292557 153.2455 6.728231
57.084557 66.422279 40.198036
60.063248 82.570053 24.16436
56.855724 81.813644 37.15617
8.6698933 53.236008 25.776016
73.438026 75.244263 29.545033
39.733658 75.24884 9.0363989
8.6372156 106.36571 14.655579
10.424259 24.568346 17.127296
58.050301 141.97147 15.614031
42.374031 60.186096 9.1039667
60.453915 167.1442 38.965923
33.473808 66.125793 48.812634
58.177444 87.405052 11.5305
0.78790474 77.865463 30.567377
71.915176 100.84743 9.5334492
73.342033 53.122391 23.990356
13.543522 8.5985632 11.610249
65.731712 27.962317 23.280144
40.858616 5.5825267 17.235586
34.456009 86.302177 26.801624
6.689363 167.56848 14.896023
55.306938 139.58606 42.053333
22.138243 67.283157 33.013634
0.73277968 124.3632 26.434444
73.088593 66.707146 16.083332
16.36957 5.556108 12.173873
57.571735 80.903404 44.360809
23.639179 60.604073 9.0818996
1.1013832 62.130623 15.713451
63.542244 45.214237 8.0589161
25.027714 67.90728 33.261257
62.875999 122.91519 18.098011
13.313507 101.93519 11.5305
22.339209 100.65039 28.207264
26.894646 100.65192 28.095173
42.034599 161.64017 10.859184
49.178875 156.4977 10.594818
7.0948277 77.391434 41.076668
63.46999 45.908894 13.857086
7.4748774 112.4367 37.853264
55.105244 138.86592 9.6884003
72.164528 170.20123 30.869015
25.066082 138.16812 9.6525278
16.095364 53.473351 19.387356
2.3962219 6.6101766 19.031765
49.774536 114.13251 9.2966242
0.72509331 109.86536 25.863182
5.7652073 6.5689516 21.261295
28.074463 126.55493 11.576798
56.347649 69.672577 11.5305
47.445572 53.684433 40.465195
8.842968 195.4137 18.572439
48.448032 135.37822 18.462255
59.683342 115.87874 9.3083181
5.5281491 178.19136 38.53347
6.196166 55.996162 13.436262
56.452446 134.94554 9.4868603
10.638449 44.306179 12.739607
16.048376 141.99313 37.391697
65.13221 134.39056 31.981054
69.32682 20.099522 38.381256
0.42979878 149.25197 27.376093
8.6461735 91.578163 18.62958
41.139111 132.2545 11.926618
9.8182344 73.149994 36.780788
62.874557 121.18483 18.329252
60.152782 58.117481 39.762611
73.044327 117.32254 30.796913
4.0005226 36.01297 21.329151
63.290169 89.48336 20.027603
11.281596 119.42702 16.729807
51.728722 159.61761 10.755208
72.00132 133.47485 10.041561
24.975636 114.00304 24.250549
9.7380333 133.06819 34.340164
32.518593 66.717918 16.63912
53.295349 108.85393 36.97316
12.031273 40.946075 39.085449
68.394966 172.88704 38.22784
57.643951 135.45836 18.279366
50.540565 24.249723 11.001293
18.020004 85.534561 26.967648
14.243817 54.922192 17.759245
34.831532 131.93578 33.730988
31.34716 90.136635 17.161057
53.735619 130.63547 25.187134
72.160408 179.5784 26.010117
26.891483 29.554844 10.721199
16.1077 159.44061 14.893534
73.411491 81.00251 18.725019
72.185242 173.0945 14.133621
33.736015 100.84118 16.910479
51.147659 68.836357 51.125011
7.0297098 72.182068 40.644833
23.593361 105.3061 11.5305
8.667902 65.703079 15.21056
25.684259 140.43517 36.135242
40.200363 71.380821 9.0105038
4.3431983 187.31192 37.576767
46.507893 52.713593 9.4984913
54.438129 185.28954 11.54727
10.677326 74.593117 9.0319967
20.991287 191.64424 15.562327
25.970152 10.785856 37.269714
58.050301 25.292835 11.690271
69.851974 70.938637 9.0075321
0.87785542 60.738884 18.530813
34.990902 140.36084 9.7652512
70.746048 191.26601 32.68602
36.685165 67.844765 38.222282
2.5462928 8.8406553 33.688255
49.087799 5.9022832 27.56374
3.1924062 11.052347 36.474117
24.561707 154.49951 40.883205
39.155647 80.699059 9.0728874
4.2023063 145.62466 1.9133556
69.847733 27.322433 13.109589
8.6679211 60.539059 18.487019
69.771332 196.526 22.394514
31.538517 38.179802 40.203266
71.173264 34.265598 12.308101
8.6459675 91.893883 27.706253
33.490227 185.06946 11.399817
30.490074 90.16478 17.159723
32.310349 93.498291 25.77496
10.203907 110.10201 9.2696524
43.296371 142.06841 40.88044
36.161015 18.159653 11.322829
72.957069 63.163177 29.402069
24.209854 105.68002 22.091694
55.527435 78.37307 9.0573072
60.179726 64.169006 31.770664
57.457153 171.13564 39.05735
59.820076 189.43242 33.290817
31.406189 119.99322 12.918591
4.984808 94.016624 9.1620054
9.0282812 56.940777 39.409046
39.979355 100.61171 23.876278
50.144394 51.742645 27.417645
73.054626 88.761566 30.746857
48.599148 189.26564 34.787827
49.675266 69.08741 8.9951468
65.825531 162.37921 14.705966
21.616549 98.758224 9.193738
48.229172 134.27969 40.200447
17.317163 10.815273 35.340427
69.246429 153.52678 11.851362
63.388702 157.9167 7.7925768
63.465919 146.34978 2.751163
64.165565 161.51291 9.3650236
72.786339 91.452553 13.306586
2.0123961 52.333355 34.044971
67.160782 18.641792 16.886429
41.517487 130.38913 22.430082
73.194328 73.15477 23.578838
68.21447 26.696981 38.915802
8.9305191 139.63785 20.359524
44.707588 57.894348 41.053185
1.8832455 41.311859 33.375607
71.42308 102.37623 35.754093
50.176083 62.526936 31.033213
5.8164177 17.976421 15.301938
22.85722 157.35898 40.373993
9.2522497 53.760693 30.223879
32.914394 118.81027 14.944153
37.599163 115.56763 11.455688
10.595536 36.967175 21.594044
65.495415 69.661964 30.996506
23.784725 136.17224 41.906002
10.82416 86.654289 24.191977
57.785 11.535875 11.534636
58.851231 170.52965 13.925753
33.599026 82.562134 17.381922
11.286325 130.63336 11.673647
28.742411 134.8671 9.4828281
33.316429 6.7245092 11.749321
5.270175 195.22701 38.634018
35.584362 6.9495649 20.306187
8.9266815 61.360558 30.776596
63.128078 102.49989 22.988113
70.248642 27.283012 9.1044598
66.684494 149.09026 0.095979623
9.8661528 155.47122 12.928021
73.418808 90.801323 24.822023
72.943459 77.340714 14.22505
4.7923489 151.01677 14.241825
34.830593 143.11649 40.910912
8.6417341 98.388786 24.5716
38.352688 190.75937 29.50444
58.079502 48.950497 39.470184
4.0091934 149.2632 24.226099
53.147697 134.28786 9.4530506
53.662403 96.135056 11.5305
68.246498 140.48157 38.905861
9.3085995 81.605965 50.609486
59.321693 140.45898 40.302921
21.073736 135.19995 41.049889
72.419182 59.000908 11.13097
42.210442 103.67497 16.838205
66.793106 23.155039 17.050755
43.171295 135.50616 18.842926
47.919308 67.804504 8.9865589
72.320953 36.681976 33.056583
57.441139 17.150049 11.376133
73.708992 40.672192 26.019199
0.79075265 54.181274 15.215457
17.54458 6.649837 11.65811
33.15136 141.29927 31.310659
35.69561 97.381195 24.670712
22.853601 191.73846 19.920021
65.509468 88.046448 15.921988
30.855562 131.97327 33.771729
47.874031 125.2437 11.561573
11.286245 131.38089 20.087688
70.506119 152.9978 3.4070349
66.683365 69.325943 40.501846
55.487049 18.399292 11.310178
68.059616 34.621506 26.355247
71.199951 185.85674 32.419765
53.483528 190.85306 26.223156
63.423046 120.50957 9.3393173
44.922134 89.620483 12.971935
8.4050283 108.69719 37.712608
50.204121 4.0381489 13.752464
27.995472 66.849854 50.174587
59.995808 103.54668 11.5305
50.587425 103.27716 36.889774
73.115852 77.697289 28.803457
7.5343289 9.1666803 19.278996
62.878658 117.24919 16.010294
12.164757 122.93974 23.182228
65.938904 189.73523 15.234264
29.280994 82.875259 20.652058
24.388988 8.016119 32.695015
21.238747 112.79755 20.396271
2.7091069 70.004616 36.270588
11.800606 193.51219 18.052799
35.313633 131.93912 9.4158144
2.4320903 10.360878 32.895691
65.490311 37.795292 26.039982
9.0103045 139.81313 31.022793
59.378979 161.68074 39.470802
16.17971 130.53319 23.600712
61.063656 9.409564 22.834625
28.936323 50.522018 40.491474
8.9852343 140.34933 37.716831
12.106643 48.720623 39.35667
36.653358 95.930107 24.342339
16.1077 157.22043 11.884911
47.69487 139.0582 26.335161
14.654398 104.91909 18.15028
71.37471 97.941086 9.1731405
73.577438 133.77693 18.790588
56.79388 139.37553 9.7145987
8.6467133 90.750565 24.084692
13.927869 74.202553 9.0293846
8.6414261 131.59554 35.063908
9.8682508 35.002319 11.242986
19.980553 141.52882 40.673904
62.943604 194.59299 12.236659
12.331866 182.53352 37.383396
4.9097438 168.20085 38.599155
1.3667779 42.678123 24.837519
9.6987572 193.40836 13.015733
26.732401 104.60011 11.531042
69.448212 147.96484 8.171586
22.036556 64.040199 31.671108
26.311369 97.487038 24.759151
14.616504 139.85229 29.960766
19.171862 126.46078 9.3791523
37.217686 112.81871 16.327562
31.447664 130.94208 11.626844
45.620476 43.107563 40.256256
70.251823 9.329874 26.933632
4.1899533 150.12213 11.161781
32.833691 29.29398 39.875423
65.519691 104.46027 14.603699
44.181633 197.01151 16.96903
28.541098 24.820976 10.971132
5.5566807 160.18565 38.555351
66.997574 9.1666803 22.520235
41.395164 66.754547 32.784382
51.816246 106.17717 40.961868
