# .PCD v0.7 - Point Cloud Data file format
VERSION 0.7
FIELDS x y z
SIZE 4 4 4
TYPE F F F
COUNT 1 1 1
WIDTH 1435
HEIGHT 1
VIEWPOINT 0 0 0 1 0 0 0
POINTS 1435
DATA ascii
-1.166965 -0.85630095 0.047044061
1.2765139 -0.62643403 0.040482674
-1.4164339 0.69289899 0.044128772
-1.3490012 -0.85622817 0.055814177
1.5701104 -0.66403949 0.058764741
1.3070235 -0.62643397 0.050622713
1.4248317 0.85810143 0.051721767
-1.4482253 -0.73562199 0.06584461
1.3818588 0.85510451 0.060296535
-1.4108155 -0.85635209 0.072920658
1.5726396 -0.62643403 0.07056056
-1.0494591 0.66607225 0.073300287
-1.1648486 0.8536576 0.079626314
-1.2303517 0.62841898 0.082942978
1.2145803 0.62841898 0.080140099
1.6064861 0.71237868 0.086839214
1.6181111 -0.70008773 0.098470375
1.6155475 0.72960013 0.095890686
-1.4374057 -0.85620195 0.10786926
1.6025822 -0.85570884 0.10856647
-1.1338326 -0.84918761 0.10150964
-1.034879 -0.62643403 0.10669131
-1.4941059 0.67417943 0.10652655
-1.403779 0.85559511 0.10458803
-1.0624309 0.85825479 0.10708688
1.2724764 0.85019028 0.10151315
-1.3953208 -0.84940052 0.11322433
-1.4983602 -0.81697518 0.11069766
1.240221 -0.62643403 0.11671635
-1.063442 0.8582117 0.11106798
1.152808 -0.85489267 0.12421601
1.2329838 -0.84866083 0.12419422
1.6412008 -0.77059931 0.12276594
1.6399606 -0.63546801 0.12109233
1.387228 -0.62643403 0.12926845
-1.5100214 0.78704381 0.12398634
-0.99879897 -0.84742522 0.1382184
1.1259363 -0.84106743 0.13243452
-0.99293411 0.62841892 0.139052
-0.98796892 0.66250837 0.1387829
-1.4510291 0.8580097 0.13466804
-1.3933898 -0.62643403 0.14842704
1.1181396 -0.62643403 0.15593185
-0.88213861 -0.7671001 0.16840132
1.0992781 -0.64459258 0.16978891
-1.0904603 -0.62643403 0.16080226
-0.87973148 -0.5242933 0.16847546
-0.83084464 -0.36625326 0.16998312
-0.88579863 -0.28449982 0.16828838
-0.8553946 -0.12913819 0.16922602
-0.83740628 -0.02573511 0.16978078
-0.8764413 0.019860983 0.16857699
-0.89575899 0.046553105 0.1697643
-0.88747513 0.12846226 0.1682367
-0.84860224 0.24947789 0.16943553
-0.86227399 0.46020293 0.16901392
-1.109623 0.62841892 0.16028094
-1.0086884 0.62841898 0.16274837
1.3412733 0.62841892 0.16825907
1.673178 0.70222396 0.16991654
-0.777417 -0.77506351 0.17163086
0.78313619 -0.77455485 0.17867364
0.79894394 -0.77163011 0.17871581
-0.62764025 -0.76107591 0.17624986
0.73630112 -0.75625199 0.17854874
0.80129039 -0.75206238 0.17872205
-0.78936982 -0.74527526 0.17126225
-0.68923396 -0.74429405 0.17435035
-0.66410124 -0.74181753 0.17512543
0.51329803 -0.74589378 0.17795406
-0.28672594 -0.73308158 0.17759712
0.34404311 -0.73911029 0.17782182
0.307129 -0.7275272 0.17780866
0.020291816 -0.68627614 0.17770649
0.87987423 -0.6860671 0.17599556
-0.37524551 -0.67236751 0.17756557
0.64389139 -0.67386651 0.17830232
0.75603294 -0.67443615 0.17860138
0.11341056 -0.65035856 0.17773965
0.56990373 -0.65296412 0.17810503
-0.71142787 -0.643444 0.17366591
-0.41658396 -0.64681041 0.17755085
-0.28262639 -0.63566154 0.17759857
0.97461647 -0.63031262 0.17190048
-1.168497 -0.62643403 0.17003728
0.072824538 -0.62058896 0.1777252
0.29086024 -0.62112474 0.17780286
-0.53235298 -0.61216486 0.17750962
-0.1816287 -0.61590463 0.17763455
-0.55169725 -0.59360951 0.17750272
0.10288528 -0.59542191 0.17773589
-0.54324633 -0.58777654 0.17750573
-0.1454667 -0.58132148 0.17764744
0.52308267 -0.58002335 0.17798017
-0.40855753 -0.57912487 0.17755371
1.1071688 -0.57268661 0.1791838
0.10855713 -0.5610404 0.17773792
0.62777591 -0.56483573 0.17825934
0.71278042 -0.56919187 0.17848602
0.47879463 -0.55763686 0.17786588
-0.7113201 -0.53549588 0.17366923
-0.35782352 -0.53522575 0.17757179
0.17793989 -0.53942674 0.17776266
1.2429667 -0.53110337 0.17239213
-0.94127947 -0.52104819 0.17893298
-0.45355731 -0.5201661 0.17753768
1.1365616 -0.52299255 0.17133129
-0.62348723 -0.51893663 0.17637792
-0.29083532 -0.51498556 0.17759563
0.51986384 -0.51586652 0.17797157
1.0141733 -0.51036465 0.17019066
0.75183761 -0.50777733 0.17859018
-0.80877763 -0.49089095 0.17066371
0.60761809 -0.49210685 0.17820559
1.1230257 -0.49956268 0.17119633
-0.43856215 -0.48790947 0.17754301
-0.27949628 -0.47022551 0.17759968
-0.24495597 -0.46164665 0.17761199
0.67887634 -0.46231765 0.17839563
0.81001878 -0.46394521 0.17874533
1.1425726 -0.4680683 0.17139122
-0.4007355 -0.4513216 0.1775565
-0.35971528 -0.45551392 0.1775711
1.0428286 -0.45955646 0.17039679
1.1306281 -0.45846874 0.17127214
0.8956787 -0.44119602 0.17531234
1.289583 -0.4489724 0.1728569
0.3113845 -0.43009764 0.17774859
0.2057354 -0.42589155 0.17777255
0.83081645 -0.42108712 0.17811598
-0.047850817 -0.41339526 0.17768221
0.24977586 -0.41449702 0.17776957
0.46722662 -0.41131389 0.17784823
0.6506753 -0.41932946 0.17832041
1.3849698 -0.40399227 0.17380787
-0.30132467 -0.39881271 0.17759192
-0.0016282648 -0.39994287 0.17769867
0.93072963 -0.39420712 0.17379731
0.99732721 -0.39017975 0.17091876
1.4777784 -0.39957511 0.17713723
0.34103543 -0.38614875 0.17773342
0.68711668 -0.38719368 0.17841759
1.4236209 -0.38890183 0.17497098
-0.94370437 -0.37265006 0.17942117
0.42859438 -0.36292967 0.17778926
1.0177768 -0.36944446 0.17014703
-0.46946156 -0.35893518 0.17753202
0.14438047 -0.35725909 0.17775068
0.50886875 -0.34579241 0.17794228
0.58367407 -0.34378615 0.17814173
0.64727712 -0.32334918 0.17831135
0.98528218 -0.32946622 0.17143935
1.2285056 -0.30373242 0.17224798
0.14121792 -0.29372138 0.17774956
1.2794517 -0.29502922 0.1727559
1.2889942 -0.29423475 0.17285104
-0.75609434 -0.28233933 0.17228842
0.8551802 -0.26840121 0.17706284
-0.49894071 -0.25348106 0.17752151
-0.099726401 -0.25444001 0.17766373
0.72854042 -0.25899795 0.17852806
-0.14219752 -0.24771559 0.1776486
-0.1321556 -0.24391246 0.17765218
0.054674715 -0.24740024 0.17771873
-0.75068945 -0.23941174 0.17245512
0.21692984 -0.23571783 0.17768146
0.065866217 -0.22503588 0.17772272
-0.17904326 -0.21352887 0.17763548
0.26199237 -0.21425658 0.17767406
0.34747642 -0.21259236 0.17770348
1.4426234 -0.21590105 0.17573106
-0.041037887 -0.2056725 0.17768463
1.4391432 -0.2033398 0.17559186
-0.069381371 -0.18719339 0.17767453
-0.8083213 -0.17145804 0.17067772
-0.61689514 -0.17869869 0.17658122
-0.14954564 -0.17378031 0.17764598
-0.9355371 -0.16904679 0.1777761
-0.12781952 -0.16931495 0.17765373
-0.71154702 -0.15757085 0.17366225
0.13968083 -0.1599534 0.17766973
-0.54077369 -0.14126745 0.17750661
0.84837401 -0.14582077 0.17735705
0.89872748 -0.14953038 0.17518049
1.1972408 -0.14595236 0.17193627
-0.65824836 -0.1340273 0.17530593
-0.5197975 -0.13754565 0.17751409
-0.78928119 -0.12892158 0.17126492
0.32219985 -0.12796313 0.17767602
1.426722 -0.12136291 0.17509504
-0.54122949 -0.11687542 0.17750645
-0.004052639 -0.11125112 0.17769781
0.56451213 -0.11860748 0.17809065
1.1146445 -0.11414716 0.17111281
-0.9214679 -0.10770914 0.17494239
-0.49156743 -0.095927924 0.17752415
-0.10651572 -0.098308951 0.1776613
-0.044240847 -0.094607472 0.17768349
0.26271936 -0.099358231 0.17764112
0.5138576 -0.092878126 0.17795557
1.2579976 -0.09741845 0.17254202
-0.61024344 -0.082324564 0.17678635
0.39297712 -0.080692619 0.17773488
-0.157269 -0.070749879 0.17764324
-0.48437819 -0.064297825 0.17752671
-0.22059657 -0.057041645 0.17762068
0.31587297 -0.048784256 0.177659
0.82861918 -0.041471522 0.17821094
-0.7232272 -0.030775771 0.17330202
-0.38113451 -0.033878446 0.17756349
0.58536333 -0.038850471 0.17814624
-0.20912474 -0.02449891 0.17762476
0.99375844 -0.026649132 0.17107289
0.32835585 -0.012296587 0.17765892
0.35216224 -0.0031041205 0.17767256
0.50476199 -0.0030774064 0.17793131
1.3626943 -0.00016622245 0.1735858
-0.27110517 0.00024688244 0.17760268
-0.92489147 0.019982293 0.17563185
-0.61617905 0.01441741 0.17660332
-0.18918394 0.038150221 0.17763186
0.50319654 0.039872773 0.17792715
0.74200791 0.038269758 0.17856397
0.91013122 0.030747294 0.17468755
0.99008167 0.034619927 0.17123178
-0.77005786 0.047147512 0.17185774
-0.66194963 0.045070857 0.17519179
-0.25785822 0.048852712 0.1776074
0.055264369 0.040651053 0.17758963
-0.7001422 0.05257304 0.17401394
0.54229951 0.061830953 0.17803141
-0.70320535 0.074926779 0.17391948
-0.16612093 0.086901397 0.17764008
0.30495241 0.081196338 0.17763084
1.4428713 0.086796045 0.17574097
-0.60637188 0.096532375 0.17690575
0.3964819 0.094511829 0.17774023
0.86138123 0.090882942 0.1767948
-0.62325728 0.10320686 0.17638503
-0.41506848 0.10223816 0.17755139
-0.33269292 0.10021955 0.17758073
0.33761227 0.10103911 0.17765035
0.0006891489 0.11206844 0.17757593
1.0107329 0.11063316 0.17033914
1.2676946 0.11594937 0.17263868
1.363922 0.11860727 0.17359805
0.62984061 0.12740555 0.17826486
0.86714065 0.13705349 0.17654584
0.22533439 0.14399941 0.17757985
0.67765248 0.14363995 0.17839235
0.89050174 0.14860308 0.17553605
0.045311302 0.16662711 0.17754249
-0.13205959 0.17217156 0.17761688
0.34408188 0.17985848 0.17766023
0.77000409 0.18815783 0.17863862
-0.75761259 0.19220985 0.17224157
-0.17833336 0.1952439 0.17762977
0.7867555 0.19707955 0.17868331
0.6266554 0.20095657 0.17825638
-0.3294307 0.21891147 0.17758189
0.74347115 0.21481176 0.17856787
0.95769227 0.2196151 0.17263168
-0.21169437 0.22585624 0.17762384
0.29319593 0.22661361 0.17759955
-0.71339917 0.24403225 0.17360508
-0.34257859 0.24881652 0.17757723
-0.39015424 0.25648254 0.17756027
0.85307091 0.25958678 0.17715402
-0.54275125 0.26794556 0.17750591
-0.15656424 0.26475081 0.17757118
0.68591732 0.26599014 0.1784144
-0.29013598 0.27117044 0.1775959
0.14189355 0.27907336 0.17751433
1.3066562 0.281573 0.17302713
-0.63979852 0.29439476 0.1758749
0.84888238 0.2995171 0.17733505
1.2055529 0.29108679 0.17201915
1.2591963 0.29212192 0.17255396
1.4467809 0.2993921 0.17589734
0.059895784 0.31921494 0.17748979
0.68393695 0.31593007 0.17840911
0.28050584 0.33006841 0.17757513
0.33846995 0.3398591 0.17765167
0.62563694 0.33421218 0.17825365
0.62034488 0.34202826 0.17823954
-0.20076832 0.3621068 0.17753425
-0.75498736 0.37548095 0.17232254
-0.63459307 0.37020108 0.17603543
-0.18331829 0.37758726 0.1775136
-0.440157 0.39296454 0.17754246
-0.26905164 0.39111698 0.17755656
0.70279109 0.3922371 0.17845939
0.76391184 0.39335066 0.17862238
1.5205928 0.39548379 0.17884971
-0.73454338 0.40497956 0.17295301
-0.15748867 0.40498078 0.17748007
0.32034159 0.40871733 0.17762399
-0.52083296 0.41210711 0.17751372
1.3414809 0.41945916 0.17337431
-0.81564635 0.42242423 0.17045188
-0.75712121 0.42953956 0.17225674
-0.11333454 0.42392832 0.17745364
1.0087169 0.42547488 0.17042616
0.090148091 0.43510523 0.17746107
1.194258 0.43695274 0.17190656
-0.084353924 0.44043583 0.17744792
0.61782324 0.44907343 0.17823282
0.76899058 0.44828221 0.17863594
-0.94644308 0.45580336 0.17997235
-0.77679205 0.45372266 0.17165011
-0.38711008 0.4524954 0.17756136
0.52004969 0.45331085 0.17797208
-0.70922512 0.46407259 0.17373382
-0.20808935 0.46344355 0.17747244
0.1528708 0.46459091 0.17748748
-0.64628541 0.47291136 0.17567484
-0.18085776 0.47925827 0.17744565
0.48188853 0.47134703 0.1778706
0.48135975 0.48265737 0.1778698
-0.75563133 0.49439603 0.17230269
-0.5245254 0.49102026 0.17751241
-0.21677272 0.49110037 0.1774596
1.0531635 0.49746519 0.17049989
-0.46026593 0.50441587 0.1775353
-0.45123294 0.5035432 0.17753851
-0.39892983 0.50362825 0.17755714
0.073104858 0.50001192 0.17744118
0.30275974 0.50244105 0.17759715
-0.78162581 0.51035452 0.17150104
-0.57733661 0.52588761 0.17749359
0.95066023 0.52471614 0.17293566
1.1896592 0.52156401 0.17186069
1.1961769 0.52072811 0.17192571
0.43280438 0.54255855 0.17779568
0.056260843 0.56078237 0.17742212
-0.3347472 0.58999634 0.17746627
-0.02261509 0.58694053 0.17739734
0.8697902 0.58937675 0.17643131
-0.76978177 0.5931294 0.17186631
-0.38560343 0.59977502 0.17749059
0.096947439 0.60880387 0.17743418
0.43601969 0.61534381 0.1778006
-1.2006302 0.62841892 0.17069295
-0.40862721 0.62272662 0.17748952
0.048913777 0.62704825 0.17740685
-0.60441011 0.64400238 0.17696626
-0.081176758 0.64177006 0.17737839
0.17480268 0.64884484 0.17746635
-0.59220582 0.65630728 0.17734262
-0.42964962 0.65627944 0.17748031
-0.2626085 0.65490687 0.17738025
-0.21311474 0.65050101 0.17737539
0.94944894 0.65636766 0.17298801
-1.5423372 0.66511846 0.17252539
0.16502836 0.67723858 0.17745648
0.6570769 0.67576611 0.17833748
0.58868015 0.68451715 0.17815509
0.78327608 0.70784312 0.17867404
-0.64816368 0.72691059 0.17561693
0.53852642 0.72252482 0.17802134
-0.71403575 0.73592877 0.17358547
-0.58086884 0.73036909 0.17749232
-0.18986411 0.73983824 0.17734453
-0.70846033 0.74167359 0.17375742
-0.21639103 0.74349499 0.17734325
-0.28524792 0.75456351 0.17733945
-0.96593171 0.76059741 0.17247626
0.046127968 0.76964808 0.17738056
0.94917512 0.77426535 0.17299984
-0.69765651 0.78343117 0.17409061
0.25643057 0.78018427 0.17752641
1.0963435 0.83135015 0.17589706
1.1815616 -0.84619188 0.18718585
1.0917523 -0.67085373 0.18590119
-1.0880027 -0.62643409 0.18257825
1.6392246 -0.62643403 0.18172121
1.1402678 -0.56771934 0.18602741
-0.98265052 -0.53951818 0.18726571
1.710925 -0.43525881 0.18646269
1.6459098 -0.42082804 0.18386219
1.72937 -0.41673607 0.18720044
1.5893329 -0.39450037 0.1815992
1.6245317 -0.38035208 0.18300709
1.6253681 -0.34597847 0.18304054
1.702564 -0.32282057 0.18612824
1.7691563 -0.28165659 0.18902349
1.5798069 -0.19467458 0.18121818
1.6396283 -0.12105826 0.18361092
1.7600887 -0.10830234 0.18842915
1.577587 -0.093449891 0.18112938
1.7731529 -0.051927574 0.18929106
1.6774968 -0.040391475 0.1851256
1.6541792 0.013046324 0.18419293
1.5648928 0.061075427 0.18062164
1.761258 0.10514861 0.18849473
1.5581828 0.11555751 0.18035325
1.7308613 0.121839 0.18726009
1.5612447 0.14876145 0.18047571
1.6861997 0.14083958 0.1854737
1.7523888 0.21985027 0.18812117
1.6036141 0.22130671 0.18217042
1.7826647 0.24733588 0.18992782
1.7221649 0.25221968 0.18691227
1.6083126 0.29164255 0.18235835
1.6400166 0.29447174 0.18362646
1.589421 0.34180656 0.18160272
-0.96628541 0.35626689 0.18396884
1.7131866 0.38976961 0.18655314
1.6927111 0.39985698 0.18573415
-0.95728785 0.4150072 0.18215661
1.6749678 0.42845598 0.18502444
1.5648174 0.44007987 0.18061861
1.6342764 0.54265404 0.18339688
-1.2745581 0.62841898 0.18741377
-0.97437632 0.62841898 0.18972918
1.7772979 0.69136721 0.18956853
-0.88823742 0.72884768 0.18697682
1.8709991 -0.79609585 0.19584149
1.0161017 -0.71641135 0.19492976
1.8195664 -0.67722183 0.19239827
-0.95646107 -0.65051937 0.19288632
-1.052563 -0.62643403 0.19564214
1.121168 -0.62643403 0.19697554
1.6155281 -0.62643409 0.19103241
1.8502526 -0.58416051 0.19445257
1.8276951 -0.56888181 0.19294244
1.7989593 -0.55591679 0.19101869
1.8553779 -0.40060705 0.19479571
1.8614144 -0.21896385 0.19519983
-0.99684626 -0.20544249 0.19012436
1.8396505 -0.19600201 0.19374281
1.8162473 -0.083476231 0.19217606
-1.0124133 -0.014703833 0.19325963
1.8405551 -0.019903526 0.19380337
1.9013596 0.15353529 0.19787402
1.9199748 0.15271141 0.19912022
1.8831098 0.16948247 0.19665226
1.7852535 0.2844528 0.19010115
1.8555079 0.33818203 0.1948044
1.8927443 0.3375096 0.19729725
-1.0387819 0.35290417 0.19857033
1.8953627 0.40008956 0.19747254
1.8015488 0.42258555 0.19119205
1.8280693 0.42698634 0.1929675
1.8543376 0.42790267 0.19472605
1.5330539 0.55239284 0.19552544
1.8330348 0.56688541 0.19329992
1.9241989 0.61488086 0.19940302
-0.88818347 0.78046584 0.19019346
1.0892198 0.81323671 0.19119501
1.0836945 -0.82258487 0.20303687
-1.5582361 -0.67154974 0.20661768
1.9633548 -0.65910679 0.20202437
-0.88907295 -0.60286236 0.20284581
-1.0203716 -0.56555486 0.20516507
-1.0590475 -0.47689378 0.20265299
1.9938583 -0.4754025 0.20406647
-1.0747324 -0.46240583 0.20581213
2.0076394 -0.44043535 0.20498905
1.9942744 -0.43674755 0.20409432
2.031467 -0.26745969 0.20658422
2.0351052 -0.23660827 0.20682779
-1.058181 -0.19367896 0.20247796
1.9792473 -0.1954017 0.20308831
2.0133462 -0.11279699 0.20537111
-1.0923052 -0.10580304 0.20935085
2.0702593 -0.10501397 0.20918123
-1.0685086 -0.082461938 0.20455787
1.9888458 0.057483941 0.2037309
-1.0669664 0.15466525 0.20424707
-1.054965 0.22714108 0.20182984
1.9712247 0.24126209 0.20255123
1.5960044 0.56250465 0.20888132
-0.97620898 0.57458597 0.20605034
-1.4517335 0.62841898 0.20003176
1.9408805 0.63315189 0.2005198
1.9775419 0.64868367 0.20297414
1.6915696 0.6957233 0.20936806
1.9876026 0.70429671 0.20364767
1.9911449 0.73084539 0.20388481
1.9716159 0.74404436 0.20257741
2.0115459 0.76960623 0.20525058
2.1100149 -0.58798373 0.21184273
-1.1243939 -0.33889973 0.21581441
2.2089956 -0.1209764 0.21846864
-1.1315714 -0.1135694 0.21725965
2.0969331 -0.10393232 0.21096694
2.1599495 -0.028724432 0.21518564
2.1662652 -0.0292136 0.21560848
-1.0980871 0.0026588589 0.21051523
2.1378751 0.02983883 0.21370789
2.1122251 0.10535711 0.21199067
2.1086464 0.17629036 0.2117511
-1.1162339 0.32956511 0.21416992
2.1748261 0.32904318 0.21618068
-1.1195507 0.46567705 0.21483789
2.1557546 0.51711226 0.21490444
-1.1168143 0.52123588 0.2142867
2.1524851 0.57312262 0.21468589
-1.2168622 0.62841904 0.21939185
1.6930305 0.63274252 0.21256064
2.1311204 0.65541279 0.21325569
2.0970957 0.7080248 0.21097784
-0.88895553 0.75771457 0.21366961
-0.98125708 -0.85626972 0.22148196
1.7583044 -0.66798812 0.22303177
1.4795065 -0.62643397 0.22165404
1.4944954 -0.54452473 0.22297013
1.4483452 -0.5379442 0.22688483
1.4524109 -0.53839201 0.22373644
-1.1466131 -0.42640686 0.22028983
-1.1799184 -0.36508772 0.22699785
-1.1718615 0.10559639 0.22537422
-1.1718338 0.221935 0.22536841
-1.1572285 0.25862023 0.22242665
-1.1770234 0.53364742 0.22641341
1.6660845 0.57375491 0.22297156
1.1810695 0.62841898 0.22468805
1.0753824 0.78937638 0.22333823
-1.5113696 0.8577584 0.22694875
1.0853987 -0.85090566 0.23468347
-0.88965333 -0.72683752 0.23418798
-0.93917334 -0.62971473 0.2391248
1.3861859 -0.62643403 0.23756793
1.6508099 -0.62643403 0.23902224
-1.2140145 -0.020944282 0.23386465
-1.2143211 0.24005778 0.23392591
-0.99012464 0.57252008 0.23792756
1.6749558 0.62841898 0.23438734
1.6961565 0.84512973 0.23432057
1.1320294 -0.85257417 0.24451016
1.5577362 -0.62643403 0.24396722
1.1684804 -0.56378114 0.2469089
1.1933076 -0.56003833 0.24888289
-1.1548203 -0.54431272 0.2458815
-1.3039806 -0.5226019 0.24908045
-1.2986965 -0.34464458 0.24831381
-1.302826 -0.12814534 0.24891263
-1.2869842 -0.070381775 0.24661428
-1.2920423 0.024141461 0.24734795
-1.2458477 0.14464822 0.24027598
-1.3017364 0.29315677 0.24875395
-1.3076373 0.36936897 0.24960995
-1.5684068 0.84421295 0.24625002
-1.3668785 -0.36947802 0.25820518
-1.3524069 -0.36499509 0.25610575
-1.3736159 -0.20402096 0.25918257
-1.3355802 -0.096736751 0.25366443
-1.3258376 0.1224822 0.25225073
-1.3347852 0.13572934 0.25354877
-1.375592 0.14617312 0.25946888
-1.3499602 0.15459622 0.2557503
-1.3142921 0.27682835 0.25057551
-1.3614149 0.29906979 0.2574119
-1.3622227 0.30471113 0.25752911
-1.32108 0.32583609 0.25156024
-1.3612475 0.50990331 0.25738734
-1.1720196 0.54362112 0.25947899
-1.2928402 0.62841898 0.25765371
-1.1187637 0.62841898 0.25913984
1.1323559 -0.85016656 0.26957607
1.7554708 -0.75754595 0.26979187
-0.6183908 -0.70964307 0.26113275
-0.38185161 -0.70544004 0.26253188
-0.5944528 -0.69729692 0.26110846
1.065203 -0.67784858 0.26148406
-0.89086002 -0.66887879 0.26871279
0.07673344 -0.61971283 0.26560223
0.67010164 -0.61917782 0.26991156
0.64117914 -0.59600204 0.26938134
1.0190879 -0.58865565 0.26653612
-0.65238702 -0.57026786 0.26072058
-0.068354189 -0.5733906 0.26463085
-1.0092913 -0.56763178 0.26990616
0.5798654 -0.5445224 0.26897088
-0.038420379 -0.52786803 0.26483124
-0.44795212 -0.51953304 0.26208931
0.4325105 -0.51444197 0.26798427
-0.40951154 -0.48180023 0.26234668
0.022540987 -0.47186533 0.26523942
-0.46952102 -0.46230227 0.26194489
-1.4041204 -0.4130469 0.26360795
-1.395327 -0.39357999 0.26233229
0.49333695 -0.38906667 0.26839155
-1.4395064 -0.36826748 0.26874149
0.5033145 -0.3444719 0.26845831
0.20489699 -0.33215702 0.26646033
0.63165355 -0.31410909 0.26931757
0.14425594 -0.28872633 0.26605433
0.60194945 -0.28342468 0.26911873
-0.19380046 -0.2648738 0.26379094
0.099366784 -0.25912094 0.26575378
-0.35993749 -0.20731603 0.26267859
-0.4971678 -0.17871282 0.26175979
-0.45680332 -0.16034633 0.26203007
-0.11270013 -0.16737908 0.26433393
0.089201599 -0.15599623 0.26568574
0.15160313 -0.1575149 0.26610354
0.022245497 -0.14455613 0.26523742
-0.48966637 -0.13099484 0.26181003
-0.33517215 -0.12446243 0.26284441
-0.064323425 -0.12117673 0.26465783
0.082767576 -0.10573623 0.26564264
-0.38687059 -0.090880811 0.26249829
-0.19030827 -0.096900985 0.26381433
0.20055538 -0.09127184 0.26643127
-0.31094417 -0.064460739 0.26300663
0.34138274 -0.065093964 0.26737416
-0.20670381 -0.046350256 0.26370454
-0.52667975 -0.03838677 0.2615622
-1.4255371 0.027862165 0.26671493
-1.3951858 0.039157003 0.26231164
-0.24791315 0.13835141 0.26342863
-0.69106597 0.17213775 0.2604616
-0.63877302 0.18893108 0.26081172
-0.54866588 0.18174337 0.261415
0.046752617 0.1833663 0.26540151
-0.33961958 0.20340486 0.26281464
0.29735976 0.2018476 0.26707941
-0.56686467 0.21790713 0.26129317
-0.42119604 0.22483949 0.26226845
-0.63049674 0.23561668 0.26086715
0.32902113 0.23634036 0.26729137
-0.3503637 0.24117769 0.2627427
0.22990897 0.24360611 0.26662779
-0.63793397 0.29250216 0.26081735
-1.4004118 0.30823952 0.26306945
0.2880314 0.31420794 0.26701695
-0.35265112 0.34170157 0.26272738
0.006071493 0.34900659 0.26512915
0.64413297 0.35025054 0.26940113
0.033093929 0.37955216 0.26531005
-1.3905466 0.38098425 0.26163813
-0.66737521 0.38256422 0.26062021
-0.21916521 0.41433841 0.26362112
-0.44413757 0.43968698 0.26211485
-0.3913137 0.44676003 0.26246852
-0.43363056 0.45581311 0.26218522
0.46476084 0.47146571 0.26820022
0.43013096 0.48525846 0.26796836
-1.4416617 0.50196767 0.26905358
-1.4020529 0.50019407 0.26330724
-0.38447046 0.5074228 0.26251432
0.54840684 0.51003611 0.2687602
-1.3853166 0.55261964 0.26520228
-0.13759755 0.55450368 0.26416725
0.30596602 0.55974585 0.26713702
1.2196307 0.55810237 0.26003841
0.4604328 0.56563324 0.26817122
0.33496961 0.60452706 0.26733121
-0.37945235 0.62588441 0.26254794
-0.40784949 0.64655769 0.2623578
-1.5765823 0.65634269 0.26695007
-0.6025576 0.68749702 0.26105419
-0.47799039 0.68983692 0.26188821
-0.67093813 0.69425213 0.26059636
-0.63876611 0.71522808 0.26772383
-0.89050007 0.73930138 0.26361549
1.7557554 0.74911553 0.26536566
-0.8890186 -0.79553181 0.27614436
-0.48343945 -0.71367311 0.27728361
0.42785621 -0.71991622 0.27828875
-0.8913362 -0.58909142 0.27681354
-1.0478395 -0.56152427 0.27801743
-1.4652677 -0.51689839 0.2724787
-1.4532751 -0.40104035 0.2707389
-1.4800632 -0.36137286 0.27462512
-0.69492638 -0.34071791 0.27751932
-1.4594681 -0.24912535 0.27163735
-1.4775877 -0.2238017 0.274266
-0.28331402 -0.08592201 0.27392337
-1.5118666 0.18690443 0.27923894
-1.4850087 0.3216365 0.27534243
-1.0762233 0.55898046 0.27723402
1.7106402 0.68220723 0.27736664
1.7052895 0.84642315 0.27468616
0.21537615 -0.71894324 0.28054112
1.1070628 -0.57324523 0.28019333
-1.5341283 -0.25155395 0.28246847
-1.5574104 -0.24149916 0.28584605
-1.5470428 -0.082202353 0.28434199
-0.2295019 0.086608998 0.28876299
0.22755578 0.086608998 0.28815383
-1.5324404 0.20483163 0.28222361
-1.5709492 0.50031435 0.28781015
1.5410712 0.55521303 0.2836028
1.1311047 -0.8489334 0.29263371
1.0598148 -0.79378748 0.29876
-0.68035239 -0.7131663 0.29215682
-1.2129848 -0.62643397 0.29088908
-1.0522499 -0.62643397 0.29645562
1.4386804 -0.62643409 0.29559964
1.6760001 -0.62643397 0.29958004
1.0200014 -0.60997593 0.2943216
1.6301279 -0.56672436 0.29925042
1.5778012 -0.55883038 0.29459929
-1.2603626 -0.53631651 0.29866502
-1.6439632 -0.45525134 0.29709479
-1.6693094 -0.34292686 0.29994285
-1.6293924 -0.28558099 0.29545751
-1.594364 -0.11556567 0.29120702
-1.619844 0.038312197 0.2943846
-1.6478765 0.054953352 0.29753453
0.67029411 0.37741303 0.29370558
-0.69483835 0.45483515 0.2906442
0.67030722 0.47494763 0.29533058
-1.6407822 0.48636469 0.29673734
-1.6616139 0.50226426 0.2990185
-1.5871336 0.52479839 0.29015809
-1.4121194 0.62841898 0.29373619
1.1479864 0.62841898 0.29847246
-1.5805001 0.63592327 0.29928222
1.7537314 -0.80437571 0.30059743
-0.92742538 -0.79845822 0.30270934
-1.7244644 -0.74358428 0.30614045
-1.7419815 -0.60606289 0.30810878
0.67041284 -0.58328027 0.30840006
1.6644815 -0.57218981 0.30048048
-1.4943374 -0.56905299 0.30982316
-1.2783319 -0.53714448 0.30330494
-0.69477248 -0.38719505 0.30045968
-1.6700835 -0.36731958 0.30002984
-1.6990253 -0.3468343 0.30328193
-1.7000426 -0.3333433 0.30339625
-1.7340748 -0.25186986 0.30722034
-1.722821 -0.11948994 0.30595577
-1.7144451 -0.029879987 0.30501461
-1.6938275 0.26276004 0.30269787
0.67038071 0.30077016 0.30442566
1.3841658 0.54589945 0.30553943
-1.6032853 0.60606098 0.30498645
1.7542629 0.61427653 0.30340725
-1.3079487 0.62841898 0.30531529
-1.0853422 0.62841892 0.30158135
-1.0211208 0.62841898 0.30511284
-1.7299702 0.63704693 0.30675912
-0.89205647 0.6728977 0.30860272
1.7139702 -0.76027054 0.31508172
-1.8097761 -0.75191891 0.31572664
-1.8147677 -0.69402444 0.31628752
-1.7750347 -0.65101027 0.31182286
-1.8196149 -0.6415025 0.31683218
1.303098 -0.62643397 0.31515709
-1.8349345 -0.61087006 0.31855363
-1.1924795 -0.54204953 0.3181313
1.4279938 -0.54555917 0.31644183
1.4776545 -0.54746997 0.31596428
-1.813145 -0.31248128 0.31610519
-1.7615037 -0.24899206 0.31030241
2.176903 -0.2144767 0.31749561
-0.69469458 -0.18142644 0.31207222
-1.8355441 -0.13178056 0.31862211
-1.7680951 0.18149352 0.3110005
0.67049098 0.22950342 0.31805557
-1.8488617 0.25284839 0.31986341
-1.7825323 0.33918521 0.31247956
-1.8439882 0.39677718 0.31931943
1.5521843 0.55800682 0.31477994
-1.762091 0.59708285 0.31021556
-1.8102952 0.62668306 0.31558645
-1.8085991 0.62242669 0.31538856
1.3037671 0.62841898 0.31249365
-0.67529494 0.72089559 0.31871101
0.14153603 0.72951722 0.31464246
-1.7786009 0.75297755 0.31222358
-1.5819836 0.81312108 0.31547019
-0.9532454 -0.85634792 0.3249231
0.23485157 -0.72776896 0.32535383
1.1119779 -0.62643403 0.328471
1.4444667 -0.62643403 0.3232649
-1.8772674 -0.54561335 0.32331041
-1.25401 -0.54018372 0.32700333
-1.8580408 -0.43317974 0.32114998
-1.9039838 -0.34093809 0.32631245
-1.9358575 -0.32963336 0.32989395
-0.69462413 -0.31115645 0.32257429
-1.9273963 -0.1519855 0.32864654
0.65374172 -0.085922003 0.32149434
-1.9158081 -0.03452915 0.32735977
-1.9368868 0.15884809 0.32966131
-1.8543212 0.22961694 0.32047206
-1.8852632 0.24964936 0.32391322
0.67058659 0.25639135 0.32989234
2.1769056 0.44105601 0.32949448
-1.9351163 0.49333814 0.32950062
-1.9349262 0.55491239 0.32949254
-1.3864412 0.55392361 0.328361
1.1506708 0.56887722 0.32507348
-1.882825 0.61220139 0.32366151
-0.92547828 0.67323434 0.32554194
-1.9192882 0.68220091 0.32803214
-0.42155677 0.72827286 0.3275263
1.1266305 -0.84937185 0.33075842
1.3599288 -0.62643403 0.33767736
-1.9999954 -0.59565204 0.33710095
1.7162102 -0.5807389 0.33904487
-1.5305594 -0.57529193 0.33139959
1.2211281 -0.55857021 0.33882761
-1.2707601 -0.54080045 0.33281678
-1.9924572 -0.43472236 0.33625388
0.6706503 -0.40885791 0.33776349
-1.9450238 -0.29752442 0.33092394
-0.69453937 -0.2695511 0.33520025
-1.9685534 0.17961603 0.33318305
-1.1812246 0.54674917 0.33534476
1.5345703 0.55647719 0.33882096
-1.4496214 0.56432688 0.33902621
-1.4615248 0.62841898 0.33305073
1.0671059 0.62841898 0.33289751
1.2651179 0.62841898 0.33742088
-0.92542422 0.74426258 0.33450371
-0.9966948 0.85060829 0.33005306
0.43840075 -0.7325989 0.34328106
1.0199797 -0.72738886 0.3484363
1.058349 -0.70522338 0.34443447
-1.6025245 -0.69660503 0.34372985
-0.892542 -0.67866778 0.34841675
1.3067861 -0.62643403 0.34513545
-2.0502367 -0.37742937 0.34230733
-2.1178768 0.087290242 0.34980324
-2.0939705 0.18002483 0.34714612
-2.0625844 0.38677248 0.34367779
-1.3809046 0.62841898 0.34529442
1.0210509 0.67510891 0.34560832
-1.5807061 -0.72150487 0.35907334
-2.1538177 -0.68181986 0.35389915
-1.1363381 -0.62643403 0.35221314
1.6041441 -0.62643403 0.35361648
0.67081666 -0.41399115 0.35834751
-0.694399 -0.39009637 0.35613114
-2.1528304 -0.30450392 0.35372815
-2.1458554 -0.21453515 0.35292947
-0.69440818 -0.055236772 0.35475001
-2.1610093 -0.034595653 0.35460541
-2.1567025 0.033856969 0.35412395
-2.1695642 0.15976173 0.35556337
-2.1226254 0.29877797 0.35034388
-2.1237106 0.37666637 0.35049188
-1.0026476 0.5710746 0.3529557
-1.468172 0.62841898 0.35586345
-2.145988 0.69606173 0.35300052
1.0596536 0.71026647 0.3593573
-0.62832034 0.72664064 0.35612217
0.22889356 0.73886967 0.35986137
1.7514603 0.80008268 0.35457253
1.0599139 -0.66070753 0.36212844
1.4444144 -0.62643403 0.36924708
1.3692868 -0.5512768 0.36996138
0.67084634 -0.31860596 0.36202213
-0.69435501 -0.27368277 0.36267662
0.042706478 0.086608998 0.36530685
-1.5172155 0.62841898 0.36309713
1.4598262 0.62841892 0.36652428
1.0212224 0.83127701 0.3667683
-0.93479282 0.84755152 0.3679207
-1.5794539 -0.78395182 0.37365764
0.56838715 -0.73948002 0.37429404
-1.4468126 -0.62643403 0.37867063
1.2230352 -0.62643403 0.37445909
1.0229551 -0.60245752 0.37671494
1.16721 -0.56679028 0.37053114
0.017996931 -0.085922003 0.37120858
0.01631286 0.086608998 0.37736669
-0.92934644 0.58288181 0.37792382
1.0503292 0.584324 0.37664771
-1.1010365 0.62841892 0.37798482
0.67098224 0.69101447 0.37882894
-1.5782309 -0.7029494 0.38728851
1.7498916 -0.63196015 0.38237038
-1.3729852 -0.62643403 0.38471723
-1.2264076 -0.62643403 0.38104337
-0.9824667 -0.62643403 0.38982931
1.1573533 -0.56876576 0.38622624
1.5723692 -0.56144112 0.38013527
-1.3678234 -0.55243915 0.38032472
-0.2669726 -0.085922003 0.38908851
-1.0262272 0.62841898 0.38375989
0.67100239 0.69269037 0.38133091
1.0226035 0.70641589 0.38697991
-1.2545173 -0.62643403 0.397241
-0.93362325 -0.62643403 0.39504752
1.3984127 -0.62643403 0.3918713
-0.89486676 -0.60109061 0.39544901
0.0046908669 -0.085922003 0.39263618
1.4884628 0.5573163 0.39603624
1.1810725 0.56820303 0.39467365
1.631723 0.57250011 0.39846528
-0.89414269 0.71143001 0.39206153
1.707791 0.81548482 0.39671889
-0.93474144 -0.80182439 0.40493441
-1.3794127 -0.62643409 0.40169367
1.3160639 -0.62643403 0.40866789
1.7041736 -0.62643403 0.40536287
1.584134 -0.5640946 0.40543184
-1.2090645 -0.551368 0.40702644
1.4443227 -0.55594361 0.40456015
1.4836061 -0.55580008 0.4004223
0.67119586 0.079689294 0.40525663
1.287946 0.55930859 0.40203899
-1.0957947 0.56253743 0.40191197
1.5093269 0.56008476 0.409686
1.1336102 0.57470804 0.40728122
-1.1509837 0.62841898 0.40614942
1.7046764 0.82627004 0.40835741
-1.5181967 0.85662234 0.40154773
1.625172 -0.84690964 0.41057676
1.0243367 -0.78855753 0.41055328
0.57809037 -0.74733996 0.41446406
0.61568999 -0.74740326 0.41350424
-1.5923145 -0.62528348 0.41205186
1.4864186 -0.55714488 0.41178271
-0.69397342 -0.26023531 0.41956571
0.11010814 -0.085922003 0.4169032
0.30464345 0.086608998 0.41323641
1.2655776 0.56127763 0.41073442
-1.1674459 0.62841898 0.41077429
-0.93759966 0.64454579 0.4153617
-1.5954802 -0.82016158 0.42955339
-0.52064931 -0.73352557 0.42635155
-1.3434706 -0.62643409 0.4297688
-0.90195322 -0.62022591 0.42114058
1.6279936 -0.57104039 0.42506886
-1.1879854 -0.55406153 0.42555165
-0.69397002 -0.55193186 0.42006505
0.060946584 -0.085922003 0.42455322
0.67133427 -0.03215012 0.42237169
-0.29677415 0.081978284 0.42868543
0.6713894 0.23784244 0.42919296
-1.2994527 0.55444014 0.42170995
1.5338111 0.56377888 0.42929873
-0.99083614 0.57769257 0.42724043
-0.40257058 0.74127024 0.42633912
-1.5688915 0.81569743 0.42231655
-0.94062173 0.84174263 0.42694035
1.6419156 -0.85491592 0.43075719
-0.91118085 -0.77820712 0.43664616
-0.69387674 -0.71694249 0.43396303
-1.3245542 -0.62643403 0.43193325
1.1283171 -0.62643403 0.43965074
1.6316773 -0.62643397 0.43387347
-1.1813923 -0.55495071 0.43169349
0.67140889 -0.32373655 0.43160677
-0.12207665 -0.085922003 0.43203413
0.21286571 -0.085922003 0.43416235
0.48206347 0.086608998 0.4319883
-0.29732662 0.4214114 0.43173909
1.5542583 0.5658623 0.4339788
-0.96218914 0.85717541 0.43836555
-1.0152943 -0.85137486 0.44328433
1.9823387 -0.85669988 0.44679815
-0.68138796 -0.73082513 0.44153103
-1.5632625 -0.69556117 0.44296151
-1.5890911 -0.637972 0.44573385
-1.3822036 -0.62643397 0.44669965
-0.96588397 -0.58033288 0.44687253
-1.4286534 -0.56384283 0.44081837
2.3269532 -0.16982029 0.447245
2.3263113 -0.1441444 0.44658732
0.10223974 0.086608998 0.44489124
0.67152792 0.25479475 0.44632542
-0.69378245 0.47051236 0.44802496
-0.69378728 0.61491305 0.44730964
-0.91520727 0.63671577 0.44340485
1.6960492 0.71551335 0.44040215
-1.0113528 -0.85399085 0.45231944
-1.0062993 -0.85610336 0.45751444
1.689841 -0.79575813 0.45477027
0.070238888 -0.75122857 0.45187062
-0.19622388 -0.62497616 0.45748031
1.2531583 -0.62643403 0.45081654
1.6123087 -0.62643403 0.45635024
-1.3761697 -0.55967492 0.45421869
-0.69373411 -0.18064183 0.45523459
-0.22185738 -0.08592201 0.45227873
0.67161828 -0.021993198 0.45751131
0.6715712 0.025833515 0.45168233
-0.30164135 0.347 0.45667052
2.3267436 0.44488034 0.45565376
1.3001643 0.62841898 0.45530683
1.4015098 0.62841904 0.45945227
1.6911983 0.6288259 0.45171916
-1.521567 0.85827589 0.45477799
1.0886121 -0.84145975 0.46373191
1.214816 -0.62643403 0.46820289
1.250073 -0.62643403 0.46857846
1.4559879 -0.62643403 0.4678627
-0.28408667 -0.61997873 0.46025646
-0.018414881 0.079742268 0.46572483
0.67166948 0.34982139 0.46384269
-1.0699565 0.57042134 0.46341771
1.6868354 0.72889292 0.46116436
-0.62879932 0.73938972 0.46385664
2.2814257 0.76879084 0.46311352
1.6827867 0.78525895 0.46989676
1.7329068 0.79292929 0.46369141
-0.92483944 0.80460602 0.46318379
1.0428313 0.80138177 0.46303686
1.837832 0.86765385 0.4625816
-0.93260211 -0.78624886 0.47467262
-1.5853677 -0.75589561 0.47319609
0.56885511 -0.75860959 0.4728522
-0.466636 -0.74033266 0.47107267
-0.6548754 -0.7351045 0.47140479
-1.1954403 -0.62643397 0.47891486
1.5098202 -0.62643403 0.47505614
1.5734614 -0.569332 0.47922811
-1.3254545 -0.55951774 0.47262016
2.3219471 -0.50309992 0.47685075
0.34028089 -0.28669503 0.47506356
0.49435261 -0.085922003 0.47863722
0.18806912 -0.079636827 0.47433197
-0.69361722 0.039429337 0.47265637
-0.69360727 0.17656121 0.47413018
0.67178375 0.247033 0.47798175
-1.2813709 0.5615651 0.47345623
-1.5151234 0.57891399 0.47481722
-1.0061768 0.57943362 0.47618753
1.6633794 0.5798955 0.47300512
-0.98673642 0.58146811 0.4705978
0.17723587 0.62733328 0.47003487
1.2317513 0.62841898 0.47604263
1.3179203 0.62841898 0.47775632
-1.5482898 0.67903507 0.47505593
-1.5469573 0.69245946 0.47792614
-0.13240841 0.75506127 0.47899634
-1.5448918 -0.81886929 0.48247027
-1.5828681 -0.76541531 0.48379359
-0.96559036 -0.76015651 0.48713365
0.078488976 -0.75761521 0.48820299
-1.5814512 -0.74256992 0.48787445
-1.5447733 -0.74430442 0.4826577
1.2343069 -0.62643403 0.48020321
1.4586573 -0.62643403 0.48522931
1.5091655 -0.56550795 0.48203906
0.34214717 -0.26826948 0.48859096
0.21653761 -0.085899606 0.4804391
-0.69356781 -0.036718547 0.48001641
2.3381767 0.099177644 0.48857883
0.32731125 0.5493139 0.48641312
-1.4281759 0.56923187 0.48076138
2.317029 0.56683195 0.4874323
-0.964221 0.62977219 0.48407426
1.0520368 0.6202817 0.48271224
1.4892367 0.62841898 0.48278463
1.6779668 0.83681715 0.48027927
2.0021203 0.86193073 0.48931149
0.70701063 -0.85654807 0.49135932
2.055892 -0.85804957 0.49639827
-0.93231654 -0.82299876 0.49787441
1.6694069 -0.70583743 0.49724093
-1.2468247 -0.62643403 0.4912138
-0.13538283 -0.62494957 0.49750465
1.3518488 -0.62643409 0.49283597
1.5689001 -0.62643409 0.49970526
1.2135284 -0.57024771 0.4933944
-1.2546418 -0.5626384 0.4942835
-0.30896273 -0.39222229 0.49897534
-0.69346726 -0.27446526 0.49500233
2.3349762 -0.21851397 0.49521071
-0.065979205 -0.085922003 0.49633193
-0.20259649 0.42661995 0.49280155
-1.5118723 0.57977122 0.49771559
1.2300467 0.57195604 0.49851245
1.6559114 0.57968974 0.49441987
1.7058145 0.58663464 0.49248227
1.2162925 0.62841892 0.49834353
1.3928288 0.62841892 0.49561256
-1.5402317 0.66326034 0.49232176
-0.69347417 0.72330141 0.49397379
0.43268088 0.76598531 0.4926604
-1.5376525 0.81336546 0.4968996
-1.4527249 -0.85087818 0.50336081
2.2743042 -0.77407163 0.50737399
0.11783203 -0.76111549 0.50846517
1.6655588 -0.75472558 0.50277179
-1.5288277 -0.71076834 0.50943589
1.1069285 -0.67080957 0.5028764
-1.5323373 -0.62740302 0.5043686
2.3124897 -0.62181741 0.50837803
1.1753423 -0.57323807 0.50460398
-0.30966073 -0.35016167 0.5030086
-0.14646663 -0.24317522 0.50074172
-0.13557345 -0.24243508 0.5032205
0.14244452 -0.052554406 0.50746012
0.3678956 -0.041157648 0.50686246
0.0061721802 0.023705466 0.50782138
0.036494017 0.072052345 0.50774097
0.25598016 0.071560435 0.50715911
0.30175224 0.070342936 0.50703782
-0.98803699 0.58365798 0.50192636
1.0617083 0.64587069 0.50789773
-1.5743546 0.84084034 0.50689518
0.14376986 0.86768615 0.50615889
0.18566078 0.86859167 0.50711334
0.53886306 0.86701 0.50495553
-0.61255187 -0.86733001 0.51991534
0.48313332 -0.86610258 0.5147773
1.7976243 -0.86925292 0.51292837
-1.0372262 -0.85620594 0.5199421
2.2253926 -0.82407725 0.51043981
0.3094452 -0.76529658 0.51618159
1.7160063 -0.7264421 0.51526749
0.67210633 -0.66805291 0.51788461
1.1184292 -0.6502912 0.51928735
1.6200346 -0.62643403 0.51327223
-1.0207428 -0.57823193 0.51108962
-0.10562567 -0.36138538 0.5100351
-0.13949449 -0.17775019 0.51054376
0.37778521 -0.033201005 0.51197624
0.43921411 0.056346282 0.51839757
0.32302055 0.16231714 0.519687
0.67206228 0.40448952 0.51242971
2.3259871 0.45437586 0.51577479
-1.1525483 0.56855148 0.51610494
-1.238117 0.62841898 0.5150395
0.090797633 0.63211429 0.51847208
1.1149763 0.70301467 0.51439542
1.0577886 0.79743963 0.51207352
1.6600988 0.80668557 0.5106076
1.195195 0.85397887 0.51542097
-0.69941664 0.86530447 0.51663637
0.11937858 0.86908823 0.51291347
1.0017749 0.8634181 0.51737547
-0.095897786 -0.86852854 0.52991307
0.01256874 -0.62483549 0.529742
1.7102964 -0.6196031 0.52572829
1.1102858 -0.58102548 0.52035272
1.1691778 -0.57529747 0.52185845
1.2690464 -0.57055581 0.52270484
1.5016109 -0.57025194 0.52340472
-0.31358299 -0.5351873 0.52650261
2.3244705 -0.33296427 0.52831733
0.32576299 -0.17319119 0.52312803
-0.10445967 -0.14448664 0.52496552
2.3343561 -0.11570043 0.52684844
0.28031376 -0.099258989 0.52672422
2.3356135 0.19647038 0.52324986
-0.69328922 0.30573514 0.52154016
-0.028405152 0.46927702 0.52760661
-1.1428151 0.56946397 0.52219188
1.5731623 0.57550329 0.5284161
0.31121832 0.86965126 0.52735412
0.70443219 0.86717808 0.52163303
1.8552585 0.86291832 0.52942997
0.32869425 -0.8678357 0.53079772
-1.5635762 -0.75452006 0.53153163
-0.17686114 -0.75606453 0.53545076
1.0728474 -0.68087268 0.53918785
-1.0465975 -0.62643397 0.53445691
1.1756921 -0.62643403 0.5334751
1.5380043 -0.57210982 0.53669602
2.3217077 -0.19385317 0.53082168
1.6372156 0.58153623 0.53731114
-0.24676497 0.62088042 0.53070778
1.3074331 0.62841898 0.53579044
-0.46845311 0.75205386 0.53291821
0.72860992 0.86147201 0.53040308
-0.47388259 0.87030941 0.53029168
0.12994067 0.87030745 0.53019595
-0.94876128 -0.82855213 0.54485798
-0.95163476 -0.80984634 0.54445529
-1.0061365 -0.78177387 0.54582971
1.6219218 -0.5786283 0.5412305
-0.31653842 -0.53523594 0.54401577
-0.69315487 -0.39786017 0.54156804
0.2624051 -0.39208964 0.54361975
0.041246854 -0.2495998 0.54345596
0.25234637 -0.22513807 0.54588717
0.035257559 0.2181759 0.54209298
0.031139441 0.32226247 0.54115593
0.21784243 0.44241998 0.54963142
-0.69311798 0.45258886 0.54706615
0.24356422 0.50562203 0.54742211
-0.020584054 0.56339872 0.54245269
0.15127806 0.62829584 0.54146713
-0.35343623 0.75648773 0.54320163
-1.4946754 0.84619701 0.54641193
1.2766653 -0.84630853 0.55492401
1.7029277 -0.70181227 0.55296409
1.0783626 -0.64122969 0.5512408
-1.104636 -0.62643397 0.5556463
0.13394403 -0.36853886 0.55873585
0.10356838 -0.31143159 0.55763716
0.089025706 -0.25414029 0.55432796
0.21524364 -0.19199361 0.55312145
0.54915226 0.01425076 0.55945939
0.549133 0.068138197 0.55896711
0.040801968 0.079221219 0.55723703
0.077271558 0.40302283 0.55165333
0.099851929 0.49368185 0.55679148
-1.3368329 0.57192785 0.55404329
1.1862276 0.58002603 0.55681288
1.663131 0.5847789 0.55027515
1.0789599 0.60936254 0.55282235
-1.4473956 0.62841898 0.55217779
1.0796901 0.6399529 0.55472362
-0.52070791 0.75273561 0.55100614
-0.031787843 0.76695967 0.55568975
-1.5515863 0.81792641 0.55813622
-2.0387228 -0.84562576 0.56244147
-1.4867725 -0.81873441 0.56123006
-1.0205863 -0.76064748 0.56026721
1.1593574 -0.6885407 0.56695724
-1.3841261 -0.57265806 0.56466478
-2.3251553 -0.54998595 0.56391996
0.1891796 -0.53734303 0.56000787
-0.32071328 -0.27302858 0.56687272
-2.3396182 0.026199592 0.56524414
-0.31960404 0.25911856 0.56046349
-0.1901314 0.42524689 0.5601607
1.4570508 0.57699591 0.5676347
1.5417027 0.57731873 0.56415623
-1.5433799 0.58838606 0.56706303
-1.5397598 0.58752942 0.56140453
-1.4825232 0.62997961 0.56537336
-1.4741489 0.62841898 0.56378269
-0.67510021 0.7495864 0.56085944
-1.854924 0.86766195 0.56271422
-1.8334342 0.86940759 0.56734246
-1.8176677 0.87081772 0.56852674
-1.0659742 -0.85643631 0.57451993
1.5856159 -0.85454684 0.57025069
-2.0886617 -0.84320843 0.57751918
-1.3282245 -0.84992617 0.57969272
-0.96274781 -0.83080691 0.57360208
1.601597 -0.77595276 0.57841957
-1.4706205 -0.63001484 0.57727945
-0.21729963 -0.60970944 0.57224476
-1.0086657 -0.58454472 0.57480806
1.1389455 -0.58230102 0.57614785
0.67257565 0.40989393 0.57593942
-0.6929332 0.55108631 0.57460588
-1.1621965 0.57651234 0.57609612
1.5164441 0.62841898 0.57108629
1.6863427 0.62654269 0.57267559
-1.3326658 -0.85373181 0.58962452
-1.0855732 -0.85639322 0.58355665
1.4021925 -0.84802341 0.58456367
-2.2086744 -0.82696331 0.58333182
-1.4590101 -0.78932053 0.58697009
0.54463816 -0.78072828 0.58765721
-0.88305074 -0.77124065 0.58988261
-1.53269 -0.73019063 0.58708823
-1.4618886 -0.72155887 0.58492351
1.5902289 -0.69880497 0.58750081
-0.79354781 -0.65460414 0.58767259
-0.74242389 -0.65280312 0.5871824
-1.3066399 -0.62643397 0.58392549
1.3366764 -0.62643403 0.58403164
-1.162078 -0.57580924 0.58563292
-0.84835887 -0.57397413 0.58819818
-0.8723315 -0.4813357 0.58842808
-0.73851466 -0.37576866 0.58714485
-0.92371321 -0.2635439 0.58892083
-0.17850456 -0.20190249 0.5857234
-0.90008008 -0.033877909 0.58869421
-0.8299495 0.085413478 0.5880217
-0.99364853 0.12377232 0.58959144
-0.87581789 0.14004958 0.58846152
-0.69288087 0.14880794 0.58240318
-0.32277524 0.15329158 0.58141768
-0.95948714 0.20905034 0.58926392
-0.92438525 0.21628103 0.58892727
-0.93958342 0.26232815 0.589073
-0.99390459 0.28273958 0.58959395
-0.88583386 0.28998569 0.5885576
-0.78735638 0.31591955 0.58761322
-0.78441548 0.36801183 0.58758503
-0.94897586 0.41945615 0.58916306
-0.71920598 0.4130815 0.58695972
-0.77553457 0.42013195 0.58749986
-0.78148723 0.46099705 0.58755696
-1.2623205 0.57608426 0.58020049
-1.5283766 0.58844149 0.58531797
-2.3300328 0.61250752 0.58488727
-0.98844147 0.63773584 0.58954149
-0.91545808 0.64693815 0.58884168
1.5997975 0.66774744 0.58015943
-0.85435826 0.69806969 0.58825576
-1.0465021 0.78296423 0.58502072
-0.97569585 0.78618878 0.58505684
1.592209 0.83523989 0.58617806
1.5486914 -0.85615742 0.59383827
-2.1599553 -0.83681345 0.59513044
1.1986976 -0.83697402 0.59915847
-0.64356911 -0.77822387 0.59999454
0.27087983 -0.77620322 0.59971368
-0.63598484 -0.76336998 0.59450769
-0.52086467 -0.75334179 0.5937506
-1.448848 -0.72254944 0.59405375
1.5801917 -0.67988747 0.59451902
-0.99785995 -0.62324601 0.59385878
1.6675391 -0.61625636 0.59036601
-1.3088039 -0.57626438 0.59970886
2.2031054 0.063332163 0.59257948
-0.32497787 0.48544803 0.59151465
2.1515324 0.4833231 0.59221363
1.1162009 0.58740425 0.59592736
-1.452632 0.67065728 0.59137958
-1.0010355 0.67069793 0.59331071
-1.5296488 0.74294603 0.59116411
-0.47665131 0.76889038 0.59985912
0.65224689 0.78806448 0.59895486
-1.0830357 0.85464096 0.59276539
-1.5296443 0.89150453 0.59329355
-1.1047776 -0.85208702 0.60685492
-2.0681951 -0.84504437 0.60423589
2.1324449 -0.65184599 0.6080246
1.1102948 -0.63822132 0.60342854
-1.1737137 -0.62643403 0.6086669
-1.2452431 -0.57813334 0.60899889
0.67278564 -0.5419445 0.60191363
0.67277253 -0.50028914 0.60028857
1.4069381 0.58045983 0.60113281
1.2063988 0.71504122 0.60449272
-1.4311682 0.76376009 0.60644972
-0.68501711 0.7865116 0.60181946
-1.1597852 0.85817051 0.60139382
1.4790801 0.85815883 0.60079843
-0.97701937 0.88530838 0.60142541
-1.6752807 -0.87917376 0.61464852
-2.1678581 -0.83610463 0.61521608
-1.0917881 -0.82912296 0.61623317
0.46437031 -0.78303039 0.61164451
1.2309388 -0.77684438 0.6195268
1.6465195 -0.75349498 0.61692458
1.5437167 -0.66486341 0.61841285
0.67290688 -0.50257504 0.61690885
2.2033682 -0.1366636 0.61858934
-1.0091357 -0.050638705 0.61486185
0.67292744 0.058651686 0.6194526
-2.3439953 0.10566559 0.61278379
1.134644 0.65267086 0.61496359
1.2308692 0.68364555 0.61945522
-1.0978447 0.76467305 0.61902952
0.16660333 0.77908397 0.61121535
-1.5096086 0.78360832 0.61657906
0.52076763 0.78903496 0.61163151
-1.5076303 0.79246175 0.61931258
-2.2315755 0.82245529 0.61732715
1.2256448 0.84048289 0.61708879
1.3354895 0.85814214 0.61068833
1.4629929 0.85832793 0.61942601
-0.94873405 0.86674112 0.61964917
-1.7410606 0.87638324 0.61146128
-1.4062266 -0.80711788 0.62101591
1.5375313 -0.70246881 0.62131351
-1.0124998 -0.69106138 0.62987751
-1.1193225 -0.66322708 0.62900323
-1.3937707 -0.62643403 0.6246919
-1.0561633 -0.58206707 0.62164325
-1.0340198 -0.58526295 0.62696648
2.195116 -0.25803882 0.62335283
2.1969643 -0.15988491 0.62860096
-2.3405941 0.10923024 0.62279677
1.6341574 0.64489436 0.62368751
1.2400758 0.7388432 0.62377322
-0.17025289 0.79059541 0.62756604
0.51705003 0.79012311 0.62169379
-2.2651746 0.81188339 0.62064731
-1.1919378 -0.8533501 0.63695228
0.038064182 -0.78782189 0.6368534
-1.0317044 -0.7781558 0.63262451
-1.0224447 -0.76820582 0.63983524
1.2623444 -0.715819 0.63414669
-1.4906268 -0.70720118 0.63539732
1.1864299 -0.60479188 0.639485
-1.1205636 -0.58268017 0.63378096
-0.18540786 -0.49321407 0.63634455
-1.0187194 0.053264618 0.63271332
1.3043003 0.58375496 0.637061
1.5299331 0.58506221 0.63163227
1.6194403 0.58837855 0.63431698
-1.1415458 0.64085448 0.63935608
1.2642784 0.73727441 0.63505787
1.2741808 0.76667333 0.63957655
0.40919936 0.78821105 0.63100672
0.2651917 0.79065371 0.6312393
-1.3687956 0.81945455 0.63847733
1.1608016 0.82893986 0.63608944
-1.4877616 -0.8743794 0.64457142
1.2811888 -0.81590134 0.64147484
-0.40212005 -0.78414673 0.64458704
-0.94695985 -0.77962583 0.64948314
1.1932851 -0.73772502 0.6455965
1.188988 -0.67446637 0.64069659
-1.3622174 -0.66468358 0.64059067
1.3074642 -0.66989928 0.64845544
1.2880888 -0.6572836 0.64325941
1.477533 -0.63077116 0.64505708
0.67313242 -0.57482398 0.64481181
0.84461349 -0.045094378 0.64708912
0.83782339 -0.032806925 0.64727849
-0.17890266 0.19388555 0.64562106
1.2055252 0.65903342 0.64853007
1.4820675 0.70244503 0.64387
1.6134726 0.76239383 0.64358836
1.3682123 0.85304892 0.64488256
1.3547372 -0.63066065 0.65646994
-1.4600109 -0.61388981 0.65802872
-0.33047494 -0.60017675 0.65592033
-0.20389315 -0.60101515 0.65822715
-1.2349212 -0.58418292 0.65330195
-0.33632904 -0.46267787 0.6595645
2.1960266 -0.070170961 0.65468585
0.73978406 0.078969538 0.65001261
-0.33477896 0.22680582 0.65083933
1.5601864 0.58772707 0.65231985
1.4143305 0.63391793 0.65676022
-1.2763274 0.64908165 0.65728801
1.4384964 0.64423209 0.65465015
1.3981172 0.68713176 0.65819955
-1.2366765 0.73852009 0.65773565
-1.2290741 0.73083836 0.65706742
1.3556012 0.76329225 0.65659738
-1.2120403 0.78895569 0.65559995
-1.1931077 0.78053445 0.65323907
0.37620124 0.79490221 0.65967548
0.56250489 0.79644859 0.65752089
-1.0426301 0.80970836 0.65645862
-1.2394686 0.81441373 0.65800965
1.3602229 0.81870389 0.65702343
-1.2222761 0.82825339 0.65651089
1.176939 0.84046459 0.65064734
-1.0954175 -0.85702914 0.66901302
-1.4383243 -0.838305 0.66320521
1.5638766 -0.77271706 0.66393065
1.2167337 -0.7359581 0.66349268
1.5597689 -0.71248192 0.66490924
-1.0642289 -0.70475316 0.66159546
1.5716106 -0.70569569 0.66208827
1.4753227 -0.67450172 0.66930234
-1.1110258 -0.61806512 0.66297102
2.1343031 -0.47397333 0.66691428
0.57988298 0.067477264 0.66282511
