# .PCD v0.7 - Point Cloud Data file format
VERSION 0.7
FIELDS x y z
SIZE 4 4 4
TYPE F F F
COUNT 1 1 1
WIDTH 1560
HEIGHT 1
VIEWPOINT 0 0 0 1 0 0 0
POINTS 1560
DATA ascii
-19.603201 41.631893 8.2644777
36.557076 -11.215837 41.926712
-16.665699 38.65543 8.264123
-21.02264 97.086884 44.451771
13.246943 -14.774434 60.421879
37.623802 -29.950365 9.3140984
-7.2281051 12.535243 70.814598
-7.4179974 -5.9424787 20.322044
-29.947117 -79.47168 13.595015
-29.424686 11.223549 54.618347
-12.474865 14.445525 65.128899
-12.265017 -42.224823 37.476116
31.223022 70.37635 14.912651
-12.594286 20.7379 9.5133896
36.652729 7.8122277 21.932253
28.181776 -12.392261 19.448671
33.546421 36.133556 15.744369
13.495186 -28.059574 8.070344
-16.901758 7.2049446 8.2535152
37.980873 -57.035587 31.673115
4.1429467 -75.570648 8.1813545
-25.136108 -74.000504 38.517746
-16.131538 1.6070895 28.033787
14.658567 80.196083 46.935665
-5.3623557 -78.952187 8.2209015
6.5603948 -106.52718 9.6768188
33.818371 -5.9100742 23.526218
-29.168915 -3.2878563 20.863997
39.789337 58.75251 30.432907
33.421734 -8.03829 33.114994
8.0402985 20.830048 9.5133896
38.105255 -47.962509 32.01218
27.3374 -61.732986 15.461645
-4.6664109 79.751984 45.730507
8.2856998 66.893005 42.059811
-6.5392113 -9.9415894 8.1644535
-37.394085 44.658077 35.033558
-25.576479 63.052784 9.9808187
25.111357 -11.297911 9.420845
-6.9306989 -59.916489 7.9982791
-35.500141 52.594868 43.829155
-29.789255 16.326391 56.007473
-7.3353348 -16.256063 19.19669
-34.32346 59.757 46.723587
-5.1013603 1.0187477 8.2213831
8.9028597 -70.467255 39.75972
30.408791 53.381741 15.573837
-5.8310075 24.034872 63.18729
9.7887192 -3.1980979 60.944176
-15.869054 -88.67688 36.570816
38.980118 52.673946 20.527498
27.4375 -36.744324 47.056839
-37.956001 75.562157 18.158569
-36.592781 66.441971 30.297619
32.077248 74.595993 43.313774
6.4556599 32.399239 62.54599
-23.98448 -22.104252 9.3693256
38.831291 31.025585 13.282966
-26.098 -74.78936 14.668186
-8.2781858 -23.714918 56.121872
22.654818 -28.912491 39.224121
-29.292683 -22.559713 11.016403
-24.442642 -43.567066 43.253002
35.188229 107.54106 37.043785
8.3051529 -71.153992 8.1297016
-30.750347 -76.957878 27.226324
12.183512 -75.292679 38.948608
16.816006 29.789047 62.561478
-5.4013071 10.303919 9.5133896
-16.605366 105.61672 14.630442
6.5740829 89.653717 45.548645
-23.933186 27.640245 9.5133896
5.3923869 -51.125618 10.838519
-38.38131 74.451218 17.412361
38.511799 67.028214 11.109552
-4.5840077 -107.20615 30.943583
-9.4162712 53.742207 58.06007
12.208631 -22.550827 20.570234
39.106804 -19.54718 14.960459
37.702881 -77.775948 7.9074235
-29.150875 -80.399384 6.898407
27.206917 -102.11167 22.988249
36.815022 -17.410221 40.613899
-38.411205 68.249908 31.831379
9.6786861 2.1289065 31.704437
-15.895846 62.285301 54.46579
-23.315573 20.845015 60.749435
-30.585882 64.17643 19.28927
-34.275959 -77.702187 1.3581078
-41.466434 -35.816635 45.417339
1.614881 76.881981 42.819595
-33.256058 -43.488361 37.954952
-9.0191326 56.233143 57.179558
-37.535332 -34.741371 13.159088
-10.524098 -33.976841 9.3127213
-31.776608 6.4885044 9.5056429
-13.229981 -4.3987627 40.676254
30.518408 -65.438477 5.8193693
20.61195 49.274582 59.346249
-35.628242 105.61702 33.73521
29.380762 -16.417114 20.129936
-9.9797201 -0.33633193 11.794779
-0.69738424 15.433237 9.5133896
26.793068 -23.215826 8.0955009
-37.553154 71.042488 35.318451
6.4221101 -49.86541 32.952702
26.064644 -6.9784975 8.179842
-32.370483 21.102777 28.758198
-36.314178 -34.598629 35.94474
30.524782 -1.8171949 19.130871
-13.45984 41.115185 19.129858
28.332865 -89.446594 35.389294
28.615135 10.950397 59.572159
28.313129 -61.380322 40.067406
-34.495941 8.3587599 27.177446
19.11725 -52.874268 7.9414482
27.223577 -101.39384 31.911371
-22.607935 -103.28557 22.848598
-21.225988 -91.399368 8.4194365
39.091251 41.949116 21.623817
-3.7074413 3.9894743 8.2368135
38.636036 -53.266506 25.716913
34.239532 -12.29154 39.762672
-36.971581 -43.844566 30.507452
-32.357479 32.966431 28.551054
15.122402 -28.874702 10.292294
34.30014 -29.346111 46.75359
-2.4206946 38.479324 19.700062
33.746609 9.707612 25.513931
18.841799 39.651722 8.2642422
6.4803362 26.153925 16.058765
-32.603741 14.62984 18.676695
4.6344128 -47.097012 43.729767
29.634806 -104.53954 9.6090174
33.355644 -38.35149 40.685101
-10.267364 102.31294 14.220392
27.3374 -70.288696 26.405384
26.195501 2.4174671 33.734329
29.581192 26.995052 9.5133896
25.825159 109.7628 34.159401
-13.222988 43.57843 60.929344
-32.00201 -10.112255 11.725508
-6.0572491 -29.202894 9.3354816
27.639999 53.505188 16.381443
-9.1639338 -91.785812 36.204475
-33.41024 -39.276508 11.287601
-29.292698 -26.435011 12.91783
38.511799 59.595043 8.1112137
-36.378204 -26.170279 36.217209
-30.870947 -14.894728 8.1387234
38.482101 -76.540314 2.9205086
8.5890999 -17.139645 15.279789
31.21983 63.896091 20.916492
-28.677786 -66.68119 27.770512
3.0223145 -65.677643 40.552032
-19.004765 46.007977 21.089632
-37.682076 -50.743725 18.429276
27.639999 60.461815 16.463621
22.037308 110.32169 28.874758
30.640007 -93.853439 8.6174364
-25.29007 -52.91362 41.169834
-34.547028 106.15483 38.805542
-25.764942 100.81541 14.037195
2.7025356 -51.53693 41.521225
-37.561272 2.0333676 26.820913
-25.491146 -41.651939 33.765942
-20.924608 76.379524 42.884674
38.082726 4.2315679 36.565868
19.575359 -7.5879607 60.125175
1.0883322 -69.035316 8.1049242
-7.8395009 47.194931 23.124088
-33.652996 -79.343971 2.2740173
-32.408596 40.20145 26.78812
-23.384529 -48.628952 40.85257
-24.471601 112.79694 17.593287
38.585037 29.349991 12.026592
4.1211109 41.822678 60.377769
36.798676 -93.272545 30.174662
7.8812094 91.924881 12.972646
21.919008 -23.972303 9.3604193
-37.05278 -19.522055 32.76104
-38.047489 99.748337 22.0201
35.427086 10.194962 46.171421
-23.492233 -61.864098 29.403942
-4.9777746 23.620628 8.2623329
-29.520134 -82.062706 22.567234
-2.7655458 73.258698 10.974375
0.58196306 -27.532726 8.073081
-30.737373 47.518818 54.196693
30.629078 -79.761131 18.352924
27.510433 54.074612 9.1067848
36.521591 46.004089 44.399483
-0.73673975 36.054066 20.207899
-11.909433 -4.8948126 62.355331
9.8401012 -34.895111 8.0348396
28.162533 -61.872456 21.707193
-13.150459 -10.196438 18.665337
-31.977501 -1.6679807 9.5500946
21.380445 -34.425087 36.159744
33.570137 -2.6105766 30.407867
-5.4853411 -7.3428316 8.1779518
27.639999 47.691608 9.7994022
-13.524824 85.215118 12.225742
16.060524 -20.692871 57.275055
38.756851 -50.6922 12.99247
14.878156 -49.159386 10.367767
-19.706842 50.708099 40.889328
-7.2591629 -61.864101 25.547115
21.542282 -41.586674 33.469189
38.910324 -15.688366 13.955232
-25.370735 -9.0260267 19.371386
13.614613 -45.268139 9.4361286
11.069991 50.276405 36.19574
-18.073654 -4.2842646 9.4542828
3.7910476 95.839249 44.83942
37.785561 6.3989692 9.8952198
-10.496218 -22.366863 56.743221
8.567049 -37.340446 38.399952
-29.762966 106.46449 42.829742
24.268805 -55.137424 32.952702
37.428307 45.084179 42.036518
-9.5433912 -49.75975 32.952702
26.912876 -46.816273 7.9729137
-16.048498 48.968517 29.590176
30.653736 69.044617 3.5434067
-31.382603 -39.125423 40.714138
35.555832 -70.80542 29.949013
-0.40296981 100.64027 44.251049
-2.6882904 -71.048264 39.800453
-37.780014 -21.716433 20.312775
6.0420179 1.3060632 62.921982
33.55471 10.807846 35.61277
8.5891066 -5.8783021 11.325637
-6.8523283 45.895515 8.3105402
-13.588929 56.955124 56.822632
4.9663491 15.882196 66.942337
-32.561604 -26.558704 23.93169
6.8522396 94.69416 44.979088
-6.4912276 78.956566 45.022861
-13.652834 -38.54686 48.159126
-42.854019 -32.557976 46.153568
21.365242 83.989273 12.089283
22.43297 -60.265762 32.952702
-28.083549 -15.944527 19.658037
-38.125916 51.905518 15.551765
10.490367 -61.864101 26.524277
-22.509098 71.051964 50.033817
-28.36338 49.273865 35.721909
0.84785742 26.22924 16.189491
-35.811573 99.591797 38.267956
-16.720617 80.772636 11.73122
-36.834942 44.219704 38.910225
0.44120121 16.985552 8.2615433
25.568714 43.944382 60.446617
10.023389 75.691765 42.314503
2.4210413 42.835941 60.31205
42.18325 -36.097336 41.297516
-30.4272 62.708679 49.216797
38.851662 -70.017838 30.259743
-15.222715 105.91785 14.676985
-21.567112 14.784965 8.261282
38.973888 -46.933895 19.209322
-36.333 -66.071259 14.994801
16.334875 51.591949 42.710083
-4.4026494 41.76445 61.302811
-17.362158 -79.437309 38.083687
0.68266398 -44.056335 42.052761
38.878838 34.826103 28.493036
-22.407471 73.195694 49.071388
-14.600754 72.46759 50.194771
-22.743824 11.107673 60.871094
-34.406258 -99.913589 9.2764149
-20.659281 -98.854233 33.963562
-5.2987614 18.44264 63.308289
-34.719357 -41.98027 11.275005
3.9939859 -34.363441 50.790092
6.1402569 -2.552629 62.69355
37.378216 -39.59185 36.384834
-29.493496 -80.184738 17.175545
-19.310612 -42.23172 33.461266
-35.134502 61.807243 27.657099
17.768942 -3.6586452 43.082882
-37.077103 107.32103 26.673477
25.501171 113.54799 27.439861
-31.630215 -11.730268 51.130333
14.184676 36.099472 62.20557
-33.556763 6.8456264 16.429672
38.293003 -82.164597 29.797956
29.955299 -19.628639 20.137657
12.716439 88.358337 45.668289
-2.158601 -51.27356 41.482513
26.224449 55.588612 56.714935
36.621391 32.922169 43.805485
8.1806221 -71.860992 39.565041
-20.307127 -31.966972 50.928745
1.3030682 14.129114 70.814598
30.668196 -66.252075 9.6236744
-32.789986 7.378088 38.980289
39.11684 59.913605 6.2217922
37.216511 -24.092968 11.361333
24.678598 32.941925 8.2634439
19.92503 -44.127026 7.9868836
-14.173065 30.241188 8.2631207
-13.627239 109.6454 39.313931
23.097422 26.163143 17.763012
6.2948923 -112.27545 13.758142
30.550188 52.852554 11.685867
-12.933424 39.56855 61.639801
23.376976 15.345938 65.128899
9.8000088 -27.697418 20.355877
11.297771 -91.555267 36.230801
-32.498837 -40.802509 24.236498
-29.737082 -77.111038 8.4362164
-25.319862 -43.733498 42.977196
38.969349 -8.5388918 22.473715
38.526161 -2.4097075 31.655233
-33.427254 43.541637 19.84605
11.434667 -36.973488 38.924973
-37.97551 -35.861759 46.126495
-2.1471815 80.918945 46.773907
15.876144 49.39077 31.576134
-30.337364 51.217434 19.803753
-28.040995 -16.188562 9.3975277
33.392673 57.257202 51.520103
22.959503 -108.40192 22.044226
32.427864 -73.932892 29.610758
33.793438 -27.047157 24.13924
-32.487904 -7.1064606 49.304634
17.856585 -38.36972 43.503624
33.294064 -102.28224 29.206717
5.194612 -4.8974028 62.413349
6.9988594 79.81221 45.824581
34.973774 112.83615 23.693739
23.645853 14.876925 65.128899
34.744129 46.567909 47.372898
-3.5660985 -41.512321 33.525154
33.543629 37.569817 30.998466
38.351688 -35.211243 40.768112
38.170948 49.663177 23.245832
15.548174 -61.864105 22.105089
-6.7852387 13.877872 65.128899
33.759254 3.9432232 50.130444
27.337399 -71.543457 11.831052
-34.730392 -86.188385 16.436718
-37.570213 -16.764915 16.943987
21.430887 15.945397 8.2614193
26.668249 26.207916 9.5133896
19.658569 107.3425 42.646088
4.3027067 -61.864098 20.529398
-9.5946007 -19.733189 58.100479
38.968067 65.048576 35.892933
-33.243786 7.183691 12.35957
-32.564598 -24.665804 37.532829
-29.123936 -3.8102887 21.620934
-16.665571 52.311512 58.378494
30.772783 -13.894271 56.301933
33.666553 39.255745 26.318972
38.631714 37.631058 34.682323
6.6710186 -51.805904 7.947
-5.670167 25.183544 61.399521
27.639999 73.075661 24.856668
-12.305114 47.800049 60.140621
-9.8258953 -19.584463 8.1143656
21.155447 10.202456 8.2607365
-20.057209 -0.38387105 11.261316
34.686295 -10.681664 46.915249
-32.129665 24.848333 11.500553
22.272049 22.842632 62.81794
37.204849 -21.793344 38.900887
-19.284224 -5.0788789 61.909439
27.649271 12.849325 8.2710342
-7.3353367 -18.769304 10.442041
-33.757256 23.137629 47.621056
38.903931 75.511528 26.729397
17.513361 -44.400528 33.017567
12.937995 -0.14736706 13.91518
-17.214266 0.052645013 16.159584
-22.28776 -5.0164914 37.717545
38.532417 -19.744221 28.42271
33.629471 24.093464 28.072163
29.06809 25.657269 9.5133896
21.945538 -4.7884774 60.230011
31.171719 -60.462807 8.2452068
30.546398 -18.609602 17.811283
39.344391 44.2901 36.694569
29.701406 -8.8109646 58.887108
33.883114 -8.699749 21.724373
19.537779 22.973555 8.2622566
9.7418213 -98.167984 34.852444
2.7804382 -61.864098 24.647388
28.39262 -51.711067 41.167431
-31.977501 -40.818985 10.345903
-33.305931 -85.123344 8.2451277
11.075035 -36.676556 34.241554
-31.156252 -68.401978 27.181303
21.160482 -26.084591 54.038033
-12.883223 50.390003 8.7480831
33.407356 9.3718777 41.143284
10.292322 -37.20153 49.0298
-33.544079 9.2617912 41.738075
0.67553562 -29.478279 53.450184
-5.9438848 28.296507 12.274658
34.593727 14.693683 11.510799
-32.462002 -18.342363 26.717987
5.461997 74.982605 11.142199
21.09473 -56.738068 41.083492
-29.02564 -69.907516 23.562939
36.527664 -95.856575 30.297745
27.64896 36.105762 19.631748
28.433212 46.410229 58.191967
-29.292686 -24.854132 11.507422
-4.4504733 -2.5139315 8.2030344
19.287228 49.102959 31.091333
-30.843967 -60.963028 24.918575
-35.145142 -66.567375 26.379604
10.377672 -11.57998 60.257717
9.3811579 -7.2725883 21.335325
-8.7654171 23.959526 61.352306
-22.493109 -10.64364 59.656624
-11.342142 25.485451 63.073875
-36.074459 25.434994 41.313046
18.621834 -70.914398 39.381897
32.625034 -26.204725 50.264725
38.511051 90.979408 27.316109
-37.002316 -67.552231 25.544523
12.899698 -25.960932 9.3509378
-37.845985 75.147446 19.808201
-19.620634 -72.94429 38.963829
-19.119715 32.11713 60.16954
31.357559 -60.660774 20.487469
2.1684334 28.1635 12.503442
38.156639 100.14883 27.984009
-15.712662 79.158005 45.475319
-20.422243 32.406185 62.157375
-28.426388 1.3595783 32.664131
-20.496698 50.179131 38.042305
-29.006224 -65.949608 7.2146297
-37.421566 -7.1757245 27.831926
-19.5634 -37.523182 8.0211849
-5.200654 78.614639 11.495781
33.47995 40.587753 34.31403
-16.123835 -99.517723 34.11932
-20.176506 42.838562 8.2646217
16.239086 -37.74144 48.378807
38.237804 -60.606739 16.193411
-37.4958 90.370743 13.68158
35.39481 25.468664 8.3018894
33.730835 34.136787 18.527874
-30.147997 -38.263031 9.2922869
34.519547 83.364426 44.045128
21.904491 10.119018 62.888542
27.3374 -65.621765 16.317509
19.32439 -17.372629 9.3918839
-32.165455 -2.9672062 13.727359
32.347271 74.316406 22.915953
-7.5598173 50.006336 34.444622
30.5464 -6.2645059 9.7964334
-22.39962 112.92863 17.49441
9.9928799 -89.906807 8.3490162
-32.494576 -29.627142 17.550194
8.5890999 -16.364782 13.606764
35.082039 -8.6381149 45.995712
-11.406423 -11.154728 61.477081
-20.740137 -49.387882 32.952702
24.742853 78.795837 46.332008
38.782387 -40.500481 13.171784
30.519444 56.838821 18.855583
-20.518082 26.659899 9.5133896
27.337402 -84.758934 21.94887
1.6749623 15.582106 65.688416
-24.452869 -58.166523 40.61422
-23.904972 -0.82093799 60.373924
0.15628895 26.277124 15.466669
-11.671021 30.866627 8.263196
34.622787 32.944424 11.508919
29.495626 -53.239395 29.128912
-33.570415 31.318649 48.267445
22.361706 53.016232 45.287369
11.836849 27.286856 13.754126
-3.9708247 1.2204392 61.41571
-16.470406 -7.7053633 9.437973
33.531384 -33.701355 35.239189
-24.203337 77.79007 45.428455
-14.772926 -39.237862 47.627022
-11.499906 -114.5034 18.347929
-15.536439 -34.133034 9.3119774
26.326561 -20.063923 56.471031
39.177193 63.829601 26.792912
-28.083529 38.049236 8.2793131
34.335571 47.662262 46.201477
-23.627506 -8.3911161 61.217682
-31.977501 -14.015375 9.5995483
-20.567244 -7.6250343 61.495831
26.878765 44.413113 17.757607
17.465313 -42.895096 45.362194
31.24855 58.740513 10.075556
-26.795454 14.190981 61.716717
33.874382 -30.372974 21.887171
-31.83699 -5.9585662 50.967552
-4.8686609 -49.200203 10.377539
-4.5932002 47.557255 23.955059
-27.71151 76.541679 22.312576
6.6928067 -110.45999 11.220009
-20.111727 60.581169 42.713299
25.424654 14.037853 70.814598
33.651096 20.949903 15.5331
19.51162 -52.761765 32.952702
-20.615702 -50.249199 7.9550829
-5.0798402 61.041031 55.264019
30.370766 -66.816818 22.598057
22.788162 89.642044 12.718529
-33.104572 -4.9158473 47.87944
-16.218712 -84.111237 8.2812366
24.670198 1.0873435 8.2217388
-31.823027 -71.103645 15.103239
30.504389 -83.229477 18.11046
28.78175 67.512535 51.048908
-20.268261 -7.1671958 9.4405394
-15.879852 3.1124721 8.2322588
38.994778 -33.193829 21.292717
34.666946 28.643373 8.3096523
30.418442 -65.032913 18.132534
34.203621 6.3895831 23.298985
27.448463 51.221367 58.306976
15.413562 -104.85615 32.584076
12.674111 44.122444 60.88662
23.709686 87.052826 45.422115
-11.597273 -9.9416761 18.858368
16.424591 61.01162 42.552021
-29.92008 96.675034 44.25721
10.095392 62.046776 54.802029
8.5891018 -15.694534 11.546621
7.3020134 32.41827 20.953632
0.36278421 57.947681 46.460762
33.568569 28.549458 29.547045
-31.999683 29.721622 8.3102789
33.789169 -11.108125 24.315376
4.5455551 112.78873 27.724083
25.677362 -102.5308 27.505491
-37.61293 -5.7964072 17.620502
7.3616414 -76.805702 8.1957979
28.224354 49.249187 57.875725
35.951584 13.106481 11.511401
27.639999 70.377876 23.752268
35.276459 23.178337 11.507914
38.269638 -21.28083 32.841919
38.281773 25.762243 36.615295
-32.618591 2.6373138 19.208012
-37.705376 -14.947469 23.474356
-16.386129 -61.060066 32.952702
39.046062 50.324081 29.963472
19.037601 -81.430923 37.721943
-22.833807 31.293133 62.136169
-32.347301 -0.55153227 29.95693
38.777313 -47.160561 23.143867
-29.714066 -49.36335 16.359657
28.731699 -59.213707 18.690111
34.50481 30.50144 37.652119
15.358705 76.808731 11.319974
-11.029761 -12.232852 60.11478
4.4512405 3.2261181 61.528275
36.704849 10.129556 42.668533
-32.225178 -9.6879578 32.159489
36.29377 22.897951 11.510257
12.210402 13.655616 61.437241
18.52424 23.612165 62.95224
19.337448 13.421192 65.128899
-10.628006 -10.429845 60.275772
-16.588873 -4.3902345 39.884918
-18.720699 -49.730656 10.504538
35.530712 43.246212 8.3328171
27.809273 50.408169 58.593079
-25.208307 35.409245 8.2637367
-32.940697 4.2928047 11.495289
8.783433 5.635891 9.5015793
-19.651947 97.310432 44.473305
26.644327 -71.924164 38.801479
-26.49684 -89.643532 13.367962
34.835583 -101.12267 9.3895473
-22.256577 1.0469048 24.093222
36.366417 -84.405624 21.265427
-26.4006 65.587029 12.7002
-5.0874882 109.34435 36.957123
-7.1725435 12.192856 65.128899
-29.923946 -29.184782 51.159954
31.599644 -85.898911 35.745037
-16.432795 -60.059586 14.802946
9.4442987 2.6324933 62.98053
37.481251 -43.197472 8.8920145
19.729631 48.930058 30.230028
19.115965 9.0102434 62.965488
-4.1558504 45.045292 18.330782
2.518961 31.674282 8.2632923
25.64505 12.708488 70.335358
-33.947216 -3.3412614 45.763336
-23.871082 -23.778122 9.3613453
34.125221 -27.574612 47.329906
39.98019 -33.322578 42.592442
4.1528268 -76.368523 8.1906853
-10.326351 -0.5489186 61.042225
27.3374 -76.371849 13.363068
33.347507 -41.961315 31.517277
-10.973511 -12.240162 60.116928
-22.623476 1.8693914 9.4836216
17.286694 3.2563655 62.78717
27.3374 -68.536636 9.8675814
-10.861311 -47.811241 7.9677486
-29.683075 -66.044289 17.336668
-25.667099 -22.688917 55.11816
-6.6477113 28.232414 21.012714
-28.833551 -57.767555 19.836565
-33.370361 -26.151768 8.0863285
-14.381589 21.959993 61.168003
-1.5233344 -65.925171 8.0685511
5.5960989 -58.310257 32.952702
-37.781425 20.369314 21.924404
-34.579136 42.334763 16.979036
-31.747999 72.120461 42.033958
9.3779945 112.53247 27.783005
18.566805 -46.80854 42.430511
-30.894226 -86.957413 35.478809
25.079834 109.79913 34.557995
-18.231428 43.027046 8.2646446
-37.364304 -19.708281 27.520329
30.344954 35.922436 57.763821
22.172819 49.772549 59.110619
-26.098 -68.033234 21.383236
33.401527 -24.154657 13.583923
-10.63433 4.9710727 63.085781
-26.569969 45.355453 20.403318
30.413725 14.60321 57.382492
38.909863 28.55784 27.200712
-33.301319 6.483079 24.48168
38.635929 84.394653 29.705502
-22.249905 86.599922 12.379892
22.287905 31.494724 60.128384
-23.190895 24.81065 62.592052
-31.122316 -90.13887 12.230409
-3.2669053 -114.16853 21.44684
28.844833 -30.078461 51.278191
-5.3441563 58.589645 46.463654
32.229942 71.371147 47.881207
-36.12471 63.110786 30.539368
-26.945368 -26.448624 9.3486137
-8.8728418 114.74435 22.413689
-32.333229 35.694496 29.453136
-38.27729 94.473801 17.654684
27.829166 15.169722 61.939545
26.226276 -43.735359 42.105377
-5.8986688 0.38073611 62.879105
38.532043 -30.56004 27.530975
27.3374 -66.828796 10.097085
-3.7074976 -76.591888 38.924622
3.4416456 -72.317314 39.618713
36.128204 86.786598 42.183781
-32.287628 -24.467485 29.672306
-35.471466 -60.953857 37.311501
-19.701939 14.777754 65.128899
16.056597 -7.6413832 8.1764002
39.07653 28.002882 20.499702
-18.98284 49.556774 34.095753
-37.070866 -40.166111 11.28336
-8.5832386 -106.8954 27.203701
13.440839 -15.784127 19.522585
-4.5715113 44.421928 60.205124
0.099545002 45.38752 60.666901
-32.192989 -20.111645 31.845867
8.5890999 -6.2283735 15.842543
-9.0291739 -112.86327 20.865904
38.040749 -44.246933 32.636215
-32.097469 -12.163813 49.959862
-16.146843 75.459656 48.746845
30.311756 -83.562531 36.344513
27.964695 33.803535 59.547455
33.578793 0.64500332 37.598511
-32.050526 -36.928314 43.013233
30.5464 -26.799412 13.838479
-36.172577 -5.788672 39.690823
-17.241564 -18.905872 19.825726
8.5602531 109.23486 15.189672
16.4135 -112.65353 11.986923
38.395981 86.208206 32.718414
23.7342 64.344139 53.019161
12.475813 -39.077873 33.88089
-17.086609 -29.699455 8.0618248
27.337402 -82.628807 19.659893
-11.973803 0.9660995 62.877884
-29.502333 -35.175873 9.3070049
-28.949848 82.976456 45.520359
37.876644 -79.714767 25.366678
-8.533989 55.254158 57.531067
19.671989 -108.19247 11.51015
-7.4397917 10.23597 70.814598
-24.152946 -109.57594 20.862862
-1.5782604 -75.978485 8.1861248
-37.209248 90.506744 28.962643
-36.680645 62.887524 40.53875
38.828407 13.624092 28.006618
-18.844238 -12.159454 18.481224
14.367842 -11.536883 9.4197054
-38.147301 50.474556 27.053951
34.053162 19.55759 38.12291
35.574066 -28.041487 8.0831308
-26.098 -83.16964 14.09212
44.916512 -29.685652 43.694473
16.830349 -99.000275 9.0512924
-35.784306 47.791008 30.646252
-27.704041 32.335758 59.79567
-33.74461 35.707127 40.923073
-28.459242 6.0077977 58.413483
23.15353 66.299545 52.178551
-2.8599136 -75.129753 39.170712
24.884235 -61.143799 16.71517
37.817108 89.270508 37.211143
31.227819 114.05832 24.953236
39.52829 90.660408 24.55501
22.860714 57.471764 9.437501
27.337399 -80.547264 12.271378
-31.619635 27.505522 17.182358
16.583847 -50.973194 32.952702
9.3540869 -42.624523 9.271493
-26.119171 110.71553 15.471217
-18.577726 -50.847855 7.9519739
10.377366 -11.026254 9.4221411
-36.288998 56.216656 41.874321
-32.371246 -55.270454 40.430454
22.517212 62.466751 41.791458
31.258808 109.20401 35.390121
-37.141659 72.300797 37.506451
6.5297227 -38.252869 36.03603
12.645216 72.140167 42.215088
-7.6391931 48.465408 59.911816
29.909973 -3.1429007 29.166983
38.245869 48.038467 32.439476
-37.077759 -29.983091 30.307926
-37.374451 13.163033 32.650272
30.648533 -69.458237 2.8929234
25.13809 -41.587784 44.427094
-23.127098 -6.9097967 29.144772
6.758275 108.81506 30.867188
-29.029736 -81.329613 18.991604
27.639999 54.959362 18.696932
-10.7832 -112.53255 17.550182
22.780313 -36.989471 39.041439
38.67939 -62.389046 18.534855
16.617884 -92.77417 8.5337229
-14.04574 46.070919 8.3276157
-20.594532 3.9414897 9.4935007
-21.457474 -6.7447896 27.862272
-18.528179 -10.9445 61.000053
8.7431622 8.3826828 8.2596331
-26.98012 31.022335 21.084902
24.772181 -42.355301 33.351562
21.549383 -93.168495 8.5665035
-3.7624607 -111.94469 14.575185
-34.55365 7.8372965 38.791962
-29.400162 29.754488 57.138962
15.686144 -114.31485 21.867733
-26.623144 -17.980108 20.121605
-5.0217996 35.283794 60.56271
-26.291143 2.278568 43.270706
-8.0913363 0.41429591 30.912504
14.830481 9.5456324 8.2606583
33.346966 -23.101562 33.556301
30.755407 -83.856155 19.843807
2.6954618 -41.98349 46.613663
-26.609425 77.884735 46.344727
22.987787 102.10361 14.194783
30.546402 -18.613434 16.557289
-18.538843 -58.840427 7.9856939
37.396431 108.45437 18.728806
14.502113 -11.275455 61.315453
10.862526 -37.44693 34.125847
-29.985109 -43.456188 9.2675285
1.4569895 -46.853558 42.201122
-9.4118032 -15.205254 9.4022169
21.447311 114.52563 22.383167
-13.017002 13.174025 63.290939
0.14996815 -3.0137887 9.4603405
38.989586 48.438614 28.39757
35.255775 -99.886353 24.864485
-32.477043 45.727932 51.345428
19.302292 -53.012749 41.660442
30.546398 -19.418692 18.727417
25.595272 18.37936 62.713089
25.769243 23.649269 60.616367
-36.587128 -70.064682 1.2788939
30.464273 -81.019943 7.121974
-16.713583 90.917397 45.316643
11.597072 -68.015228 40.065094
-29.621923 10.679245 53.739601
36.994728 16.204689 8.2792377
-7.5343199 -109.21225 11.971992
-11.330324 -22.839573 56.481201
14.512414 -48.191044 32.952702
-3.6149452 -86.660805 37.287056
27.062267 112.78253 17.447052
19.578884 6.5215516 9.5058012
18.259968 46.529125 60.280762
37.501987 48.394482 20.762102
-6.1978154 45.546394 18.829279
18.336681 -36.119755 48.799133
33.928802 -42.794655 20.3358
-26.672985 -97.838028 33.029556
22.899641 46.355747 59.62133
-37.616127 8.1877604 26.87566
-2.953558 -61.634602 18.928318
28.096256 60.222511 28.012024
-26.4006 48.861996 15.765435
-32.516319 3.5582299 25.294533
21.171762 -7.968986 8.1746988
38.604782 -50.731705 12.1989
-16.326347 40.061596 59.887276
33.750706 -41.673653 17.68787
-35.594372 27.361919 11.512036
33.736637 31.647232 17.89426
30.62834 52.109867 13.298962
29.973097 -86.032921 35.894981
38.511799 59.335255 17.768068
30.848915 -13.202116 55.561951
-30.866833 35.739643 54.175636
1.5408573 -108.13506 9.8099213
-37.411217 28.592489 33.374348
-32.465176 16.543036 26.351849
33.805 -44.590015 11.588508
24.606337 -98.614929 9.0411701
38.470379 16.898891 11.634315
-3.5370579 104.30251 14.463781
-11.35191 67.375374 42.07766
28.757864 -5.0369978 35.161579
-24.517536 -4.5553975 40.27158
30.385185 6.834321 8.2515898
38.205235 -68.216286 6.6225786
-7.4951611 -91.737747 8.447567
-32.815506 80.71006 44.482899
36.996502 7.8573284 30.495445
2.0714283 3.3042159 8.2332554
26.457272 -36.806564 34.222027
31.847466 68.760239 46.442825
17.930637 -90.029633 36.27755
-37.2724 65.209335 19.271355
35.872116 -19.915993 11.379889
31.509468 46.748226 53.807388
-36.424751 -103.53829 17.859112
29.64962 101.78218 43.738602
-21.984684 -40.81358 9.2801275
15.967363 -7.5462213 23.623817
-17.771076 13.611956 65.128899
-18.737358 52.695099 8.9724865
-12.926969 59.343666 46.467487
30.969318 64.049591 0.54644471
-32.256157 19.783092 32.059402
6.6658688 -43.01791 43.157925
-33.899807 6.9908113 40.594879
39.560806 73.529999 18.776089
20.109652 -20.021721 20.048101
-27.03767 35.353207 59.535866
18.632591 21.501703 8.2620811
-3.2226954 53.18211 58.296524
-14.268853 47.137596 59.868885
17.199219 44.851765 60.595894
34.351093 -45.370499 24.916279
-2.0760679 113.33018 19.313107
-13.121815 -54.282108 11.947354
-5.0534816 -11.980311 9.417592
-9.4168186 13.431852 61.515785
35.147213 -34.335297 11.312318
37.69923 26.907816 9.5816879
30.536167 73.82695 19.315481
-6.0508871 -111.41656 14.379008
-30.35914 -44.323292 7.9858623
17.638218 3.7395577 8.2355156
-28.357044 -28.244059 13.79891
-36.774952 109.35382 24.034336
-26.4006 54.485504 21.702822
21.108511 27.250795 62.558357
33.816238 7.6300998 18.723419
11.541258 13.969391 8.2611837
37.331768 -63.792915 28.053192
32.831718 107.89563 41.109901
14.196542 -106.79701 21.845703
-27.774403 55.029938 55.619244
38.424019 -40.724937 28.060358
27.3374 -89.896797 8.6216316
-30.22662 -48.443405 24.298813
-1.4000158 -9.1514549 8.1685572
17.768852 -26.185236 21.276436
5.3667164 -48.116608 10.118105
23.686975 52.975101 45.328995
13.651663 -84.054749 8.2805748
14.182423 17.792435 63.241978
18.880608 -110.85778 17.69368
26.112049 29.473122 60.112656
0.68435872 -91.309959 36.54665
-21.992241 -23.391279 20.719624
14.818855 77.6745 43.891365
18.097134 3.2992005 39.936771
16.254089 42.13142 8.2645369
-8.0757685 46.801105 60.416473
34.200531 25.665262 8.3023701
18.677677 109.89536 36.264694
-25.134558 49.77203 37.323891
25.987331 -81.611168 8.251997
-10.783199 -112.09055 25.242062
-29.411407 52.108982 12.693727
-1.2880911 9.7340841 61.867203
20.820986 50.301315 38.467861
33.868084 111.6625 18.686436
-37.295223 -75.656624 4.6221128
-23.782917 -19.522078 19.948526
-17.15309 -84.782249 8.2890835
-29.105843 55.932728 18.297657
17.027176 48.450516 8.5592728
34.240997 -17.158234 47.664032
-34.32785 48.332565 37.2052
-31.977501 -40.413006 10.506716
-31.891285 45.552628 21.69495
-34.738861 65.031158 0.62519109
39.052464 -29.305008 14.631385
-34.280727 63.123566 44.399506
-37.49205 3.8006549 15.896495
-16.137135 48.796585 28.609043
-26.502785 -101.5186 24.178125
-38.708466 80.981041 21.857422
21.936123 75.767815 42.257179
14.211249 -7.8031912 24.466553
22.28027 58.412704 55.773796
36.799629 -5.26582 41.657742
-31.451874 -7.7000828 51.807262
38.928204 20.179417 25.911705
-35.739822 -54.884315 16.053238
-11.33323 -76.084427 8.1873627
-20.673439 77.06369 43.565475
-37.492996 51.996437 7.962781
-37.37822 51.334602 19.927877
36.673721 49.34972 44.080975
12.96888 35.105576 60.261742
-37.839825 95.932533 16.203945
-21.243103 -102.86924 25.72171
37.657036 -65.212769 16.801445
-29.292633 -8.8618612 13.914654
19.866714 106.66077 43.052868
8.5803328 107.12901 42.855995
-1.0131488 16.074591 61.890503
20.392548 35.485641 59.878941
-3.0944047 -49.888588 10.542349
-0.32143575 -49.230862 42.638653
8.3230848 24.293697 63.166946
-37.347717 -11.897885 12.290596
5.7893896 87.107101 12.43635
29.258694 -18.246485 54.910736
33.552551 46.423409 51.799416
-6.5037041 55.815796 46.464272
-3.6932147 25.498638 63.075859
-37.031754 -37.150131 44.194458
-0.15564018 -49.809013 7.9573736
-13.598061 -72.12883 8.1411018
7.9969974 -47.94178 10.076248
21.418175 -41.984146 33.405983
32.670319 39.224186 8.3034344
30.179735 -71.98381 23.515511
3.3181303 42.982498 61.089211
21.883566 -42.972782 33.249798
-5.3675308 102.2667 14.214735
-24.656424 -35.031288 48.375587
20.84539 39.401596 61.383659
39.049328 35.176865 22.55842
-37.94455 98.687149 17.925877
23.031353 113.058 19.181059
-36.333 -69.975601 18.816921
32.760983 -46.358906 15.478202
-7.3171921 -42.361691 38.848877
-29.292616 -9.7539511 18.825874
20.451958 48.904884 30.338047
-32.360138 -17.386198 28.928436
34.681393 66.705292 46.790482
19.643097 -46.204006 32.952702
38.499226 106.67705 26.649532
2.32934 58.557678 56.329933
38.892338 -34.653259 13.772077
33.505493 35.273399 13.068108
23.88221 -13.968929 59.754387
-32.230328 6.862164 33.219997
-24.057188 -33.615105 49.383453
14.562051 28.961967 21.581167
-26.4006 78.215904 12.149762
32.995129 43.549801 17.595583
-28.304535 15.876036 59.212902
21.583593 -62.229046 40.364967
-35.119278 109.08226 15.878315
-22.005186 -41.285664 8.0016422
-11.884611 65.386078 53.35751
31.892532 -17.556801 8.1248951
13.249056 -58.696045 41.16964
-19.2616 -98.934586 9.0498886
16.398998 110.22123 32.487091
11.645377 106.50241 14.767337
32.693359 50.787277 18.326668
-11.998713 -25.747841 54.991398
0.50222909 -61.736385 32.952702
-32.538261 47.223434 16.677799
-21.523369 17.680319 8.2616262
38.938072 30.992905 17.926617
15.694653 39.075817 19.513536
-34.295036 -99.410278 27.87192
34.619354 -29.743221 39.196587
-26.098 -72.757401 20.453537
38.730022 -52.16996 15.606241
-30.664873 -35.228779 45.674526
38.852402 -99.582138 15.142038
31.297483 9.4930935 51.126842
31.261425 72.163826 41.734436
8.0423927 -3.3166912 61.019524
-3.8377056 -55.498909 41.740826
12.33392 18.067507 61.377396
-28.006088 67.128578 28.229624
15.840754 114.19516 27.23439
-32.224842 -12.159962 31.947247
-24.416363 34.669739 59.700039
-37.555206 29.22201 15.89497
-32.933064 58.707085 27.040462
-36.344566 47.858807 31.137569
32.434654 10.654402 45.739861
-32.276131 112.44473 27.314236
30.63184 55.407013 5.7953949
-24.91193 109.51318 38.005814
30.918673 76.416641 18.424988
32.742786 7.9844818 44.236942
33.354424 -39.194359 31.631269
0.9111951 69.208565 51.942421
-26.424715 -43.353107 7.9909024
0.044484437 -14.703405 59.998692
38.116089 -84.68721 9.4304724
-29.174881 74.355179 13.334457
38.460907 -24.932545 28.90089
-10.030188 74.468803 11.09218
-28.038353 38.689823 58.923828
-37.023563 -52.816593 30.414219
-35.902252 24.109962 41.23431
36.654739 10.362255 11.51249
-4.9887033 104.29179 43.756435
-19.282066 -103.76234 26.853176
36.567528 -29.39241 39.707989
-23.231594 -8.4217939 20.112091
38.984173 103.93021 19.846542
-12.021146 17.180733 9.5133896
-5.9459314 45.996704 19.980495
36.349316 -37.050137 41.703846
9.8700752 -28.577148 19.666142
-2.4884357 -42.361862 39.376389
31.873207 -47.85627 31.163403
-20.496349 0.12127742 16.929718
-15.791673 -29.774254 8.0614367
-27.41217 59.709297 43.495445
-33.267563 77.441879 13.205634
24.807003 -75.647293 8.18225
38.352322 -38.715385 29.13752
-5.0102739 -42.352509 39.042233
21.892031 32.664059 8.2634106
-32.428726 44.725891 21.250305
-33.218513 78.647057 19.858755
-25.115799 39.284584 61.188595
-5.3369894 25.901222 8.2626057
33.541817 29.489033 30.505825
-35.577698 15.218157 42.268181
8.6022339 54.056946 57.965866
-35.387901 7.8964729 26.122223
-16.494305 6.6851454 9.5065813
-12.0938 3.4180131 40.772572
-33.35004 -29.338192 46.038212
-6.3972359 -77.885605 8.2084274
-22.159304 -17.271168 19.499943
19.640505 4.4571695 8.2392435
-32.57296 76.945999 17.723579
33.743137 29.87833 35.400253
-32.625191 -5.2313242 22.249729
30.417854 109.4464 32.625511
-15.680224 -97.039207 34.701912
38.806503 94.845871 26.430611
-36.961868 47.597321 29.242704
-32.935471 -39.355511 8.0230627
34.409672 -81.729416 3.867898
29.564634 22.534206 58.970207
9.8415747 -37.665054 42.972923
34.895279 -45.284809 26.941887
20.310492 -53.782112 41.509445
37.47435 7.4776425 40.61916
-38.69577 60.301689 31.760365
36.45789 52.775471 6.3008881
19.027498 79.722336 11.614306
18.617584 -46.896576 7.9724979
-37.900116 103.82793 24.197897
-4.6329222 15.535727 8.2613707
7.9646397 50.425289 36.848244
-29.78433 79.474731 11.951637
-11.603355 -25.298096 21.099636
-36.145535 -8.2573462 8.808898
-35.753269 -85.108879 33.471539
-29.598923 -69.67894 26.611786
35.715206 42.938339 41.148643
19.542732 33.680576 62.154541
-30.665594 9.7044029 51.518509
0.042574883 -10.409743 8.1620216
1.5696251 -83.655304 37.873859
6.2541313 44.210373 18.502758
-3.8241386 63.288692 10.003784
-35.118248 42.789936 18.05957
29.027132 -83.811882 25.425966
7.5844688 -43.990891 9.2649794
30.546402 -22.79932 12.85825
34.159187 -10.459053 39.81163
33.316669 -44.549427 11.311183
-25.076303 28.405828 12.174143
-26.257343 -89.411659 35.806561
-21.455435 -72.843208 8.149457
0.61890161 16.490168 9.5133896
37.97578 -75.59581 1.6212759
-38.345165 51.919495 26.741547
-22.650537 10.269728 64.388046
-5.7626014 11.154255 70.814598
12.987713 -41.059093 43.436829
-40.013344 -32.357914 43.153042
-33.550316 16.671425 47.995239
-13.2586 -30.631752 52.485767
-17.951366 13.97173 9.5133896
39.722763 87.635376 20.986416
39.668365 90.542198 22.512127
-26.098 -75.061684 22.24505
36.681381 6.7463183 40.850281
13.519001 -114.25101 20.716854
23.467537 -25.454784 54.110352
27.665533 -55.298962 15.47793
3.1633644 -111.49491 29.586267
35.885262 -89.338081 20.883558
12.493786 -92.407104 8.5032101
35.128101 55.43008 47.861931
37.827454 90.717537 36.68071
22.719248 -51.173859 41.464558
-27.577583 47.767639 27.468765
-26.4006 56.021065 22.099638
-36.636803 -57.922794 32.374649
7.0908275 -53.218834 7.9396605
15.33744 113.14996 18.559692
16.69771 6.9318013 9.5077572
-9.0817242 3.4109476 40.722881
33.239712 -25.990351 8.081089
33.685661 44.3032 22.221382
-30.824385 -86.434784 15.198066
-37.23806 52.380119 37.285328
-15.186309 20.517488 61.147839
-26.555393 39.772232 18.691824
-10.39987 -78.768379 38.439865
-36.021225 -16.72296 39.216988
-32.358437 27.010262 14.736876
-3.9498425 -61.864098 29.808956
31.062454 40.147385 56.966171
37.464458 0.54505777 11.477424
37.644287 10.020262 39.738094
38.511799 58.408791 15.483629
-26.4006 50.186749 10.332667
-3.6686411 -42.145313 37.959236
-22.55533 -6.8784637 28.552807
31.00857 -78.182129 9.4592113
-36.764668 -10.584143 35.392555
38.511799 60.481079 10.992799
-11.439482 -59.8577 7.9975915
-24.369823 -19.136318 8.1166906
8.5891037 -15.974167 9.9466076
38.943962 37.864433 27.07638
11.007578 -13.690571 60.773781
-33.900665 106.67485 39.885235
10.99192 112.39585 15.678245
37.733124 96.803215 35.193871
-37.241241 -0.22692204 33.154171
-29.409607 -9.4228544 56.584602
-31.848736 109.09002 29.934395
28.678295 7.6911688 9.5113773
-33.000084 -58.503983 40.04599
12.522425 7.4540501 66.684113
-32.530575 -16.375927 39.068039
-29.525703 -78.026527 25.605051
-6.6947136 -33.203678 51.312737
-5.1675115 -111.87347 16.625366
7.1762538 -2.5957179 9.4623346
-28.018877 -65.263962 39.572449
17.640532 -11.388449 9.420414
-12.6252 14.771358 69.659897
-37.295616 -75.872116 23.77445
36.036293 67.437218 27.332674
0.24568313 1.6959801 9.4827948
27.899559 -85.409195 23.665442
-34.694695 41.972092 45.576935
35.607487 106.24344 39.27438
-9.4592905 -13.969407 19.686089
8.5891037 -6.2684426 13.415963
-37.277126 57.978699 26.64546
-35.036629 54.793976 44.989147
33.702309 42.285789 21.198729
20.266592 -65.083023 40.087868
27.3374 -72.78981 19.339464
27.06506 26.255629 19.237598
-36.802475 106.35847 17.953611
-28.956085 -73.301178 4.776001
39.090763 50.649788 29.521677
30.978838 52.874268 22.168499
9.1475353 -107.16879 30.492428
33.478699 -17.496822 34.654896
36.06065 -85.853058 18.122433
-38.307213 72.427559 8.2007256
-4.6798139 66.668274 42.05117
-7.3353395 -24.767847 10.417423
14.974388 -32.025684 51.704147
38.808422 47.303619 27.114368
0.97337914 35.661079 62.297947
-13.778852 61.218948 42.324188
-4.3353744 109.55132 39.949936
13.768531 2.6987207 9.4875755
6.8473482 90.667847 45.446186
37.926361 96.86747 33.301216
-16.567158 36.027306 8.2638111
-27.401114 -42.231377 33.639397
-31.764626 -38.850098 41.241959
34.91246 -93.971863 8.5999041
8.278657 -14.366722 8.141468
36.253708 43.622902 8.7732115
36.141769 -83.325607 27.357384
-5.2303629 -27.503994 9.3435812
2.831409 8.5354204 69.725433
38.756966 -33.210613 24.439579
27.102409 -41.487186 42.546318
38.739334 -6.8571591 15.963018
3.6926641 14.391683 70.430038
18.002079 58.860954 55.840889
7.3663869 36.750561 20.052334
33.905457 6.5746455 30.776327
-34.484337 -45.141541 30.100788
9.5510273 -44.630894 32.970482
-34.46854 110.97348 19.418112
-8.6365948 -68.773842 39.993763
-2.6050954 -82.958427 8.2677536
-32.175034 -9.6799583 13.809861
20.659248 2.2433376 62.580612
35.759296 -85.265999 8.4586296
-32.198895 36.083271 18.289455
-22.306063 34.110546 20.19878
35.790848 44.367844 46.254063
-37.351192 -83.295532 14.662431
-32.924492 14.289383 49.556484
-4.0588274 15.321125 61.75309
-21.484631 -28.203209 8.0695963
18.979908 -5.5280209 31.750538
-18.759588 -52.368324 7.9440756
37.572399 -71.885239 20.077599
4.317246 -94.749283 8.6979122
38.711742 -71.383141 2.9876337
-4.300683 109.0762 40.896446
2.2582779 110.42963 28.25709
16.886889 37.063126 8.2639341
30.059774 46.889 14.118513
-32.031265 64.501434 49.475971
14.131134 8.7922144 8.2605677
21.650949 -33.595089 9.3145418
8.1895456 -61.118309 16.600218
-37.158787 -18.189651 30.764437
19.884247 -6.7499161 23.964111
30.262505 0.057493865 23.285671
34.84737 29.544104 48.394127
-3.0769501 46.708511 21.722862
-4.0100145 64.066093 10.079466
-10.718363 -61.864101 31.345253
33.406311 -10.94829 13.705927
0.63229668 78.44001 44.290932
19.626087 103.38915 14.352049
15.648907 94.582291 13.27468
-13.917999 -9.9227934 61.58918
-36.504528 97.726936 34.744629
16.850088 2.0247827 30.972
-32.808651 -1.2648264 8.2095213
10.099507 27.145512 13.961239
-26.749289 0.09895885 16.679262
35.403454 -53.713757 9.7919493
33.716835 -42.182007 42.842167
-5.8109217 40.54438 8.264349
31.187365 -16.755384 53.920628
8.1541433 43.333561 60.273647
-4.7796745 27.910294 61.208992
-29.125046 59.463516 4.7874217
-37.37664 -19.583023 12.404509
17.547894 0.043203436 16.053631
-38.433258 71.532242 30.025047
38.90406 76.86618 13.618953
29.736229 -17.791893 20.295235
-25.788366 109.35448 39.213097
-32.525749 -59.338634 12.297195
-13.959342 45.108101 18.286491
-37.610947 35.057243 29.237774
25.598614 -10.3502 9.4253635
29.756424 114.05051 22.329067
-22.019979 -13.723257 9.4092817
-35.673664 7.7399755 19.48469
27.650002 47.609707 26.388664
-34.624229 -0.26056743 44.164268
24.507713 -28.874701 14.780699
-3.8169119 19.497513 61.710564
34.790718 38.921036 8.3190107
5.3551183 114.88219 23.810526
13.967821 -44.065575 42.952602
-6.0579138 -50.635239 41.722504
24.427361 30.175735 21.323927
37.867279 -43.826809 11.265992
-14.224989 -0.31478363 12.036573
-37.773312 56.954544 19.509491
-37.603622 -25.753878 17.390785
-10.019865 -105.06349 9.5553207
3.2229593 6.4987326 63.160633
-12.473524 97.676025 44.611568
31.194271 -34.157341 48.286743
30.42371 -15.511842 8.1355181
-5.3241634 -112.29316 14.246932
-16.446789 55.685715 57.157204
19.889011 78.052292 11.441035
-24.761528 8.8180628 62.638435
-33.602131 -1.8305511 40.27002
30.476919 -68.034401 24.087471
29.748129 36.157249 59.378071
12.125421 20.955231 63.276005
-24.020157 26.946728 9.5133896
-20.618706 -1.5066105 44.294643
36.279667 75.351059 25.934668
-0.67027473 41.933384 8.264514
36.884689 7.6059375 32.182232
-30.283413 31.754068 55.339993
-14.710564 -109.84607 11.421371
-12.606199 -14.997966 8.1381893
-14.44286 -57.61438 41.268021
27.861641 -58.468491 40.442001
38.407345 12.453606 35.108917
-34.617512 -46.965218 40.204079
-18.329268 -16.019064 19.250408
-14.975163 -43.275208 41.566864
-7.6968083 -53.691093 7.9372072
-13.718695 -33.084526 51.141487
-37.842796 30.381723 20.095642
38.414322 15.566487 35.222336
-2.183989 -10.351469 9.4253578
13.427787 -110.79601 21.176908
17.178482 -32.686523 39.398209
-29.213095 58.075256 5.1544256
30.5464 -22.555632 14.43208
8.5891027 -9.5041533 12.975376
-19.951283 -110.5752 14.591429
31.100729 -87.178452 35.547272
-34.690987 48.209938 33.682056
6.6579194 108.42 32.104759
-7.335331 -2.4229708 14.312514
19.59499 26.236238 19.063091
-17.647701 37.099846 19.745993
-20.316673 -109.85735 21.58316
-12.947029 28.8223 10.332309
-23.807016 -70.847626 39.04467
35.049133 -36.606491 8.0407066
28.6185 61.229069 28.375187
38.769775 -0.16864777 27.030758
-20.199394 54.219105 46.313568
-27.524935 8.3678532 8.2595558
-11.386104 63.588661 54.117756
-32.25526 25.435432 34.585579
8.2136898 -55.70488 41.656391
-16.092028 -10.357794 9.4253273
7.8491855 -35.799046 8.0301437
-27.893639 38.486626 58.967171
-21.787117 -55.681702 12.639123
8.1042919 48.991367 28.417778
18.593981 -56.301071 12.945254
-17.726151 -29.52713 52.568607
5.3507867 -37.299072 49.125046
30.364872 67.175339 5.953177
15.52836 -113.64099 12.659153
-35.363899 22.974964 41.062504
38.666622 -83.842224 13.618756
30.293505 55.067558 12.301764
-7.8853135 -14.740841 59.947845
37.572399 -75.279335 21.349974
-36.810417 45.644894 23.584682
39.450108 52.626068 18.238293
-15.344897 -14.693945 8.1397686
-28.556355 1.7901485 29.32148
22.164787 -48.413918 7.9646158
-33.458786 107.96384 34.476723
39.30983 80.183662 17.447042
8.5890999 -26.693584 19.200172
26.488125 49.776745 37.383854
-32.273575 -24.499367 29.935001
16.58079 46.034901 20.577171
-31.24507 65.911331 11.574183
-29.320738 52.321903 44.82333
33.662216 36.287506 15.990587
27.639999 58.737808 26.434494
1.2113862 28.36763 21.048628
37.479233 66.625153 27.494198
16.042221 -27.948196 8.0709219
0.58254021 -78.110016 8.2110529
-17.299957 0.82369608 22.52309
33.666702 -13.480646 16.827122
-11.37914 80.597832 11.711762
13.109858 13.342013 9.5133896
-37.598171 -44.646427 15.209355
26.643209 99.186539 44.09623
9.5856647 -28.304964 18.221621
-0.65737253 -81.090073 38.30032
-24.065231 -5.3824301 60.010086
6.0891109 12.028259 63.383919
20.472059 -13.410157 60.219009
-32.645786 16.819141 36.664684
-30.590645 -78.63942 28.393696
-37.406994 -22.125076 12.550367
33.730659 30.287458 17.048624
-17.205933 79.506813 11.590315
-18.42194 -4.0104804 40.303284
-6.4053302 63.329254 54.302258
33.415367 28.629452 12.961741
14.08546 -84.133667 37.493622
-34.566528 9.2647953 43.611938
31.796547 -63.795475 27.256292
-33.801056 47.611221 39.550045
27.705963 49.940048 58.332962
-8.2930889 0.21561456 8.2172117
-14.641138 36.85878 62.038551
30.67407 66.840836 6.6891656
36.184578 20.684525 8.2901917
33.2169 -33.542988 11.134033
-14.898197 -17.49864 58.859329
-6.0911994 53.618004 58.132393
-32.282333 -7.1930871 31.300215
-14.133293 8.9657259 61.210976
12.48383 48.70787 27.125099
8.6561947 -111.34843 20.799868
13.315359 111.82932 27.936764
-22.815136 0.68348372 21.536776
33.849648 18.637934 22.230711
-19.4426 -28.874701 14.671886
-27.109968 11.12095 60.725677
3.9889328 61.563126 41.903027
-36.443508 47.758263 30.408976
-29.698168 -72.783218 0.67146361
-37.675903 -28.327766 18.437017
-37.028938 -26.395262 31.678953
-19.739149 52.041653 43.735985
-23.739561 46.63443 23.454071
-37.517662 80.141769 30.368259
-32.238338 10.30069 48.050819
38.940269 -36.160175 21.841444
35.651939 -42.128681 39.398548
-24.294275 -61.432941 40.22403
-6.2199912 -76.53009 8.1925755
-33.91526 66.055237 29.802998
-7.8634791 8.6696348 61.506016
-33.715801 40.869072 12.892399
-7.0254431 12.730641 70.814598
-37.163982 -59.358379 29.264727
-34.023392 8.4186783 30.750542
31.937408 71.141495 45.567585
-36.633919 -61.901356 32.740021
-10.195484 105.47726 43.503559
33.596054 40.72628 14.665906
4.0419188 13.02218 65.128899
16.8699 -60.588726 15.064479
-4.0885077 -90.42067 36.62859
-0.5417285 26.411306 19.435322
-32.700012 -7.4890461 48.758537
33.818855 -60.630505 25.070305
-14.428122 -108.21436 21.612131
-14.33921 -33.599216 50.734154
22.782282 -4.8301001 60.18618
30.494972 112.01617 27.649506
31.003151 35.976482 8.2921743
-17.692966 54.359917 46.373455
-7.6408176 50.736584 38.735584
-25.085869 7.3185344 8.2541056
13.979629 45.355759 18.543478
-7.8659067 73.58577 42.253239
-27.194777 -89.68261 13.824023
-35.55254 -16.879223 40.416302
-32.639278 15.121678 19.341797
-2.5510421 -42.276146 38.864845
38.643032 55.684822 13.956844
-33.754646 43.926323 39.344093
-33.310211 33.403744 11.509445
-19.059263 0.84278893 22.657394
-10.86385 -45.761219 9.5541821
28.095041 -36.640572 36.503235
45.185444 -31.510048 44.75124
33.025955 -28.311089 48.999126
35.572105 8.359971 25.327312
38.908855 -22.509792 13.915401
35.327728 -21.636259 39.688744
-12.561136 34.078579 62.373505
-36.835323 -88.827469 23.467453
3.8529916 -60.840778 15.348769
-37.192024 62.047539 38.306885
-22.588667 100.07571 13.946707
29.520908 -5.873013 9.4467087
8.4130669 2.0396278 8.2266865
-36.215286 -90.547829 27.402267
-7.1001577 -31.696365 9.3235941
-0.53377545 -53.251362 41.840042
5.3159318 32.756966 60.824841
-32.243774 -42.779797 14.46936
-29.765282 -76.552505 8.1493435
10.833854 103.70831 14.391091
30.906712 -68.334229 8.3167763
24.764481 46.47979 23.021975
-36.916996 -3.6547365 10.789161
-29.687038 -72.828522 0.73659754
-30.913363 9.5555573 53.641182
22.195988 -28.168095 37.047089
-10.783201 -112.06554 25.339085
-3.5215917 -46.914555 7.9724073
-37.018028 19.671074 11.514466
-16.959085 15.992084 8.261425
13.674673 -0.15469725 13.832928
33.549816 4.457377 30.995968
-8.2259951 -0.8095082 33.161247
-10.132978 -3.6062407 9.4575157
-1.3233393 20.580278 9.5133896
6.4675789 47.288502 60.329735
8.460206 -18.658834 58.712074
-37.620209 -49.988239 17.526037
-7.3353367 -18.274137 10.256526
37.449455 -95.092972 9.146203
-11.271615 -44.200733 45.107513
-3.4078894 3.8208849 9.4929247
23.324392 14.342589 65.128899
7.521327 8.4642601 9.5133896
39.555405 91.301704 20.016689
-18.417526 -75.695786 8.1828165
-23.704597 -7.7798691 8.1756802
32.99448 57.886833 26.584085
-35.119827 -95.793983 31.102646
-25.542816 29.090057 8.2632885
-7.7641788 -62.089172 8.0236883
-37.257561 -22.821486 28.617966
-6.8700666 107.50317 14.922017
-27.760233 -46.289627 9.6806908
-11.488742 -2.0835643 9.4647751
37.866089 -55.087795 32.5681
18.799347 9.0577497 9.5133896
-7.0800152 14.782896 61.613945
-37.2724 59.640457 7.7272553
-26.62322 18.99836 61.919594
-36.990025 -35.869499 40.662498
30.393805 -62.545528 12.377361
5.4096575 55.82605 9.2772884
-27.088753 37.856319 59.101616
35.400414 10.321406 46.263073
-13.6778 -114.11368 14.728031
30.859192 62.397972 6.8463407
-18.786816 26.291409 8.2626514
20.881887 -16.563669 8.1300554
1.5686681 -69.618507 8.1117449
