# .PCD v0.7 - Point Cloud Data file format
VERSION 0.7
FIELDS x y z
SIZE 4 4 4
TYPE F F F
COUNT 1 1 1
WIDTH 1586
HEIGHT 1
VIEWPOINT 0 0 0 1 0 0 0
POINTS 1586
DATA ascii
-5.1175528 271.82935 16.24317
23.853233 288.3428 27.349443
-38.235901 282.12463 33.343983
-44.918919 326.69968 105.73669
-41.657104 61.642673 40.306423
-33.189915 296.40631 21.978374
-24.38871 347.04959 104.65917
16.342899 153.11996 34.482803
-9.1373806 334.7955 107.95756
-56.2887 52.744194 47.007343
0.34287596 165.33359 24.651339
74.620483 55.072441 24.206512
-15.120561 8.1684685 43.474434
-52.657101 319.96066 89.971115
58.342899 321.11566 57.936436
-23.107395 205.13934 21.341188
32.947498 224.04085 15.909512
44.715668 282.61572 21.882095
73.223579 197.67316 15.725466
-32.771324 357.01401 86.452644
-65.408585 336.65338 65.630165
55.368744 343.17969 48.260834
21.586023 238.12428 16.007862
-53.268925 353.77411 3.1784656
-33.782974 268.90359 99.084282
-72.235832 41.434364 63.495514
36.041977 273.56067 99.987366
69.374496 342.16254 46.330246
70.96122 314.0499 84.178741
-50.479786 101.16227 76.123199
40.217899 178.87897 84.960442
-38.067875 183.40576 88.479797
4.3996506 357.84467 89.819611
43.342899 43.7645 66.227783
84.06292 331.3649 2.3016233
-44.02272 204.26611 21.335091
41.436806 362.117 101.72961
-24.91021 317.85446 16.564487
16.342899 300.38644 36.064316
58.342899 354.24088 56.787491
-60.499783 60.921494 50.542885
41.525879 390.33612 62.820732
67.722992 372.64124 39.743263
69.342903 210.81122 65.620224
16.342899 214.2066 62.080025
-48.657101 248.83932 26.92556
70.974503 344.65405 27.417568
71.582664 39.173862 54.747177
-42.063484 30.027073 31.449907
16.342899 235.22716 27.381861
-63.349083 185.94508 15.6436
59.172333 134.45639 81.467239
24.70734 202.51524 107.42951
-13.121157 292.26056 21.94943
-18.688988 352.86066 69.617615
31.528862 361.20316 98.106384
69.774498 72.027695 24.295382
0.34287599 182.16684 66.903053
79.295868 325.85724 61.076591
69.774506 338.99838 35.033012
-28.303499 266.58594 88.135094
26.440147 352.53732 68.306931
7.4328804 55.207726 14.730793
69.374496 50.449905 26.459404
66.660568 326.23309 52.308758
58.342896 335.73315 20.739084
70.04438 67.264343 33.266994
73.120361 180.05836 15.602489
73.342896 244.07845 43.195702
-8.3593187 165.51321 84.98661
53.684685 166.17023 72.128387
72.43895 325.87155 61.8349
69.342903 217.67554 65.122025
-50.688702 45.406708 35.158661
-48.657097 272.21356 44.875637
-52.688705 332.20612 42.210617
-56.849964 94.061935 29.387712
16.342899 175.27376 61.549091
-35.349152 31.135702 65.292946
-8.8568726 357.04898 16.83812
30.238379 282.53052 21.8815
-72.283852 362.64362 50.844013
17.4319 308.2023 34.436729
-40.415211 92.037491 73.999496
-45.876484 174.98531 75.623123
-60.965523 311.11743 24.373375
-57.558151 314.38593 15.047999
-47.807701 81.338348 57.920597
66.684509 43.628132 58.370407
-17.213869 240.44202 21.587656
63.930275 31.28418 33.908211
-55.581696 261.49817 46.417191
69.342903 297.93689 56.754227
-45.337105 46.839146 55.950275
-66.681946 84.529556 19.845692
43.720291 265.43661 48.915024
56.590721 355.81012 81.572922
-12.174415 226.44942 21.489967
56.250591 209.14041 86.53746
71.290443 277.97687 95.145035
-38.282505 284.42102 28.275761
56.428646 22.830141 14.504832
-16.230597 224.81976 34.19125
85.50502 110.78804 15.118879
58.342899 369.25253 21.725246
20.072222 180.61852 91.480392
-48.657101 222.67181 50.972889
32.117683 229.60226 21.511976
70.537132 204.60474 86.79541
-47.477322 347.18005 8.7660084
-22.505997 158.83194 67.430885
-66.411095 182.50053 15.619547
24.850874 356.15366 16.831869
62.0229 371.86057 35.044907
-54.263432 224.4239 91.84346
-39.613083 62.562183 71.286148
91.679115 324.79703 61.191837
62.0229 339.59381 61.537712
-52.980694 347.66116 8.5049305
65.342903 174.8936 35.525826
60.853027 322.47357 39.748436
-50.091682 32.885475 45.93071
-66.785645 87.465393 14.297001
65.342903 263.39539 45.698067
-61.662136 367.67764 52.976944
-54.2887 65.819397 29.842318
60.553303 227.42966 21.496807
-54.206676 191.42337 86.548973
-37.742912 199.57248 100.74641
-64.316345 309.42737 37.175789
-18.618904 174.05276 21.124157
16.342899 338.92456 25.771774
76.078033 42.823483 16.335546
62.724068 368.10687 52.456589
23.620644 249.70938 47.440941
66.989677 310.41205 32.177788
-47.286274 97.672569 15.027316
73.342911 124.69856 65.16581
-52.688702 327.63141 39.510456
-45.598843 262.52237 86.146133
9.4502687 14.45204 20.9939
90.625618 369.9678 50.200352
-0.86263353 371.17224 102.00146
72.991974 302.9982 75.358635
73.342903 286.01065 64.054405
-45.7673 257.4472 71.819756
65.342903 183.08313 35.444687
16.342899 211.16345 29.336479
73.342896 272.64032 69.213333
-53.088699 352.38727 27.930954
-52.688702 73.356239 32.136909
45.992607 340.80328 105.30179
3.8062608 180.88623 92.078369
13.0908 241.16434 55.340446
63.103264 87.917694 51.104973
58.342896 64.71489 63.761303
-6.5158339 306.13089 16.482641
33.599823 330.04166 108.08093
89.632217 308.15112 60.740204
41.60302 261.28693 113.67552
8.4553213 350.26746 16.790775
-61.60738 78.619064 13.502973
41.408081 379.52151 16.995008
-12.710947 220.01492 21.445042
90.249947 374.00778 44.227253
80.292076 25.148438 49.13213
-65.945496 64.723106 56.563938
20.560188 249.20499 16.08522
83.343704 76.153358 4.5567985
-52.688702 327.99899 40.548218
-2.1485462 361.03928 98.077805
-1.3630834 397.10199 25.949097
-7.7009296 354.48096 76.185196
53.36084 282.38205 21.880463
-10.086764 389.79532 86.121155
58.342899 45.654106 43.480709
-41.657101 315.64728 29.970108
29.693073 362.40433 102.82941
69.342903 283.49719 61.005154
4.9936953 399.3028 39.716835
-6.0137992 184.28938 94.023987
-52.722618 310.05017 37.139137
86.873932 306.25891 70.296234
52.725185 351.03403 89.579262
-52.657101 317.92276 63.979561
-26.72673 172.06662 21.110289
23.627714 213.51335 77.94413
-19.808308 353.81613 16.81555
-43.158306 388.03558 17.054417
61.015263 327.61829 62.880283
-69.894417 344.91333 64.640182
-70.015381 328.91537 3.8236229
-54.288704 330.82971 37.755013
60.101311 267.83957 16.215332
-49.15033 377.07452 16.977888
-41.657101 55.639946 15.343712
64.878555 309.72522 33.285309
40.798222 262.63373 21.742588
-51.893051 248.21758 54.742676
65.371628 20.151447 48.189999
16.342899 265.36301 33.86702
64.253899 224.31021 40.632874
29.340939 248.37965 48.555103
30.185638 110.27151 15.115225
-7.4170556 8.4105673 33.598896
46.021954 67.599899 69.042496
-54.688705 62.360207 45.684464
28.923822 269.17529 21.788258
24.398325 332.39496 108.42139
0.34287596 154.80328 46.325401
72.738266 353.9928 55.122177
74.987885 146.03247 56.861195
-60.679794 68.862762 57.663956
-34.663055 234.81602 15.984766
-48.657101 281.78894 33.633717
0.34287602 173.53368 30.020138
35.143772 147.26747 54.029335
35.220432 290.16403 112.46295
36.664623 147.24579 53.991322
68.325035 382.64618 99.309036
-56.657101 287.34961 65.434708
-48.657101 150.07889 56.062603
-48.657101 228.74954 39.541504
19.369324 308.3548 22.061794
67.221519 357.78235 89.566986
-16.86673 167.92325 84.727631
-10.524438 50.637363 14.698898
29.909416 330.88998 16.655495
66.833946 345.64816 26.52425
-37.435459 141.71033 15.334764
-45.337101 72.203682 8.5327539
-56.657104 256.63339 59.082504
33.4902 171.23727 74.434143
58.964981 210.4505 76.778824
-52.564781 321.83643 55.215675
41.049755 180.93768 85.107315
12.954922 108.12329 15.100227
73.849808 34.33329 15.450777
69.774498 69.748566 36.089626
-74.044449 31.882208 47.321728
-27.651712 336.00772 106.24869
32.022606 289.27548 21.928589
65.342903 194.54372 70.533058
-12.449297 193.08516 15.693426
23.038174 178.94817 76.723289
52.784416 258.23877 21.711906
-14.041503 311.13467 22.081202
-64.396957 87.66256 51.414299
-48.657097 219.12709 44.036991
-5.940731 245.09805 47.841534
26.486366 10.382903 35.140984
2.5057278 170.23746 15.533918
-53.786728 52.805912 23.709244
10.794092 258.31781 54.772205
-43.86586 261.60364 110.17797
70.974503 59.016644 26.699677
45.905251 126.51704 15.228682
2.9652529 381.17691 76.669846
-6.3167686 355.27313 79.396179
-61.946476 311.65515 79.452995
-58.128437 314.2623 82.942558
0.34287599 335.3844 33.151741
-23.602407 304.98785 25.047943
41.280788 61.527283 14.774954
24.912579 65.557159 14.803049
86.105278 347.13867 65.577461
-44.564175 254.76178 21.687632
-69.374802 31.294897 29.155436
-54.688702 334.93808 19.814968
-26.657101 50.965881 64.717865
12.067459 255.37872 16.128323
-69.1604 20.719284 19.77499
-15.119119 339.69141 22.280575
3.9001799 370.02264 102.61851
69.374496 75.157639 31.922871
-72.531731 91.528969 24.957014
12.218361 242.56734 16.038879
75.005768 343.72156 65.572624
58.572838 341.46881 40.421032
-63.06369 39.422741 9.9080029
38.473774 359.74255 97.512505
-58.563305 289.81598 16.368755
-33.43465 190.49319 15.675331
0.3094582 90.779572 14.979142
-63.149555 51.157364 56.120872
-56.326897 353.89713 97.945206
42.441395 53.900478 62.173714
-61.619621 55.848923 16.394957
20.906445 369.49741 99.552917
-48.718906 315.14645 55.168976
-9.9311333 308.41528 111.34477
78.817825 190.42326 37.611416
-54.93457 335.81079 65.473083
-52.713387 29.599388 35.10199
-52.657097 339.9209 92.866089
71.170952 30.492853 30.117783
-54.688702 350.69189 44.526192
16.052946 359.21588 104.49968
-41.657101 45.602303 48.641636
35.120132 262.47903 21.741508
16.342899 171.91681 41.51376
-20.645607 342.7962 28.821886
86.535339 310.02301 35.879749
-62.974785 319.17859 10.195798
2.4782143 239.2338 115.54594
35.060146 373.72644 16.954552
58.342899 350.94815 50.165417
24.452539 343.9137 106.61687
-56.657101 238.07571 81.85701
-54.101608 39.339622 9.4778099
54.931076 92.778603 14.99316
-7.5140281 3.4555471 39.279381
69.342903 346.4104 87.218971
-0.19477701 17.743464 17.608273
-4.1055646 280.95239 21.870483
-67.852936 352.00821 64.739868
-24.083538 236.63194 45.404705
57.363419 297.0799 109.10687
-40.77544 226.72121 110.6384
-54.17569 331.93011 55.99749
10.068295 177.1684 89.511436
67.374496 332.81805 39.436081
79.075554 367.45856 33.457985
-54.686676 311.47473 16.519966
-41.657104 57.390823 37.571053
-27.290062 265.69211 85.84893
-35.029957 236.29959 21.558735
79.096451 368.59467 51.183029
-53.088699 340.9556 44.243587
-15.420713 204.57372 37.194145
85.584648 184.54257 31.160557
82.649689 308.65009 75.354591
45.546242 209.86281 33.906712
-19.121235 193.2767 85.987442
-39.992966 248.62175 47.473007
-61.452744 49.495239 33.396008
32.303585 192.08496 98.849533
-43.528427 88.303665 50.637016
-52.657104 313.80087 62.296074
-63.224091 76.514801 34.277466
4.6661773 273.53244 40.435337
-41.657101 60.508957 32.036266
55.34956 207.41959 15.793505
-73.545471 321.66837 68.300186
-52.657104 213.33005 81.566528
67.782394 242.85605 43.046669
-19.468445 278.08801 16.286863
57.067677 312.25873 22.089048
10.106102 371.09692 99.831879
59.354282 340.40082 104.10423
-44.645462 80.991394 58.1217
25.529934 250.30383 16.092888
16.342899 192.36377 28.539606
-75.477165 356.83563 64.212143
-18.597672 162.60429 21.044228
-42.173363 370.29544 99.501259
73.342903 239.71213 24.36529
15.530989 11.934922 47.979935
-52.048313 337.46707 26.83654
59.006844 41.526711 57.098267
74.61264 56.879112 63.662315
-52.832954 316.81119 31.024351
-64.994461 309.12164 31.028736
1.8594167 209.74252 64.18335
80.704956 373.03143 27.518606
65.342903 244.26759 28.101997
89.951996 71.664619 5.0678329
-30.666361 389.60895 27.013414
26.326019 22.130117 51.784782
90.202171 307.51947 55.385838
-48.657101 256.13898 53.639297
-56.899048 325.1145 4.9848042
16.342899 186.85939 30.492071
89.54425 347.22858 87.086464
-41.657101 72.073349 33.164948
53.417057 109.50897 15.109953
78.864166 336.12061 57.949989
0.69495153 262.28778 115.15025
62.0229 43.238533 14.452322
-26.488834 358.27878 91.5793
65.099785 22.920887 14.505434
-43.192822 164.9827 15.497241
-56.657101 278.85638 79.535591
31.863728 45.386913 14.662237
-4.8104072 152.39111 61.193016
-4.9567432 188.81636 15.663624
16.342899 168.65115 69.646591
11.617467 261.53876 115.40843
-67.279938 340.71301 7.0232806
-53.354813 57.762661 18.149572
67.786713 93.316757 30.1632
39.83979 259.55847 21.721119
35.096142 197.37625 76.582146
0.34287596 232.16853 41.362251
-2.5636203 341.85544 64.854378
70.974503 62.017307 39.892025
-52.657104 327.01172 87.15432
0.34287599 270.03458 38.515152
-23.352371 341.32898 73.230591
16.237177 309.93988 38.602734
-48.657097 259.52383 43.852985
-29.86627 369.07321 16.922066
-28.03191 250.44128 45.834091
73.342903 236.01895 32.172691
22.58551 189.96213 85.751068
73.342903 221.20457 31.870993
80.942902 59.157883 30.586678
-11.278776 219.62314 112.44344
-58.185467 158.21948 15.450031
-43.627693 147.69731 54.782574
-71.119141 352.85904 64.593529
8.447958 178.14746 90.319252
70.0159 38.099789 53.407276
41.571888 64.590378 14.796339
73.153656 232.59172 40.995274
62.452999 330.97708 44.45467
-8.3163967 229.91106 15.950522
-32.37149 299.60825 22.000729
65.342903 162.66441 48.012863
32.036064 385.6214 70.988022
-56.657097 232.32358 57.891479
-54.099648 312.63699 83.272552
65.342903 202.32089 27.710096
65.342903 151.93507 33.117928
3.5719242 298.30487 16.428005
49.8106 390.59702 59.541428
-64.061226 79.961464 44.654819
65.310699 21.836531 14.497868
-4.5084786 397.414 40.761181
-70.209961 364.45053 56.889519
66.253555 365.97629 38.976398
-73.910248 357.63367 79.132462
71.296326 385.9599 27.676994
-38.377075 215.2963 21.412098
-36.925781 172.13803 15.547187
68.836479 337.10373 8.3903322
55.497334 282.48624 21.881189
77.884056 334.62793 8.3194571
-59.89183 95.13636 15.009609
83.401459 279.81677 20.515059
-1.6492577 155.08243 15.428116
22.349884 320.80035 30.381285
-17.455418 200.00812 104.40939
-26.64403 254.1629 46.095234
90.188057 340.24591 81.309555
-16.987349 261.36237 16.170095
16.342899 163.65805 30.87727
87.633507 365.3132 11.696585
55.932411 178.27684 21.153645
-43.884041 268.11575 78.266754
0.34287599 191.2643 74.737709
-12.263495 317.42801 35.91116
70.974503 63.236984 31.139397
75.998344 338.28738 39.509903
76.546204 129.37711 15.248659
-48.657101 339.57379 36.563995
58.494083 390.00455 35.764435
-26.552544 119.66397 15.180845
-10.555668 229.68324 21.512543
86.090965 203.36497 15.765206
82.85965 78.113411 59.789909
-41.657101 90.014275 22.773146
0.34287599 197.23442 23.227301
91.962532 346.9552 70.806915
23.396441 311.83493 22.086092
-65.218735 201.88885 15.754908
88.682594 337.91071 59.791382
38.475929 270.54718 16.234198
42.606895 316.30356 22.11729
69.930328 244.3566 89.630722
-14.042732 305.23566 16.476391
65.342903 156.68108 62.725788
-56.620438 32.847954 19.009153
-43.557961 332.50323 22.230387
-53.088699 57.09584 38.988911
-48.657101 192.14178 36.568604
-70.529686 129.85002 15.251963
55.078297 10.413137 15.518625
0.34287599 313.43054 37.763145
46.231033 166.62373 15.508677
70.837914 63.015755 28.921852
27.743549 301.98291 16.453682
0.34287599 340.68707 28.532322
69.342903 322.2049 88.357681
-43.712219 376.51471 16.97398
71.374496 339.15259 20.083258
0.34287602 169.62898 22.910795
16.342899 276.39929 38.001488
-29.128841 297.74619 16.424105
74.429787 94.1455 32.830322
45.87059 349.22559 54.88324
-55.406826 250.66806 16.09547
-21.324501 391.04193 92.4478
-21.051229 189.33302 95.837166
74.433075 359.53659 60.739899
-71.693161 85.003372 66.565407
2.0547104 262.2944 16.176603
-71.587502 94.009529 27.229576
68.840614 298.83368 16.431721
-31.915119 259.61215 16.157877
63.386532 366.45535 31.822918
69.342903 328.25836 64.426453
86.006943 337.38489 57.927788
15.950908 179.55936 15.598967
73.056122 359.19135 5.6435394
-51.292225 367.97852 99.601517
-66.250641 369.92661 47.73262
23.705151 325.67807 22.182739
-67.545448 350.9668 64.918999
-17.322178 314.95871 22.107901
69.774498 339.85046 45.759228
50.408535 185.1545 21.201664
-42.160515 218.51411 15.870967
0.34287599 238.71939 52.887268
50.285515 357.50818 88.455704
58.342899 51.864895 54.437229
65.342903 293.82364 29.892441
-29.004072 271.62186 62.904816
35.112633 7.5527072 26.360586
48.913048 320.81311 22.148773
69.710571 128.14693 15.24007
75.694214 275.59906 30.605833
28.723347 344.97202 86.660408
-41.657101 66.102036 53.322281
41.881519 142.58487 42.369057
-31.602959 224.48215 112.10466
78.448296 149.87051 53.585236
70.185013 182.03366 64.511932
-58.928623 306.01923 76.775543
-48.657101 258.33353 39.824631
-27.493069 341.46436 23.423395
79.857033 107.40946 15.095291
-52.149147 41.66964 57.1838
77.341919 365.26056 23.183514
-29.037531 173.16104 75.116684
-41.532932 344.85767 59.341084
69.342903 319.48444 86.215431
-53.088699 342.63696 40.17374
-46.220421 372.32153 33.032284
-61.166275 354.01544 18.546906
16.342899 207.59195 23.884651
36.820168 347.48743 91.957207
58.342896 72.354141 39.42387
81.259796 48.504318 19.53289
-20.676186 351.56622 66.163895
74.619736 103.4968 15.067976
-30.626524 343.97278 16.74683
-59.855339 89.240204 49.501537
-53.071693 257.10669 46.592041
-54.2887 339.64316 36.907944
-45.036419 82.833237 57.054089
70.360252 359.96667 60.490612
-30.378653 389.88434 24.812784
61.917698 343.41171 72.384735
65.342903 200.51698 34.099949
3.5525167 398.92026 53.645149
-67.288116 367.29987 29.021437
73.181877 299.19644 93.542206
-41.657101 57.405518 26.343018
-56.657101 250.01352 63.532341
46.704308 47.861866 70.492363
19.761131 388.5607 101.53082
21.51577 194.21918 78.354919
-54.688702 68.653725 39.027954
-41.657104 331.80881 53.986568
65.342903 259.49509 42.374969
-56.397469 387.4328 27.687284
-41.657101 329.35193 34.794842
-31.604809 88.395943 14.962553
-64.100304 36.34922 31.765442
43.342899 29.163197 62.151615
73.404755 86.112595 40.761391
-45.767303 263.23196 78.807938
0.34287602 280.4343 25.782059
70.048393 185.51218 46.828568
-40.971687 211.29784 36.074272
-73.266296 338.17865 3.5992932
89.952003 338.01593 4.5402365
68.591286 61.128677 64.454521
72.443802 264.03674 91.034424
-21.054504 256.7739 114.03439
-53.088699 66.511368 45.576302
-38.059532 281.53778 16.310947
1.8018738 199.62856 72.678909
-70.872009 65.439308 58.760376
78.754608 88.296692 68.898514
-16.571272 145.18152 30.465305
84.699402 386.37195 33.843517
24.832182 392.35382 71.034988
-45.337101 314.12708 44.179924
53.459702 174.34119 75.444305
32.116943 348.85739 53.390732
-58.220219 83.918945 55.953133
-41.657101 44.436699 46.580578
-2.6160026 249.03362 46.451508
-58.889679 316.57791 53.687599
15.320827 8.3742428 38.802254
-51.193558 209.44144 38.721176
37.670029 162.53554 52.179607
22.223509 341.46432 23.423313
80.829681 33.074181 46.180069
29.573612 327.34189 22.194353
55.04673 217.44064 15.863464
-11.931024 25.077435 15.708575
16.342899 197.20129 27.473038
2.2391965 173.04506 85.898674
40.094349 230.97603 15.95793
21.764589 370.18762 101.87061
67.478668 205.18816 68.690094
63.440018 138.62965 15.313255
49.201817 149.54901 20.953081
50.513916 292.7117 16.388943
64.3992 32.488396 43.951752
79.484047 312.58069 20.86779
58.342899 64.405869 39.008514
70.303734 336.40689 26.702667
-26.657101 35.488705 54.35651
69.774498 70.165451 31.583275
-12.904672 146.28471 15.366695
-0.13878953 146.54428 24.218143
61.641563 197.55545 97.908905
65.889763 81.138077 71.096046
79.910416 43.303688 58.161736
-9.0075626 144.61298 33.071739
-53.088699 342.9248 32.504044
0.82136226 7.5221806 39.404816
-50.688698 337.19836 46.33017
58.342899 57.134899 31.244186
58.342896 316.66687 41.734215
69.342903 254.89349 56.785965
73.342903 200.96591 81.456039
-12.456937 315.42657 110.37209
88.342896 166.54529 29.272442
-26.512369 332.23294 35.664375
58.342903 332.87759 23.601051
16.342899 188.38356 68.970047
-41.657101 316.21124 20.381657
65.154549 328.59286 22.203089
-41.657097 51.735157 58.635498
66.736023 358.75247 51.191959
-53.088699 48.978256 32.784382
61.860321 136.29004 15.296921
-59.085403 386.37622 25.739855
-3.6577008 265.71503 114.78526
-49.542374 60.891136 0.79858208
7.2760592 122.49629 15.200572
77.946014 52.486458 20.780069
-75.38694 340.55298 69.953339
-74.905495 316.59167 54.444656
26.856092 34.333397 14.585058
-7.4339652 179.30005 76.82
-49.685032 43.96703 15.777217
59.671112 279.19067 16.294579
-47.105774 21.083441 47.375393
79.229355 387.16373 29.435225
9.0484896 32.485699 58.132015
58.342896 39.792564 29.490585
65.143417 235.14633 15.987083
-22.356007 199.40349 103.25356
-71.010872 386.04642 20.795588
71.453247 250.17229 90.045532
73.342903 306.47742 88.593521
58.492069 267.71021 110.42357
68.111534 270.53955 16.234196
65.342911 191.30476 33.082668
-46.929272 153.98692 63.010509
0.34287599 201.39368 70.954529
-18.731228 378.24429 83.235474
58.342899 64.256104 51.097569
26.405087 355.5809 80.643745
69.374496 56.025497 42.54879
-61.702766 385.65103 19.129143
76.58017 81.329155 16.991842
89.294632 316.78519 20.452705
-71.41378 165.30144 15.499464
-52.657097 331.91156 86.469116
-73.266296 320.13696 51.940147
73.168846 342.05673 96.863541
55.368538 390.48734 28.880753
-10.550623 357.78113 89.562042
70.430786 191.13144 44.562977
89.952003 332.28323 60.346794
68.465828 313.49484 55.15744
62.0229 356.72552 52.795979
-72.109581 115.7633 51.463039
-65.457115 59.575909 55.865913
-55.590134 355.18018 11.537526
32.837799 334.638 107.4319
8.5045996 293.38721 38.487175
-8.0496788 289.37582 40.885849
-48.657104 292.85254 52.393791
58.342899 68.679291 46.833492
69.014587 282.01843 98.888832
-3.9223895 354.35797 16.819332
58.342899 51.273956 47.159721
-35.809605 275.76233 111.20784
79.914902 320.77185 85.107483
-41.657101 36.765427 39.043205
87.418617 87.519287 26.865982
-26.489658 309.96793 22.073055
-63.237179 310.14096 26.620068
-72.440208 82.495117 56.392799
23.966961 255.00467 67.734558
16.342899 230.7005 42.478786
-54.067482 340.05341 32.650787
-52.036369 339.24481 57.763508
58.342899 57.971184 49.469543
16.342899 197.53242 24.63768
82.276924 342.76193 66.330276
27.996304 392.04791 62.832687
-56.977962 88.102661 70.201126
-66.879181 323.59445 60.472111
0.34287602 178.92224 40.138775
-50.885735 249.71533 45.971001
-70.211731 282.57211 19.874779
-4.2492599 348.39685 51.523937
-56.657101 287.91437 77.506691
23.74596 328.09744 16.635998
62.051853 289.08362 108.9304
62.0229 84.654785 50.477066
58.342896 330.10797 50.300583
0.47911143 3.7487168 39.374489
-3.4584184 308.8551 22.065287
80.680046 42.732735 37.444099
-48.657101 167.95288 37.353729
-52.657101 257.17432 64.189217
-27.489157 221.45825 33.947739
-73.739494 83.87661 56.004452
-52.657101 289.27179 63.518921
88.439499 286.87546 30.179352
73.93602 346.02014 57.841461
80.929008 350.62115 17.028957
-48.657097 270.90491 25.631161
71.939667 356.3454 12.456514
59.657715 144.33408 34.350254
80.906128 73.159187 56.108273
-48.908562 335.97025 28.239214
-29.319492 275.02313 77.748901
88.81134 41.446365 57.050182
1.4354614 105.30214 79.158455
11.721914 248.98189 16.083662
22.781109 297.26227 21.98435
79.055611 87.03878 52.170589
-52.657104 322.96082 65.884033
-52.407642 310.55646 100.8048
-41.657101 310.15591 28.805792
-53.088699 356.8851 36.130154
-46.409664 165.92542 15.503827
78.44474 353.79156 18.733566
-37.562874 232.68155 15.969864
81.360901 19.552902 19.504177
34.553749 194.18988 82.617462
-53.364639 388.42578 31.582701
0.34287599 263.51843 54.133739
-37.300003 127.99576 15.239017
-71.661758 81.107338 67.445404
-26.657101 21.924564 51.422665
-59.530518 118.00384 63.583828
80.550995 386.86487 21.299995
-41.657097 58.519413 61.957314
-41.657101 41.43013 16.659679
62.602798 371.69318 38.646278
-25.343349 325.64105 16.618849
39.439651 252.78644 21.67384
-11.672269 148.75697 15.383955
72.011681 62.087345 71.392738
16.328144 8.3780079 38.26302
-6.5681372 328.27615 22.200876
-28.282927 71.995819 68.340408
-64.945351 19.282162 22.040863
-56.657101 241.9137 22.239017
16.342899 334.62009 30.617466
-22.058527 240.3885 45.414963
-39.892311 327.31104 22.194139
-48.903675 268.82758 103.1487
50.274712 353.30014 71.39888
-8.6551075 240.02768 36.707054
58.342896 337.90973 57.781448
-31.302296 312.39529 109.00293
72.538551 42.581043 48.887329
69.374496 70.44046 43.049713
17.497862 381.12607 84.002716
84.394173 339.52399 65.230186
71.200729 73.114059 62.64967
-52.023491 320.3663 19.854216
68.924591 200.0468 15.742037
65.405121 319.71326 55.691341
-37.643532 350.73535 71.590042
69.774498 62.4841 29.096933
25.299509 269.60318 66.816437
73.342903 242.63318 84.642952
70.019684 384.25104 17.028015
20.419516 163.31053 21.049158
71.801521 227.31604 39.813774
-39.368675 266.80768 59.169735
71.374496 342.20355 21.620775
70.839684 373.83505 39.38665
-29.355904 80.153168 70.815147
20.53969 201.95996 107.19011
18.949701 212.48714 15.828865
-41.657101 326.30731 28.58699
82.961708 104.81238 15.077161
44.553726 270.77005 59.621613
60.4869 268.19504 79.73497
-56.657101 172.64221 52.144958
-41.657101 337.14719 41.905624
24.952888 170.75006 21.101097
-53.304852 351.0802 42.21788
16.342899 222.82458 51.668243
-20.060925 186.08316 21.208145
-2.3599486 397.07117 30.313381
-52.657101 330.86417 90.900764
12.793365 268.69958 44.055519
16.342899 173.02838 42.262733
-25.818354 276.03183 21.836128
-71.657097 131.04514 37.587883
64.503868 304.76025 16.473095
-53.471127 278.84125 48.816887
58.342899 76.501411 45.406788
-18.161068 249.99228 114.36906
-52.657101 269.13135 88.590195
-21.913565 342.17444 105.73914
44.772099 167.09508 15.511962
-5.5020285 325.96216 22.184721
-26.657101 66.319016 67.002007
71.177109 117.14884 15.163287
-5.6352611 217.87207 50.049675
76.380402 369.28381 16.685057
6.3985395 296.45639 113.46721
-15.725713 317.31467 22.124348
45.971359 348.64801 52.54203
88.511223 45.04306 12.064669
47.414303 144.85762 15.356728
68.046822 358.25626 91.487961
16.342899 219.05566 33.63187
70.974503 352.57596 29.586678
0.34287599 188.4252 65.327065
53.957981 225.75757 34.770496
-35.016586 327.77243 16.63373
73.342903 335.87555 94.763443
-45.750347 309.82178 16.508425
9.2686396 397.01208 102.4645
-57.530243 90.08905 69.72818
-57.597031 63.037018 1.1117378
-54.688702 73.823105 38.028259
-71.222122 319.86252 57.941628
58.342896 321.57474 33.001999
-29.569315 348.32901 52.410015
15.093123 291.18436 38.471794
74.108635 332.54843 63.891407
-39.845119 386.26584 70.992531
85.681618 309.54471 38.004658
40.310162 230.22096 15.952658
42.221363 194.6709 64.635727
-59.342808 172.50061 15.549737
79.76059 336.2948 20.369467
-45.337097 78.136139 54.273331
65.363419 58.596306 57.440636
-50.796158 363.57928 45.247723
-53.253189 281.16873 92.256355
64.542274 311.68982 23.002131
16.342899 283.92993 28.764057
-26.657103 24.189575 61.417694
69.274292 201.80414 15.754306
14.233076 130.57706 15.256989
-3.2904389 238.98825 48.150215
30.672096 341.91809 25.262646
-21.914871 386.27936 23.459875
37.46228 333.6806 16.674976
-4.447125 251.38521 48.01421
-31.096266 24.563309 14.516912
72.254578 256.60681 45.671349
-32.246681 54.135513 71.206047
61.007961 230.25966 37.429184
5.7203598 213.49544 62.900635
-37.509388 254.60135 16.122894
91.089638 317.56006 61.059364
-30.464462 201.18784 103.29323
-50.511616 86.541656 37.384167
0.34287599 311.30835 35.230392
-53.101551 66.351875 26.833744
-26.657101 41.420494 68.821869
0.34287596 258.50601 48.904465
23.916325 301.05084 26.82019
22.620018 353.71844 73.094421
16.342899 217.7995 42.80442
89.62336 73.150833 67.133919
-37.023418 209.43761 34.921806
59.913528 309.61652 38.914013
78.498459 41.666145 48.267181
16.342899 203.13809 26.927364
88.548439 383.70013 58.787868
70.974503 62.761131 33.544598
-10.52488 236.80481 114.74523
-13.680654 269.80554 21.79266
85.191116 328.45355 10.50116
-71.657097 165.51108 29.947859
43.923088 230.89664 45.854279
41.965553 184.1804 21.194862
0.34287599 255.0555 41.229473
-48.657101 178.56969 58.981602
-41.657101 335.63245 62.288357
48.363937 345.87863 85.290276
-53.768574 296.70889 97.75058
89.443787 298.89304 40.946617
-67.203201 64.52562 7.214262
-41.657104 60.890491 62.836525
69.247253 64.306595 57.830158
85.080063 319.02225 20.166126
-2.5469899 335.90427 50.440788
59.504684 321.54718 22.153898
-63.751503 333.16754 90.995636
58.342899 346.36896 60.985886
61.528996 388.49332 62.249432
70.364342 24.191343 50.626953
35.58593 194.27115 99.878014
63.485413 216.92001 43.299625
64.041275 219.09335 21.43861
74.610359 56.851189 51.999115
89.259979 25.196943 36.601517
58.342899 71.973297 34.738907
14.328596 319.87283 16.578579
-52.9604 183.60394 15.627256
35.005756 96.304657 15.017719
65.342903 213.6123 61.81348
62.452999 264.14859 75.576141
68.439743 227.90454 58.085075
68.355942 309.25854 55.127857
74.080719 363.51233 56.965637
70.974503 332.27222 31.974316
63.073494 199.8325 98.651237
-38.713017 250.11967 47.54459
-9.7613182 215.79254 112.01151
0.34287599 198.66638 49.471817
-31.032213 198.00468 15.727772
62.744457 372.74243 25.293816
89.59491 41.596439 10.577732
69.342911 226.53186 84.667892
30.530222 30.178095 14.556056
-24.578478 274.74902 16.263552
65.342903 302.66876 24.567333
62.022896 357.16406 53.033958
45.662586 182.33083 21.18195
57.50631 29.076464 14.548445
89.939178 305.45807 39.165543
-54.288704 61.803009 31.32522
-27.14662 195.77193 21.275789
50.02755 152.87801 61.801464
73.645157 36.753315 33.984993
-54.02634 338.59946 32.641384
17.865383 344.56854 16.750988
-0.83475399 359.61642 104.31393
71.812195 348.8891 57.177586
27.143301 346.56979 55.492134
-58.847248 321.71298 59.346077
54.859226 338.52057 22.272398
-30.730665 16.236126 38.958916
-26.657101 46.773445 66.810593
60.732338 154.66309 63.627403
-38.133659 270.47601 16.233721
67.963821 352.79688 10.563136
63.747055 84.911438 11.921145
0.34287599 168.37257 51.78801
-53.821972 45.131783 59.255787
73.254181 65.351517 0.4811092
90.315292 358.94659 81.248329
-9.072752 263.74887 21.750378
-56.657097 258.47089 55.49015
44.459297 190.45906 95.682373
-59.36311 146.42847 56.098396
-31.850565 361.86008 101.24636
65.342903 292.06781 51.446903
-57.698524 344.84729 58.022293
-37.327103 263.97055 21.751925
-53.088699 337.15982 39.380169
-25.81572 233.65025 34.310959
69.342903 211.21574 72.309616
-16.361042 226.62563 15.927586
-26.506439 370.92181 99.468361
69.807472 152.8902 15.412815
-52.657101 341.84164 84.720055
29.740173 314.99875 35.985207
-2.5469899 246.96025 55.052948
28.621853 143.85291 36.555973
65.342903 233.73438 51.274925
-29.675222 77.489258 14.886408
77.331757 364.28912 43.32658
43.342899 18.909281 47.135857
38.087906 204.4194 82.932335
79.925026 216.95467 22.795637
-45.565048 341.67499 76.631203
-45.337101 35.011162 46.163933
16.509529 386.4043 27.680079
16.342899 160.35182 58.031395
65.342903 150.51181 21.94096
39.281242 43.223763 14.647165
-10.027241 119.78422 80.883667
74.50148 25.012747 47.755543
58.342903 50.505581 43.310589
77.205612 310.08319 26.851269
-48.657101 303.48749 36.027779
65.342896 151.54082 35.535061
23.05727 348.46136 51.785343
39.670353 176.63295 76.080544
-4.558392 204.31839 108.90634
-21.793404 291.14395 112.1593
73.342903 182.46472 52.635994
-73.58432 74.240891 65.918518
69.342903 315.16193 65.092972
-41.657101 65.750214 62.353405
88.606049 35.013596 34.606205
21.668303 278.40866 114.10638
6.8981457 218.41136 15.870238
-71.657097 164.35138 35.569527
33.006645 96.500183 15.01908
56.517574 348.09671 50.307354
69.342903 217.24336 87.092567
-45.562065 308.77606 16.501125
-47.033951 219.68404 15.879143
41.415447 219.11617 60.229519
-52.518562 269.08749 47.355515
-21.817225 378.18332 75.764458
0.34287596 195.76422 53.74707
-71.710663 362.6163 58.954716
-54.688702 69.467285 20.935596
-1.4302516 289.35477 21.929142
-51.31041 337.29587 8.4145699
-52.657101 341.51813 58.055256
69.774498 347.23334 37.420956
48.735569 260.62241 16.164913
-12.635219 36.74881 14.601932
28.613228 335.19101 33.19408
8.1512728 235.92819 15.99253
-27.509562 343.37863 41.768742
72.466164 298.79977 71.729057
-38.708046 271.93628 72.840012
0.34287599 180.79446 67.059387
0.55899405 228.00156 58.054756
0.34287599 251.65472 36.937134
-54.394962 30.026791 26.430733
73.342903 256.85712 50.97562
-74.50103 356.1958 74.672256
56.408974 355.57791 80.631592
41.650211 267.4657 52.737614
69.342911 312.96014 86.221748
76.28653 291.57864 61.38422
78.383209 68.792267 57.757526
-54.411449 83.341309 46.403454
25.910219 346.83813 45.205811
-2.5417693 152.98486 61.935005
88.334137 380.26553 79.37616
65.342903 165.00291 63.841351
-72.685051 377.85419 28.733002
89.585144 86.926689 62.726074
-70.157829 165.59457 15.501512
-9.5153217 321.94202 16.593025
-4.6752625 293.46817 16.394238
19.342867 181.46571 15.61227
-55.105007 66.377846 39.025028
84.312614 361.68542 16.439392
58.342896 59.526852 42.45554
-27.62542 347.51059 16.771528
39.232296 220.29987 21.447033
58.342896 46.587322 28.43305
16.342899 151.61591 57.570839
-53.56876 325.4151 100.10173
-52.60173 326.22827 62.048401
69.99826 340.65137 34.788406
-62.601566 51.550484 56.249046
37.621918 182.33673 90.680099
-48.35873 373.74725 31.017527
-35.438564 253.99153 21.682253
-48.657101 207.62988 42.249928
-43.302864 317.67871 55.217224
78.440765 351.23627 64.19043
70.974503 53.667103 37.774864
-48.657101 163.47379 65.777
-51.94989 274.15848 54.882793
62.729485 343.67694 103.28429
35.944447 89.958824 14.97342
22.118958 168.8318 21.087704
-16.524618 263.05417 114.15292
-29.650997 173.66016 75.255249
70.109573 364.02826 21.313404
69.342903 315.57349 67.671783
-11.040189 262.35638 78.898544
25.214474 170.45782 21.099056
17.126781 199.29857 105.36098
29.248381 361.75943 16.871006
-54.2887 331.05707 26.276306
78.990112 344.61218 7.5539484
-56.657097 223.14389 49.049652
-48.969086 312.47296 47.562141
71.291397 58.641579 65.306313
-45.337101 84.449478 48.117695
-41.182869 12.32571 14.431503
64.383865 265.90576 21.765432
43.342899 56.514915 68.984993
-24.255119 390.46854 68.01088
-50.824486 168.57396 84.199684
20.310942 158.00839 15.448503
-52.657101 353.23364 97.347321
79.945511 352.89136 13.768682
79.775146 183.3331 15.625365
-41.657101 33.69363 22.869635
89.040833 89.494324 35.643303
69.442932 53.958488 56.623756
79.177498 70.383171 38.626312
74.752739 30.248833 52.081818
0.34287596 220.01276 30.631001
-23.186947 126.59975 15.229267
65.342903 295.28931 39.980865
65.342903 188.67256 43.145988
77.223465 312.04071 19.477905
-52.657101 223.1369 84.966858
30.437452 273.69846 16.256218
65.342903 158.84508 54.837635
-43.8106 233.49028 15.975525
30.335361 149.76772 57.914654
55.48925 341.93011 74.456116
-54.255352 331.08704 26.87711
88.853607 314.39276 31.453045
60.632805 174.37741 21.126423
70.974503 349.83395 42.134342
-14.907555 285.54797 16.338943
89.758675 87.484734 45.789078
-21.564655 393.02393 58.2873
-60.818188 383.44824 20.9501
-54.246399 68.161041 35.49165
51.803226 349.86169 97.155441
47.449554 175.35242 21.133228
37.6875 202.74043 94.290192
91.705101 348.1319 72.505936
-52.987648 367.16229 99.636826
-72.758606 80.427429 11.699202
72.177277 373.86215 35.74831
40.210007 391.42871 27.715145
-30.500643 343.0238 77.567329
-41.657101 371.27322 32.380127
40.074078 353.99747 87.425148
9.8613043 155.89365 15.43375
73.342903 239.97897 64.840965
-34.511139 243.1125 16.042686
69.342903 318.84763 73.721992
-57.111214 31.994671 52.314644
-41.657104 36.141068 38.180328
80.855133 312.65643 47.887554
-49.076466 216.62206 40.539997
67.686508 384.78021 26.295483
-9.0528355 176.1913 15.575484
56.195717 303.54413 16.464584
48.683613 306.13879 22.046324
66.166374 61.717102 64.166931
46.903652 81.082031 71.080063
-23.887714 350.77228 62.171677
39.15086 328.24527 45.928715
-60.95491 364.37616 21.002502
-71.023369 318.77908 54.302383
41.056881 299.5517 22.000334
25.262182 209.39008 21.370867
-43.864365 99.91127 15.042946
26.496819 342.38599 46.495132
55.378429 107.95919 15.099142
-26.558989 11.762974 26.093891
68.587883 276.44406 50.505352
-54.688702 341.68097 44.463135
0.22148132 138.98856 15.31575
70.956306 61.344341 25.44986
33.873058 259.95502 21.723888
22.184532 358.52866 16.84845
-30.692137 269.9137 100.379
33.33548 272.79086 95.816299
7.055377 398.89005 61.924583
-12.594414 210.69948 21.380007
-51.909157 199.56287 72.796593
58.342903 53.552208 49.744053
-47.03437 111.50285 78.185081
12.36013 251.15712 16.098848
28.798944 232.82722 15.970853
-52.657101 332.68192 66.024345
72.909737 151.2879 82.904236
69.824631 92.025078 45.323277
65.034653 341.43707 23.312769
26.84598 213.88171 21.402224
73.342903 230.79047 72.533615
-60.074638 118.02278 15.169394
-49.293461 345.45486 57.446854
-5.3670154 211.93245 21.388615
-34.073845 224.07408 46.864601
88.342896 120.17232 23.728075
53.689713 347.72516 94.689941
23.086123 269.55057 88.92395
52.494419 268.08862 16.217052
65.342903 193.47673 52.105415
58.342903 328.7818 28.395527
48.835148 352.09961 66.532669
-7.6023631 326.66083 30.181108
-3.273391 244.92352 21.618944
-27.599056 353.41727 16.812765
-54.023903 52.891949 33.435181
16.538509 187.12337 21.215408
-60.754925 349.70422 8.6826687
-1.6586772 118.67813 15.173944
36.636272 344.72327 36.633278
28.051294 158.03964 66.708038
-54.2887 60.498436 39.947823
-16.38759 143.42757 38.505947
67.778015 65.887833 64.054695
17.976353 293.13327 113.28905
15.313519 40.501381 14.628121
58.688511 61.945404 25.434359
89.414459 359.33325 60.857788
-73.179169 34.031059 27.258106
67.132248 202.91817 41.754326
-48.657104 166.03345 62.374382
-27.775433 12.899678 38.99049
-52.131294 331.47266 10.199944
58.342899 56.760284 26.454443
62.022896 359.56299 14.040171
-25.31637 159.41893 83.592567
73.342903 247.17009 67.262688
-48.684395 363.06274 56.722397
-20.932022 257.17596 16.140869
1.3589134 45.157761 62.649635
-23.488911 335.45233 35.519234
-48.213028 346.67862 44.559196
88.282166 186.27437 25.592953
73.342903 194.24985 71.031334
16.342899 166.72737 30.314508
-48.657097 152.94681 40.268616
50.819046 257.84518 16.145533
80.259789 363.63147 46.514313
-12.24874 177.19156 88.432678
0.34287596 184.92551 50.126434
24.66827 162.11819 69.641998
-46.343079 314.79056 22.106724
-42.241943 148.28853 55.818611
23.592422 39.278553 14.619584
-60.269936 310.98456 16.516544
87.822983 384.4743 63.62344
65.342896 278.55133 47.454659
63.533592 76.453949 70.69931
32.590687 25.326115 52.032288
-54.2887 338.6622 33.741997
-52.342701 361.15463 48.664005
-48.657101 171.59143 41.367546
65.342903 185.8862 75.566658
66.157791 25.621332 14.524278
-56.074013 167.70052 15.516224
32.427773 358.38217 103.34492
69.374496 328.61758 28.72879
57.011021 368.17496 16.915796
47.159794 195.84265 70.163864
-43.446053 181.4093 21.175516
86.356628 207.17862 16.434134
34.865425 254.92566 21.688776
69.324135 309.64835 35.294865
52.994762 192.6124 77.430038
69.342903 335.45789 94.260818
-52.594685 322.3244 40.722889
4.6453028 387.20331 101.66485
42.853691 224.81769 46.788269
33.839096 315.52515 26.09823
27.662792 171.18155 15.54047
-59.527962 77.454262 60.171982
8.1392279 173.43417 15.556229
16.342899 332.56192 23.967054
-54.288704 55.838234 31.326931
59.084114 10.939875 25.284327
-43.187168 286.86243 31.627729
69.342903 200.45395 83.247353
-52.657104 303.1134 57.014656
2.2365637 352.21616 16.80438
-60.464867 53.803562 2.1378868
-21.242382 230.81419 15.956827
-40.40015 258.2128 47.479847
-10.699701 396.88998 28.127216
72.765167 178.49069 50.35976
19.262844 379.42914 100.87805
-61.284313 287.80829 16.354734
4.9655695 362.15332 104.26614
34.969666 173.24655 15.554889
63.261703 19.466217 46.951271
-32.431686 239.73854 16.019131
15.826413 188.00597 15.657944
16.342899 195.70401 21.310457
69.342903 343.56024 65.514046
-54.288704 53.054482 43.49305
0.34287599 283.24857 34.077972
36.390472 120.38902 15.185863
-45.337097 355.90033 12.841978
49.367867 356.98944 86.353012
-53.088696 341.55881 22.80159
81.072784 36.484093 34.263325
-4.9647493 44.939529 62.02121
52.787682 163.81642 70.762848
53.903839 190.13924 77.533401
33.44593 317.02301 22.122313
20.129185 376.18445 100.6188
16.342899 291.9704 33.40126
-51.334068 267.39993 16.212278
-26.155781 189.53369 85.720459
-3.9137602 278.79996 16.291834
-41.284321 269.95453 73.373802
65.332886 239.62924 101.45547
58.839783 118.30284 15.171345
42.160522 331.80942 52.237137
82.077423 347.26392 7.7210345
16.342899 205.27159 46.745453
-65.387001 373.84775 37.262074
-34.752132 237.52339 16.003666
-45.573868 335.06769 22.248293
76.428154 373.79688 33.059925
-7.372066 204.28673 21.335236
28.357359 6.3554192 39.24197
56.365528 289.763 21.931993
-48.657097 180.68567 42.820263
24.7071 8.4395857 29.442081
16.342899 216.62512 38.550304
36.734077 264.88211 21.758286
-48.657101 173.13533 68.275833
79.613426 334.23163 57.504425
30.803493 209.18222 34.286266
17.410192 281.67245 21.875507
41.385902 152.31963 15.408797
62.453003 259.86829 70.551628
16.342899 203.0144 62.252132
-38.407333 223.11499 15.903079
58.200516 85.515076 72.344429
-67.27224 309.57324 37.258125
-24.740282 183.45795 21.189819
-63.037148 226.73619 15.928383
61.194405 386.09705 99.724457
71.628983 181.62672 65.601173
90.12632 369.05762 73.059265
-1.8715422 130.08467 82.461212
-1.7746468 176.12204 15.575001
74.863602 321.48273 36.380428
28.990082 245.8486 114.77735
-66.219551 317.40637 24.399668
-34.6427 386.87552 89.642242
-56.657097 216.1505 63.820908
91.332336 314.08255 50.803211
71.374489 73.533478 26.17071
56.189484 168.56827 15.522276
69.774498 345.58496 29.607843
-41.698689 200.61211 100.81005
-61.477325 338.81918 38.981197
16.342899 200.04276 43.808556
-30.249836 268.69769 93.53624
-5.1836185 299.74088 16.43803
16.342899 153.87375 34.58366
80.717911 44.470104 44.460346
70.974503 63.743607 30.315536
43.801468 133.02675 81.333481
39.656731 256.23425 64.015228
-71.973839 322.72272 59.950382
16.342899 189.84354 33.453922
80.555534 310.74454 42.329163
-38.289558 145.44838 15.360864
-20.847538 47.042496 14.673836
39.74342 175.9664 75.8955
-47.746635 151.13284 59.620598
-3.3949852 361.9115 98.229919
65.342903 202.41136 57.829185
62.022896 47.600895 55.184578
-67.496498 30.876009 23.73328
66.617393 268.58621 48.655048
-67.190071 386.07697 92.511253
82.410973 20.847811 18.067741
-35.417942 188.53494 21.225264
16.342899 318.52649 32.025757
67.550613 338.23492 26.329826
-52.657101 357.27933 91.622383
-45.452374 298.68454 41.606102
80.445435 307.92929 16.495216
53.942871 342.19781 26.396528
-48.44944 25.115952 45.047268
-37.118244 265.57803 54.90432
-64.354591 196.77423 15.719202
72.134094 364.49359 56.455093
69.774498 58.666489 37.641888
56.623405 364.29102 98.644913
5.643631 95.162727 15.009742
78.774254 199.90112 15.741035
17.725449 320.78625 36.534668
19.016109 68.078918 14.820656
78.423264 72.817253 24.468348
49.646061 96.806915 15.02127
68.124474 35.405495 50.383827
-19.72789 222.52292 21.462553
18.169683 226.09245 39.534981
80.447517 334.75177 14.403631
47.607746 273.02426 69.510223
-52.538502 204.66356 93.053093
-64.811234 74.902496 62.333111
-33.012386 357.6076 88.858665
-69.776093 38.156647 53.478203
21.1691 152.62315 61.482971
6.4244232 266.64264 115.27975
-33.833176 260.70755 16.165524
-43.52253 230.96394 21.521484
69.774498 336.43005 37.634621
-34.369835 362.82095 16.878416
-56.657104 246.26433 25.840786
73.342903 189.96828 71.545593
-56.657097 277.82895 83.161865
-57.046558 28.425728 54.374821
-7.4590378 194.22307 77.787735
-48.657101 246.22899 35.141506
-61.498623 83.812897 56.081711
47.353512 287.57681 39.90974
-53.65892 253.61942 45.761307
-56.657104 334.08578 94.631363
-46.484512 385.69482 25.605492
58.342899 77.991348 42.908749
-54.2887 60.670536 39.23381
-20.424915 39.060165 14.618099
-61.759308 332.11121 64.783363
18.87398 64.096062 14.792848
79.907059 66.778938 7.7456441
5.7042041 285.97128 114.2314
48.730587 343.8125 104.51187
4.2738972 356.57556 84.675415
86.292961 36.766697 51.779083
70.642532 194.8726 85.463699
0.34287599 229.52606 41.203812
69.342903 233.51642 77.11499
-54.288696 333.36505 22.772499
89.179588 306.27136 27.717434
-22.487192 248.39806 47.431667
-2.5469899 252.30801 63.372894
-43.217205 242.89703 16.041197
70.974503 342.8075 27.245972
79.367523 41.673149 17.518883
77.465706 168.11029 47.921013
21.598293 339.98383 78.019928
-41.657101 366.79135 33.947708
57.763596 270.11588 92.445168
72.160866 213.07202 89.194077
-48.657097 262.76404 52.609371
-69.630493 380.61716 78.235016
62.469875 369.89496 50.288731
-56.657104 269.28677 39.436634
-16.959944 342.97748 106.03397
64.475052 342.74399 25.548498
-61.93792 55.438103 37.557163
-41.657101 317.82721 47.773849
-50.115372 87.091942 52.106133
55.681957 170.98682 15.539158
-19.205366 370.26147 100.55593
89.717781 57.675022 60.963455
-73.223175 357.27203 84.331032
69.774498 54.335743 23.479744
74.535873 30.598354 51.37249
-41.657101 85.66613 21.483994
65.342903 275.39841 28.734535
86.240814 50.02507 10.582506
32.732613 245.13419 21.620417
50.421661 85.6129 14.943122
13.622494 261.01703 54.791061
58.342896 355.17703 37.54216
19.413227 262.95227 86.218758
16.342899 266.45941 23.740419
-40.291134 146.77728 15.37015
-21.960033 144.38101 48.363472
-36.8866 311.40195 26.250336
72.285469 287.4631 58.955391
81.41951 370.24078 17.059618
73.342896 230.10844 56.231377
-56.657104 186.8119 75.468559
-48.657101 188.19513 57.630421
-33.67664 391.1647 31.622795
90.897079 362.01138 73.290016
-17.443424 305.44946 22.04151
80.043915 70.386978 71.440201
74.107697 34.546547 48.974632
5.2033162 170.14822 15.533295
24.640364 370.95172 99.806549
60.478607 371.18042 21.399849
-36.973118 326.00125 45.178368
51.172512 220.08325 64.159309
72.490891 388.1741 19.076591
-7.3706074 257.7236 114.84839
-52.657101 351.95285 82.851608
-22.52005 230.38406 33.977306
-48.318108 193.26083 79.983574
43.466652 148.58589 15.382739
74.332375 334.47702 31.144905
-62.712543 78.561501 13.377381
79.798416 343.93851 7.4176149
75.731537 38.258926 24.160868
67.374496 324.86676 43.512165
29.499226 335.37231 61.833736
-3.4898367 346.8291 45.169136
40.386681 298.04388 16.426167
-24.295746 249.5612 16.087708
-71.989052 383.71213 50.206196
-36.111366 151.01645 59.475132
35.675064 351.76495 67.310867
70.132263 334.80518 31.88541
-3.7319846 38.161308 14.611784
-42.117863 282.55133 21.881645
69.970711 63.21175 28.742573
-54.2887 339.01395 24.745415
29.794754 349.91718 105.17402
-41.657101 78.952072 16.186068
-56.657097 277.45825 87.352646
16.342899 210.21461 62.409126
-31.37735 108.04126 15.099704
-65.729477 360.57916 15.179994
85.54425 62.727516 6.8799624
-72.300522 110.38732 50.487804
-27.434708 205.59262 35.546883
73.342903 264.58545 63.759594
82.632393 21.353247 17.943041
27.547426 262.45346 16.177713
14.935282 187.35394 96.702087
-64.599968 74.312439 2.7171111
12.740343 82.673874 14.92255
72.453773 29.303673 33.955685
-46.949139 68.408272 63.841393
62.670998 339.9075 2.2941697
22.923302 261.82281 53.636765
62.861839 168.20187 15.519712
36.477036 304.50333 22.034904
69.774498 349.97897 31.980293
-46.479267 315.99097 16.430578
55.862282 48.429111 14.683546
68.455872 52.389416 36.718918
3.4288089 272.19168 41.221886
66.978676 242.37009 99.1521
77.848572 309.54938 37.882847
-50.698555 241.76102 98.492767
-52.774193 272.63187 97.543098
-41.6703 159.51485 83.520782
79.098778 355.08209 17.657448
67.510925 32.62907 45.154449
71.374496 58.626747 47.880608
-53.088699 72.036629 42.22393
-59.540493 350.42294 10.276661
70.518425 179.58295 15.599171
-17.916328 344.67554 36.439728
-48.657097 213.68723 25.117996
-48.637596 387.99512 62.001831
20.374535 358.2959 91.648621
90.083832 307.14664 39.008446
-36.49881 133.3255 15.276224
18.730059 146.04382 26.512337
-34.154839 323.28079 16.602371
-11.354548 314.38797 22.103916
-0.61110854 243.12207 21.606365
86.056107 357.53339 61.901096
86.275894 126.56175 55.820705
58.342899 48.014526 50.452084
75.582481 371.33304 46.620953
40.001038 181.03349 58.821884
-9.4623585 220.47845 21.44828
87.628525 373.41571 31.146145
-53.088699 347.28934 36.386669
-36.853973 335.72516 105.41961
-73.266296 368.6575 22.186615
-45.309448 338.24231 73.272987
88.77121 354.03922 8.5509167
16.342899 267.83057 29.242563
13.986375 314.22821 38.632668
62.022896 70.769058 56.306137
-42.931843 24.154617 14.514051
-22.227779 379.06573 77.79493
-0.87847096 143.24707 45.371895
65.722374 229.00874 42.811031
-51.77779 93.050674 40.588638
-48.657104 175.01512 25.637754
-62.523453 110.32462 15.115648
-14.2811 387.59821 27.688416
-73.582718 96.707924 49.049057
6.0845232 154.14804 15.421575
45.11644 391.44186 96.480713
52.740768 360.58783 97.999062
18.186253 60.43129 67.747635
-41.867767 381.99701 100.14652
70.974503 67.331657 34.856461
0.34287596 195.74799 62.062908
-56.657097 228.68893 83.791336
0.69797885 264.94177 49.824028
52.496704 285.30743 110.71834
