# .PCD v0.7 - Point Cloud Data file format
VERSION 0.7
FIELDS x y z
SIZE 4 4 4
TYPE F F F
COUNT 1 1 1
WIDTH 1465
HEIGHT 1
VIEWPOINT 0 0 0 1 0 0 0
POINTS 1465
DATA ascii
0.04202728 -0.31329167 0.35934791
-2.0424922 -2.7517741 0.36517724
1.0734918 -2.7188802 0.36089358
-2.6792543 -2.6651497 0.36795908
1.1286854 -2.3327661 0.36275488
-2.3097298 -2.2334704 0.36136079
-2.2808211 -2.2357817 0.36064327
2.2996168 -2.0853705 0.36347276
2.3436136 -1.4381771 0.36656159
2.3146143 -1.0873009 0.36907464
0.82990956 -0.85894662 0.36950558
-3.0044606 -0.67482376 0.36402714
2.2391801 -0.64874822 0.36684045
1.7089053 -0.29073089 0.36655515
-2.0211251 -2.4633253 0.37798932
2.2846127 -2.3243117 0.37066907
-2.6874952 -0.98535961 0.37062472
2.2944162 -0.83520281 0.37501121
-2.7761371 -0.49810445 0.3776606
0.022621356 -2.8855305 0.38457716
-1.9515306 -2.8400681 0.38727102
2.3334026 -2.2197394 0.38056183
2.3519876 -2.1239078 0.38154507
-2.9214711 -0.67911178 0.38175672
1.4494244 -0.6264661 0.3835417
-2.6145637 -0.47376788 0.38485104
-1.0048876 -0.32105821 0.38185546
0.5470885 -2.8892505 0.3997592
-0.79082656 -2.8796446 0.39702266
0.91138256 -2.3354428 0.3978107
-3.701776 -1.7740844 0.39120388
2.3680005 -1.1035556 0.3913343
2.3450835 -0.97340512 0.39253891
1.4409087 -0.85706639 0.3941251
-2.3234639 -0.54141408 0.39678678
-2.4493945 -0.49663177 0.39763165
1.707623 -0.41261721 0.39682212
0.6615026 -2.8957565 0.40696913
-2.5803118 -2.7256281 0.40007952
0.99067014 -2.7188799 0.40216798
-3.0460839 -2.358305 0.40648246
-2.8474526 -0.99547029 0.40954584
-3.3320332 -0.53586507 0.40080789
-0.38604975 -0.3044261 0.40669918
0.44742107 -0.29800397 0.40857458
-0.21311314 -2.8929584 0.41838661
1.8355637 -2.8824537 0.41669559
-2.4258978 -2.6742692 0.41436422
-2.8083842 -2.6614234 0.41378331
-2.9678388 -1.0047408 0.4171561
1.278324 -0.472325 0.41513112
-1.6780398 -0.34042922 0.41600412
1.5197921 -2.5275598 0.42828184
2.3764591 -2.3816454 0.42661008
0.99735963 -2.337322 0.42241842
-3.6099827 -2.2391794 0.42690098
-2.3022509 -2.2387512 0.42230284
-1.1585447 -0.31607667 0.427627
-0.072887659 -0.29584324 0.42829922
2.1191733 -2.7801471 0.43241104
0.94236779 -2.7188799 0.43954572
1.4889541 -2.52756 0.43740216
-3.7535398 -1.5954814 0.43859968
-2.2771895 -0.58207989 0.43450704
0.92751664 -0.47364438 0.43787587
0.65927845 -2.8650665 0.44614238
-2.6152413 -2.746546 0.44706729
-3.03543 -2.6943808 0.44643173
2.2807839 -2.4169464 0.44680494
-3.6457694 -1.9501152 0.44210601
2.4353855 -1.6451548 0.44944641
-3.6931114 -1.476335 0.4451282
1.4121072 -0.85296261 0.44786087
-2.0296984 -0.42018259 0.4447329
-1.4460993 -0.33043313 0.44586098
-0.42547593 -0.30480599 0.4475868
0.61141944 -0.29019997 0.44944707
0.42012611 -2.8890517 0.45966041
-3.0358632 -2.7368941 0.45057052
0.65804029 -2.54526 0.45742565
-1.9803236 -2.5313966 0.457845
-1.907493 -2.487983 0.45784503
-1.4919193 -2.4816484 0.45784503
-1.9326786 -2.4633005 0.45784503
-1.5729122 -2.4433494 0.457845
-0.80925101 -2.4416258 0.45780841
-1.0907696 -2.436419 0.45784503
-1.6800561 -2.4236274 0.45784503
-1.0588071 -2.4115183 0.45784497
-1.6713825 -2.3357809 0.45784497
-1.9511693 -2.3213031 0.45784497
-3.5834537 -2.2111084 0.45627332
-0.54114616 -2.1784537 0.458123
-3.5985527 -2.1637406 0.45796639
-1.7782661 -2.1508827 0.45784503
-1.9100232 -2.0943725 0.457845
-1.2598014 -2.0333445 0.457845
-0.80798066 -1.9471698 0.45776963
-0.6153928 -1.911225 0.4578959
-1.2968074 -1.8804692 0.457845
-0.55696183 -1.7537031 0.45814717
-0.66664684 -1.3625275 0.45826069
-0.60722446 -1.3323498 0.45817566
-0.50292969 -1.2694795 0.45814949
-0.7249468 -1.250752 0.4579829
-1.5378814 -1.2446082 0.457845
-0.462632 -1.1810039 0.45817915
-0.34726161 -1.1742295 0.4582431
-1.3839611 -1.1694487 0.45784497
-1.3876231 -1.1599169 0.45784497
-1.1503295 -1.1567044 0.45784497
-0.35181373 -1.0703111 0.45830402
-0.45688355 -1.0380607 0.45830399
-0.83827019 -1.0119522 0.45825213
-0.46593422 -1.0056609 0.45830399
-0.85948873 -0.9519487 0.45830399
-0.57318664 -0.91407812 0.45830399
-0.65504819 -0.88097811 0.45829791
-1.1451734 -0.74641347 0.45784503
-0.67551059 -0.70136189 0.45805845
-1.9714588 -0.69076049 0.457845
-0.92662525 -0.67002559 0.45789135
-0.45413154 -0.67468756 0.45817232
-0.5439353 -0.6218667 0.45813271
-1.876305 -0.61235517 0.45784503
-0.59335291 -0.55514723 0.45826739
-0.59642184 -2.8778427 0.46614754
-2.4928892 -2.7236333 0.46990877
-2.80387 -2.6651499 0.46165526
-1.0857401 -2.57481 0.46871001
-1.9651254 -2.4485989 0.46871001
-1.9995165 -2.391289 0.46350333
-1.1935655 -2.3388622 0.46871001
-1.1955014 -2.2740953 0.46871001
-1.8859839 -2.2319078 0.46871001
-1.7967112 -2.2008946 0.46871001
-1.6004598 -2.1655316 0.46871001
-1.3594077 -2.1475282 0.46871001
-1.2381393 -2.0649261 0.46871001
-1.5647672 -1.9998014 0.46871001
-1.6346049 -1.9235467 0.46204698
-0.79346192 -1.8348109 0.46245188
-0.77143061 -1.3610036 0.4608655
-1.0447737 -1.2537948 0.46871001
-1.9932464 -1.1962007 0.46591783
-1.1400944 -1.1584972 0.46870998
-1.4004954 -1.0318303 0.46871001
-1.950846 -1.0260696 0.46871001
-1.4216797 -0.90565324 0.46871001
-1.9943089 -0.87869632 0.46204698
-1.5164248 -0.77354872 0.46871001
-1.7821281 -0.74272621 0.46871001
-1.3987119 -0.7413919 0.46871001
-1.3313823 -0.72078109 0.46871001
-1.7312379 -0.70442116 0.46871001
-1.8358015 -0.65083742 0.46871001
-1.5319834 -0.60067242 0.46871001
2.2185001 -2.7590904 0.47203618
-2.087049 -2.7383416 0.4731828
1.2809813 -2.7188799 0.47704795
-0.64173841 -2.6283529 0.47143966
2.2940555 -2.4910676 0.47049901
-3.0568633 -2.3783729 0.47721815
2.4494748 -1.5922554 0.4789882
-1.6148684 -1.2850947 0.47806591
1.7134653 -0.68229604 0.47439
-3.252383 -0.4686774 0.47149077
-1.2806209 -0.33042055 0.47169816
-0.91662812 -0.32211772 0.47216618
-0.027538052 -2.8749704 0.48515677
-0.98798478 -2.8646548 0.48471034
-3.0648408 -2.5096056 0.4888697
1.4498386 -2.3423519 0.48828709
-3.6973572 -1.8199962 0.48550692
2.4470832 -1.3798503 0.48147869
-1.468587 -1.3159521 0.48352861
2.4090745 -0.83560765 0.48189372
1.3064239 -0.43301949 0.48537248
-2.952908 -0.39028001 0.48357973
-1.6258862 -0.34397835 0.48058516
-2.7062805 -2.7481537 0.4941152
0.70409936 -2.6450195 0.4942033
-3.4549885 -2.5706615 0.49617735
0.84891003 -2.52756 0.49434048
-2.8555593 -2.51209 0.49738911
-3.5990167 -2.3276258 0.49038586
2.3124137 -2.3219907 0.49472448
-0.93873799 -2.2828984 0.49145466
-2.5990884 -2.2200894 0.49584991
2.4143519 -2.2197192 0.49498457
2.4027493 -0.91095513 0.49291092
-2.0150201 -0.64320856 0.49503446
0.66216832 -0.53626394 0.49201465
-2.7798867 -0.45290056 0.49877837
1.4191014 -0.37205067 0.49702263
-2.7029059 -2.6786904 0.50903392
-2.0062459 -2.4301281 0.50868833
0.45322078 -2.379648 0.50785035
0.7399084 -2.3691854 0.50804561
0.64831495 -2.3208189 0.50800228
0.31654739 -2.256557 0.50784981
0.31415358 -2.2257006 0.50786531
0.51210338 -2.1851559 0.50798768
0.71064305 -2.1850896 0.50808847
0.78601682 -2.1728508 0.50813335
0.58703375 -2.1258974 0.50805771
0.37476173 -2.0679905 0.50798124
2.4448876 -1.9766871 0.50893223
0.77434689 -1.8400916 0.50817102
0.62313664 -1.763021 0.50817102
0.89151776 -1.7681752 0.50817102
0.27573809 -1.7431272 0.50810647
0.62465239 -1.7281973 0.50817102
-3.7254586 -1.7100182 0.50609893
0.44386891 -1.6873164 0.50817102
-0.232297 -1.6548631 0.50946093
0.64776808 -1.6492834 0.50817102
0.80971122 -1.6164074 0.50817102
0.34417242 -1.594193 0.50817102
0.91721684 -1.5872116 0.50817102
0.9382779 -1.5769901 0.50817102
0.75100392 -1.5670084 0.50817102
0.86077464 -1.4787821 0.50817102
0.86561191 -1.3711432 0.50812429
-0.41771954 -1.3429072 0.505023
0.46215469 -1.3393052 0.50805223
0.50829959 -1.3035349 0.50803924
0.82359475 -1.1868514 0.50809836
0.28222638 -1.1464981 0.50792366
0.30242929 -1.0830098 0.50789213
0.395087 -0.98898399 0.50785899
-2.5996032 -0.96824074 0.50017303
0.85309577 -0.9133321 0.50812256
0.40329653 -0.78878456 0.50784963
-2.6715567 -0.52605897 0.50583911
-2.8753042 -0.43529007 0.50662202
-0.93892741 -0.32880384 0.50311494
-0.4248226 -2.8710907 0.51356566
-0.6084578 -2.8689055 0.51208055
-1.7875979 -2.8412495 0.51777112
-0.42707193 -2.5929058 0.5194875
2.2619085 -2.4064035 0.51853269
1.4330385 -2.3447099 0.51916087
-0.23802176 -2.2028136 0.51910716
2.4574647 -1.6052444 0.51660013
0.77039742 -0.84810442 0.51147074
1.6486038 -0.59420794 0.51615763
1.2002653 -0.47232562 0.51505601
0.70714486 -2.8573241 0.52306217
-1.8767288 -2.836936 0.52543908
-0.40101576 -2.5771804 0.52929735
-3.7364936 -1.6881299 0.52261716
2.4577758 -1.6179324 0.52006757
2.4631004 -1.4604738 0.5280931
1.271208 -0.84705192 0.52525049
-3.5020916 -0.76187217 0.52481878
-0.68957031 -0.53764057 0.52201509
-1.9093088 -2.837153 0.53939456
-2.3122113 -2.781862 0.53759611
-3.0763113 -2.7372754 0.53544074
-2.4389577 -2.7395363 0.53995651
2.3404348 -2.5098891 0.53177607
-0.240458 -2.3204126 0.53526372
-0.93671548 -2.0163815 0.53295785
0.96236897 -1.8184155 0.53745776
-0.48563895 -1.7506679 0.53127891
0.96236908 -1.6906354 0.53797615
0.96236908 -1.6579605 0.53267598
-1.9511503 -1.2141585 0.53474647
1.477952 -0.66364902 0.53440315
-1.0747275 -2.8644416 0.54953337
-2.7760501 -2.740201 0.54387331
-2.049289 -2.2685256 0.54067433
-0.72816586 -1.7609887 0.54558766
0.97132403 -0.84531415 0.54800391
1.2205571 -0.40013945 0.54763108
-1.8186049 -0.35084078 0.54983866
2.1930389 -2.7816236 0.5575608
-2.7896047 -2.7788634 0.55869907
-0.1310727 -2.7564344 0.55785203
1.4613163 -2.7518575 0.558312
-1.0520864 -2.7428701 0.55785203
-2.0103884 -2.7376745 0.55785203
0.9262408 -2.7202749 0.55069721
-1.9436322 -2.717279 0.55785203
1.07367 -2.7198839 0.55958295
-1.3880634 -2.7022758 0.55785203
-1.6942272 -2.6926427 0.55785203
-1.5555217 -2.6927876 0.55785203
-1.8724585 -2.6454341 0.55785203
-0.23375916 -2.6197534 0.55785203
-0.058969617 -2.6121581 0.55785203
0.50144398 -2.6199067 0.55785203
-0.68902618 -2.6074305 0.55785203
-2.0955446 -2.5906799 0.55404377
-0.01836741 -2.5970879 0.55785203
-0.631212 -2.5738847 0.55785203
-0.13329202 -2.5504084 0.55785203
0.45857647 -2.555757 0.55785203
0.16426295 -2.540374 0.55785203
-0.22273284 -2.5288062 0.55785203
0.40023443 -2.5219967 0.55785203
-0.8657093 -2.5017304 0.55785203
0.7721864 -2.4787087 0.55785203
-0.77992988 -2.3985014 0.55785203
-1.1015582 -2.3805368 0.55785203
-0.29154217 -2.3431604 0.55785203
0.74927688 -2.3315184 0.55785203
2.4032753 -2.321373 0.55831045
-2.1383636 -2.2626669 0.5593735
-0.018771768 -2.2500362 0.55785203
-0.39941218 -2.2156198 0.55785203
-1.3646477 -2.1528554 0.55785203
-1.1764357 -2.1567674 0.55785203
-0.49675766 -2.1569047 0.55785203
0.0064765215 -2.1557367 0.55785203
0.95796943 -2.11974 0.55785203
-0.9918589 -2.0967526 0.55785203
-0.25990099 -2.0978174 0.55785203
-0.71715415 -2.0659184 0.55785203
-0.1339218 -2.0659635 0.55785203
-1.9049854 -2.0506203 0.55785203
-1.6133327 -2.0546305 0.55785203
-1.0890012 -2.0434065 0.55785203
-0.35110646 -2.0443089 0.55785203
-1.2984325 -2.0053959 0.55785203
-1.1795473 -1.9243796 0.55785203
-0.80924726 -1.9058423 0.55785203
-0.54495358 -1.8864942 0.55785203
-1.4496443 -1.8796611 0.55785203
-0.67847973 -1.8623374 0.55785203
1.1398185 -1.7980757 0.55785203
-0.11683453 -1.7343335 0.55785209
1.0895951 -1.6971447 0.55785203
1.3225998 -1.6515635 0.55785203
0.088431537 -1.6059783 0.55785203
1.0020144 -1.544323 0.55785203
0.31897795 -1.4787575 0.55785203
-0.17024532 -1.4576092 0.55785203
-0.22758971 -1.4292362 0.55785203
-0.28163466 -1.3814057 0.55785203
1.2420218 -1.3884447 0.55785203
0.75582087 -1.363032 0.55785203
-1.0380511 -1.3116544 0.55785203
-0.62724817 -1.3171556 0.55785203
1.1131506 -1.3152772 0.55785203
-0.91062129 -1.224961 0.55785203
-0.48916641 -1.2269149 0.55785203
1.4241712 -1.2086142 0.55785203
0.95107687 -1.191987 0.5567553
-1.1197153 -1.1891694 0.55785203
-1.3170178 -1.1605979 0.55785203
-1.4559886 -1.1516148 0.55785203
-1.1959994 -1.1505437 0.55785203
-0.58410835 -1.1538908 0.55785203
-1.5597312 -1.1340318 0.55785203
-1.6987391 -1.0925251 0.55785203
0.37791362 -1.0907362 0.55785203
0.39813116 -1.0996666 0.55785203
-1.7545631 -1.0765901 0.55785203
-0.11486185 -1.0554974 0.55785203
-1.3606172 -1.0425314 0.55785203
-0.93793875 -1.0094818 0.55565709
0.50273341 -0.98629355 0.55785203
-1.974948 -0.88030845 0.55785203
0.60013443 -0.88096738 0.55785203
0.42446816 -0.81733662 0.55785203
-0.74553341 -0.77253193 0.55785203
-1.3818126 -0.74157608 0.55785203
-1.0134537 -0.69533366 0.55785203
-2.0152087 -0.65963686 0.55501735
-1.9054283 -0.63287503 0.55785203
-1.6149092 -0.58455622 0.55785203
-0.97253776 -0.55128938 0.55785203
-1.0697548 -0.51288354 0.55785203
-0.40672463 -0.50924379 0.55785203
0.60493171 -0.50987399 0.55785203
-0.42929 -0.48960632 0.55785203
0.61673236 -0.47237214 0.55785203
-0.94588709 -0.46048421 0.55785203
-1.0990437 -0.44453424 0.55785203
1.7036567 -0.39627656 0.55488217
-1.4657506 -0.37096927 0.55785203
1.7962164 -0.29364634 0.55983114
-3.0730376 -2.7344351 0.56800574
-3.346494 -2.6586323 0.56948805
0.66093224 -2.508713 0.56425887
0.36946177 -2.4705484 0.56830871
-3.575191 -2.4231396 0.56410807
1.3035916 -2.3484139 0.56766355
0.96230072 -2.2690716 0.56313181
-0.53484315 -1.4895706 0.5651325
-1.2575585 -1.3565676 0.56248218
0.95344782 -1.256422 0.56954247
-2.0045056 -1.094458 0.56802833
-2.2781606 -0.93700355 0.56448817
0.26142901 -0.89396423 0.56583267
1.5486023 -0.84393072 0.56611633
0.66720676 -0.81177646 0.56526625
-0.92999351 -0.69256413 0.56066817
-0.7220279 -0.54010618 0.56119376
-0.65926397 -0.54733557 0.56411803
-2.6515286 -0.48420653 0.56165159
-2.3806913 -0.42650086 0.56862116
-2.2446985 -0.40686616 0.56920922
2.0837803 -0.37881798 0.56985509
-1.8223777 -2.8388305 0.57437837
1.4650036 -2.7874026 0.57302874
0.76226312 -2.4814992 0.5726186
2.401721 -2.3887181 0.57927907
-3.7151246 -2.1103494 0.57466871
-3.75771 -1.9701144 0.57805258
-3.8057079 -1.4835925 0.57487887
-3.7070601 -1.1961442 0.57459903
-0.92181093 -0.66041571 0.57035172
1.1891783 -0.472325 0.57479852
1.7019697 -0.38324201 0.57146251
0.062649712 -0.31416863 0.57644868
-1.4918085 -2.8562646 0.58344239
1.701184 -2.7766557 0.58208311
1.2059002 -2.7188799 0.58001924
-2.4521732 -2.6678386 0.5862096
1.5482306 -2.5275598 0.58079618
0.89836311 -2.405885 0.58549321
-3.8157039 -1.6146485 0.58946133
-0.90288323 -1.3954376 0.58563101
-0.42681056 -0.58660841 0.58066475
-2.5458379 -0.52605897 0.58255655
-2.4689929 -0.51597381 0.58401299
-0.83748925 -0.32199281 0.58968455
0.86120301 -0.30806482 0.58416528
-0.73232359 -2.8722847 0.59444654
-1.1048254 -2.8659687 0.59972984
1.7003343 -2.7793841 0.5907234
1.3158007 -2.7188799 0.59208119
-3.6301761 -2.432039 0.59480566
0.26475546 -2.196028 0.59750712
-0.57781422 -1.5763698 0.59025413
0.264476 -1.4244167 0.59503543
-2.3535175 -0.94056404 0.59852433
-2.0242522 -0.85226858 0.59170628
2.3432693 -0.81430364 0.59828132
-0.23871839 -0.79782397 0.590271
1.7010732 -0.56365716 0.59441209
-1.7253881 -0.34913296 0.59643155
-1.2044328 -0.32856265 0.5981977
1.8882847 -0.32199699 0.59551364
0.57876182 -2.8973856 0.60920823
-1.4807634 -2.8570864 0.60184395
1.6995013 -2.7391372 0.60243136
1.0105594 -2.6624427 0.60523772
-0.55394286 -2.6154602 0.60096872
2.3486652 -2.5838895 0.60015011
1.2999566 -2.3510091 0.60164595
-0.48840338 -1.84971 0.60151505
-0.65901989 -1.8296028 0.60939264
-0.72022468 -1.3745257 0.60300636
-0.62561047 -1.3695285 0.6020776
0.93563962 -0.98088878 0.60335928
-2.8296111 -0.67911106 0.60763156
-0.70550305 -0.31915927 0.60517621
-0.42185298 -0.31581515 0.60743636
0.67478174 -0.29663146 0.60054785
-0.15888885 -2.8787825 0.61972129
0.36674282 -2.8796711 0.61557078
-1.6339445 -2.8477893 0.6136207
0.91069424 -2.8293734 0.61290705
-0.68254703 -2.4999275 0.61803502
-2.2861981 -2.2545078 0.61081386
-0.90712827 -2.2507176 0.61803508
-0.8660779 -2.1002645 0.61803502
-0.56199276 -2.109231 0.61803502
-0.41997868 -2.1004503 0.61803502
-0.87408572 -2.0974827 0.61803508
-0.54039931 -1.8995303 0.61803502
0.93393075 -0.99261916 0.61888671
1.6023889 -0.84021133 0.61481452
-0.24232033 -0.82567924 0.61415756
-2.3573203 -0.52605897 0.61490577
-1.661661 -0.34646636 0.6187216
-1.2828838 -2.8621435 0.62246686
0.68510312 -2.858876 0.62626982
0.99579036 -2.7310236 0.6267122
2.3586948 -2.5819387 0.62305492
1.4757798 -2.52756 0.62205565
0.67363858 -2.4932749 0.62368107
0.27410677 -2.3481791 0.62595528
-2.1062751 -2.2699747 0.62045699
0.26748541 -2.0305376 0.62165171
-0.58744276 -1.3472686 0.62784088
-0.67284161 -1.2117515 0.62129098
-0.71547359 -1.2007281 0.62129098
-0.90266585 -1.1239406 0.62129098
-0.34193605 -1.1257291 0.62129098
-0.6071499 -1.0225236 0.62129092
-0.89426583 -1.019215 0.62129098
-0.32112521 -0.9990136 0.62129098
-0.8880688 -0.98408908 0.62129098
0.93032658 -0.94570822 0.62857956
-0.51895535 -0.92549616 0.62129098
1.4584833 -0.83924901 0.62741476
0.3647365 -0.7535246 0.62112522
-0.84730053 -0.71194685 0.62129098
-0.83187008 -0.66190106 0.62129098
-0.73665321 -0.56403816 0.62129092
1.7385293 -0.27623913 0.62652761
1.7474897 -2.9126863 0.6383568
1.9220383 -2.8597922 0.63430238
1.1979535 -2.79828 0.63554919
-3.0439229 -2.4039578 0.63107479
0.92858118 -2.3476629 0.63836539
-0.24836047 -2.3232071 0.6344679
-0.2992053 -2.1331999 0.63760245
-1.9865773 -1.9571773 0.63061273
-0.2381285 -1.0259438 0.63933116
0.69686562 -0.8385185 0.63697892
-0.42777407 -0.31504744 0.63992685
-2.0200648 -2.2086163 0.64387667
-2.0042903 -2.0608821 0.64833486
2.4750829 -1.6670361 0.64466453
0.26980895 -1.6569451 0.64220184
-3.8026454 -1.4015561 0.64652002
0.67562491 -0.83532882 0.64307523
0.68572474 -0.55260873 0.64419544
1.6776798 -0.27919701 0.64464951
0.40719616 -2.882951 0.65929163
-2.0599854 -2.721493 0.65379542
-0.73904878 -2.6197562 0.6501193
-3.0299053 -2.3655717 0.65988207
-2.2223127 -2.2632654 0.65685898
0.27092338 -1.9685462 0.6520583
-0.79686171 -1.8461062 0.65535069
-0.41488299 -1.41469 0.6511808
-1.129534 -1.3743037 0.65535843
-0.23661712 -0.97412217 0.65357584
-2.2100439 -0.92482495 0.65068358
-0.94216955 -0.84435517 0.65469986
-0.34110078 -0.78491688 0.65589708
-2.6587007 -0.52605897 0.65232706
-2.0584586 -0.46988541 0.65113252
-1.1573398 -2.8656561 0.66094422
1.593082 -2.5351868 0.66468537
0.47723526 -2.2779386 0.66807199
0.94702601 -2.1965663 0.66893911
0.27240902 -2.0714889 0.66900378
0.35238326 -2.0650454 0.66807199
0.36997107 -2.0105004 0.66807199
0.45373175 -1.9885392 0.66807199
0.62231195 -1.9060698 0.66807199
0.73715007 -1.8642424 0.66807199
0.75315839 -1.8684306 0.66807199
0.69273877 -1.7190663 0.66807199
0.94747305 -1.6582062 0.66390014
0.77407736 -1.5090746 0.66807199
0.75639802 -1.4929309 0.66807199
0.61054057 -1.408717 0.66807199
0.33066094 -1.3741273 0.66807199
0.90933454 -1.3458 0.66807199
0.8867721 -1.2625422 0.66807199
0.68846107 -1.2330558 0.66807199
0.5439049 -1.2157911 0.66807199
-0.35023889 -1.0816287 0.66883349
0.66400909 -1.0337636 0.66807199
0.49386236 -0.87318265 0.66807199
1.575201 -0.83602238 0.66966462
0.72470224 -0.81646258 0.66807199
-0.81216609 -0.57630658 0.66778767
-1.2159883 -0.32806534 0.66251063
-0.50285196 -0.31533742 0.66827297
2.2629173 -2.7614036 0.67645687
0.54496938 -2.4903054 0.67815518
-0.25819921 -2.3572805 0.67388541
0.9212839 -2.3578351 0.67028171
-2.3514166 -2.2542942 0.67771494
-2.4097023 -2.2492352 0.67395532
0.27029011 -2.0634871 0.67507941
-1.514569 -1.3062536 0.6783365
0.94090986 -1.2769253 0.67417854
-0.35410097 -0.81119055 0.67430073
-2.2522168 -0.679111 0.67754984
1.6726152 -0.52150464 0.67417967
-1.2703481 -0.32944474 0.67924398
2.218173 -2.7739928 0.68155509
-2.5333676 -2.6651499 0.68576026
-0.63856375 -2.6015964 0.68299603
1.6738057 -2.4475982 0.6883707
0.26521042 -2.2614319 0.68964469
0.94965053 -2.0747824 0.68128091
-0.27555811 -1.999913 0.6831485
0.9424184 -1.2296331 0.68947524
-0.36091122 -1.1894197 0.68808126
0.26694864 -0.97423029 0.68466049
-2.7665436 -0.96745461 0.68879765
1.671296 -0.68512654 0.68946022
-0.71030128 -2.6062205 0.69155037
-3.5187755 -2.5738721 0.69285369
0.91694552 -2.3476586 0.69570565
-0.38203824 -1.7082641 0.69594836
2.5171747 -1.6683204 0.69672239
-0.23513734 -1.5242064 0.69411731
0.95752484 -1.4320081 0.69759262
0.86933827 -1.2796755 0.69514996
-0.25959185 -1.0641861 0.69495857
-0.36042136 -1.0567911 0.69794905
0.85673076 -0.9123618 0.69818115
2.4097016 -0.63385123 0.69424695
1.5937957 -0.33927673 0.69798774
0.51624584 -0.30315149 0.69189304
-0.73120642 -2.8738911 0.70917672
-2.9539387 -2.7937953 0.70334405
-2.9737666 -2.7485149 0.70692444
-2.5782552 -2.7421837 0.70859104
1.6558354 -2.7171979 0.70799428
-3.5678973 -2.5089469 0.70338267
2.5067782 -1.981582 0.70280331
-0.36846635 -1.9299195 0.70927334
-3.8024819 -1.3992829 0.70371467
1.334516 -0.83328533 0.70550585
-3.3281083 -0.49737382 0.7084229
-2.976825 -0.42231756 0.70162642
-2.8047929 -0.40416139 0.70731258
-3.0765796 -2.7921979 0.71550399
-0.35757777 -2.5235267 0.71912152
1.4171991 -2.3594794 0.7125299
-0.38543108 -2.0141516 0.71886843
0.96440566 -2.0119324 0.7123487
0.93607187 -1.1800609 0.7166537
-0.35832396 -1.04417 0.71915078
-2.8067863 -0.96877718 0.71453148
1.6603441 -0.69675946 0.7146883
-2.0723805 -0.60161555 0.71538973
-0.5046438 -0.59137791 0.71195251
0.9989289 -0.43209419 0.71145225
-0.5764156 -2.8758264 0.72269022
-1.0914662 -2.8670912 0.72356361
2.0645051 -2.8157866 0.72239697
0.87715554 -2.52756 0.72003537
0.71589351 -2.4720471 0.72391832
0.9558264 -2.3603461 0.72387457
-2.0463631 -2.3330276 0.72255117
-0.40780967 -2.230545 0.72401595
-0.43414882 -2.2257423 0.72401601
-0.40696031 -2.2295811 0.72401601
-0.4680934 -2.0713539 0.72401601
0.93971789 -1.9247806 0.72572595
-0.4896735 -1.5809584 0.72198701
-0.87187183 -1.4953305 0.72364128
-0.54531014 -1.4957901 0.72198701
-0.45543158 -1.1508123 0.72901046
-0.32170397 -1.0446049 0.72904354
0.97133815 -0.83344162 0.72721577
-0.37224865 -0.8195554 0.72583175
-0.34139237 -0.79765272 0.72488725
-0.31469083 -0.79701912 0.72288775
-0.39563707 -0.76926339 0.72569299
1.5416861 -0.66364902 0.72196078
-2.5082986 -0.53977323 0.72375298
2.1471782 -0.40028846 0.7224623
-3.4734466 -2.6101003 0.73500204
-2.4546728 -2.5735407 0.73538959
-2.6821046 -2.5120897 0.73512715
-0.59338683 -2.4206083 0.73071784
-0.61048681 -2.3913603 0.73172909
-3.7178707 -2.1377933 0.73709953
-0.63291538 -2.1281617 0.73305547
-0.62341869 -2.0644159 0.73249388
0.93524218 -1.9081116 0.73145741
0.97307789 -1.7256424 0.73094666
-0.2826916 -1.71609 0.73678178
-0.63974035 -1.1066363 0.73905975
-2.7006574 -0.54872787 0.73061788
-0.081313491 -0.31242126 0.73661315
2.2485347 -2.7614694 0.7425158
-2.6203125 -2.7493324 0.74719697
1.6428705 -2.6063309 0.74518627
1.64625 -2.4798062 0.74720794
1.5173336 -2.361908 0.74431962
2.4861977 -2.1997559 0.7478106
-0.7568115 -2.1199653 0.74934453
-0.74273944 -2.0262542 0.74558353
-0.5013234 -1.9765704 0.74882448
-0.90025651 -1.9096394 0.74541605
0.25335842 -1.6873688 0.74712133
-3.6863253 -0.9503116 0.74571061
0.89613158 -0.66364902 0.74627316
1.6399503 -0.53182656 0.74760681
-0.87185705 -0.32140291 0.74148327
-0.16876042 -0.31315547 0.74885786
-3.3517196 -2.6748452 0.75861675
-2.5033557 -2.6726077 0.7577948
-0.29388738 -2.5806038 0.75702268
1.1855325 -2.5744638 0.75418901
-3.7375841 -2.0300348 0.75369292
0.83365297 -1.9954004 0.75963628
0.98437124 -1.8724277 0.75516558
-1.4889139 -1.3116659 0.75350982
0.98576468 -1.3006854 0.75815386
-1.9220109 -1.1929647 0.75833452
0.91341329 -1.111226 0.7562772
-0.74807173 -0.97584385 0.75205874
-0.18470399 -0.95525014 0.75390065
0.83106476 -0.8292613 0.75819838
-0.48710719 -0.70456898 0.75249451
2.4177053 -0.66223431 0.75035048
-1.9904141 -0.63222653 0.7556411
-2.4878535 -0.59621865 0.75265348
-0.44501603 -0.31550187 0.75333089
-1.139511 -2.8649487 0.76042551
0.74585932 -2.8651593 0.76031113
-2.0085225 -2.8407736 0.76617342
-2.1868277 -2.6906013 0.76252276
1.2097226 -2.6891508 0.76398432
1.6356313 -2.5680332 0.7641741
-0.5076046 -2.4899547 0.76313478
0.78413385 -2.3638268 0.76943535
-0.90241885 -2.2958386 0.76032025
-0.78519094 -2.2516863 0.76178342
0.83428192 -2.1579857 0.7659936
-3.7807608 -1.6579063 0.76909328
0.25339121 -1.5473197 0.76918173
0.90568244 -1.3654064 0.76502734
-0.79036421 -0.95553148 0.76976776
0.87958807 -0.88466221 0.76469761
0.82594717 -0.843759 0.76171368
-0.18083473 -0.74457294 0.76219827
1.1249332 -0.53160471 0.7614603
-1.1296607 -0.32729301 0.76978177
-0.20827341 -0.31385854 0.76445591
-0.15879177 -2.8781614 0.77784908
-1.370983 -2.8586802 0.77073586
-2.6102796 -2.7249014 0.77540261
-0.82495767 -2.4360826 0.77409196
0.7783761 -1.9580783 0.77363795
-0.37993723 -1.9328682 0.77435499
0.85922325 -1.8479092 0.77623427
0.99457204 -1.8141067 0.77704149
0.89284813 -1.6660811 0.77448726
0.90449077 -1.6352673 0.77119577
0.87475204 -1.6001287 0.77979207
0.67917383 -1.5408088 0.77644479
-0.99891448 -1.5342152 0.77006638
0.83706808 -1.4180593 0.77385545
0.81815064 -1.4048462 0.77260542
-1.4085835 -1.3286104 0.77165782
0.70585924 -1.2632333 0.7748667
0.72856313 -1.2574563 0.77404606
0.2558881 -1.1777236 0.77455223
0.8133738 -1.1229959 0.77066785
0.76161206 -0.92454016 0.77193487
0.8154431 -0.63202691 0.77778423
-2.5751255 -0.46678448 0.77856731
2.1166027 -0.39515337 0.7779246
1.2467437 -0.36325437 0.77878517
-1.393308 -0.33417362 0.77125651
-0.54494518 -0.31754464 0.77832186
1.7020434 -2.9158177 0.78259015
-3.0750663 -2.7850072 0.78367686
-1.8327507 -2.6031923 0.78445303
1.0664752 -2.52756 0.78668976
1.0313182 -2.3651557 0.78682816
-0.17635611 -2.3053932 0.78888297
0.51350832 -2.2087395 0.78768831
0.5180949 -2.0974965 0.78704435
-0.87354314 -1.9567195 0.78234452
0.61773789 -1.9296112 0.78007793
0.56821299 -1.8694799 0.78300667
-0.82170206 -1.0966363 0.78087783
-2.625145 -0.94860321 0.78380501
-0.81715965 -0.92435133 0.78138757
-1.7661555 -0.80037993 0.7893728
1.3574595 -0.66364902 0.78641868
-0.55206853 -0.63086885 0.78553665
1.6157594 -0.42984608 0.78014612
-0.67981696 -1.9550271 0.7977221
0.45169246 -1.9010835 0.79636765
1.0042714 -1.6861569 0.79784197
-1.0894433 -1.4594479 0.79257894
-0.80878353 -1.3063426 0.7991904
0.4610799 -1.2639512 0.79504961
0.26822239 -1.1078427 0.79773992
2.479084 -0.95061529 0.79438734
2.011411 -0.36717895 0.79096097
-2.0457838 -0.34830797 0.79063231
0.091677062 -2.8786049 0.80210316
-1.1580048 -2.8623004 0.80638582
-1.7337973 -2.5939071 0.80231619
2.395273 -2.5973663 0.80975229
0.70684087 -2.4057047 0.80393058
0.74518949 -2.364243 0.80087042
0.79547143 -2.3662465 0.80111009
-3.7270641 -1.8812783 0.80191696
2.5205553 -1.8671274 0.80734289
0.43430716 -1.7415895 0.80318511
-0.39528975 -1.4484299 0.80461895
-0.80902737 -1.2895229 0.80790436
-1.6386666 -0.94517517 0.80879253
-0.33320266 -0.90138149 0.80933058
-3.3973618 -0.59179962 0.80675417
-0.05817616 -2.8769493 0.81836784
-2.9506485 -2.5847893 0.81677574
-2.1047902 -2.4060671 0.81380785
-2.9491594 -2.2224061 0.81444979
0.3070406 -1.380357 0.81450802
0.8446604 -1.3454993 0.81341958
-0.15844564 -0.89368188 0.8102119
-1.6554217 -0.6443823 0.8109287
-1.6242549 -0.59430921 0.81951034
-1.2954571 -0.33415663 0.81702089
0.79275393 -0.33792824 0.81147969
-1.9909917 -2.8322687 0.82709467
-1.7272946 -2.8366466 0.8241998
-2.5528784 -2.7929785 0.82001895
2.4344215 -2.4132295 0.82832932
2.4550292 -2.3495486 0.82343692
0.37132362 -2.30705 0.82372069
-0.32869828 -2.0305729 0.828668
-3.7402902 -1.69929 0.82755953
0.84961766 -1.5674636 0.82719868
0.36505336 -1.3664733 0.82301706
-3.6750705 -1.0748503 0.82516867
-0.32835725 -0.99477732 0.82279897
0.34780565 -0.99522978 0.8210814
-3.5439587 -0.79758042 0.82882583
-2.9419246 -0.78602242 0.82418323
-1.5846434 -0.61699122 0.8249045
-2.6380606 -0.39023417 0.82585597
-1.7425772 -0.35669419 0.82838619
-2.1740651 -2.8499599 0.83635771
0.57660449 -2.4259343 0.83802181
0.85401565 -1.7659165 0.83942354
2.5191274 -1.6645517 0.83507872
-2.1381159 -0.70302945 0.83635545
-0.14846115 -0.64316893 0.83162129
-1.1205554 -2.860379 0.84973085
1.4294605 -2.5312967 0.84931606
-3.4508018 -2.4192524 0.84963161
2.4473252 -2.1724315 0.84856957
-0.3011905 -1.5863136 0.84021878
0.85494727 -1.2572516 0.842013
0.79249328 -0.72356707 0.84025013
-3.4594173 -0.60294187 0.84891528
-1.003583 -0.32925493 0.84790289
0.56487763 -2.8882747 0.85103136
1.0714135 -2.8886099 0.85425723
1.7971555 -2.8784509 0.85458481
2.4735398 -1.9304479 0.85273618
-0.42415071 -1.6756103 0.85284299
-2.644685 -0.679111 0.85587215
-3.3662415 -0.5970757 0.85623538
0.24412507 -0.31656826 0.85667878
0.65391839 -2.8976307 0.86360502
0.83620542 -2.8220782 0.86056435
-2.2932734 -2.7390356 0.8619532
-3.4632292 -2.5622621 0.86366475
2.4851317 -1.4570695 0.86436558
-1.4768599 -1.0855837 0.86246461
-2.4871438 -0.93141854 0.860677
-2.906188 -0.79095972 0.86256415
-1.4870541 -0.62198144 0.86858326
-2.2912405 -0.45721859 0.86047685
-1.3845631 -0.33968267 0.86268717
-0.86058009 -0.32802519 0.86837614
0.73765576 -2.9193287 0.87540525
2.4430943 -2.071542 0.8741442
-2.8199797 -0.5686177 0.87070608
0.84038252 -0.43693429 0.87007725
1.8059998 -2.8739085 0.88174272
0.84168971 -2.4230201 0.88136089
-1.4553471 -2.4182527 0.88686752
-2.5613141 -2.2532096 0.8878516
-1.3078794 -1.739635 0.88608444
1.0468308 -1.492429 0.88911176
-1.4525299 -1.0992197 0.88893449
2.4022326 -0.84773231 0.8825317
1.3427633 -0.81963533 0.88423526
1.7890668 -0.313748 0.88409173
0.6104548 -0.30206025 0.88411742
0.87427396 -0.28120181 0.88890254
0.28881985 -2.8730814 0.89478433
0.95793545 -2.4780002 0.89647341
1.526983 -0.72059023 0.89734757
-3.2179887 -0.49019963 0.89723879
-0.32701141 -0.32204714 0.89371771
-0.79641664 -2.8620176 0.90832686
-1.4715941 -2.8481464 0.90037513
1.3667473 -2.8460336 0.90653336
-0.26683187 -2.590749 0.90952325
-2.7074571 -2.518512 0.90774399
-2.6576552 -2.2467642 0.90664732
-1.1882702 -2.1990118 0.90501368
-1.1827979 -2.1824431 0.90671253
0.89967579 -2.1018958 0.90766537
0.90194052 -1.8829734 0.90996081
2.4674997 -1.7915099 0.90776497
0.60432816 -0.30352634 0.90101653
1.5826819 -0.26316649 0.90506685
0.91200918 -2.946414 0.91893846
1.2116679 -2.8886099 0.91047305
1.2794695 -2.8834331 0.91074812
-0.039472125 -2.8700385 0.91902137
0.90594983 -2.7382307 0.91892058
1.477748 -2.7144587 0.91490555
-2.4176803 -2.5258601 0.91592288
-3.4776919 -2.4971375 0.91858482
-1.5066342 -2.2325797 0.91000509
-0.10726292 -1.2475373 0.91997313
-1.4831262 -0.34523249 0.9182446
1.7722727 -0.31024176 0.9155587
1.6237406 -0.27631298 0.91225326
-2.6901615 -2.6606531 0.9294728
1.314801 -2.6180398 0.92739731
0.89736408 -2.6058228 0.92427719
-2.4146442 -2.5857725 0.92488122
-2.8381016 -2.5747743 0.92191708
-3.4497173 -2.4996533 0.92985213
2.385463 -2.3988438 0.92430937
-3.6660542 -2.2464275 0.9268111
2.4664533 -1.5416669 0.92797756
-3.6867762 -1.0381778 0.92797017
-2.8514986 -0.86221617 0.92061853
-0.25619829 -0.72416824 0.92928052
-3.2635491 -0.51388699 0.92002082
1.4297159 -2.7430294 0.93856061
-2.6234317 -2.5230925 0.93112761
0.98886335 -2.3763115 0.93293613
-3.6686594 -2.1906507 0.93296134
-1.5400866 -2.123621 0.93679303
2.4656377 -1.5363179 0.93455547
-3.4739628 -0.71483159 0.93638921
2.1609647 -0.41874397 0.93387705
-1.2912904 -2.8502233 0.94807845
-2.5121715 -2.7279789 0.94585294
-2.5833075 -2.708065 0.94601202
1.1751585 -2.5613136 0.94601202
-1.5021311 -2.3707132 0.9459542
1.468955 -2.3772025 0.94459248
0.87219942 -2.3639762 0.94330198
-0.23673064 -2.2230988 0.94482553
-0.10378546 -1.8884459 0.94451076
1.0746337 -1.2583737 0.94873601
2.4554799 -1.0078537 0.94434512
-3.4607403 -0.60167718 0.94040936
1.198222 -0.35767138 0.94601202
1.1109388 -0.32932353 0.94242811
0.5321275 -2.8806071 0.95397353
1.3840771 -2.8014691 0.95867872
-2.3034735 -2.5710044 0.95370358
1.0760279 -2.2954376 0.95172596
1.0760142 -2.1184707 0.95169646
2.4557695 -1.9665738 0.95966232
2.4619198 -1.3535739 0.95061886
1.0090089 -0.81401086 0.95787615
-2.2799931 -0.71496105 0.95284069
2.3711488 -0.66103047 0.95217037
1.9098926 -0.34990418 0.95606411
-0.53635639 -0.32861111 0.95319921
1.3608782 -2.9381943 0.96085298
-2.33549 -2.8477809 0.96515471
-1.8007008 -2.8283389 0.96605074
0.99247694 -2.6808343 0.96972096
-1.1968719 -2.4328766 0.96202224
1.0817466 -2.1692472 0.96398985
0.94340861 -1.7138202 0.96279943
-3.779573 -1.689496 0.96349764
-1.3702531 -1.3483784 0.9608649
-0.22131863 -0.95286632 0.96342981
-0.21965474 -0.92971081 0.96614373
2.337709 -0.6813575 0.96973717
-0.088322215 -0.558635 0.96648085
0.1031619 -0.3233774 0.96097714
1.7353327 -0.30911058 0.9661569
-2.3741179 -2.7420251 0.9709174
0.95520848 -2.3972926 0.9710387
-0.087770745 -1.9813554 0.97885257
-1.3609791 -1.3874483 0.97790432
-0.081541769 -1.3288486 0.97513258
2.3463442 -0.70824999 0.97351682
1.3733398 -0.53676009 0.97542679
-2.3990123 -0.35650679 0.97151601
1.288911 -0.31415281 0.97873503
-0.13734324 -2.8662772 0.98514301
-2.3918595 -2.7111857 0.98108244
-0.21276177 -2.0834856 0.98603582
-2.4523072 -0.44329882 0.98775601
1.2927067 -0.43277326 0.98702776
-1.8046771 -0.36496517 0.98109645
-0.46846449 -2.8613596 0.99089909
-1.457541 -2.8401999 0.99333954
-1.9797823 -2.824425 0.99014044
-2.6339083 -2.6386259 0.99830103
1.0596893 -2.5463865 0.9996531
-2.374227 -2.4671767 0.99988323
-1.5157754 -2.345104 0.9906913
0.96552318 -1.3402708 0.99886853
-2.3515973 -0.76940024 0.99725056
-2.5278037 -0.39125776 0.99534917
1.2630696 -2.621388 1.002328
-2.4691339 -2.5669389 1.0061805
2.4551799 -1.8972725 1.0011183
0.91071284 -0.86455071 1.0094002
-0.23876494 -0.59387058 1.0010297
-3.2654424 -0.5280574 1.0040774
2.1629648 -0.42338625 1.0047618
-1.7148497 -0.36456656 1.0083429
-2.5511289 -2.5625825 1.0170978
-3.7298317 -1.9329493 1.0161033
0.97470647 -1.7521307 1.0138464
1.105346 -1.7432853 1.0145996
1.1077389 -1.3977125 1.019731
1.8368375 -0.33195758 1.0194023
1.6086487 -2.8946216 1.0211368
-2.742064 -2.8214064 1.0270239
-2.5568111 -2.4496717 1.0230541
-2.4975295 -2.4167652 1.0239871
1.1524489 -2.4015412 1.02593
-0.064166456 -1.8512609 1.0294715
0.97974944 -1.2419508 1.022229
2.4470072 -1.1313211 1.0219175
-0.056739673 -1.0718696 1.0283214
-0.20593257 -0.59038395 1.0257442
-0.00098165125 -0.33292672 1.027694
-1.5246459 -2.828196 1.0380837
-3.5045414 -2.5097458 1.0341594
-2.487946 -2.3147247 1.0314753
-1.1922641 -2.2288363 1.0334544
2.4525607 -1.8454789 1.0342838
0.98485887 -1.8271924 1.03194
1.1171421 -1.7845237 1.0398965
-0.19740494 -1.1887231 1.0361382
-0.77844536 -0.34501171 1.0379612
0.69737673 -0.30626857 1.0331011
-3.6650305 -2.2759471 1.0466486
-0.1827188 -2.2103791 1.0431316
1.1174347 -1.8050723 1.0405242
-0.1785752 -0.78707874 1.0417354
-3.4631364 -0.6390965 1.043583
-2.2237577 -0.36622009 1.0465386
-2.4173663 -0.35380685 1.0418367
-0.89474642 -0.34843835 1.0443846
-0.77347434 -0.34616363 1.0440468
1.08743 -2.9326472 1.0563116
2.2963288 -2.5684447 1.0566783
-3.5438602 -2.4604039 1.0525117
2.3462155 -2.442538 1.0501313
0.99634606 -2.2842727 1.0537727
-3.7247839 -1.998103 1.0572081
-1.3865805 -1.8030037 1.0508785
2.4502685 -1.5163472 1.0575827
-3.7194467 -1.180885 1.0599959
1.1218766 -1.0946834 1.0500498
-1.8049748 -0.3777155 1.0544441
-0.69184113 -0.34646243 1.0527837
-0.42962092 -2.847827 1.0625961
-0.36062756 -2.8482673 1.0655651
-1.5673578 -2.8201551 1.0605134
-1.1842842 -2.2460806 1.0619084
2.4125452 -2.1753931 1.0672407
-0.16437808 -0.77557564 1.0687172
2.2748942 -0.55291986 1.0653037
-3.098052 -0.48461473 1.061357
-1.5477917 -0.37331751 1.0688436
-0.30824015 -0.34395593 1.0694523
-1.6196007 -2.814626 1.0768372
-3.4619622 -2.5201337 1.0778949
1.0087706 -0.96631056 1.0773869
-3.1877604 -0.51718569 1.0740061
-1.8779029 -0.38102797 1.0721974
-1.5810864 -0.37591162 1.075194
-0.55658913 -0.34927204 1.0771565
-0.9143607 -2.8352649 1.0803084
-2.9325938 -2.7540715 1.0863693
-0.22078651 -2.5253196 1.0874054
2.445833 -1.3186899 1.0892594
-3.4103537 -0.63730127 1.0860965
0.062223218 -0.34235287 1.0898956
-3.2868059 -2.6389363 1.092424
-0.033256907 -2.3312829 1.0957627
-1.5833583 -2.2834828 1.0922902
2.4368339 -2.0336196 1.0911062
-1.38745 -1.3984385 1.0949554
2.2630017 -0.49918297 1.0945193
-1.4400775 -0.3755556 1.0946591
1.3350617 -2.9112897 1.1050837
1.7797309 -2.8602405 1.101573
0.47126013 -2.8579988 1.1084236
-0.47851038 -2.8382773 1.1086044
-1.1734481 -2.8233633 1.1006826
1.1456751 -2.4269543 1.1010797
-3.5905132 -2.3230917 1.1074138
1.1480844 -2.2762256 1.106253
-0.15574819 -2.0004308 1.1038058
-3.7093015 -1.9650658 1.107151
-3.7468865 -1.6711658 1.1031674
1.1481602 -1.56599 1.106416
-0.02218093 -1.143724 1.102433
1.0217308 -0.92250818 1.1020193
-0.020120598 -0.61156797 1.1068476
1.8611166 -0.34321916 1.1075596
0.89924622 -0.30127209 1.1070834
1.1867098 -2.916436 1.1148134
-0.17444713 -1.8757088 1.1191442
-3.7017763 -1.3318224 1.119648
-0.13986146 -1.1718242 1.1153114
-0.19918199 -0.63029391 1.1178997
-2.3481169 -0.37256804 1.1144753
0.97366679 -2.3900337 1.1270438
-1.495054 -2.2761841 1.1216871
2.4481225 -1.7729342 1.128895
-0.03746596 -1.3379145 1.125423
-3.4438021 -0.76495415 1.124289
-0.17593521 -0.60723829 1.1240481
-2.6694918 -0.39086801 1.128831
0.26125288 -0.34358859 1.1205803
2.1021228 -2.7672949 1.1344893
1.037565 -2.0539703 1.1321137
1.0379984 -2.0491247 1.1329377
-1.4147334 -1.7062547 1.1356766
1.1595615 -1.0945466 1.1308663
1.604058 -0.3152962 1.1352624
0.49749041 -2.852201 1.1485014
1.0441779 -2.2540667 1.1446825
1.0456325 -2.062721 1.1474471
-0.12354598 -0.88127708 1.1463193
1.0113419 -0.88396168 1.1444263
1.0781248 -0.75532788 1.1474551
1.163946 -0.73059011 1.1427732
-1.7639811 -0.39646733 1.1485648
0.58021331 -2.8551288 1.1554545
-2.2312956 -2.7972741 1.1581948
1.1710167 -0.95755708 1.1554323
1.1647832 -0.69065744 1.1577901
-0.2005226 -0.35696763 1.1523013
1.7072356 -2.8595076 1.1600397
-3.449522 -2.2857716 1.1671464
-1.4138495 -1.415179 1.1674833
-0.11530143 -0.94154906 1.161988
-1.5848116 -0.6161046 1.161711
1.2008985 -0.2934837 1.1601691
0.80729961 -2.8568487 1.1788033
-0.30536148 -2.8286846 1.1706673
-0.77766347 -2.8180692 1.1781232
-3.425319 -2.3165538 1.1722349
-3.4118824 -2.2891903 1.1792501
-1.4774915 -2.2649999 1.1759728
2.3931952 -2.2080121 1.1762794
-1.3362669 -2.1835752 1.1731653
-3.4600368 -2.1424494 1.1722405
1.0616798 -1.990104 1.177947
-0.15347898 -1.9573628 1.1735377
-3.5158727 -1.7175848 1.1797249
-3.4231596 -0.90916973 1.1762142
0.011696937 -0.90318644 1.1750844
2.2858038 -0.6024403 1.1739388
2.260664 -0.53446925 1.173725
1.1448909 -2.8785682 1.1868047
-0.92351407 -2.81024 1.1836131
-0.023942506 -2.8180797 1.1826121
-3.1049616 -2.5751235 1.1870589
-3.4302828 -2.0383599 1.1861904
-0.1102229 -2.0157447 1.181478
1.1850085 -1.826036 1.1854382
-1.829078 -0.40349555 1.1835275
-0.97698063 -0.38040453 1.1838481
-0.31846666 -0.3892689 1.1883659
-1.3998772 -2.8071299 1.1934206
-1.494526 -2.3502998 1.1987501
-3.3265977 -2.236531 1.199947
-1.4773607 -2.067476 1.1902555
-1.259187 -2.0203986 1.1935098
2.4432385 -1.751694 1.1918724
-3.4570973 -1.6926072 1.1973455
-3.4579449 -1.3385996 1.1904283
2.0631442 -0.43673927 1.1978807
-2.1676042 -0.41338083 1.1940629
-1.6077249 -0.39677703 1.1961493
1.7281681 -2.8496077 1.2034636
0.46988696 -2.8145666 1.2094433
-0.16401426 -2.7849801 1.2048444
-1.5122741 -2.4529567 1.2077377
-1.5170392 -2.4234529 1.2056075
0.019669833 -1.93927 1.2092599
2.4424882 -1.6500236 1.2058144
-0.082662947 -1.3099885 1.2071736
-0.11977616 -0.4029274 1.2021509
1.1049017 -0.3335999 1.2058765
1.3410326 -0.31209427 1.203342
0.82621092 -2.8275187 1.2148647
0.47582123 -2.8085032 1.2160273
-1.5918556 -2.7554879 1.2156422
-1.5148489 -2.2033482 1.2199792
-0.095145792 -2.1879089 1.213812
-3.31633 -1.9334413 1.2164438
-3.3222075 -1.9129106 1.2165073
2.4420326 -1.6309785 1.2175157
-3.3999608 -1.5497416 1.2111672
0.028297283 -1.1244159 1.2106841
-3.2658477 -0.9455862 1.2116262
0.029609229 -0.65490359 1.2134964
-0.86174786 -0.44418341 1.2163206
-1.6267197 -0.42833692 1.2106754
-1.7233276 -2.7330723 1.2201372
2.1637332 -2.6784165 1.2233952
-0.088587739 -2.158931 1.2278763
0.034599613 -1.2562513 1.2241986
-3.2468443 -1.1629454 1.2244349
-0.084287636 -1.0241172 1.2248387
-1.5246041 -1.0196846 1.2228515
-1.5396569 -0.4667249 1.2292891
-0.60027277 -0.45629203 1.2277827
1.3601574 -0.33015096 1.2255809
0.02595903 -2.7572865 1.233215
-2.0800607 -2.6874692 1.2374626
-1.5354934 -2.4727731 1.2385674
2.4162455 -2.1281867 1.2396574
2.4330263 -1.9172524 1.2307403
2.4360206 -1.8940922 1.2344618
-1.4524612 -1.6481736 1.2356095
-2.8027587 -0.58476335 1.2338706
2.1229239 -0.51405334 1.2358319
-2.0186899 -0.50700796 1.2381728
-1.7215321 -0.48741192 1.2310216
-0.82325125 -0.48166448 1.2365727
1.3507355 -0.34418949 1.2369002
1.0380361 -2.8050499 1.244583
-1.8821775 -2.6693201 1.2434494
1.2052016 -2.5746751 1.2455122
-1.6306279 -2.4974318 1.2480025
-2.9308097 -2.3636932 1.2499489
0.034580309 -2.0576353 1.2412412
-1.4877601 -1.7676606 1.2459991
1.0961978 -1.7069533 1.2457446
1.2144306 -1.3513205 1.2485347
1.2113721 -1.2290543 1.2419755
-0.075167537 -1.1302087 1.2413902
2.4206567 -1.1290531 1.2482066
-2.9967473 -0.84180313 1.2412751
-1.846082 -0.5253123 1.2448391
-1.0758958 -0.50838965 1.2485526
0.24557295 -0.43369648 1.2432039
1.6712247 -2.8425264 1.2530138
1.5031669 -2.8337326 1.2594527
-0.12419061 -2.7199476 1.2542982
2.1940901 -2.6224241 1.2552449
-2.4889088 -2.5888915 1.2553116
-2.7062387 -2.455354 1.2599392
-1.667582 -1.9203149 1.2543743
-1.5346531 -1.3698466 1.2538917
0.047093876 -0.96291238 1.2509935
-2.9027038 -0.83513868 1.2539301
0.6589787 -0.4161399 1.2592832
0.98549521 -2.7949548 1.2610133
0.41784659 -2.7481666 1.2681048
-2.7913632 -2.3673477 1.2636613
-3.017648 -2.0665312 1.2681092
2.4301414 -1.9469231 1.2618122
-1.9041748 -1.9114591 1.2685574
-3.0497954 -1.237067 1.2666155
-2.6139235 -0.68141925 1.2644497
-2.4945521 -0.63946104 1.2603824
-2.2040935 -0.58856285 1.2615318
0.051996112 -2.4691629 1.2785835
-2.8722126 -2.3205576 1.2714374
-1.9145762 -1.1205405 1.2735847
-1.8758392 -0.96046078 1.2706838
1.2032824 -0.77318454 1.2779473
-2.4666662 -0.67519009 1.2711233
-1.2059369 -0.52446127 1.2791783
-0.6653071 -0.50386178 1.2726405
0.0037022848 -2.7047584 1.2859823
2.2078757 -2.5440521 1.2848353
-1.9865924 -2.3988209 1.2834845
-2.8638377 -2.1505096 1.2827706
-2.9698515 -1.8440127 1.2825016
-1.8446839 -1.6530383 1.2821862
-2.9904363 -1.3773584 1.2814766
-2.9300697 -1.3578167 1.2864079
1.6464193 -0.38394347 1.2840667
-1.4787624 -0.33039862 1.2855303
-2.2708437 -2.4469795 1.2986
-1.984933 -2.3942037 1.2919219
-2.6797519 -2.2471867 1.2964081
-1.5295546 -2.1577497 1.2976543
1.2378453 -2.1030188 1.298748
2.4232712 -1.9058082 1.2931241
-2.8381326 -1.7778432 1.2960947
-1.9047587 -1.5588744 1.2983892
-1.8982021 -1.5546731 1.2961717
-2.8437123 -1.3339094 1.2935433
2.387064 -1.0064574 1.2948499
1.2374065 -0.85362756 1.2978063
2.3092449 -0.75847787 1.2903868
0.043372542 -0.48916805 1.2959399
0.51040906 -0.46057492 1.2903646
1.8010771 -0.41611215 1.2950348
1.5129108 -2.7821519 1.3033073
1.3036549 -2.5602205 1.305667
-2.6803503 -2.1242335 1.3004074
-2.7568653 -1.9063319 1.3001001
-2.732372 -1.2685398 1.3018262
2.4148619 -1.2297549 1.3011397
-2.6352391 -1.2106946 1.3089921
-1.9929445 -1.1408869 1.3048887
1.1235595 -1.147168 1.3007337
-2.6006818 -1.1006885 1.3087323
-2.6309459 -1.0483876 1.304276
-2.6332393 -0.99000335 1.3021643
-2.0304215 -0.71207356 1.3031154
-0.24408878 -0.49970832 1.3004622
0.47006169 -0.47352824 1.3050622
1.2707933 -2.7525492 1.3127254
-1.1478602 -2.6589692 1.3121152
-2.0009708 -2.4492574 1.3140253
-1.9886076 -2.4090419 1.3195662
1.2439437 -2.4073572 1.3118191
-2.4907825 -2.3140459 1.3114856
-2.4304068 -2.2419741 1.3193774
-1.966445 -1.6297421 1.3192513
-1.9932684 -1.0770046 1.3122122
1.2452518 -0.85104704 1.3146303
-2.0001607 -0.77640522 1.3186523
-0.059897609 -2.6905799 1.3255037
-0.031419527 -2.6915607 1.3254275
-1.5239717 -2.6392887 1.3211989
0.032821603 -2.5360749 1.3254433
-2.1330814 -2.3636122 1.3262419
2.1537716 -2.3651352 1.3275768
-1.3187525 -2.34568 1.3258836
-1.5394121 -2.2980182 1.324653
-2.3388529 -2.2852302 1.325377
0.075415567 -2.1319056 1.3288134
-2.0024786 -2.1282229 1.3233351
-2.527555 -1.4890449 1.3259419
0.079966664 -1.2396256 1.3214908
2.3355746 -1.1343553 1.329824
-2.4307563 -1.1114852 1.324576
-2.4341159 -1.0192319 1.3212769
-2.2921367 -0.96852827 1.3296467
-1.9899185 -0.94946289 1.322255
-2.2848096 -0.8901943 1.3279853
2.2072775 -0.87715304 1.3244171
-1.4408 -0.54912144 1.3231263
-2.3270428 -2.0309072 1.3339903
-2.3755777 -1.8495647 1.3353676
2.4156229 -1.6014961 1.3317213
-2.399183 -1.4611737 1.3365248
-2.2933006 -1.3679142 1.3393819
-2.105345 -0.92947829 1.3386121
-2.0801253 -0.86373615 1.333226
-1.8176751 -0.65088809 1.3300607
-1.5512792 -0.56017745 1.3344312
1.5525504 -0.44467062 1.3348283
1.526935 -2.7330306 1.3453727
0.08189372 -2.3375823 1.342706
0.083449453 -2.1191399 1.3460422
-2.0062628 -2.056746 1.3450692
1.2592139 -1.9678485 1.3445736
-2.0674155 -1.8899128 1.3480756
-2.3385267 -1.7111018 1.3407185
-2.0196989 -1.6929343 1.3488601
-2.1017282 -1.3459141 1.347394
1.2598517 -1.2294343 1.3459417
0.091373578 -1.166707 1.3459531
2.2103574 -1.0326779 1.3416755
0.092037931 -0.91279626 1.3473765
-0.43314421 -0.51802444 1.3443543
1.6003213 -0.45719716 1.3483655
-2.1456897 -1.7258947 1.3508673
-2.1520143 -1.5953269 1.3592126
2.037426 -0.92422396 1.3592546
0.10315333 -0.50580364 1.3543346
1.6250677 -0.46111318 1.3532217
-0.29721329 -2.6721334 1.3641018
1.2286781 -2.4235737 1.3631194
1.9561589 -2.391772 1.3639636
1.1545075 -2.0826528 1.3656518
2.0997334 -2.0156548 1.3683608
2.1758599 -1.659098 1.3691211
2.1922557 -1.5510614 1.3665636
1.1519988 -1.2821759 1.3662915
-0.020402426 -1.0006464 1.3686774
1.8443712 -0.68395394 1.3685493
0.71789664 -0.49051201 1.3675619
1.0123593 -0.47497681 1.3634025
1.1209716 -2.7077904 1.3726741
-0.025134105 -2.2482131 1.3762488
1.1535648 -1.9504213 1.3700955
2.1223383 -1.5966551 1.3774698
-1.2059437 -2.6312227 1.3880492
0.10137806 -2.1882508 1.3844906
0.072546378 -1.9953918 1.3835831
2.0231137 -1.8899467 1.3875487
-1.9379084 -1.8292646 1.3875554
2.0573335 -1.6484455 1.3876097
1.2787142 -1.3812032 1.3863926
0.0045863176 -1.2301421 1.3816214
-1.896942 -0.95633221 1.3803985
1.8407845 -0.81457841 1.3873079
0.4138405 -0.50462985 1.3889732
0.92101312 -2.6960592 1.3957595
-0.92204922 -2.6433063 1.3966455
1.3372486 -2.384222 1.3986769
1.9004443 -2.1580002 1.3934814
1.1723028 -2.1230741 1.3976477
1.1687233 -2.0869093 1.3925349
2.0010855 -1.8055104 1.3943843
1.9831688 -1.7939379 1.397542
1.1605272 -1.7837956 1.3912233
0.050427482 -1.21395 1.3962419
-0.014608402 -0.95505941 1.3942182
-1.8335418 -0.87217593 1.3937578
1.9268068 -1.8958294 1.4016593
1.1723464 -1.8648958 1.4099139
1.8855269 -1.8504317 1.4097229
1.9657469 -1.6758018 1.401896
0.11761685 -1.0194963 1.4022307
0.84917176 -0.49929351 1.4001248
1.8632292 -1.711849 1.4178876
0.011430049 -0.82802439 1.4162576
0.73451823 -2.6763225 1.4259591
1.3354694 -2.6164196 1.4275028
1.5354276 -2.5562854 1.421154
1.4984221 -2.3966389 1.4282959
1.4519947 -2.3293712 1.4244089
1.6755884 -2.2251842 1.4279433
1.47701 -2.1720393 1.427888
1.4264891 -2.0554867 1.4243884
1.7519538 -1.930337 1.4288691
-1.8518617 -1.325572 1.4255613
1.1917802 -0.98009318 1.4292643
0.090547152 -0.84355807 1.426299
1.6502281 -0.81626195 1.4214096
1.526616 -0.66211039 1.4253774
-0.91427189 -0.55542934 1.4203454
-0.7274093 -2.640101 1.4361312
1.5267506 -2.0902162 1.4335028
-0.0039893603 -2.08026 1.4305156
1.5452379 -1.8677574 1.4388169
1.7701304 -1.7025625 1.4340708
1.3247229 -1.2543067 1.4359725
1.1939589 -1.0654148 1.437441
-0.89233792 -0.56020939 1.4386582
1.6132866 -2.114521 1.4445759
1.5912662 -1.8867358 1.4426377
1.5646445 -1.8285035 1.441457
1.5400312 -1.7802742 1.44065
1.5771282 -1.6740623 1.4440763
1.5538096 -1.651644 1.4430082
1.5940591 -1.6214147 1.4466199
1.5254922 -1.5748087 1.4430795
1.181759 -1.5100473 1.4440943
1.5288349 -1.4588975 1.4457588
1.4958354 -1.3428183 1.4441767
1.5771165 -1.0139676 1.4426885
-0.59066254 -0.55166245 1.4481051
1.1047593 -2.6361685 1.4578203
-1.6194463 -2.4355726 1.4589779
1.6323839 -1.9548857 1.4520767
1.6074036 -1.1812741 1.4549897
1.5088108 -0.81758422 1.4504147
-1.317759 -2.5988247 1.4688839
1.2461932 -2.5866737 1.4625133
1.6165986 -1.6205842 1.4682071
-1.7035424 -0.96840018 1.4668224
-1.6604571 -0.8813628 1.4692686
0.14169684 -0.53822482 1.4612
