# .PCD v0.7 - Point Cloud Data file format
VERSION 0.7
FIELDS x y z
SIZE 4 4 4
TYPE F F F
COUNT 1 1 1
WIDTH 1581
HEIGHT 1
VIEWPOINT 0 0 0 1 0 0 0
POINTS 1581
DATA ascii
16.331352 62.807487 0.29382396
17.419504 62.837872 0.29026115
16.198269 62.867596 0.29198757
17.646133 62.900581 0.2902995
17.613157 63.206161 0.29170632
16.148497 63.212704 0.29345372
16.056009 63.809059 0.29525191
17.808846 63.896004 0.29218528
15.974681 64.095222 0.29295555
17.825031 65.373848 0.29006174
16.222836 66.176842 0.29006898
15.992503 66.215256 0.29038104
17.323423 66.514313 0.29103246
17.531288 66.517586 0.29136804
17.8988 66.542999 0.29790154
16.432909 66.57666 0.29742226
16.628502 66.585602 0.29833841
17.507971 66.598763 0.29968742
16.978685 62.593643 0.30947483
16.495472 62.629623 0.3091279
16.419964 62.649635 0.30627316
15.967761 63.1194 0.30331552
17.673265 63.220871 0.30008617
17.676086 63.232323 0.30393982
16.049099 63.319988 0.3017678
17.89669 63.371765 0.30413601
16.222851 63.746941 0.30724424
16.051224 63.811516 0.30764371
17.70505 63.810886 0.30449048
17.845493 65.097893 0.3020249
15.982482 65.100357 0.30998898
15.996786 65.635269 0.30521807
17.83387 65.72229 0.30260032
17.716934 66.062546 0.30645126
16.75736 66.615715 0.30142513
17.791779 66.61998 0.30333775
16.513233 66.62635 0.30251443
16.912708 66.649368 0.30487293
16.250463 66.654442 0.3053928
16.478767 66.652168 0.30516034
16.631784 66.661499 0.30611628
16.453655 66.679947 0.30800706
17.296867 66.671181 0.30710816
17.02063 66.691208 0.30916101
17.350899 62.625797 0.31734699
16.432791 62.63657 0.31833068
17.678926 62.769596 0.31648669
15.974449 63.261604 0.31770435
17.902933 63.373451 0.31912994
15.989531 63.386932 0.31785855
16.049101 63.419449 0.31939048
17.7707 63.43845 0.31538817
16.062401 63.581909 0.31325179
17.77121 63.679413 0.31614259
16.1786 63.896 0.31618911
17.854946 65.321289 0.31451744
16.033504 65.993599 0.31598711
16.053833 66.205376 0.31766182
17.757299 66.315063 0.31184286
16.04232 66.338806 0.31185028
17.777546 66.334091 0.31527421
15.958635 66.643143 0.31283456
16.648233 66.729431 0.31307837
17.043716 66.736557 0.31380844
16.510704 66.7472 0.31489882
16.622601 66.742523 0.31441975
16.956913 66.751076 0.31529653
16.307014 66.7696 0.31719476
17.777273 63.115044 0.32509303
16.222755 63.141769 0.32562804
17.894266 63.528809 0.32997286
17.81868 63.681709 0.32566559
17.87928 64.336098 0.32211989
15.96603 65.250519 0.32909441
16.766489 66.806091 0.32093412
16.861319 66.819542 0.32172775
17.732512 66.815407 0.32173461
16.089426 66.847893 0.32539511
16.948156 66.853439 0.32207406
17.174582 66.857407 0.32211459
16.20289 66.878021 0.32292557
16.42141 66.873672 0.32267511
16.598434 66.879807 0.32247493
16.74753 66.899269 0.32254234
16.458595 66.952606 0.32375985
17.008949 66.978592 0.32341924
16.380699 62.642113 0.33303317
15.974527 62.995193 0.33863205
17.739967 63.113411 0.33626688
16.049101 63.517391 0.332082
17.760691 66.201881 0.33217421
17.89131 66.411369 0.33780292
17.457748 66.96946 0.33906192
16.500011 66.979668 0.33926418
17.36401 62.6161 0.34037787
15.987722 62.965816 0.3456938
16.177479 63.056198 0.34844127
15.939674 63.520954 0.34152898
15.995666 64.337234 0.34916791
15.992782 64.625755 0.34583664
15.94698 66.175583 0.34524527
16.223579 66.280579 0.34265363
17.7707 66.296227 0.34920156
15.95219 66.382851 0.34842235
17.881245 66.446259 0.34264684
16.157471 66.733215 0.34942442
16.722427 62.585171 0.35630861
16.223389 63.348145 0.35997003
16.049101 63.459949 0.3563571
16.223356 63.608768 0.35724074
17.612511 63.64724 0.3549799
16.003025 63.894241 0.35833257
17.859852 64.814758 0.35174277
17.83947 64.981316 0.35910207
17.864721 64.981529 0.35325983
17.882549 65.669807 0.35739461
17.882645 65.80127 0.35980824
17.733038 65.993599 0.35176316
17.757299 66.42482 0.35196152
15.936838 66.44632 0.35199133
15.983767 66.496971 0.35318366
16.223616 66.542915 0.35805809
16.22316 66.695145 0.35506871
17.032003 62.579765 0.36662444
16.831045 62.605301 0.36072901
16.412699 62.628925 0.36005145
17.068634 62.647247 0.36072898
17.228741 62.672264 0.36908141
17.706724 62.765568 0.36685503
16.04414 62.85183 0.36610144
17.762535 63.254036 0.36577299
16.049101 63.5993 0.36870041
15.972221 64.676956 0.36547986
17.861191 64.870232 0.36003378
17.840158 64.988708 0.36695266
15.974325 65.22657 0.36817396
17.870493 65.789398 0.3639082
17.879021 66.446533 0.36533675
17.512997 66.987083 0.36070076
17.357487 62.62923 0.37562263
15.986404 62.95385 0.37435639
16.042313 63.110947 0.37421858
15.91298 63.364643 0.3747766
16.049101 63.395706 0.37204084
16.049101 63.561058 0.37738806
15.943235 63.703377 0.3749336
15.995312 64.92379 0.37066546
15.953236 66.164742 0.37970185
16.142647 66.164528 0.37840348
16.062401 66.260521 0.37439555
17.85393 66.311874 0.37208116
17.7707 66.53299 0.37664649
16.09638 66.913864 0.37309501
17.394209 62.632458 0.38402718
17.505125 62.676216 0.38519832
16.22056 62.723633 0.38527277
17.525867 62.742397 0.38523257
16.131939 62.78228 0.38759822
17.685829 62.828156 0.38495418
16.016146 62.892529 0.38324299
17.789171 63.110893 0.38110024
17.61256 63.155064 0.38383824
15.91437 63.346649 0.38693169
17.660845 63.762695 0.38719761
15.966765 64.431068 0.38111588
17.841215 65.548332 0.38431066
16.133196 66.168831 0.38986972
17.794127 66.181709 0.38032621
17.865742 66.312851 0.38230997
17.7707 66.377716 0.3863692
16.068516 66.89286 0.38877633
17.714808 66.944405 0.38038886
16.276726 66.995758 0.38468134
16.409582 62.719681 0.39113963
17.487955 62.74448 0.39115748
17.59712 62.817444 0.39442164
17.683002 62.851555 0.39636534
15.95452 63.222015 0.39341694
15.961162 63.555172 0.392232
17.612747 63.80328 0.39253029
17.849525 63.817883 0.39992568
17.873993 64.055077 0.39911309
15.968446 65.07988 0.39437729
15.988129 65.193817 0.39967307
15.970265 65.701279 0.39211386
17.876289 66.146812 0.39837608
17.904844 66.297966 0.39232641
16.063437 66.630081 0.39116859
16.223679 66.631332 0.39150369
17.409029 62.747227 0.40287215
17.412048 62.747879 0.40262341
16.223429 63.298561 0.40206105
17.871107 63.432648 0.40554202
17.757401 63.54829 0.40527612
17.731529 63.89135 0.40416747
17.872925 64.591301 0.40511936
15.988972 65.137817 0.40419129
15.96594 65.551636 0.40909365
17.612413 66.113335 0.40306008
17.749052 66.199966 0.40775752
15.914916 66.314331 0.40340045
17.612286 66.318733 0.40854317
17.7707 66.374527 0.40760586
15.92 66.434891 0.40728989
15.952368 66.43869 0.40936065
17.767063 66.628799 0.40790388
16.573761 67.014618 0.40364552
17.208033 62.607353 0.41664112
16.947048 62.636749 0.41405296
16.967262 62.646336 0.41405299
16.558289 62.652664 0.41907638
17.248434 62.650917 0.41805521
16.500837 62.759434 0.41533756
16.106441 62.840538 0.41689944
17.61232 63.192459 0.41598833
17.757401 63.406956 0.41932631
16.062401 63.467873 0.41225404
17.809437 63.817055 0.4126116
16.001511 63.888832 0.41859308
16.205776 63.889717 0.41371366
17.873552 63.890293 0.41053289
15.958711 64.425232 0.41718295
17.875637 64.487076 0.41258514
17.871796 65.658607 0.41798821
16.207199 66.000206 0.41186875
16.110838 66.056618 0.41053468
17.830963 66.322128 0.41081735
17.903299 66.335716 0.41951185
17.867771 66.411667 0.41477349
17.884369 66.42688 0.41082066
15.947855 66.465927 0.41731459
16.086082 66.808319 0.4191373
16.222868 66.998283 0.41344482
17.078583 67.023361 0.41105747
16.480341 62.690655 0.4223178
17.542427 62.83255 0.42742875
17.891609 63.058182 0.42900413
17.886406 63.172531 0.42567787
15.978201 63.260391 0.4254238
17.875763 63.716747 0.42094821
17.745401 63.888535 0.42028606
17.879623 64.36969 0.42804495
15.962215 65.108406 0.42515469
17.872202 65.674667 0.42000544
17.873285 65.84948 0.42099184
15.960727 66.489326 0.42174923
16.046976 66.759781 0.42575616
17.612003 66.758301 0.42902932
16.173956 66.989975 0.42201489
17.239674 62.606701 0.43341011
17.156004 62.641586 0.43368942
17.762394 62.883503 0.43062121
16.223661 63.165039 0.43794531
17.88192 63.427841 0.43004596
17.791866 63.542572 0.43095607
15.958979 64.836685 0.4354668
15.935561 66.086922 0.43759158
16.16012 66.112297 0.43111044
17.612249 66.308311 0.43844342
16.017467 66.605057 0.4391551
17.764044 66.607208 0.43055195
15.98687 66.757675 0.43630725
17.525282 67.0271 0.43978113
17.647306 62.791954 0.44131583
17.453171 62.812809 0.44998437
17.7707 63.433292 0.44323939
15.953907 64.408897 0.44719216
17.719925 66.005981 0.44396284
15.991716 66.061638 0.44481659
16.155321 66.129517 0.44341421
17.612509 66.251602 0.4488866
15.971458 66.344879 0.443957
17.658119 67.000336 0.44164121
17.228634 67.02771 0.44843897
16.826588 67.03299 0.44134325
17.132261 67.030396 0.4467684
16.223606 62.778118 0.45677572
17.624569 62.782238 0.45705539
15.93157 63.161381 0.45678326
16.049101 63.333031 0.45680207
17.757401 63.345367 0.45212841
15.970381 63.693954 0.45408386
15.948509 63.701065 0.45844585
15.941012 63.725224 0.453794
15.936458 63.74157 0.452851
15.941236 63.794994 0.45608544
16.175982 63.882645 0.45277813
17.808025 63.882957 0.45104265
17.883598 64.2061 0.45389402
17.878786 65.175049 0.45092136
16.009449 66.008545 0.45816487
17.612518 66.252762 0.4586767
15.975187 66.61541 0.45556676
16.044273 66.614975 0.45660841
17.595345 67.018066 0.45668453
17.366135 62.790321 0.46510333
16.146734 63.219208 0.46532127
16.146599 63.225513 0.46458316
15.961485 63.239357 0.46770239
17.868124 63.4925 0.46787
16.062401 63.593849 0.46097565
15.957911 66.070473 0.4670338
17.787848 66.216377 0.46016717
17.889282 66.211601 0.46948716
16.04952 66.553398 0.4680098
17.647669 67.006744 0.46344188
17.17753 67.038765 0.46532142
17.112658 67.044556 0.46523082
17.162691 62.599846 0.47403958
17.169357 62.602654 0.47243392
17.331173 62.631332 0.47772205
17.209494 62.675159 0.47346234
17.89373 63.63092 0.4770205
16.13501 63.687458 0.47165507
16.223541 63.701607 0.47621489
17.671301 63.711769 0.47893572
17.869162 64.000069 0.47046685
17.871393 65.178101 0.47155669
15.97531 65.21611 0.47453731
17.882387 65.359352 0.47932774
17.855883 66.011253 0.47321641
16.062401 66.488426 0.47591817
17.691002 66.626717 0.47539124
17.87112 66.638145 0.47412765
16.588688 67.04052 0.47227478
16.876968 62.601498 0.48916
17.035812 62.632767 0.48916
16.340731 62.666397 0.48837423
17.433119 62.676628 0.48380199
16.511715 62.692188 0.48810154
17.4387 62.698994 0.4835541
17.42981 62.701408 0.483578
17.450436 62.708076 0.48507822
16.612335 62.736137 0.48973039
17.235275 62.747776 0.48276311
17.807079 62.859287 0.48767856
16.158253 62.873924 0.48321044
17.850489 63.064167 0.48136032
17.761658 63.265926 0.48269957
17.843973 63.266663 0.4839099
17.851978 63.641327 0.48684159
17.878719 63.702469 0.48042178
17.666025 63.726486 0.48505846
17.883137 65.520126 0.48678604
17.877657 65.925148 0.4835141
16.223459 66.187454 0.48351187
17.765236 66.599007 0.48899168
16.018034 66.798508 0.48740107
16.177887 66.992538 0.48914504
17.319208 62.627823 0.49563932
16.523655 62.650925 0.49539557
16.556627 62.659172 0.49424154
17.104057 62.678673 0.49362344
17.610605 62.71096 0.49510622
16.581455 62.744591 0.49278295
17.658659 62.758003 0.49814269
16.493473 62.769012 0.49978468
16.178036 62.798531 0.49875617
17.741875 62.804272 0.49989992
17.617561 62.854496 0.49995419
16.057634 63.295765 0.49991852
15.928818 63.639942 0.49339432
17.843275 63.6749 0.49597052
16.160303 63.757954 0.49395633
15.927952 63.905228 0.4927029
17.88879 64.445 0.49702513
15.949718 64.948669 0.49964085
17.884897 65.091797 0.49395153
15.961449 66.016518 0.49123842
16.223732 66.116272 0.49468696
15.929272 66.234383 0.49151373
16.223804 66.303726 0.4981063
16.223679 66.343315 0.49803105
16.155308 66.722275 0.49285394
17.743958 66.742126 0.49574918
17.056997 67.048317 0.49057308
17.094217 62.673355 0.50531262
16.559462 62.724045 0.50253528
16.285057 62.756828 0.50018817
16.185837 62.81546 0.5047558
17.691341 62.874733 0.50275344
15.98205 62.93161 0.50796038
15.94203 63.239613 0.50404143
16.07056 63.298248 0.50282812
17.757401 63.570152 0.50419337
16.05447 63.793892 0.5092479
17.888229 64.687645 0.5060575
15.948263 64.698006 0.50272799
15.952531 66.197166 0.50002164
16.323332 67.018959 0.50218982
17.354212 67.034897 0.50604427
17.040445 62.669918 0.51066345
17.437483 62.681316 0.51293761
17.566431 62.706558 0.51128817
15.928531 63.068985 0.5181812
15.957315 63.267349 0.51991141
17.7707 63.419235 0.51306379
16.223728 63.50563 0.51759827
17.612165 63.508514 0.51315677
16.062401 63.567188 0.51078826
17.790594 63.614281 0.51746047
15.957932 63.660923 0.510611
15.961693 63.790462 0.51330382
17.893528 64.060059 0.51946658
17.89068 64.552383 0.51627761
15.945827 64.695076 0.51984012
17.889519 64.721832 0.51706737
17.887825 65.130417 0.51749575
15.944836 66.193329 0.51399708
17.784395 66.232048 0.51541483
17.791492 66.248642 0.51040804
17.611988 66.484276 0.51624799
17.318598 67.036697 0.51020187
17.235683 67.040787 0.51631492
17.699245 62.773445 0.52876478
16.141113 62.817104 0.52348399
15.946152 63.26403 0.52133572
17.7707 63.4977 0.5215227
15.951115 63.864441 0.52572554
15.963709 63.865845 0.52141047
17.818623 63.865818 0.52149314
17.888958 64.281052 0.52014977
17.885637 65.936363 0.52741081
17.826324 66.217979 0.52081347
15.98096 66.59623 0.52782166
16.000298 66.78653 0.52475578
17.313148 67.037567 0.52923232
16.529772 62.60989 0.53855991
17.222031 62.617966 0.53672332
16.528099 62.636734 0.53859639
16.538523 62.660896 0.53836882
17.043518 62.664001 0.533813
16.529179 62.674114 0.53857291
16.37561 62.745697 0.53126907
17.481583 62.746868 0.53494012
16.141712 62.793015 0.53837669
16.022417 62.866783 0.53378963
16.015743 62.87624 0.53220689
17.869473 63.156849 0.53219891
17.659735 63.188984 0.53189629
17.863716 63.284889 0.53788626
17.612783 63.318336 0.53417891
16.049103 63.498878 0.53977561
17.704802 63.860153 0.53889298
15.94066 64.334061 0.53087801
17.894258 64.34346 0.5318253
17.885328 65.173576 0.53098881
17.88859 65.785095 0.53146958
15.934021 65.923767 0.53462607
17.612576 66.207748 0.53971452
15.973988 66.27317 0.53443271
16.062401 66.356255 0.53315419
17.612125 66.351105 0.53103644
17.668161 66.63385 0.53710759
16.152426 66.992706 0.53620303
16.733452 62.583939 0.54945314
16.332062 62.64846 0.54751819
17.426661 62.658459 0.5420965
17.50276 62.668121 0.54444546
17.627516 62.828262 0.54030073
15.928917 63.583878 0.54493386
17.896198 64.099991 0.54085118
17.89712 64.291191 0.5486744
17.89698 64.673775 0.54882014
15.942779 64.815331 0.54624277
16.16585 66.035538 0.54090017
17.685719 66.233238 0.54268003
16.062401 66.416077 0.5452382
17.66806 66.705536 0.54202759
16.223724 66.720123 0.54884803
17.71801 66.780853 0.5424366
16.997723 62.580978 0.5549469
17.382851 62.617653 0.55672193
17.613873 62.755211 0.55006659
17.847996 63.302013 0.55577743
17.850719 63.324543 0.55301678
16.035988 63.332394 0.55754447
16.079496 63.772091 0.55482709
17.722273 63.853584 0.55909568
17.897524 64.096687 0.55949223
17.897133 64.215759 0.55698597
17.89822 64.487991 0.55887902
17.896551 64.944565 0.55696929
16.072859 66.100922 0.55288947
17.612572 66.167114 0.55859464
17.516129 67.027969 0.55895776
16.598139 67.041992 0.55699086
16.178041 63.089157 0.56503654
15.932507 63.232445 0.56648505
15.993327 63.350121 0.56841248
17.751181 63.37822 0.56486142
15.946851 63.61021 0.56046534
17.844936 63.620728 0.56154561
17.61236 63.727943 0.56680304
15.939851 64.522263 0.56191355
17.872768 65.187302 0.56022382
15.942407 65.591469 0.56804407
16.223612 66.079994 0.56390363
17.612497 66.126678 0.56347632
17.612183 66.765465 0.56403065
16.914509 62.5788 0.57750225
17.860573 62.944595 0.57408214
16.005123 63.094543 0.57755208
15.93303 63.216724 0.57795429
15.933594 63.686169 0.57398283
17.849037 63.759148 0.57426929
17.896145 64.509789 0.57844669
17.900124 64.958519 0.574884
15.962487 65.112411 0.57375681
17.875227 65.178932 0.57680738
17.895021 65.227409 0.57336199
17.894917 65.535217 0.57751614
15.942514 65.894562 0.57827908
15.946849 66.055016 0.57799459
16.140827 66.05368 0.57595485
16.031511 66.351982 0.57534128
16.043249 66.468475 0.57347673
17.857058 66.53009 0.57285661
16.071941 66.766663 0.57254612
17.245983 67.042114 0.57267463
15.984577 63.176102 0.58205855
17.719444 63.177269 0.58380985
15.93339 63.217903 0.58129132
16.067085 63.396469 0.58900726
17.772629 63.525024 0.58987498
15.939559 63.648449 0.58375722
16.156433 63.843018 0.5836767
15.940332 65.450699 0.58082402
17.875877 66.253593 0.58859253
17.874002 66.306694 0.58992004
16.072475 66.328529 0.58460867
17.612167 66.330566 0.58514702
17.61187 66.391693 0.58595181
17.792616 66.469032 0.58967119
16.011248 66.482475 0.58529955
17.875246 66.569107 0.58074194
16.223789 66.57798 0.58435112
17.676876 67.003387 0.58883286
16.919552 62.578743 0.59035921
17.012726 62.581364 0.59945834
17.187216 62.588661 0.59542555
15.979943 63.451843 0.59835261
16.051077 63.472736 0.5983882
16.040604 63.74654 0.59309596
15.943174 63.837265 0.59365392
17.899628 64.212784 0.59299088
15.934243 65.289955 0.59019631
15.941799 65.682831 0.5918588
17.856962 66.346153 0.599994
15.99138 66.357941 0.59310859
16.053827 66.751801 0.59534872
16.046335 66.939606 0.5910089
15.930001 63.262947 0.60975093
16.147942 63.350815 0.60172796
16.223362 63.670525 0.60591227
15.939859 63.711727 0.60942131
15.951876 63.832237 0.60235715
15.933341 65.620071 0.60157102
15.943278 65.729095 0.60988909
15.95124 66.50885 0.60063863
16.224131 66.501114 0.60916871
17.864628 66.814087 0.60498667
16.866175 62.580154 0.61191428
16.223143 63.247528 0.61902452
17.851345 63.479988 0.61918199
16.12779 63.822544 0.6191529
16.199713 63.823204 0.61800545
15.934529 65.24675 0.61298865
17.61199 66.251556 0.61396897
15.950994 66.333931 0.61024088
17.879456 66.433113 0.61810446
15.983391 66.462486 0.61139506
15.937338 66.557236 0.6194821
17.553493 62.676151 0.62160349
17.739202 62.797993 0.62842381
15.932861 63.264706 0.62510896
17.88257 63.33012 0.62747979
17.8808 63.55138 0.62345004
17.61223 63.777267 0.62601477
15.939524 64.50238 0.62085843
15.939885 64.611862 0.62425613
17.89222 65.320122 0.62640375
15.944099 65.595551 0.62578428
16.001711 66.660278 0.62733519
17.876986 66.758743 0.62722254
16.987938 67.064453 0.62370604
17.611839 63.589653 0.63966841
16.15826 63.656563 0.63796908
17.894234 64.678589 0.63975549
15.944527 65.323517 0.63620085
17.890751 65.62793 0.63906771
15.930086 65.959122 0.63307077
16.08707 66.096535 0.6364845
17.612158 66.228996 0.63106519
16.146427 66.446075 0.63481307
16.224186 66.506912 0.63421911
16.83659 62.581364 0.64739817
15.915653 63.098614 0.6472016
17.88205 63.374508 0.6447354
15.941449 63.442184 0.64644486
17.741385 63.695572 0.64609092
17.893734 64.687347 0.64786404
17.658548 66.556938 0.64442509
17.824192 66.63649 0.64848208
16.207376 66.721741 0.64148802
16.235209 62.705536 0.65522623
15.930569 63.055984 0.65419888
15.91448 63.144917 0.65480953
16.15517 63.37973 0.65138465
15.934903 64.158653 0.65308774
15.991503 66.634674 0.65006858
16.260294 67.034065 0.65783155
17.488832 62.651714 0.66312385
16.150225 63.14962 0.66202712
15.956029 63.273754 0.66897011
16.158703 63.329014 0.66869205
15.935611 63.44706 0.66624594
17.776911 63.674656 0.66319859
17.904381 63.996056 0.66392881
15.946574 65.26786 0.66074228
17.889204 65.443283 0.66281301
15.947631 65.713966 0.66857302
15.944512 66.219841 0.66159272
16.935583 62.589386 0.6798321
17.721285 63.66301 0.67098659
17.671078 63.786045 0.67024362
15.937512 64.300552 0.67886633
15.973742 66.216919 0.6749351
17.683838 66.691505 0.67148507
15.97665 66.839767 0.6776948
17.338007 67.07254 0.67492282
17.667536 62.749702 0.68708146
16.16 63.400963 0.68735075
17.80043 66.148651 0.68448091
17.725227 66.233376 0.68563235
15.936901 66.537025 0.68505859
17.844522 66.581169 0.68713289
16.119415 66.677132 0.68521678
17.886576 66.738976 0.68797547
17.460766 62.652977 0.69454324
16.163895 62.754303 0.69155425
15.966631 62.991486 0.69478142
17.786209 63.31604 0.69881994
15.933945 63.49474 0.69858491
17.611681 63.626526 0.69871914
17.611664 63.654701 0.69431335
17.936184 63.828236 0.69113797
16.028599 66.158096 0.69251621
17.881273 66.165558 0.6979363
16.047457 66.252579 0.69509327
17.694752 66.56131 0.69692475
16.022388 66.924065 0.69096488
16.056507 66.975693 0.69727409
16.096264 67.003555 0.69427049
16.700169 67.096901 0.69703627
17.611727 63.548065 0.70418406
15.938023 64.391312 0.70816892
15.946726 64.87114 0.70428902
17.886019 65.65303 0.70129597
15.932178 66.047577 0.70769548
16.921976 62.616631 0.71565199
16.652124 62.625877 0.7173425
17.622126 62.733768 0.71150321
16.011278 62.924343 0.71604055
17.908672 63.977882 0.71433276
15.929657 64.076935 0.71497339
17.888895 64.823265 0.71547323
15.938472 66.000099 0.71102893
17.761097 66.647949 0.71160156
17.442444 67.064926 0.71205354
17.326918 67.081955 0.712062
16.318493 62.691402 0.7212339
15.995604 62.951595 0.72392201
17.911816 63.112694 0.72336274
16.224218 63.283585 0.7246297
16.139385 63.509247 0.72276211
16.116531 63.52158 0.72729516
16.22423 63.574009 0.72536248
17.901108 64.327103 0.72937512
16.054209 66.197891 0.72141266
16.113228 66.36924 0.7296353
15.965086 66.450951 0.72945994
17.763454 66.479073 0.72441125
16.048904 66.621788 0.72891235
15.942066 66.705231 0.72721642
16.130419 67.010307 0.72188503
17.188587 67.086525 0.72549987
16.476852 62.668663 0.73227429
16.797146 62.660755 0.73617089
16.471209 62.690884 0.7363764
16.842611 62.711437 0.73230338
16.060986 63.434662 0.73038208
17.794493 63.468903 0.73211652
16.023443 63.472061 0.73190987
15.948538 64.914688 0.73613858
17.88353 65.491013 0.7313357
17.883326 65.820694 0.73584586
17.612076 66.291771 0.73073107
17.870792 66.786148 0.73281252
16.216927 62.764488 0.74211085
17.895761 63.082611 0.74591994
17.611649 63.521877 0.74607575
16.19492 63.705246 0.74370587
17.923244 63.839798 0.74870992
17.823223 66.226395 0.74051845
16.151503 66.242378 0.74763417
17.818298 66.241417 0.74720597
17.901896 66.663055 0.74864137
17.550064 62.813854 0.75671458
17.834248 63.249866 0.75433826
17.881432 65.685287 0.75428748
15.954221 65.970978 0.75839484
16.015762 66.269455 0.7596873
17.873163 66.568489 0.75750351
17.350424 67.053101 0.75639975
16.844658 67.074615 0.75818968
16.268911 62.87664 0.76557308
16.230644 62.908157 0.76717168
17.605286 62.936172 0.76751089
17.569736 62.940514 0.76473045
17.701868 63.667652 0.76821506
16.167324 63.681995 0.76059473
15.905008 63.797173 0.76123339
15.955755 65.727371 0.76581389
16.780081 67.068497 0.76313543
16.145811 62.856194 0.77947605
17.705048 63.025848 0.77917135
17.695826 63.030945 0.77722627
16.102606 63.167404 0.77992272
16.180353 63.294037 0.77747393
16.224497 63.309975 0.7742759
17.736185 63.653404 0.77456212
17.909588 64.0261 0.77331728
15.955122 65.242203 0.77365744
15.956575 65.408623 0.77376568
17.898975 66.068474 0.77653909
15.994253 66.305664 0.77337837
17.666914 66.497368 0.77941191
16.041548 66.931801 0.77875662
17.689043 66.990799 0.77491349
16.71925 67.058617 0.77216458
16.859369 67.060898 0.77560824
16.532759 62.692093 0.7879771
16.76685 62.698898 0.78217536
17.50325 62.808556 0.78144664
17.705769 62.88887 0.78507501
16.100058 62.894173 0.7823295
17.735048 62.922386 0.7897172
17.742039 62.979752 0.78343999
16.16003 63.031067 0.78840733
16.08894 63.099548 0.78562933
16.101269 63.18 0.78179514
16.203772 63.307537 0.78348857
17.733271 63.623322 0.78795934
16.023579 63.630199 0.78489691
15.928467 64.119873 0.78314555
15.933721 64.4552 0.78454161
15.947557 65.007614 0.78076768
16.021118 66.34256 0.78122532
17.850933 66.380455 0.78810596
17.611563 66.392494 0.78531897
16.032644 66.400673 0.78810608
17.758194 66.429131 0.78810602
17.675598 66.450378 0.78810602
17.702354 66.464462 0.78641081
16.066412 66.474602 0.78425527
16.126984 66.480019 0.78310245
15.936917 66.492538 0.78043878
15.922412 66.575981 0.78240854
17.887188 66.701889 0.78642166
16.601141 67.045029 0.78170794
17.142052 67.046936 0.78488916
17.183186 62.671577 0.79737592
17.235403 62.725143 0.7990995
17.650034 62.927532 0.79861796
16.054117 62.940468 0.79040372
16.204103 63.010773 0.79368794
17.635551 63.019485 0.79684675
17.674843 63.049145 0.79349637
17.745459 63.100243 0.79433477
16.089563 63.123993 0.79476678
17.681931 63.333492 0.79504728
15.948764 65.051659 0.79005933
15.972906 65.165916 0.79731786
15.95641 65.258499 0.79795587
17.879704 65.285179 0.79493117
15.915009 66.502029 0.79486096
17.879248 66.703712 0.79612678
17.708075 66.974411 0.7947793
17.644346 62.847637 0.80492419
16.323423 62.864578 0.80733496
16.062195 62.979145 0.80682611
17.807236 62.98571 0.80532598
17.764584 62.99501 0.80947053
15.989758 63.018772 0.80053967
16.075487 63.025681 0.80485189
16.099033 63.590881 0.80063212
15.932192 63.942905 0.80519408
17.87595 65.525864 0.80924237
16.358723 66.992859 0.80911034
16.893591 62.679314 0.81195593
16.843012 62.754234 0.81903279
16.322872 62.806427 0.81121218
16.166201 62.850578 0.81963933
17.519386 62.912132 0.81929272
16.038944 63.03537 0.81042528
17.930714 63.414051 0.81424892
16.1385 63.420746 0.81567287
15.899752 63.529579 0.81365103
15.918233 66.213989 0.81500268
15.905071 66.34259 0.81379706
17.863762 66.748405 0.81882387
17.344509 66.924965 0.81130785
16.52944 66.937698 0.81100607
16.79604 66.947105 0.81100595
16.442162 66.95752 0.81311762
16.746243 66.973076 0.81100601
17.606075 62.808151 0.82958782
16.08289 62.938187 0.82677555
17.897751 63.856819 0.82330877
15.9354 64.101738 0.82362705
17.873795 65.815552 0.82791567
16.040756 66.905106 0.82131809
16.616411 66.93145 0.82255036
16.766197 67.00264 0.82877529
17.634336 62.866913 0.839616
17.637299 62.910397 0.83058763
16.315691 62.958237 0.83814657
17.519344 62.958427 0.83090258
17.817665 63.031502 0.83247691
16.182827 63.076241 0.83632022
16.090078 63.140732 0.83046949
15.903772 63.308907 0.83756053
17.89514 64.631088 0.83484775
15.952785 65.193825 0.83064348
17.534895 66.972366 0.83582407
16.974094 62.708435 0.84353936
17.053171 62.729134 0.84429961
17.386021 62.769611 0.84654778
16.204029 62.834366 0.84771502
17.526253 62.908997 0.84466815
16.189749 63.103539 0.8491289
15.968967 63.121964 0.84708601
17.880058 63.164131 0.84937167
15.963977 65.762039 0.84530634
17.274702 62.756489 0.85324728
17.52841 62.946136 0.85925215
16.151617 63.118477 0.85437858
15.944603 64.593498 0.85858375
17.888617 64.871918 0.85921299
15.948963 65.023018 0.85168862
15.971268 65.219559 0.85682571
15.954484 66.650688 0.85199219
16.981524 66.937775 0.85346073
17.499874 66.963287 0.85488641
16.927326 62.699585 0.86420494
17.330647 62.754715 0.86467236
16.07868 62.962215 0.86001098
16.171989 63.090797 0.86521381
17.70487 63.126347 0.86468452
16.214058 63.170277 0.86198157
17.936987 63.450035 0.86336356
17.891191 64.18235 0.86258698
17.452305 66.90641 0.86187196
16.128904 66.9151 0.86769903
17.108994 62.731529 0.87199616
17.259377 62.742867 0.87602103
16.340706 62.776764 0.87730098
17.579334 62.87524 0.8713842
16.236631 62.892838 0.87570274
15.973148 65.208466 0.87202275
17.896961 66.279564 0.87436044
15.936327 66.301781 0.87281597
17.895779 66.550194 0.87155259
16.231392 66.942207 0.87021214
16.948025 62.73761 0.88960403
17.152868 62.741581 0.88687164
16.054941 63.136528 0.88855356
16.114437 63.13282 0.88106167
16.012276 63.163322 0.88730347
15.958229 63.22847 0.88999283
15.917785 63.527023 0.8885833
17.882246 64.021805 0.88576812
15.9514 64.475952 0.88805699
17.887127 64.623291 0.88114774
17.173185 66.92662 0.883955
17.583267 66.959961 0.88650399
17.552757 62.841625 0.89852673
16.282261 62.887764 0.89790022
15.938854 63.6656 0.89270502
15.96923 66.06781 0.89816177
16.348322 66.900162 0.89035946
16.681427 66.993622 0.89205486
17.044436 66.997841 0.89045465
16.962326 67.000107 0.89932728
17.330158 62.77832 0.90796506
17.633902 62.953705 0.90548706
16.034225 63.110985 0.90475142
17.860214 63.194759 0.90668476
15.973761 63.982948 0.9020195
17.874931 65.170456 0.90160739
15.970371 65.795197 0.9099257
17.654928 62.916374 0.91632628
16.192312 63.171227 0.91889286
17.880072 63.668282 0.91293204
15.95984 64.400398 0.91318625
17.87849 65.111488 0.91257679
15.973991 65.170715 0.91787022
17.865612 66.239792 0.91361696
16.295797 66.897263 0.91760635
17.537157 66.902039 0.91273612
16.100359 66.932137 0.91304421
16.903307 62.772655 0.92017472
17.16684 62.782833 0.92135561
16.163906 62.914684 0.92835236
17.707745 62.99501 0.92811954
17.79261 63.082069 0.92960811
16.039717 63.126068 0.92682874
15.963558 63.713585 0.92341113
15.959317 64.285194 0.92957866
15.963295 64.678284 0.92534608
17.868172 65.433182 0.92271197
17.866673 66.575531 0.92855656
17.068558 62.800049 0.93563735
17.355186 62.827812 0.93945342
16.380526 62.846947 0.93796909
17.572557 62.863861 0.93269926
16.270222 62.882324 0.9394725
17.677267 62.992943 0.93296719
17.714382 63.057716 0.93209743
17.704226 63.092876 0.93297929
17.846737 63.201035 0.93568373
17.868382 63.308754 0.9376502
15.95118 63.494259 0.93294829
17.874735 64.201309 0.93406594
15.966636 64.842003 0.93708104
17.8687 65.223755 0.93775439
17.865036 65.644653 0.93135047
15.9614 66.414879 0.93923807
17.183491 66.918411 0.9309895
16.417105 62.856026 0.94817579
16.20591 62.910694 0.94612145
16.105848 62.986153 0.94049138
17.764652 63.048874 0.9444859
16.044811 63.094673 0.94058239
15.995283 63.196804 0.94897938
17.865967 63.729801 0.94131839
17.870861 64.297485 0.94870573
15.973724 65.527542 0.94805658
17.773029 66.888809 0.94702446
16.58168 62.838039 0.95210922
17.700434 62.973171 0.95777261
15.967197 63.546227 0.95202583
15.989069 64.004189 0.95607209
15.976986 65.703659 0.95831794
15.976206 65.927452 0.95559049
17.855339 66.270279 0.95943058
16.942184 66.924393 0.95249951
16.803976 62.85619 0.96688914
16.673237 62.865082 0.96883196
17.524967 62.908127 0.9616695
17.610472 63.007473 0.9693203
16.128195 63.017834 0.96825969
17.849201 63.320042 0.96792376
15.9786 65.606865 0.96368873
15.978092 66.427925 0.96978503
17.02091 62.88126 0.97973645
17.323183 62.903152 0.97994465
17.677177 63.043797 0.9749738
17.823635 63.175827 0.97960484
17.86034 63.860817 0.97058481
15.974819 64.381355 0.97887069
15.97538 64.683754 0.97996157
17.482964 66.959366 0.97535098
16.884127 62.891766 0.98546958
16.704887 62.902142 0.98682177
17.397253 62.934803 0.98761058
16.064211 63.099026 0.98202753
17.820276 63.183281 0.98428011
17.851376 63.646545 0.98997813
17.858044 64.337708 0.98891801
15.986502 65.917145 0.98941708
17.577713 66.906204 0.9818188
17.02552 66.988495 0.9887476
16.616833 62.919601 0.99042243
17.193485 62.92683 0.99335474
16.631023 62.950146 0.99982667
16.15213 63.123398 0.99379539
17.828423 63.272514 0.99765134
17.820442 63.290901 0.99070275
17.825256 63.321732 0.99854648
15.981034 64.033577 0.99644643
17.853821 64.631042 0.9984082
15.988345 65.904884 0.99531251
15.986941 66.410522 0.9921242
17.848335 66.528313 0.99470562
17.363884 66.970573 0.99768317
16.234623 63.084789 1.0093646
15.983315 64.718872 1.0027207
17.779835 66.870361 1.0054933
16.970232 66.916084 1.004144
17.157074 62.999626 1.0150666
17.849449 64.095764 1.0155196
15.990844 65.179543 1.0137329
15.97569 66.00518 1.0111052
15.986583 66.12487 1.0128731
16.01767 63.568748 1.022464
17.846869 64.238693 1.0246497
17.843969 64.436432 1.0290343
15.992922 65.240623 1.0272816
17.84086 65.432976 1.0266329
15.992399 65.7005 1.0245306
16.470495 66.966034 1.0289943
16.732246 66.980789 1.0226035
17.031191 63.071987 1.037636
16.458969 63.081173 1.0318663
16.33947 63.101845 1.0306255
16.029896 63.447929 1.0343325
15.995508 63.881828 1.0364809
17.82173 65.171669 1.035418
15.99975 66.666168 1.0370632
16.299116 66.876068 1.0395586
16.608801 63.104053 1.0443264
17.216835 63.105598 1.0451218
17.207432 63.119572 1.0495557
17.524475 63.169319 1.0476332
16.003078 63.746689 1.0488235
15.997532 64.886993 1.0449475
17.83765 66.185135 1.0466716
17.218691 66.89537 1.048383
17.270027 66.89222 1.0464817
17.312691 66.966255 1.0409222
17.004164 66.978485 1.0466511
17.352543 63.164268 1.0566925
16.25028 63.215298 1.0509747
16.176918 63.323761 1.0587364
17.750967 63.458679 1.0587106
17.834736 64.677765 1.0527953
17.833889 66.292145 1.0576795
17.831356 66.551987 1.0541136
17.588257 66.86908 1.0524156
16.082413 66.907936 1.0551188
16.923998 63.151669 1.0605834
16.678062 63.161892 1.0612897
16.6119 63.186783 1.0661881
16.43832 63.19664 1.0619584
16.010408 63.840134 1.0680387
16.022419 64.004166 1.0680333
17.808498 65.137146 1.0699127
17.828621 65.890358 1.0644882
16.004017 66.569389 1.0679436
16.132385 66.919754 1.0636795
16.003794 64.151611 1.0709703
16.009003 64.884872 1.075332
16.008869 64.893555 1.074862
16.011076 65.275146 1.0710455
16.012001 65.42572 1.0702136
17.82337 65.724747 1.0757842
16.012323 65.897896 1.077281
16.005526 66.565514 1.0743018
17.806484 66.769829 1.0738592
17.794468 66.835823 1.0702372
17.667875 66.923965 1.0750719
17.226242 63.245255 1.0801017
16.448185 63.296944 1.0864705
16.011028 64.508362 1.0847085
17.824318 66.303421 1.080842
16.733637 66.889908 1.0829564
16.640066 63.289322 1.0914028
16.676313 63.289856 1.0918514
16.386497 63.352833 1.0964998
17.69809 63.509575 1.0914843
17.736094 63.572262 1.0926545
16.102386 63.582623 1.0960381
17.753235 63.611977 1.0969059
16.053711 63.68335 1.0934687
17.81954 63.994396 1.0950481
16.018055 65.065628 1.0976404
17.816008 65.825363 1.0960764
16.018089 65.907455 1.0919069
16.01833 65.976334 1.0928447
17.817532 66.296585 1.0970014
16.009501 66.583549 1.0938597
16.024712 66.857132 1.0945604
17.427147 66.858986 1.0999347
16.913979 66.887268 1.0968249
17.517153 66.949982 1.0916727
17.003336 63.329063 1.1018794
17.818413 64.568092 1.1026049
17.816164 64.729202 1.1057827
17.815189 64.98848 1.1058197
16.022598 65.21759 1.1078846
17.811153 65.828812 1.1083648
17.818199 66.373581 1.1034755
17.824127 66.737061 1.1048443
16.399704 66.950745 1.1053488
16.775005 63.393608 1.1144332
16.674601 63.41888 1.1188879
17.112152 63.419975 1.1193959
17.653252 63.515694 1.1127391
16.164711 63.521408 1.1111759
16.19997 63.522621 1.1174417
16.020687 64.071167 1.1166718
16.027119 65.954956 1.1149739
17.055241 66.868225 1.117707
16.944071 63.430344 1.1224937
17.601208 63.54039 1.1253142
16.168972 63.572109 1.1248983
16.024784 64.482254 1.1240464
16.028954 66.084053 1.1202333
16.022112 66.436577 1.1217303
16.374292 63.554657 1.1368977
15.907619 64.257538 1.1359625
16.948578 66.860481 1.1348925
16.085993 66.875343 1.1311642
17.297756 66.935806 1.1388886
16.757915 66.947006 1.1355703
17.118179 63.533009 1.1419634
16.695328 63.547241 1.1446804
17.384172 63.559944 1.1414483
17.410755 63.562794 1.1407725
17.315115 63.582664 1.149242
17.430975 63.596165 1.1465098
17.674021 63.665825 1.1448568
16.418671 63.747398 1.1449723
16.435478 63.743946 1.1456072
17.796261 64.533264 1.1470832
16.039471 64.566261 1.1465318
16.030569 66.425499 1.1410081
16.403488 66.820389 1.1497303
16.487629 66.83062 1.1443589
17.271389 63.764454 1.1587501
16.343853 63.810623 1.1505566
17.61841 63.875156 1.1538675
17.762482 63.887829 1.1531057
16.04941 63.991379 1.1507826
16.039387 64.15078 1.1590483
15.82418 64.307182 1.1534487
17.797089 64.907074 1.1524508
16.038284 65.09623 1.1504376
16.042475 65.62674 1.1508433
17.792061 65.941513 1.1571957
16.033104 66.552856 1.1563671
16.589725 66.92038 1.1570867
16.761681 66.929924 1.153473
16.720531 63.636436 1.164834
17.186474 63.630981 1.1630844
17.369392 63.674427 1.167321
16.842836 63.697594 1.1698585
16.144423 63.739082 1.161677
16.126705 63.742825 1.1605475
17.156929 63.760452 1.1646169
17.6852 63.763367 1.1677222
17.454723 63.78389 1.1688566
16.201281 63.896938 1.169549
17.631708 63.892509 1.1626459
16.04636 64.383324 1.1633048
17.531744 66.797173 1.1672432
17.097311 63.659698 1.1702194
17.126606 63.671627 1.1726997
16.90731 63.694931 1.1736727
16.506088 63.723782 1.1790099
17.287983 63.786835 1.1712909
16.111109 63.81366 1.1718059
16.196825 63.90398 1.1787374
17.789082 64.259056 1.1771865
15.987729 64.26152 1.1787251
16.055939 66.796646 1.1728685
17.126596 63.756157 1.1880236
17.743944 63.901752 1.1833102
17.765505 63.995148 1.1888518
17.783453 64.059967 1.1803482
16.05703 64.453758 1.1883738
16.055153 65.725616 1.181821
17.211765 66.88929 1.1843784
16.840879 66.900955 1.1813214
17.233742 63.794804 1.1990634
17.62829 63.875252 1.1984817
17.555172 63.916012 1.1958365
16.061111 64.598526 1.1976936
16.064117 65.679619 1.1962357
17.776651 65.817513 1.1931655
16.058769 66.378036 1.1954842
17.137516 66.787811 1.1998222
16.303898 66.842293 1.1979634
17.28886 66.857513 1.1989797
17.117577 66.868378 1.1968282
16.786634 66.882584 1.1906955
17.194464 63.833996 1.2054694
17.274599 63.834526 1.2014807
16.137993 63.908646 1.2016792
17.731749 63.9319 1.2068753
17.776457 64.199814 1.205475
17.823818 64.243752 1.2006308
16.064108 64.440468 1.2051315
16.062965 64.640221 1.2019843
16.072212 65.56768 1.2000225
16.072462 65.617767 1.2005219
16.07436 65.700294 1.2056975
17.773853 65.885696 1.2007589
17.773939 66.590218 1.203346
17.421246 66.765633 1.2047135
17.331818 66.77359 1.2021389
16.996964 63.848103 1.219915
16.276661 63.949406 1.2136066
17.768764 64.28582 1.2121652
17.757557 65.362198 1.2189306
17.770685 66.575111 1.2117741
17.408579 66.758705 1.2127931
16.619543 66.767334 1.2172744
16.198107 64.012192 1.2271991
16.071381 64.740997 1.2216587
16.073235 65.327271 1.2294874
17.756325 66.169365 1.2224052
17.75477 66.183449 1.2265781
17.631983 66.730385 1.2249138
17.148325 66.759369 1.2273326
17.395884 66.750778 1.2237561
17.136805 66.765991 1.2209234
16.82868 66.845177 1.2225015
16.804192 63.872768 1.2373825
17.481234 63.9478 1.2372241
16.072695 64.126534 1.2320328
17.869236 64.271965 1.2361878
17.751493 65.57016 1.2357283
16.566498 66.758347 1.23584
16.988453 66.836876 1.2334073
17.24745 66.830452 1.2318722
17.748728 65.606125 1.2436594
16.089184 65.765617 1.246768
17.345308 66.810165 1.2479384
16.740471 63.915405 1.2594703
16.486431 63.935455 1.2532048
17.347206 63.934639 1.2530127
16.143803 64.002937 1.2563984
15.899091 64.30545 1.2593575
16.892452 63.906116 1.2609682
17.633659 64.05854 1.2624428
15.966027 64.272308 1.2652749
18.000633 64.309258 1.2682073
16.090061 64.653542 1.265144
17.747442 64.961494 1.2612176
16.954401 66.805794 1.2659755
16.093002 64.446175 1.2723546
16.092932 64.543945 1.272048
17.72851 65.194809 1.2718711
16.099352 65.435318 1.2766076
16.101883 66.186142 1.2765799
16.098843 66.219269 1.2727625
16.61219 66.787178 1.2769736
17.016041 66.796768 1.2732774
16.663132 66.828728 1.276859
16.096767 64.42926 1.2816218
17.735788 64.924026 1.2891631
16.102581 65.392258 1.2849692
17.732861 65.702713 1.2804662
16.738935 66.780022 1.2877564
16.739737 66.834946 1.2807496
16.883844 63.961838 1.2948835
16.525763 64.001335 1.2978367
17.512581 64.05777 1.2991788
16.250195 64.084038 1.2959272
17.735025 64.339973 1.2907052
16.103336 64.562897 1.2972682
16.108723 65.375885 1.2996993
16.096678 66.479271 1.2932442
17.559566 66.740349 1.2914877
17.733189 65.242401 1.3081491
17.72356 66.242783 1.3068972
17.728144 66.621674 1.3060035
16.216331 66.639374 1.3020511
17.0536 63.999817 1.3121735
17.72529 64.797501 1.3143666
16.112038 64.995331 1.3177404
16.116514 65.527824 1.3152871
16.126093 66.324928 1.3137754
16.542091 66.742523 1.3158019
16.56179 66.745628 1.3140081
16.638987 66.753189 1.3118052
16.708538 66.753815 1.3131543
17.045692 64.017601 1.3229133
16.336468 64.082977 1.321627
17.720407 64.917648 1.3260432
16.130636 65.265083 1.3261278
16.408619 66.721207 1.327318
16.784012 66.739914 1.3292301
17.256571 66.736443 1.3249662
17.165995 64.054565 1.3381137
16.321728 64.106796 1.3335072
17.717506 64.271019 1.3391993
16.119724 64.466881 1.3355836
17.717512 64.540871 1.3323647
17.716259 64.764755 1.3353856
17.723583 65.25309 1.3307852
16.130447 66.168701 1.3393147
16.213869 66.671631 1.3337256
16.797852 64.046272 1.340023
16.12735 64.231728 1.3497896
17.712225 64.302528 1.3496125
17.711437 64.541885 1.3473619
16.134064 65.993263 1.3432261
16.141235 66.333504 1.3449777
16.126507 64.933426 1.352145
16.964468 64.076981 1.3623157
16.73077 64.103302 1.3699391
16.543362 64.116653 1.3660272
16.402697 64.144928 1.3645915
17.702484 64.494537 1.3657813
16.134411 64.684769 1.3685308
17.705715 64.739586 1.3600194
16.799326 66.707222 1.3628745
17.702841 65.24369 1.3766724
16.14327 65.540489 1.3758047
17.225531 66.692047 1.3720671
17.022167 64.121994 1.384915
17.263453 64.154228 1.3898274
17.675838 65.246201 1.3880869
17.678986 65.265076 1.3801036
16.14373 66.15358 1.3803391
16.137711 66.345985 1.3823429
17.070948 64.146751 1.3956621
16.70787 64.153229 1.3962116
17.348104 64.177078 1.3920789
17.407051 64.187691 1.3908803
16.146389 64.826439 1.3915012
17.686214 66.136734 1.3902568
17.249512 64.185547 1.4073019
17.419613 64.221161 1.4068792
16.153997 64.602486 1.4056507
17.67527 65.366028 1.4088088
16.153494 66.427071 1.4085557
17.682842 66.445831 1.4062781
16.647429 66.662025 1.4034108
17.6793 64.419212 1.4154456
16.19878 66.547485 1.4167345
17.391182 66.635757 1.4107322
16.667824 66.646622 1.4194374
16.658648 64.210464 1.4243094
17.174723 64.211678 1.4250882
16.511862 64.230247 1.4225035
17.35236 64.234566 1.4215282
16.301039 64.278778 1.4275111
16.161547 65.321609 1.4265468
17.560535 66.564911 1.4246585
17.296028 66.634018 1.4215442
17.11298 64.22979 1.4383761
17.146627 64.232941 1.4382293
16.169533 64.811493 1.4327458
17.659214 65.589218 1.4393842
17.661997 66.039742 1.4314952
17.672348 66.256027 1.4314442
17.589882 66.492142 1.4378072
16.179758 65.795616 1.4473287
16.178429 66.090401 1.4403265
17.577362 66.532585 1.445962
16.52738 66.613113 1.4407759
16.415325 64.308792 1.4507718
17.633955 65.27153 1.4586606
17.652473 65.747299 1.4530461
16.177052 66.242508 1.4577577
17.025234 64.277748 1.4661345
16.687365 64.298798 1.4699601
17.410896 64.340782 1.4665377
17.652134 64.688324 1.4604511
16.181843 66.128746 1.4611771
16.332594 66.536674 1.4602234
16.492325 66.585777 1.4637288
17.28676 64.324974 1.4720076
17.642147 65.011497 1.4753281
16.197113 65.627892 1.4751451
17.649492 66.197517 1.4740398
16.533581 66.541328 1.472942
16.547815 66.541183 1.4735879
16.513519 66.551453 1.472032
17.136955 66.552788 1.4789411
16.606361 66.579712 1.4799449
17.353733 66.57637 1.4701355
16.589844 66.583374 1.4763303
16.938141 66.504921 1.488539
17.016966 66.569275 1.4815381
17.135529 66.585396 1.4812616
16.607018 64.35611 1.4927261
16.375193 64.395927 1.4901053
16.318205 64.421913 1.4994296
17.625462 65.555481 1.4972248
17.626556 65.770935 1.4979031
16.20789 65.907028 1.4964117
16.214222 66.20771 1.4958448
16.619057 66.468269 1.4996848
16.499517 66.542542 1.4969829
16.896721 66.573296 1.4963937
16.588854 64.385521 1.5031763
16.229288 64.442276 1.5090518
17.625763 64.60083 1.5060017
17.578012 66.447884 1.5017623
16.639391 64.409828 1.5175589
16.494326 64.44072 1.517115
16.652884 66.565727 1.5123653
16.975243 66.570534 1.5160328
17.613754 65.176094 1.5292898
16.244419 65.222382 1.5262468
16.22949 64.746483 1.5351313
16.232193 65.013924 1.5343878
17.602413 65.91597 1.5337515
17.584938 66.087631 1.5397048
17.420124 66.370316 1.5342839
16.362711 66.504501 1.538965
16.809013 66.598206 1.5394437
17.067007 64.468903 1.5475848
16.238113 65.051743 1.5428808
16.237213 65.104294 1.5410367
17.601843 65.248917 1.5441604
17.606806 66.040283 1.5431175
17.593987 66.245567 1.5465132
17.577753 66.357994 1.5453452
16.443306 66.368225 1.5430181
16.945835 66.413681 1.5427352
17.394941 66.491302 1.5491329
16.61655 66.597717 1.5418534
16.788559 66.600494 1.5415702
17.006023 66.602493 1.5427368
17.592213 65.059784 1.5500065
16.243954 65.327087 1.5570693
17.585295 65.619476 1.5560449
16.254673 66.086075 1.5591016
17.137566 66.387604 1.5518756
16.55472 66.496292 1.5588205
17.355343 66.505035 1.5531068
16.511515 66.539703 1.555882
16.942238 66.610092 1.5580812
16.919565 64.499428 1.5656869
17.252628 64.523163 1.5609832
16.270563 64.724991 1.5698698
16.244982 66.03231 1.5663943
17.580132 66.0821 1.5602614
17.593327 66.133095 1.5628774
16.69833 66.377426 1.5616144
17.223263 66.37262 1.561615
17.31773 66.421204 1.5689518
17.243755 66.495148 1.5612266
16.786146 66.521667 1.5684661
17.085968 66.536011 1.5676432
17.039162 66.542313 1.5688374
17.14843 66.568123 1.5661435
17.223059 66.584419 1.5622134
17.114021 66.604202 1.5670943
17.44352 64.57338 1.5712194
17.5716 66.201538 1.57988
16.729071 66.362595 1.5772566
16.940697 66.530563 1.5710249
16.650627 64.558304 1.5832456
17.577127 65.111816 1.5809345
17.324232 66.340912 1.5856082
17.101507 66.414742 1.5882528
17.191021 64.576141 1.5909153
16.76391 64.589539 1.5981039
16.826775 64.587379 1.5980699
16.28392 64.848816 1.5926497
16.267202 64.876907 1.5953503
17.571507 65.110275 1.5926905
17.570961 65.309052 1.5947845
16.290174 66.255142 1.5911415
16.35277 66.278442 1.5974188
17.474144 66.298203 1.5940228
17.259617 66.344498 1.5978572
16.937344 66.356796 1.5966778
16.679317 64.613968 1.6065881
16.765816 64.618057 1.6087039
17.5378 64.677734 1.6037072
17.560118 65.049973 1.6098945
17.544649 65.057129 1.6063209
17.543877 65.160759 1.6081119
17.565514 65.868782 1.6050214
17.567062 65.92923 1.6028159
16.71616 66.347504 1.6056495
17.136917 66.34166 1.6009817
16.55958 64.651787 1.6147544
17.531345 65.35173 1.618309
16.2813 65.408424 1.6169438
16.295952 66.133163 1.6126137
16.586201 66.301643 1.6159184
16.801275 66.329247 1.6191058
16.919161 64.649033 1.6211004
17.306835 64.700722 1.6276004
16.415684 64.725243 1.628193
17.551861 65.73101 1.6274228
16.282656 66.033325 1.6226159
16.575808 66.272003 1.6211861
17.136959 66.278915 1.6252844
16.924549 64.685326 1.6332048
16.571737 64.724953 1.6363633
16.293085 65.50737 1.6398169
17.545898 65.814659 1.6387998
17.550095 65.857422 1.6326025
16.518494 66.180054 1.6329921
16.982534 66.217598 1.6383934
16.86002 66.246086 1.634243
16.983406 66.245972 1.6341166
16.967463 64.721565 1.6442064
17.092142 64.726753 1.6423616
17.094358 64.749535 1.6499939
17.476376 64.857536 1.6499338
16.299601 65.17765 1.6497366
17.524534 65.792648 1.6485882
17.532434 65.824226 1.6449273
17.371897 66.079971 1.6426209
16.931973 66.152611 1.648558
16.775887 66.180077 1.6420431
16.814116 66.182022 1.642521
17.124063 64.754013 1.6506484
16.479481 64.814468 1.6537124
17.353672 64.816833 1.6542531
17.481676 64.909927 1.6540579
16.311596 64.976158 1.6503205
17.501059 64.998291 1.6568265
16.302685 65.205742 1.655005
16.571194 66.028366 1.6553729
17.23587 66.037521 1.6560696
16.346167 65.179901 1.6660596
17.514088 65.190369 1.6631725
16.322746 65.20903 1.6640624
17.355684 65.821098 1.6683766
17.300186 65.866394 1.6690974
17.351944 65.889206 1.6641026
17.317841 65.914192 1.6642004
17.351612 65.918755 1.661418
16.698105 65.96151 1.6676878
17.218954 65.971642 1.6638838
17.079018 66.010292 1.6637527
17.111813 66.013062 1.6627467
17.164051 66.014069 1.6615078
17.109598 64.853958 1.6713467
16.936443 64.876137 1.6786201
17.28273 64.906425 1.6711761
16.708384 64.910797 1.6790045
16.595242 64.92749 1.6765363
17.237247 64.961838 1.6798193
16.522078 64.973061 1.6761316
16.515535 64.993881 1.6770386
17.318262 65.031052 1.6794462
16.409075 65.057953 1.6716958
17.42832 65.117767 1.6747053
17.462887 65.239502 1.6750581
17.47044 65.253769 1.6743858
17.495697 65.317673 1.6702697
16.353664 65.489174 1.6732733
17.454414 65.596352 1.6737123
16.445225 65.664322 1.6755266
17.411293 65.694939 1.6719993
16.61586 65.783447 1.6794295
16.702253 65.867119 1.676825
17.105017 65.889229 1.6758989
16.81646 65.916687 1.6751709
17.006338 65.935272 1.6734538
17.01376 64.920166 1.6830016
16.710251 64.934532 1.6823924
16.922907 64.963127 1.6893874
16.744518 64.98452 1.6867493
17.170624 65.044647 1.6886628
17.173761 65.060165 1.6894965
17.289299 65.145172 1.687042
17.373098 65.176407 1.6818693
16.449816 65.472488 1.6845728
17.379309 65.543144 1.683305
17.235764 65.608459 1.6896145
17.352974 65.605865 1.6821167
16.855324 65.767288 1.6875052
16.929241 65.868645 1.6813735
16.667906 65.136009 1.6935608
16.863403 65.172096 1.6997445
16.581043 65.192566 1.6909026
16.621954 65.360947 1.6965125
17.209364 65.360176 1.6967747
17.217239 65.395683 1.6963239
16.647087 65.459717 1.6979506
16.614208 65.505051 1.6960692
16.52339 65.524414 1.6900356
16.628086 65.529007 1.6957629
16.736687 65.542137 1.6989279
17.075485 65.553169 1.698849
16.576025 65.568214 1.6905375
