# .PCD v0.7 - Point Cloud Data file format
VERSION 0.7
FIELDS x y z
SIZE 4 4 4
TYPE F F F
COUNT 1 1 1
WIDTH 1522
HEIGHT 1
VIEWPOINT 0 0 0 1 0 0 0
POINTS 1522
DATA ascii
1.3389361 1.7005906 0.22769557
3.9719734 1.7699291 0.22622156
3.9735055 1.7732573 0.22168146
4.2346869 0.092828602 0.23132212
0.67549312 0.11713951 0.23949407
1.3962855 0.19836979 0.23960836
4.2065992 0.19325857 0.23182309
3.888253 0.222192 0.23779535
1.2345452 0.2540867 0.23825589
1.2822427 0.32490671 0.23390171
1.1735866 0.35367799 0.2379545
4.5290852 1.3811555 0.2340557
3.4363785 1.4919723 0.23338653
4.1161594 1.5061339 0.23123771
1.3434653 1.5624664 0.23953541
3.8829753 1.6104 0.23843876
4.4061785 1.633379 0.23217313
1.1506648 1.7533132 0.23232695
3.8193202 1.7674611 0.23994747
3.0190606 1.7729504 0.23289138
3.3136976 1.7738614 0.23897408
2.1634026 0.046353012 0.24819767
3.806654 0.076299377 0.24211238
0.61099356 0.12234841 0.24862027
1.1228855 0.222192 0.248339
3.9101098 0.222192 0.24576542
1.3449948 0.26035148 0.24353382
3.5754502 0.32249337 0.24878603
4.5413246 0.81024384 0.24247241
4.5458021 0.91405123 0.24072309
1.2867804 1.4686298 0.24795197
4.1025457 1.4686301 0.24069121
1.3955185 1.5629971 0.24966466
3.8924217 1.59389 0.24526584
0.78062248 1.6313655 0.24969393
0.77850223 1.7512434 0.24699582
0.79401749 1.7596231 0.24286433
1.6542943 1.7847178 0.24371138
1.9772379 0.041837249 0.25672179
3.1255651 0.045392796 0.25519681
1.2046566 0.065101534 0.25760919
4.0066314 0.060296997 0.2590206
4.1653996 0.17065395 0.25060505
4.3704033 0.17109445 0.25542107
0.96074402 0.238702 0.25721243
1.298093 0.32566127 0.25348058
1.105606 0.35367799 0.25023291
3.4503388 0.35367799 0.2545881
3.526181 0.35367799 0.25357622
4.5468936 1.3160132 0.25400895
1.2402978 1.4686301 0.25580534
3.7800212 1.4686301 0.25941354
1.347934 1.6155356 0.25121728
4.0374398 1.7567027 0.25625259
2.8111062 1.7788771 0.25910562
1.4139161 1.7846706 0.25377744
1.7025023 1.7843717 0.25045365
1.8683829 1.7823596 0.25995573
1.6903534 0.037886329 0.26433387
2.193821 0.044851445 0.26056126
2.8766944 0.042307302 0.26584235
1.1702832 0.065219328 0.26069522
1.2437611 0.12703931 0.26617542
1.1567197 0.2222362 0.26140177
3.4385381 0.25813016 0.26812881
4.5455961 0.98265898 0.26171672
0.88451028 1.4686301 0.26150191
3.7267017 1.4686298 0.2616767
4.4940391 1.4668285 0.2652176
0.71795416 1.5071204 0.26639724
1.3541592 1.5467337 0.26749113
0.66413277 1.5949297 0.26919439
4.2059007 1.6038295 0.26927081
1.1547706 1.7596676 0.26208797
1.0316632 1.7698834 0.26557076
3.9107361 1.7634759 0.26500937
1.1018704 1.7746406 0.26099232
2.59798 1.7787519 0.26229477
4.157619 1.7769625 0.26836088
1.2966496 0.04536546 0.27364302
2.7110198 0.041969284 0.27142009
3.976738 0.054560378 0.27451041
4.1684599 0.063066952 0.27589792
4.0670652 0.08137925 0.27985215
0.92086881 0.222192 0.27493596
3.6765561 0.35367796 0.27712703
4.5411215 1.1115012 0.27351347
1.333483 1.4686301 0.27330494
1.030462 1.59389 0.27220109
3.8224006 1.59389 0.27780876
0.9483037 1.6104 0.27227753
3.4794433 1.629652 0.27543154
4.3174777 1.6901205 0.27806455
0.66063255 1.7538227 0.27834547
1.2818124 0.047118753 0.28505012
2.4922328 0.040162817 0.28846499
1.0743377 0.061806247 0.28977251
4.2055521 0.13433081 0.28708673
1.2501374 0.15014215 0.28214842
1.1495926 0.222192 0.28717053
0.66220027 0.35367799 0.28295133
4.5429029 0.47751915 0.28192544
0.17977563 0.65175915 0.28527671
1.1462626 1.46863 0.2819522
4.0629559 1.46863 0.28944218
0.23824069 1.5976255 0.28504002
1.1660622 1.59389 0.28766996
3.9141073 1.59389 0.28047109
0.23885161 1.6013962 0.28750661
1.35841 1.6025614 0.28313085
4.0690012 1.7211478 0.2863659
4.1761098 1.7550699 0.28521442
1.4712628 1.7840843 0.28384683
3.3516302 1.7826586 0.28030637
3.1155152 0.036799625 0.29941273
0.70819163 0.044530902 0.29842594
1.3568671 0.067713901 0.29044819
3.6611438 0.073617592 0.29386297
0.61843228 0.30324247 0.29228699
0.8226015 0.35367799 0.29246393
1.1092929 0.35367799 0.29242444
0.20185181 1.5495299 0.29306424
4.1761098 1.5933789 0.29505432
0.24158441 1.6089611 0.29165983
0.76265329 1.6005069 0.29953748
1.1651559 1.6103998 0.29104859
3.6983285 1.6104 0.29749554
3.4784021 1.763521 0.2998631
3.7765746 1.7668202 0.29157582
1.2666781 0.051312774 0.3018764
1.019493 0.076556101 0.30062738
3.8365345 0.222192 0.30244136
1.35841 0.24498996 0.30489737
0.20048591 0.25652966 0.3023223
0.73546374 0.32304052 0.30855787
4.1421041 0.35367799 0.3047137
4.5558352 0.51417106 0.30559209
4.4796147 1.4064212 0.30630615
3.8651948 1.4686298 0.30891246
4.442626 1.5031049 0.30820423
3.4409249 1.7105451 0.30477953
0.97918105 1.7588059 0.30282894
2.073329 1.7839704 0.3086822
2.8293333 1.7849188 0.30095506
1.7613492 0.037187319 0.3192772
3.5809789 0.17438549 0.31479883
0.20869821 0.23099098 0.31284901
4.0745249 0.28175053 0.31459597
0.6860618 0.35367799 0.3188017
3.6610429 0.35367799 0.31607211
4.556747 0.90293586 0.31633827
3.5814872 1.7049458 0.31162637
2.1808848 0.035174392 0.32724309
3.758945 0.065569505 0.3270753
0.28611565 0.1619589 0.32508373
1.1565387 0.238702 0.32368636
0.72857368 0.32370228 0.32415801
4.1252542 0.35367799 0.32862699
0.20750672 0.56739807 0.32881328
3.5004177 1.509562 0.32584015
3.5798466 1.5540609 0.32028174
1.1664629 1.6104 0.32256228
1.3881785 1.662814 0.32771385
0.76354778 1.682555 0.32891086
0.98769927 1.7560525 0.32951564
0.93936527 1.7678981 0.32420754
3.8886409 1.7635977 0.32868311
3.2028558 1.7864277 0.32791024
1.9464841 0.034651618 0.33582139
2.0344467 0.035085835 0.33023769
0.84933943 0.055964835 0.33569744
3.9320807 0.072686411 0.3345691
3.4450674 0.14791791 0.33472431
0.76320386 0.18158966 0.33902836
4.5451136 1.1987841 0.33366176
4.1472993 1.46863 0.33417669
0.76230609 1.5686622 0.33740258
3.6967452 1.6104 0.33327845
3.8160036 1.6104 0.33375448
1.3877194 1.6669582 0.3304092
1.0014523 1.7560203 0.33612275
0.88855177 1.7729057 0.33444312
2.9085469 0.041187666 0.34029377
4.0035005 0.079756528 0.34115148
1.2290311 0.081218585 0.34487671
0.66053402 0.17291108 0.34161597
3.8983679 0.238702 0.34841955
0.16818005 0.58190548 0.34110048
0.13476211 0.59646738 0.34480944
4.5514007 0.71338558 0.34182557
4.5579505 0.96998584 0.34097588
4.5565839 0.99887168 0.34117296
3.8068199 1.46863 0.34617651
0.15207048 1.5054197 0.34103066
3.5474415 1.509009 0.34490874
3.8796685 1.59389 0.34395754
3.9701672 1.59389 0.34240368
4.049943 1.749602 0.34400052
4.2035403 1.7506716 0.34395111
1.2012831 1.7727891 0.3433423
3.0682366 1.7780873 0.34144729
1.3939762 0.031360358 0.35974765
2.2277136 0.038832597 0.35540381
2.8246522 0.049121797 0.35311773
1.0854881 0.063172176 0.35456517
1.0343256 0.238702 0.35510543
3.5798221 0.28080499 0.35279968
3.5484543 0.32349247 0.35873154
1.0776371 0.35367799 0.35426429
3.8384295 0.35367799 0.35265577
0.085468784 0.97295243 0.35077453
4.0842204 1.46863 0.35124803
0.95145714 1.59389 0.35373345
3.47823 1.6337141 0.35676742
0.24378417 1.6566936 0.35206953
4.3880363 1.6582911 0.35506058
0.62974775 1.6620642 0.35871068
0.32003206 1.6826668 0.35250926
3.4474773 1.6933038 0.35184398
0.76947689 1.746923 0.3572008
3.47823 1.7434739 0.35292059
1.3566701 1.7650795 0.35241553
2.9008427 1.7720977 0.35273349
1.9197327 1.7852415 0.35717684
1.463182 0.038847577 0.36863917
2.5122559 0.050819926 0.36756557
0.3966001 0.1157177 0.36227718
0.66053402 0.13371682 0.36767137
0.11523911 0.39548892 0.36428818
0.10441718 0.44447395 0.36657196
0.06330356 0.92717505 0.36962047
3.519531 1.5063256 0.3647179
3.4499528 1.5484389 0.3694315
3.7189071 1.59389 0.36132628
3.972157 1.6104 0.36355227
0.41875216 1.7113624 0.3611325
1.35841 1.7123519 0.364739
4.2008724 1.749604 0.3600522
2.3783543 1.7750893 0.36568385
1.9382758 1.7814865 0.36587748
0.72906899 0.046559978 0.37027839
1.3288743 0.042769156 0.37709865
2.9119892 0.055414066 0.37638813
0.97048986 0.07092157 0.37544438
1.35841 0.10905938 0.37692288
4.1761093 0.13812049 0.37447923
1.0679793 0.222192 0.3751356
0.14403814 0.24672219 0.37443095
4.1761098 0.26232365 0.37426418
0.69528258 0.32689974 0.37252772
4.5471382 0.46161389 0.3730064
0.13594127 1.555058 0.37753373
0.86176878 1.6104 0.378647
1.3584101 1.6240752 0.37621143
1.3801899 1.6588342 0.37461197
4.1761098 1.7107166 0.3784436
0.76409554 1.7327931 0.37771842
0.7622 1.7699713 0.37412322
3.4341226 0.026182655 0.38423955
1.377965 0.033857156 0.38767323
1.2966632 0.045900121 0.38333139
2.9941597 0.055437259 0.38142857
4.1634898 0.056700218 0.38467938
0.39644876 0.11071466 0.38555503
1.2536939 0.15413666 0.38294449
0.18817231 0.18123503 0.380833
1.0716894 0.238702 0.38931534
3.4517574 0.28186244 0.38225183
1.2553686 0.3136287 0.38346344
3.4515529 0.3417511 0.38079923
4.5520196 0.47446588 0.38922879
4.5612512 0.77858198 0.38705567
1.3339374 1.5073161 0.3875013
4.1971698 1.5164218 0.3823961
1.35841 1.6222596 0.389429
3.47823 1.6592826 0.38923839
0.66674131 1.7695215 0.3897506
3.570745 0.049673498 0.39536032
1.3489066 0.061325852 0.39837158
3.4535592 0.14420851 0.39505348
0.99345469 0.22219199 0.39875236
0.062075876 1.20591 0.39788696
0.64852619 1.46863 0.39723694
0.10280199 1.4736694 0.39246345
4.1945581 1.4812255 0.39815575
1.3584101 1.5353844 0.39484927
1.3569472 1.5481889 0.39951786
0.92665827 1.59389 0.39148319
1.1562462 1.59389 0.39598519
3.8514009 1.59389 0.39102691
1.3768213 1.6291395 0.3943879
1.35841 1.7323359 0.39448896
2.1874025 1.7735742 0.39643562
3.9906769 1.7760601 0.39661276
1.3782121 1.7950261 0.39223981
1.7965286 0.04518332 0.40973511
2.5494299 0.047796145 0.40471768
3.1770315 0.057965316 0.40016139
3.6550715 0.06750717 0.40571114
3.906507 0.060019266 0.4014909
4.0240932 0.067259446 0.4093357
3.6507306 0.071992032 0.40651777
1.3754365 0.090954624 0.40251702
4.1731644 0.1311067 0.40339473
0.23166785 0.15258168 0.40262085
1.0796762 0.238702 0.40432036
1.1514213 0.238702 0.40698063
1.3744735 0.24475048 0.4081713
1.248384 0.26713118 0.40029156
1.3537391 0.27270052 0.40790418
3.8509431 0.35367799 0.40928748
4.4853878 1.4129056 0.40149578
1.1095512 1.46863 0.40297797
0.77130324 1.5190763 0.40367714
0.66629279 1.5301851 0.40739536
0.64361298 1.5434144 0.40496242
4.1744528 1.545689 0.40002465
3.6767607 1.59389 0.40273759
4.1711054 1.6619902 0.40877542
0.64219391 1.7271624 0.40080395
1.7250974 1.7771088 0.40984389
1.9231039 1.7762958 0.40426582
1.7136869 0.044250473 0.41789234
1.9838965 0.045058269 0.41606364
2.2030334 0.045590684 0.41624814
0.88000238 0.066552043 0.41590714
4.0030899 0.067076862 0.41218966
0.33190596 0.12101214 0.4179365
3.486352 0.20488776 0.41692501
0.77693355 0.24549085 0.41630977
0.10363828 0.31790954 0.41662616
0.96067047 0.35367799 0.41471258
1.0379865 0.35367799 0.41226789
1.1240585 0.35367799 0.41663083
4.5799952 1.2017212 0.41187471
0.69766098 1.4686298 0.41912034
0.6875298 1.5125171 0.41291636
1.3497988 1.5717366 0.41820478
1.3527747 1.5814471 0.41042528
0.64707518 1.6091417 0.41510764
1.3512173 1.6362267 0.41449726
3.6026819 1.7495295 0.41544676
0.95544517 1.7521498 0.41918254
0.60023916 1.7658759 0.41900551
0.68023628 1.7756052 0.41290909
3.6552925 1.7729979 0.41297269
3.8503327 1.773502 0.41896617
3.4474156 1.8001564 0.41015893
0.75272816 0.047277875 0.42553163
2.430465 0.044129893 0.42003247
2.7163122 0.047117766 0.42988998
4.1644993 0.068197563 0.42310607
0.88718683 0.077220149 0.42523694
3.6392767 0.07499671 0.42315471
0.90863264 0.222192 0.42742831
1.0140556 0.222192 0.42438939
1.348797 0.24385159 0.42082387
3.5155697 0.32663995 0.42137808
3.8360462 0.35367799 0.42028946
0.043570727 1.0140418 0.42570388
0.05677966 1.2391601 0.42553866
1.3708544 1.5225496 0.42941767
1.3456407 1.5903497 0.42907453
1.3457203 1.6179235 0.42886662
3.8676639 1.6104 0.42698979
0.67128348 1.6525717 0.4237965
1.2106516 1.7627318 0.42963889
2.3807757 1.779233 0.42525989
4.0998468 1.786781 0.42570177
1.3742971 0.020746157 0.43976718
0.55697525 0.06525676 0.4396885
0.32520473 0.1195558 0.43505305
4.1615443 0.14869493 0.43376958
3.9572206 0.222192 0.43108481
0.65264839 0.25822484 0.43143883
0.68434864 0.30937493 0.43489921
0.6941725 0.31797031 0.43625239
0.70967627 0.3273167 0.43957216
4.5924673 1.2574434 0.43953478
0.67551154 1.5661333 0.43485028
3.3702507 0.051600195 0.44422373
3.8241076 0.067038529 0.44849697
3.8068609 0.222192 0.44191304
1.3384595 0.27448153 0.44784707
4.5289536 0.40411389 0.44009402
0.76465249 1.5099238 0.4489044
3.5370119 1.5061209 0.4404012
3.7053072 1.6058114 0.44513232
1.2307631 1.6163132 0.44479036
0.67989177 1.6801577 0.446302
1.3397678 1.6997705 0.44442731
1.228888 1.7446213 0.44672707
1.3681087 1.7541547 0.44134116
1.7292538 1.7808927 0.4435223
2.1649764 1.7815288 0.44197559
1.4385349 0.032479487 0.45150623
1.3176892 0.052734353 0.45594335
3.4701977 0.063305706 0.45261037
0.38030595 0.10180233 0.45529211
3.5001669 0.10209247 0.4530392
3.4722667 0.12876831 0.45781592
1.2237238 0.21483573 0.45927092
0.90153861 0.238702 0.45496106
3.5952981 1.5102299 0.45005268
1.363821 1.5281456 0.45225185
0.79252523 1.6062899 0.45641416
4.0456958 1.6221358 0.45185298
3.5012858 1.6583465 0.45596474
4.3305969 1.7143831 0.45964488
1.2964904 1.7889957 0.45169616
3.4367206 0.022079598 0.46262845
2.069478 0.038140401 0.46093923
4.1827416 0.048605103 0.46299797
4.1361957 0.055758081 0.46229407
1.3313668 0.21945986 0.46638864
1.359746 0.2235527 0.46262133
0.68681645 0.28324217 0.46440595
0.086347751 0.31458002 0.46361122
3.5441551 0.3265906 0.46242011
3.7568102 0.35367799 0.46245715
3.7817543 0.35367799 0.46231556
4.0903244 0.35367799 0.46760482
4.5245972 1.4317906 0.46208969
0.72519284 1.46863 0.46474338
0.68828052 1.6095622 0.46823367
1.2149916 1.6093336 0.46931118
1.6980772 0.037326872 0.47704375
1.9879072 0.036588348 0.47324151
2.5926979 0.037984684 0.47653198
2.6268904 0.039071664 0.47337613
4.094595 0.044545881 0.47579342
0.86348915 0.062701434 0.47401333
3.9631498 0.06491939 0.47924244
0.69191003 0.078578584 0.47772267
1.1742173 0.078027718 0.47886491
1.3563184 0.10219109 0.47134304
0.17191014 0.16290347 0.47499546
1.0968285 0.22897294 0.47038594
0.80666256 0.2390596 0.47265607
0.81211698 0.23214406 0.47872755
3.6239085 0.23401281 0.47205818
3.6243799 0.24879374 0.47283646
1.3539727 0.35367799 0.47644472
4.0882988 0.35367799 0.47122377
4.1622252 0.35367799 0.47567219
0.067999333 0.36319429 0.47741017
0.036011934 0.60775566 0.47166514
0.057701029 1.3667519 0.4709093
0.064828239 1.4393828 0.47860608
0.90374029 1.4686298 0.47096023
3.4783678 1.4987416 0.47316599
1.2379496 1.5102301 0.47325635
3.5103505 1.5328028 0.47966099
0.80829763 1.5494695 0.47523621
4.1458697 1.5650163 0.47474515
4.0256195 1.6571348 0.47654155
4.028739 1.6775151 0.47266763
3.77477 1.770135 0.47316664
3.4184942 1.7882216 0.47336376
3.4788096 1.8035054 0.47427714
3.8029833 0.057958204 0.48021194
4.35671 0.12292831 0.48626751
3.5132196 0.13892472 0.48716155
1.3212385 0.30226612 0.48993215
1.2961072 0.32572705 0.48923045
4.0487847 0.32292116 0.48965359
0.73696536 0.35367799 0.48713341
4.6184511 0.71648347 0.48939991
1.021664 1.46863 0.48162866
0.97531641 1.6104 0.48359591
1.0940025 1.7613783 0.48484448
3.6323621 1.7653813 0.48183852
3.8964453 1.776973 0.48291698
2.3795965 1.7887536 0.48436585
3.485059 0.031334568 0.49000001
3.2579486 0.045754999 0.49000898
3.2831244 0.044466078 0.49856162
3.5866122 0.045654748 0.49325573
4.0134287 0.18569285 0.49053484
3.6462641 0.32236999 0.49988946
3.9222219 0.35367799 0.49045321
3.9778843 0.35367799 0.49748379
4.1414413 0.35367799 0.49757156
0.051767558 0.42545223 0.49774584
0.018241255 0.84169459 0.4902885
0.025187558 1.1500376 0.49163222
4.165432 1.4886341 0.49960008
4.0076284 1.56007 0.49854761
3.5176828 1.5978857 0.49882925
1.1897149 1.6143632 0.49789262
0.12635905 1.6304004 0.49936375
3.6446316 1.6584299 0.49457511
0.69932896 1.7016885 0.49711883
0.95439637 1.7763679 0.4923315
3.3189492 1.7771454 0.49757117
2.7890434 1.7829884 0.49098641
1.6184461 0.033892598 0.50303471
4.2439308 0.058531202 0.50651371
3.749064 0.065470509 0.5076496
3.8976886 0.062371373 0.50192845
3.9998012 0.078495316 0.50584853
3.658154 0.087556951 0.50950587
1.3129085 0.12868549 0.50959182
4.1303377 0.13603079 0.50989825
0.832919 0.32115746 0.50378346
1.269124 0.32676524 0.50573969
1.270547 0.35367799 0.50447536
1.3003374 0.35367796 0.50827396
0.063986778 1.4936657 0.50860494
3.5192914 1.7316711 0.50303346
0.99362439 1.7547059 0.5075779
3.5190027 1.7527766 0.50227952
0.72657615 1.7804439 0.50743508
2.3627625 0.028439112 0.51878011
3.4364929 0.027339801 0.51499963
2.5187101 0.030872378 0.51496893
3.5736125 0.043232676 0.51538861
0.71106619 0.12788171 0.51530075
4.4235249 0.1841239 0.51990867
0.84222358 0.21987019 0.51266623
4.4604025 0.23642282 0.51844436
0.71176553 0.24320748 0.51609373
0.74210155 0.32347378 0.5169903
4.6230078 1.04017 0.51473701
4.6145005 1.1474718 0.5164746
0.018109895 1.1864933 0.51525837
4.4296942 1.6368524 0.51188278
3.5283687 1.7017989 0.51484978
4.1289644 1.7150795 0.51145595
1.3039038 1.7413667 0.51980418
3.6572104 1.757147 0.51120758
4.0466895 0.045316838 0.52225357
0.9225651 0.064057335 0.52385336
1.2995939 0.081383787 0.52469194
1.3022999 0.095437296 0.52162319
3.6733871 0.1336973 0.52264571
3.505415 0.21548417 0.5277403
0.093553893 0.23671857 0.52582365
4.4438386 0.23218274 0.52536362
0.012278666 0.75922292 0.52254874
4.5993848 0.85703266 0.52427661
4.5909128 1.0931704 0.52446532
0.053670786 1.4111419 0.52818513
0.71977264 1.46863 0.5206368
1.3358787 1.4865847 0.52335382
0.7894904 1.5076132 0.52329224
1.2675395 1.5075811 0.52522182
0.71707046 1.667138 0.52210933
3.5378847 1.6885996 0.52564073
3.9703016 1.7250651 0.52816814
0.50444055 1.7571423 0.52512372
3.6767852 1.7612917 0.52558923
4.0842648 1.7877202 0.52585971
2.4464715 1.7941608 0.52449238
2.5105491 1.793449 0.52737075
3.5645914 0.056942098 0.53760761
4.1497483 0.053278901 0.53371638
1.0893614 0.064779006 0.53242844
3.6942155 0.13004166 0.53404289
1.3284159 0.17777331 0.53521794
3.9545381 0.20611417 0.53804553
0.70592093 0.21599613 0.53980565
0.077575788 0.32232478 0.5353688
1.2423385 0.32701549 0.53997141
3.628273 0.32418111 0.53482807
0.024289899 0.73946619 0.5364055
4.5735068 0.89003837 0.53190482
4.5661268 1.106848 0.53208745
3.6350656 1.46863 0.5337804
1.326471 1.6116455 0.53779125
0.73106748 1.6203779 0.53798157
3.510016 1.6670482 0.53401071
0.72422218 1.7033488 0.53021926
4.1109853 1.7037395 0.53184354
4.2581701 1.7270064 0.53869867
1.135057 1.7491592 0.53829467
4.2371268 1.7431159 0.53842884
4.1047916 1.765264 0.53601676
1.1599642 1.7804921 0.53462738
4.1456914 0.06900838 0.54254192
3.8376281 0.087388277 0.54362661
0.12630264 0.19402111 0.54984295
0.89633501 0.24467072 0.54634422
3.7083168 0.25244296 0.54329801
4.144443 0.31668973 0.5452565
3.5200346 0.35332403 0.5476644
4.4907389 0.44880307 0.54617882
4.4882798 0.45082501 0.54739273
0.059820905 0.48329043 0.54747862
0.045499638 1.2243009 0.5471791
0.80492461 1.5074217 0.54373795
4.0614867 1.5057386 0.54937685
3.5506482 1.6723861 0.54011381
0.79328942 1.78861 0.54632902
1.4272866 0.029513966 0.55017006
3.1447339 0.036529876 0.55592757
1.0217565 0.068665706 0.55031341
0.74406254 0.15789925 0.55271763
4.1387615 0.26906452 0.55761504
0.088099018 0.29410231 0.55758035
0.07542406 1.4689409 0.55633795
2.0742655 1.7980714 0.55414832
0.4185949 0.078652464 0.56179488
1.0918926 0.083764985 0.56793892
4.2475238 0.11763635 0.56525099
0.95871949 0.21501391 0.56693172
1.2637293 0.21557297 0.56536609
4.0793443 0.2111243 0.56772304
4.1333933 0.21669438 0.56429827
0.925309 0.29838613 0.56223375
3.5297079 0.29680371 0.56084734
3.5684392 0.2964536 0.56028819
3.5756359 0.2938768 0.5684486
4.0854063 0.29522237 0.56084883
0.026052544 0.7419129 0.56743193
4.5480633 1.0213603 0.56239825
0.72298318 1.5099473 0.56550848
1.2640762 1.620382 0.56497264
3.753469 1.6678638 0.56253368
0.29509845 1.7163781 0.56466842
4.2279553 1.7155077 0.56681371
0.40537059 1.7416034 0.56770897
0.95097721 1.7609488 0.56567395
1.1319019 1.7848171 0.56419188
3.0261412 1.7886961 0.56708914
3.3079114 1.7833264 0.56766188
1.8679556 1.7995155 0.56897026
2.5995398 1.7975397 0.5679028
2.8202455 1.7928467 0.56468391
1.7323424 0.024607453 0.57195932
4.148735 0.034573022 0.57616699
1.2199154 0.042559311 0.57453257
0.41041046 0.078301758 0.57896852
4.0730467 0.13778311 0.57486421
0.73359644 0.22780243 0.57614452
0.83785939 0.35367799 0.5782336
1.217609 1.505097 0.57486337
3.8406053 1.5102299 0.57496154
4.0605302 1.5240086 0.57797301
0.14615622 1.659507 0.57138878
3.4087546 1.7815419 0.57747495
2.2870538 1.8017895 0.57678866
2.4556799 0.020884458 0.5896095
3.5879073 0.085153259 0.58236396
0.76836336 0.12762719 0.58027405
4.3074155 0.16548821 0.58208394
4.2928948 0.17139673 0.5820148
1.2438644 0.18911543 0.58789474
4.3914318 0.28676894 0.58148021
1.0942365 0.35367799 0.58928609
0.02103661 1.0833555 0.58442903
4.3961396 1.4930733 0.58112073
3.6060743 1.516364 0.58037323
4.355597 1.5643728 0.58161038
4.3661613 1.6025035 0.58405995
1.1373268 1.7867045 0.58256835
3.696094 1.78739 0.58855397
1.9601284 1.8018384 0.58631951
2.2073929 0.019609923 0.59961659
3.0118573 0.032075778 0.59766048
1.104449 0.046635814 0.59141684
3.9340699 0.045369212 0.59999281
0.54230547 0.053579919 0.59511518
1.2188053 0.064183973 0.59994566
4.4551916 0.51408505 0.59469843
4.4870462 0.52150029 0.59606248
4.5506964 0.92164457 0.59170824
3.7955551 1.46863 0.59894681
4.3257537 1.5482159 0.59080064
0.78538036 1.6607567 0.59743047
4.1003084 1.6606252 0.59798604
1.280535 1.6707895 0.59857458
1.1061985 1.7859538 0.59103757
1.1346748 1.7877412 0.59575337
3.4806204 1.7980342 0.59797364
1.2141246 0.25553495 0.60811234
1.2004313 0.30784258 0.60824275
1.2036415 0.31017891 0.60386741
3.8157718 0.32341808 0.6038146
3.9846754 0.32737657 0.60128766
0.03886275 0.48333389 0.60354835
4.5070992 0.77195108 0.60555249
4.4713316 1.2811587 0.60119236
4.4208975 1.4266993 0.60147333
1.1425045 1.5059485 0.60639662
3.8905091 1.5084797 0.60214221
0.79787052 1.6347537 0.60429227
1.9786122 1.8028091 0.6080699
1.0134722 0.046256956 0.61044478
3.6442051 0.061462693 0.6114217
4.3345609 0.1845037 0.61027902
3.7217431 0.32600972 0.61409217
3.8006368 0.32437003 0.61084533
4.490427 0.5779776 0.61713934
0.02441027 1.2541592 0.61217433
4.079061 1.4690943 0.61962044
0.77567631 1.4941946 0.61411101
0.92809522 1.5069253 0.61472642
3.7374873 1.5068944 0.61364603
3.9305735 1.5068061 0.61222976
0.86138314 1.5116761 0.61717355
0.77829623 1.5528733 0.61647481
3.6372316 1.5935533 0.61619151
3.6340873 1.6032255 0.61446398
0.81735778 1.767817 0.61006176
1.069222 1.7880049 0.61765003
3.8686018 1.7878468 0.61914968
2.9408755 1.7923195 0.61260718
3.4870996 1.7969208 0.61160761
0.65469432 0.034610689 0.62576878
1.1757963 0.12184233 0.62916857
1.2431315 0.21625054 0.62729371
3.5981398 0.28811455 0.62758416
0.93052524 0.32668313 0.62530458
4.0623441 0.35367799 0.62729055
4.4205623 0.4790079 0.62792426
4.5288973 0.64003301 0.62828767
4.4184709 1.4814 0.62721574
1.0835776 1.5055763 0.62949657
3.847858 1.5064869 0.62931395
0.056941569 1.5103959 0.62795335
0.069462441 1.5429312 0.62017298
1.2512776 1.7137932 0.62146598
0.35972652 1.7372152 0.62306893
0.83936191 1.7672586 0.62276745
2.2087646 1.8039322 0.62851256
4.3474283 0.31392637 0.63499874
4.3531876 0.32842821 0.63735735
4.3677006 0.39055577 0.63551199
0.025777534 0.51197189 0.63831055
4.5071087 0.76799339 0.63076907
1.1430192 1.5236179 0.63851047
4.3903284 1.5406905 0.63524526
0.84481871 1.5944901 0.63008487
3.6771834 1.6358879 0.63813961
1.1430314 1.7723718 0.63719803
3.3383751 1.7846107 0.63308978
1.308139 1.8148924 0.63937324
1.8495436 0.018098123 0.6433773
1.6516577 0.024454424 0.64769763
2.7335711 0.024280464 0.6461817
1.433724 0.031765915 0.64166164
3.8220377 0.042546783 0.64749277
3.7027366 0.059567768 0.64148349
1.1459218 0.079278313 0.64558065
0.2716293 0.10478149 0.64960146
0.2161119 0.11898965 0.6495446
4.2350283 0.13333198 0.64717543
1.1509544 0.18875796 0.64281595
1.03277 0.32763693 0.64422894
1.0564557 0.3227295 0.64527881
3.6214688 0.32992423 0.64696687
3.6183841 0.33997363 0.64440405
3.6430416 0.35367799 0.64072669
4.4116473 0.48072883 0.64501095
0.0066422685 1.0651591 0.64058983
3.9493363 1.46863 0.64302629
0.89555335 1.51689 0.64095217
0.80782926 1.5323811 0.64312088
3.9613919 1.5625271 0.64680016
0.87762529 1.5720025 0.64810818
1.2205198 1.6250266 0.64347053
0.86916906 1.6865894 0.64346248
0.87481707 1.6954494 0.64656544
3.1218693 1.7898319 0.64654696
3.069339 1.7908152 0.64333123
1.6417444 0.024688996 0.65057409
3.8613534 0.060322769 0.65988994
0.43936828 0.080829754 0.65413594
0.89464635 0.1306255 0.6550321
1.2032206 0.154597 0.6558466
0.90774322 0.18541726 0.65722948
3.9489746 0.19809625 0.65362179
3.7015979 0.20021896 0.65155208
3.6281228 0.23448171 0.65196103
3.6267819 0.2663382 0.65134716
0.82658935 0.28815091 0.65584171
3.7075229 0.35367799 0.65369558
4.3627172 0.35203177 0.65530002
4.3656344 0.36017191 0.65069735
4.4042673 0.46150196 0.65519583
4.4687552 0.48583275 0.65412229
4.4613137 1.355209 0.65827453
1.1956306 1.5012745 0.65973824
0.96486825 1.5152152 0.65093565
3.71768 1.5286188 0.65322238
0.9049018 1.5420659 0.65675282
3.9392507 1.5905927 0.65549165
1.1143581 1.6148648 0.65669996
0.92253363 1.6322505 0.659711
0.88766825 1.7082534 0.65362561
3.9249709 1.7510391 0.65788758
3.9473166 1.7565997 0.65413839
3.2258704 1.7880346 0.65194982
0.84268397 0.0012760001 0.66463947
3.133101 0.031901926 0.66715509
0.92808235 0.10908954 0.66064191
0.96919632 0.12803942 0.66753995
0.11642704 0.22030467 0.66624469
1.0503298 0.22723788 0.66744196
3.7572894 0.2266732 0.66257221
3.6651897 0.28004375 0.66893137
1.0100431 0.30600491 0.66950685
3.9451494 0.35367799 0.66193306
0.014256539 1.112957 0.66029042
4.4502516 1.3741101 0.66731346
0.059938554 1.475758 0.66209322
4.0210509 1.5197886 0.66070449
3.6563907 1.5352826 0.66490287
1.1755779 1.5439271 0.66699159
1.1711971 1.5570096 0.66857618
4.3766465 1.5507855 0.66939664
3.8832934 1.5613956 0.66488034
0.96979511 1.6895782 0.66764039
3.8988624 1.6883525 0.66226816
0.93344671 1.7487141 0.661542
2.8329391 1.7965562 0.66225177
0.99211323 0.12518521 0.67138487
3.6817117 0.14671959 0.67649555
1.1554337 0.17505361 0.67427802
3.6688423 0.22663106 0.67060351
1.1590983 0.30033952 0.67295253
3.8369963 0.35367799 0.67220324
0.079034001 0.49036476 0.67641807
4.5037899 1.1309055 0.67649448
4.3415265 1.4731197 0.67036694
3.8064039 1.5332493 0.67081285
0.87179339 1.5716634 0.67563349
3.8065927 1.6107887 0.6708445
0.98903757 1.6255815 0.67086887
4.3141365 1.6373284 0.671543
3.8462453 1.7469399 0.67109638
2.6443489 1.8009068 0.67152041
1.1587732 0.0012760001 0.68452138
1.9664433 0.016232669 0.68370605
1.9991848 0.016199686 0.68393445
2.2473822 0.015796315 0.68932414
2.5448699 0.01868489 0.6893636
2.715436 0.022452431 0.68285537
3.9763222 0.051026575 0.68425882
1.1393902 0.075350836 0.68008131
4.3305907 0.20816827 0.68535733
1.1369916 0.32697946 0.68094885
0.13354607 1.4985012 0.68259597
3.7035162 1.5895506 0.68647826
4.3538246 1.5880201 0.68168795
3.9750912 1.76605 0.6849069
3.4946897 1.7744648 0.68513626
3.1502676 1.7887809 0.68810523
2.991812 1.7934783 0.68479335
0.78904611 1.8063573 0.68181777
1.1411185 1.8210301 0.68553245
1.1030533 0.022318922 0.6928612
2.8467875 0.026676819 0.69220281
3.1058073 0.033422958 0.69406527
3.963028 0.2070369 0.69125938
4.3317127 0.30285269 0.69221199
4.3944721 0.33641329 0.69389015
0.084682219 0.6858179 0.69401288
4.5074644 0.70471406 0.69929928
0.096010149 1.2994251 0.69107783
4.3992791 1.2982609 0.69454432
4.3113518 1.516454 0.6939218
1.0904446 1.6592904 0.69427401
3.9178064 1.7451253 0.69982135
1.8785439 1.8065548 0.69683158
3.9598033 1.8110628 0.69619673
3.9042976 0.089795969 0.70197201
4.3379517 0.2264255 0.70405519
3.7886376 0.24368054 0.70485222
3.7583632 0.28043506 0.70047307
3.7577102 0.29323369 0.70037866
3.7882915 0.34867156 0.70480216
3.7635243 0.3526063 0.70121956
4.5255942 1.0547221 0.70420909
0.1027528 1.3586186 0.70005035
0.12762544 1.4685459 0.70285773
1.0028577 1.515962 0.70408803
1.0075833 1.708961 0.7035585
3.8783927 1.7183032 0.70609629
4.1138892 1.7273556 0.70101577
3.7621074 1.7949138 0.70101464
2.0731971 1.8058016 0.7019105
3.992677 1.8075459 0.70265538
3.7256284 1.82103 0.70791411
1.1638936 0.0072114542 0.71447313
2.1723676 0.019724227 0.71898711
2.7743497 0.029433593 0.71583021
0.14556664 0.2929222 0.71374238
4.3534842 0.33338949 0.71872842
4.4107485 0.40435582 0.71627641
4.3567958 0.44051963 0.71075022
4.5103292 1.1382185 0.7172361
0.10312793 1.3445712 0.71290684
0.73877859 1.753071 0.7118271
2.9025803 1.7889942 0.71956021
0.84882915 1.8021975 0.717722
0.99940497 1.82103 0.71611691
2.1688807 0.02071581 0.72481596
1.3998005 0.034545336 0.7280103
3.6182964 0.035974838 0.72555721
4.4229927 0.46465021 0.7213217
0.082142375 0.86755431 0.72260183
1.5422772 1.7933447 0.72786564
1.8403639 1.8030574 0.72185236
1.0592006 1.8193737 0.72929144
1.0445893 0.0064789206 0.73678279
3.7836356 0.0054446841 0.73684788
0.44755399 0.12778625 0.73897058
0.1081038 0.45464456 0.73383713
4.4807563 0.67253178 0.73858839
4.516273 0.88434774 0.73051417
3.3438704 1.7704681 0.73744053
1.7214769 0.028819803 0.757622
1.9726131 0.024876039 0.75236976
4.2991333 0.32152233 0.75785023
4.2513003 1.5939541 0.75888401
3.1403883 1.7718539 0.75976491
1.4098506 0.038111236 0.7630133
3.8205307 0.039987609 0.76827729
0.75958711 0.081663802 0.76621008
4.0376806 0.11832981 0.76614451
4.4549646 0.87724298 0.76217598
0.12097421 1.4213214 0.76425368
4.3162789 1.4473668 0.7620762
3.9846253 1.7345936 0.76618409
1.4438498 1.7842981 0.7663008
4.2800136 0.36195701 0.77388716
4.3463821 0.48864353 0.77250069
4.4267898 0.82784903 0.77240527
4.4112411 1.0987903 0.77280307
0.11439597 1.1300141 0.77290714
4.385942 1.2299776 0.7707454
4.3447733 1.3424128 0.7713871
0.47787064 1.6955581 0.77561593
2.6228123 1.7851644 0.77535552
1.9041967 1.7934995 0.7763859
2.0981801 1.7933648 0.77386004
2.7838421 0.044466481 0.78647161
0.64806849 0.10344421 0.78745699
4.2570963 0.37954038 0.7863524
0.11564777 1.1096196 0.78252494
4.3450646 1.2598746 0.78429526
4.3005471 1.389782 0.78001177
0.13151109 1.4601262 0.78094286
4.1880856 1.6049461 0.7805748
1.3767617 1.7795882 0.78122824
1.1253879 1.7830644 0.78925526
2.4647098 1.7879937 0.78091019
1.4136658 0.044607043 0.79430854
0.36658508 0.14737992 0.79192066
4.3061509 0.49344093 0.7901817
4.3734555 0.80754131 0.79297924
0.12572709 0.97729248 0.79302669
0.12675256 1.1718231 0.79001081
2.5436625 1.7824194 0.79978251
3.8668616 0.10388368 0.80352181
4.3275943 0.73622262 0.80441487
4.3356771 0.89753771 0.80676329
4.2873497 1.2849391 0.80213475
0.11845051 1.360857 0.8004266
4.2008047 1.4351941 0.80677879
4.1589503 1.5043831 0.80609226
4.0193157 1.6591375 0.80406392
3.5723734 1.7389532 0.80339551
3.1692419 1.7589765 0.80930072
1.4674188 1.7773825 0.80177927
2.7253537 1.7760921 0.80218017
1.9747425 0.036160935 0.81757259
2.1539891 0.036564644 0.81148875
2.3414767 0.03975331 0.81950319
2.5000601 0.042417761 0.81853437
4.2370334 0.55139565 0.81944549
0.13316947 0.73529989 0.81510848
4.2098169 1.382847 0.81537908
4.1952662 1.405942 0.81351584
4.087182 1.5397277 0.81673372
0.41669679 1.6773951 0.81450254
3.7121341 1.7205386 0.81171346
2.1640582 0.038666125 0.82194829
3.6345704 0.10027926 0.82143396
4.0315542 0.26587743 0.82597649
4.1891899 0.44078618 0.82120425
0.11296177 0.58599114 0.82939249
4.2338729 0.62167341 0.82498115
2.7403708 1.7697859 0.82683098
2.742703 1.7704575 0.82305014
1.9652206 0.049220815 0.83590025
2.9437644 0.060338661 0.83220387
3.4931977 0.093536913 0.83035743
0.12278476 0.71360385 0.83735943
4.1541972 1.3760558 0.83173048
0.12721118 1.4051234 0.83195132
1.6525968 1.7783935 0.83045137
1.9764951 0.041271225 0.84440297
0.14111751 0.71685141 0.84406757
4.1890306 1.0760159 0.84678411
4.2041669 1.073679 0.84256828
0.12327722 1.0904537 0.84114301
0.14197788 1.4795399 0.8425104
3.7998755 1.6610222 0.84999776
0.9536109 1.7441821 0.84335983
3.1024785 1.7490048 0.8441062
1.8958831 0.03234186 0.85079467
3.8538227 0.22568361 0.85380864
0.13627282 0.37413594 0.85434985
4.0567942 0.53824747 0.85790938
4.113749 0.66024673 0.85904485
4.1062336 1.1866143 0.85653698
3.7520795 1.6762438 0.85028791
1.6808953 1.7747111 0.85869175
1.3558176 0.061000887 0.86559927
3.1392179 0.08560697 0.8661198
4.0058689 0.50565732 0.86548257
4.042254 0.56874835 0.86231589
0.12648772 0.8765747 0.86580968
4.0623074 1.2062601 0.86428589
4.0465837 1.2152083 0.86576045
3.988317 1.425586 0.86243254
2.6702797 1.7567463 0.86728513
2.3799675 1.7706831 0.86481434
1.1587118 0.074066296 0.87241971
0.96151233 0.088422462 0.87844431
3.9611096 0.50787055 0.87366319
3.9258513 1.3519683 0.87799859
3.7504845 1.5805486 0.87837738
1.0946894 1.7427568 0.87864387
1.428851 1.7622998 0.87524539
1.8762703 1.7774236 0.87169987
3.6322603 0.18403855 0.88080925
3.8508859 0.39712423 0.88599575
3.9341822 0.57488918 0.88265657
4.0161476 0.65793175 0.8832581
4.0636334 1.0565578 0.88707215
3.938796 1.210542 0.88996744
0.77430797 1.7119162 0.88649219
1.9115065 0.061550647 0.8953473
2.9305489 0.091345839 0.89611721
0.24316154 0.20573257 0.89398086
3.727397 0.2815958 0.89384007
3.7780349 0.3602694 0.89550012
3.8080771 0.51263016 0.89859438
4.0106645 1.0622923 0.89693868
2.1916862 0.066570848 0.90458113
0.30909875 0.19167085 0.90101564
3.7301555 0.45716769 0.9072876
0.1567387 0.64930278 0.90044564
0.10524625 0.70264077 0.90803552
3.9593763 0.70584732 0.90354657
3.920927 0.71162087 0.90995759
3.9516861 0.71062827 0.90519929
3.99843 0.82838857 0.90262955
3.9519792 1.0528822 0.90816253
3.6785872 1.4780884 0.90872651
3.674253 1.5328383 0.90517652
0.17132363 1.5432045 0.90014809
2.9624825 1.7257214 0.90399957
1.7399478 1.7589693 0.90867847
3.1586101 0.14425053 0.91802859
3.4391928 0.19933344 0.9151274
3.2271814 0.30568737 0.91600204
3.1973505 0.38315928 0.91688359
3.3433824 0.47769511 0.9125675
3.1998372 0.49896517 0.91680998
3.2807608 0.49622482 0.91441822
3.1055245 0.59537756 0.91959745
3.3247385 0.67964846 0.9131183
3.1788526 0.69863272 0.91743004
3.2583702 0.74831814 0.91507995
3.3885617 0.7455017 0.91804463
3.1063781 0.81628901 0.91957211
3.1856198 0.90971291 0.91723001
3.3867271 0.96042693 0.91128618
3.3513174 0.99180293 0.91233277
3.1716566 1.0284357 0.91764271
3.0931466 1.0320449 0.91996318
3.2595818 1.0893757 0.91504407
3.8973503 1.1276693 0.91253519
3.2539485 1.1931046 0.9152106
3.3191502 1.3333505 0.91328371
3.1788301 1.3505861 0.91743088
3.318687 1.3875145 0.91329741
3.2517283 1.3985888 0.91527635
3.2982426 1.4227351 0.91390169
3.2297485 1.4712061 0.9159261
3.5501289 1.5797838 0.91543013
3.1702847 1.6502964 0.91768306
3.3204887 1.6674212 0.91163236
3.1342621 1.6974593 0.91694999
2.0734484 1.7558692 0.91011792
2.027055 0.073155858 0.92648423
1.1443847 0.091472544 0.92079353
2.9764743 0.16149402 0.92341137
3.2525523 0.23395242 0.92320859
2.8423133 0.27403557 0.92737693
2.7782698 0.34234104 0.92926973
2.8623729 0.39271975 0.92678392
2.829514 0.42834944 0.92775512
2.844451 0.4895936 0.92731357
2.9749632 0.51312828 0.92345613
3.0270977 0.53020185 0.92191529
2.9552693 0.55452061 0.92403817
2.9748077 0.62897468 0.92346072
3.7715538 0.63604695 0.92551327
2.9860761 0.75926566 0.92312777
2.8800781 0.76544219 0.92626053
3.003484 0.76751351 0.9226132
3.0470104 0.77294964 0.92132676
2.770606 0.92442906 0.92949605
2.7661893 0.9434157 0.92962676
2.8750143 0.96655005 0.92641014
2.8378644 1.0012132 0.92750818
3.8299785 1.0387992 0.9266597
2.7870359 1.0586716 0.92901051
3.8436749 1.0749993 0.92285526
3.827774 1.1284233 0.92254829
3.8327188 1.1392576 0.92130595
3.0467615 1.1744548 0.92133415
3.7511177 1.1831239 0.92973858
3.0799763 1.2639263 0.92035246
2.961199 1.2735192 0.92386299
2.9580588 1.280818 0.9239558
2.8264329 1.3325684 0.92784607
3.0422387 1.5468427 0.92146808
2.8509624 1.5686408 0.92712128
3.4166596 1.5862985 0.92962688
2.7880545 1.611077 0.92898023
0.40906909 1.6412141 0.929708
2.8114848 1.6746167 0.92828798
2.6755774 1.7129308 0.92969137
1.1458408 1.7291292 0.92455137
1.7577782 1.7507725 0.9270286
1.7880614 1.7534941 0.92333728
1.2450072 0.091795623 0.93242431
2.7148769 0.1809102 0.93114287
2.4859271 0.23346755 0.9379099
2.4609993 0.24041168 0.93864673
2.4439859 0.41400719 0.9391495
2.4699574 0.41445351 0.93838191
3.5405841 0.41484582 0.93309975
2.7338505 0.45354 0.93058246
2.5974631 0.47070217 0.93461341
2.5464513 0.5247919 0.93612111
2.6845064 0.65561289 0.93204081
2.7471251 0.67571563 0.93019003
3.7523875 0.67271805 0.93234468
2.6482916 0.7949158 0.93311107
2.7134888 0.79040062 0.93118417
2.5684755 0.83484459 0.9354701
2.4235282 0.87311256 0.93975437
2.584116 0.88004881 0.93500805
2.5623207 0.8967526 0.93565208
2.6556962 0.93802726 0.93289244
2.4255598 0.9479531 0.93969429
2.6632025 0.95189667 0.93267071
3.7715724 0.96538067 0.93879521
2.57864 0.97622478 0.9351697
0.11689188 1.0482968 0.93730736
2.6033072 1.0603054 0.93444073
3.7413106 1.1297705 0.93489003
2.4953382 1.1355402 0.93763185
2.74143 1.1319873 0.93035835
2.6179695 1.1446295 0.93400729
3.7433333 1.1476417 0.93371701
2.4249485 1.1573554 0.93971217
3.7315512 1.1621228 0.93465739
2.4967704 1.3761814 0.93758947
2.6611333 1.3739614 0.93273157
2.7770782 1.3785465 0.93129998
2.4259055 1.3876714 0.93968385
2.4745119 1.486845 0.93824738
2.6774981 1.4815855 0.932248
2.5724611 1.5109794 0.93535244
2.6987009 1.5892565 0.93162125
2.6619337 1.6068554 0.93270779
0.4272356 1.6439539 0.93203115
2.6059144 1.7171445 0.932702
2.5138321 1.7292725 0.93414205
2.5765131 1.7208096 0.93324208
1.7901467 1.7492164 0.93215847
2.2815659 0.096231475 0.94680029
2.1306114 0.10300627 0.94841182
0.794361 0.12880087 0.94565696
2.5313969 0.12623547 0.9496305
2.573595 0.12660924 0.94797516
0.72494256 0.13395724 0.94117081
2.2896717 0.1375726 0.94371051
2.8184738 0.139441 0.94726592
0.32634163 0.20015502 0.94238973
3.3058865 0.35591412 0.94411361
2.1265676 0.37553459 0.94853103
2.1348557 0.3749288 0.94828606
3.4398353 0.38371783 0.94826353
2.4092999 0.41306287 0.9401747
2.1177335 0.43967855 0.94879216
2.215673 0.60129279 0.94589746
2.2643151 0.60995865 0.94445986
2.3879743 0.69122654 0.94080508
3.7172081 0.75513232 0.94139677
2.3744509 0.79985219 0.94120467
3.6939096 0.79659784 0.94646728
2.283432 0.82840073 0.94389474
3.6795049 0.82173884 0.94897783
2.377486 0.83694005 0.94111502
3.3924859 0.8572247 0.94882613
2.1745677 0.86113793 0.94711262
3.7151036 0.8603158 0.94610399
3.7098415 1.1033108 0.94063878
2.4147196 1.1272168 0.94001448
2.21206 1.1315179 0.94600427
2.2949204 1.1424918 0.9435553
2.1100674 1.1631818 0.94901872
2.1778471 1.220135 0.94701546
2.3709912 1.3066932 0.94130695
2.1335039 1.3192601 0.94832605
2.3306408 1.3150207 0.94249952
2.1303067 1.3228507 0.94842052
2.1697416 1.3691069 0.94725502
3.3329854 1.392655 0.94160491
2.1234186 1.4006184 0.94862413
2.3670487 1.4291139 0.94142342
3.2986593 1.5330437 0.94554389
2.3758307 1.6882821 0.94116396
3.0499444 1.6809549 0.94424099
0.74630332 1.6905596 0.94107258
1.4608762 1.7316432 0.94745016
1.4315543 0.092873052 0.95021707
1.9865837 0.095182776 0.95266879
1.9281111 0.1046347 0.95439672
2.0351017 0.10302114 0.95892388
1.7579352 0.12929119 0.95942652
2.8927708 0.14436214 0.95363516
0.22318944 0.22554126 0.95616376
1.7667958 0.25785518 0.95916462
1.8974919 0.31246012 0.95530194
1.8892083 0.40757602 0.95554674
1.9109941 0.43543988 0.95490289
1.8357699 0.51229405 0.95712614
3.4936814 0.51808518 0.95109129
3.4905996 0.52413189 0.95224369
1.8527188 0.56830549 0.95662522
1.8620474 0.57596809 0.95634949
3.3882709 0.73722768 0.95341957
1.8332189 0.74848038 0.95720148
3.6529918 0.76667845 0.95024753
1.9621586 0.84667701 0.9533906
3.6393304 0.8851198 0.95575702
1.8224897 0.92375833 0.95751822
2.0288677 0.93054855 0.9514187
1.9151739 0.94510931 0.95477909
1.8524194 0.95417404 0.95663387
1.952193 1.0562664 0.95368516
1.926886 1.1477824 0.9544332
1.7586948 1.2162266 0.95940399
2.0886021 1.2230489 0.95614773
3.3333824 1.3555012 0.957376
1.8254666 1.3892548 0.9574306
1.9457297 1.3942158 0.95387626
3.3545768 1.4294552 0.95363492
1.9125544 1.4444234 0.95485675
1.9443643 1.645599 0.95391595
1.8631327 1.6508009 0.95631683
2.7762856 1.6797091 0.95720446
3.0793633 1.6733243 0.95717001
1.9528575 1.6893046 0.95366526
2.0487323 1.7161648 0.95083189
1.8446844 1.7226398 0.95686245
2.9506423 1.7239077 0.95620042
2.8996515 1.7432996 0.95478433
1.8088137 0.08633437 0.96022195
1.8290913 0.11109056 0.96911901
2.5684464 0.13733177 0.96375132
0.7052756 0.14474629 0.96209598
2.9949391 0.15050142 0.9658705
3.2374756 0.2883403 0.96361315
2.0861564 0.32827297 0.96429157
1.5512619 0.34679037 0.96553469
1.4562092 0.39604685 0.96834397
1.498 0.45841306 0.96710896
3.4568381 0.57516181 0.96342003
1.5288479 0.60829127 0.96619713
1.5059853 0.67328769 0.96687287
1.7220309 0.68572658 0.96048766
1.7007513 0.69300359 0.96111655
3.5016596 0.73465097 0.96666527
1.4729595 0.83727527 0.9678489
1.5079525 0.87109673 0.96681476
3.5888746 0.95930499 0.96086419
1.6675553 1.0221119 0.96209764
1.5501603 1.0717778 0.96556723
3.374182 1.0758549 0.96151906
3.3613997 1.084497 0.96828103
1.5822351 1.1189157 0.96461928
1.596723 1.1458212 0.96419114
1.4163114 1.1655958 0.96952319
2.7827911 1.1631176 0.96969354
2.8125277 1.1771359 0.96263373
1.6441081 1.1909209 0.96279061
1.6974955 1.1992322 0.96121269
1.6116194 1.2038418 0.9637509
1.5623093 1.2563074 0.96520823
1.6284583 1.261547 0.9632532
0.1297082 1.2996175 0.96472847
1.5619742 1.3186719 0.96521813
3.4070048 1.3262779 0.96251786
1.4770225 1.3570933 0.96772879
1.7272013 1.3616672 0.96033478
1.5626109 1.379889 0.96519935
1.5129175 1.4754007 0.96666801
1.6145327 1.5233588 0.96366477
1.5749772 1.5597878 0.9648338
0.18745865 1.5762625 0.96022826
1.7338483 1.6466841 0.96013778
3.1020486 1.6688368 0.960949
1.9626006 1.6983706 0.96945274
1.8465669 1.7237058 0.96631658
2.9806018 0.13689762 0.97224748
1.1017618 0.17574258 0.97881961
1.2609193 0.25188226 0.97411573
1.377184 0.26991421 0.97067952
1.9639124 0.33266282 0.97406381
1.3087485 0.45363837 0.97270209
1.2055866 0.63452423 0.97656751
0.1004214 0.8397333 0.97458339
1.2106931 0.87330353 0.97560018
1.350171 0.91424102 0.97147787
3.4715779 1.0247407 0.9717766
1.3093493 1.1470217 0.97268438
1.28383 1.298658 0.97343856
1.289336 1.5648936 0.9732759
2.079215 1.58259 0.97116941
1.2049322 1.5975055 0.97854054
1.3364162 1.6377723 0.97188419
2.6536436 1.6756597 0.9756608
2.0932446 1.6914085 0.97251242
1.1279429 1.7028205 0.97759074
1.0023904 0.14942949 0.98175693
2.9932117 0.15197277 0.98409998
0.96518993 0.22428498 0.98285633
1.0390197 0.23513062 0.98067421
0.75565851 0.29070878 0.9890492
0.78167689 0.30805165 0.98828018
3.2449682 0.40782285 0.98871386
0.1321272 0.41457587 0.98843634
0.7686826 0.48048949 0.98866439
0.9222061 0.49323502 0.98412681
0.75213909 0.50747198 0.98915333
0.85968602 0.501306 0.98597467
1.0695021 0.52462262 0.98865759
3.3058624 0.62172174 0.98909807
1.2042279 0.73130715 0.98066413
0.96337306 0.74333429 0.98290998
0.096206293 0.85165572 0.98901939
0.79547143 0.8722868 0.98787272
1.9643048 1.0087639 0.98732793
0.89910984 1.0129437 0.98480934
0.79555082 1.0670923 0.98787022
1.0382931 1.0694458 0.98069566
1.9641633 1.0845568 0.98254085
0.89963657 1.108771 0.98479384
0.79459465 1.1346679 0.98789847
0.81280923 1.1319844 0.98736012
0.79417646 1.19559 0.98791087
1.9641283 1.2378333 0.98136353
0.74911642 1.2604394 0.98924267
0.88351244 1.3257132 0.98527038
2.7847707 1.3227124 0.98006397
0.77282017 1.399361 0.98854196
0.85376257 1.4187235 0.98614967
3.2331052 1.4670039 0.98175561
0.80604523 1.4775894 0.98755985
0.86840445 1.5038908 0.98571682
0.85049081 1.524676 0.98624635
0.16673119 1.5456169 0.98369861
0.23961726 1.5938008 0.98096389
0.80443698 1.6303878 0.98760724
0.88889456 1.6316413 0.98511112
0.92260915 1.688024 0.98181576
1.5043664 1.6927106 0.98506987
1.6443776 1.6932869 0.98192847
2.8609776 1.7036316 0.98678994
2.8393989 0.079958789 0.99636102
1.6047403 0.14075166 0.9956764
2.066855 0.14307256 0.99829769
0.15685797 0.29935253 0.99068934
0.66043043 0.31524438 0.99186373
3.2407007 0.41474694 0.99273574
3.2431173 0.4419409 0.99844474
0.67379993 0.55358905 0.99146879
2.0770068 0.69060904 0.99475694
0.52573109 0.71257186 0.99584508
0.50521767 0.81537557 0.99645162
0.54233497 0.8585425 0.99535453
3.3154161 0.90430957 0.99798369
0.67867249 0.91023964 0.99132496
0.49847674 0.94011372 0.99993837
0.71923947 0.95172536 0.99012589
1.0697733 0.97844851 0.99783504
0.53632563 0.99282557 0.99553216
0.69585031 1.0159484 0.99081707
2.0771041 1.1388384 0.99443269
2.0778818 1.207498 0.99184263
0.641783 1.2500538 0.99241501
0.59600407 1.4031711 0.99376774
0.65320468 1.5354654 0.99207747
0.66656041 1.5343691 0.99168271
3.1518903 1.5615559 0.99945366
0.29192692 1.6010664 0.993626
3.0748653 1.6451457 0.99657845
2.9066808 0.039425664 1.0059295
2.099139 0.14860979 1.0088332
1.0713526 0.21371301 1.0019643
0.10761373 0.64640749 1.0028261
1.9647676 0.66440719 1.0029713
3.2950675 0.77681446 1.0056759
0.094466083 0.82390559 1.0022528
3.2945461 1.0619833 1.0055109
3.2938673 1.096161 1.0049486
2.0744467 1.1968402 1.0032815
2.810225 1.22351 1.0062562
1.0699593 1.5037948 1.0041343
0.52471983 1.6279811 1.005402
0.59489989 1.6428759 1.0041541
0.83023113 1.6483933 1.0099527
0.68647033 1.6509751 1.0061371
1.0864037 1.663795 1.0044084
2.9682629 1.6905631 1.0043328
2.8899448 1.7974732 1.0062481
2.800998 0.0091962619 1.0183033
2.9007564 0.035589173 1.0138474
3.1491985 0.30046535 1.0114303
2.0004492 0.37187862 1.0175691
2.0721676 0.44192144 1.01087
3.2611232 0.60265815 1.0113142
0.51077789 0.68019974 1.0118828
2.0251532 0.7080611 1.0168388
0.096560091 0.756019 1.0104085
1.9997153 0.8284936 1.0175908
1.9991242 1.139681 1.0195227
2.0721216 1.2561527 1.0110229
0.56979263 1.4156919 1.0114572
1.996045 1.5108507 1.0176991
0.64854866 1.5591589 1.0120945
3.0502839 1.6357453 1.0147791
0.90161932 1.653559 1.0101759
2.6889751 1.6536589 1.017591
2.93964 1.6500423 1.0160589
2.0681903 1.6732041 1.010676
2.8206215 0.049061961 1.0266417
3.1929288 0.45255119 1.0275682
3.2329082 0.61989117 1.0285125
1.1170055 0.65053719 1.0227607
3.2552273 0.68405408 1.0233368
0.097579911 0.69921726 1.0224651
1.1435047 0.72400808 1.0219797
0.18073533 1.5327724 1.026688
2.8546224 1.7113132 1.020739
2.812232 0.0023472996 1.037684
1.6612753 0.16010326 1.0365191
3.0450549 0.21870786 1.0359607
1.0750469 0.3721278 1.032059
2.0552382 0.39130723 1.0332944
1.0766972 0.50361013 1.0349689
3.2472405 0.73172623 1.0306528
2.0052416 1.1427339 1.0332265
2.0678608 1.1462939 1.0371619
2.8366132 0.01392547 1.0490817
2.8997669 0.12857983 1.0499535
0.60329026 0.34298605 1.0461929
1.1436957 0.78187698 1.0484357
1.1881781 0.9596343 1.0436784
1.9660648 1.2757887 1.0468993
0.16121908 1.3869231 1.0474143
0.39968044 1.5494096 1.0468875
0.65326631 1.5676643 1.0440156
1.1109684 1.6432631 1.0440681
1.467151 1.6552749 1.0444804
2.3194883 1.6507361 1.042742
2.9396801 1.718318 1.0423909
2.81563 0.032205135 1.0590981
0.29340127 0.33363742 1.0506438
0.30140552 0.36616266 1.0557076
0.19101095 0.50247681 1.0575552
1.9662735 0.62764412 1.0539726
1.0885025 0.81545395 1.0557837
0.087587669 0.91954297 1.0571755
0.12467393 1.3004377 1.0502454
0.23395655 1.3811252 1.0581604
0.52778351 1.5690207 1.0535346
1.0008957 1.6386173 1.0574032
1.8508649 1.6563876 1.0557513
2.9158192 1.7144294 1.0584456
1.4829779 0.17788175 1.064497
2.4724574 0.18986213 1.0686544
0.87726665 0.20336124 1.0683728
1.9803877 0.39823157 1.067003
1.9664911 0.64221919 1.0613422
0.14702037 0.71617913 1.0621506
0.17692098 0.80150515 1.0680301
0.12546103 0.85020745 1.061913
1.0925059 0.89911389 1.0628425
0.17271793 0.92277259 1.0696125
0.16667053 1.0615683 1.0657389
0.26214817 1.3239046 1.065531
1.0925215 1.3286538 1.0628701
0.27508661 1.3486562 1.065318
0.29753232 1.3975607 1.0628637
1.2906058 1.6372507 1.0685089
2.5792437 1.6332577 1.061668
3.0250995 0.28399691 1.0708733
0.48200178 0.39037782 1.078233
0.39677301 0.44670528 1.0752751
3.1259427 0.48952818 1.0718622
0.30152482 0.59897411 1.0749764
0.25664568 0.73681039 1.0749896
0.2731342 0.73231339 1.0765295
0.23281331 0.78212535 1.0736619
0.27774128 1.1216236 1.0765965
0.25356698 1.1559669 1.073256
0.27284527 1.1752608 1.0743487
0.51183927 1.4828254 1.0724754
0.53610682 1.5017079 1.0711963
