# .PCD v0.7 - Point Cloud Data file format
VERSION 0.7
FIELDS x y z
SIZE 4 4 4
TYPE F F F
COUNT 1 1 1
WIDTH 1564
HEIGHT 1
VIEWPOINT 0 0 0 1 0 0 0
POINTS 1564
DATA ascii
-11620.024 12783.221 11436.882
-11367.703 -8013.4697 5203.8833
-11389.975 5235.2231 5440.8911
9261.4766 30310.953 15883.878
8057.6982 -30233.162 1583.7482
-8286.9111 16720.035 9012.1592
-11463.56 -20865.713 3522.7573
-11536.894 -9318.5615 11839.447
-8764.8164 28098.66 14072.246
10551.514 17406.639 5814.7485
-9804.0498 -19496.463 11700.984
-10590.361 -28760.16 2085.9766
-10779.281 -10438.752 12730.639
5994.4062 -29783.953 1589.6309
-3348.7798 2204.0142 18808.469
-4112.5947 -3142.0127 2333.5793
11941.402 398.81509 9996.1172
5302.585 29254.012 4633.4248
9291.0615 18935.289 8469.1348
-9240.7393 8959.8516 15725.325
-5588.5483 -18878.941 1937.5198
-9419.6436 1873.8823 15317.037
7882.5811 18801.357 15513.896
-9035.9961 -27344.527 7671.0845
35.262257 27562.178 13970.554
6842.7246 14969.086 17307.059
-11956.623 -3738.7385 9604.0225
-5267.29 10379.75 18559.58
12976.721 -21697.066 5567.126
4629.6836 29906.152 16296.92
4709.0737 31076.182 10654.629
11571.58 -6511.5327 11019.123
6720.0107 -18375.543 7329.6904
-5072.8271 -4359.8291 2312.897
-9661.7832 -26496.256 8344.4805
-5701.772 -26645.746 1630.7147
-9891.4912 12188.373 4496.8525
-9809.3193 -24663.572 3705.0776
11536.87 11339.848 11661.84
-8605.6729 -21020.219 282.27356
-10271.297 -3657.2407 13910.213
-9285.4316 -5406.2231 2273.4668
-6230.6016 31219.715 9338.2119
11589.116 -21305.26 5655.3423
-6540.2002 -18428.207 2818.6685
10611.318 -19822.738 5720.0889
9715.0439 15185.311 9089.2891
-4718.356 5384.1338 18839.139
3877.8127 -122.67859 18561.119
6000.3789 16883.895 16727.426
-4465.2231 13215.237 4131.1802
10497.332 20073.217 1425.9219
-9523.9961 30883.037 14188.777
4186.5571 22100.162 4077.8193
9138.0186 12818.887 6784.4834
7845.8135 19836.84 7160.8633
-11549.104 -13620.876 10514.1
-6540.2002 -23423.127 2469.199
1848.6385 1780.6111 2408.5781
-2504.4067 2073.8975 2412.4275
-11332.399 -20421.318 8260.7393
10797.933 -16607.867 1267.5128
10048.941 -18227.73 8931.3604
3954.6311 -32014.648 2129.1421
9228.4199 -17487.439 4230.0991
659.19214 -29874.871 7159.2407
-1737.7688 -17680.297 12515.27
-11125.974 -7556.6919 2003.4229
-8578.6631 -3948.7798 2303.7949
11688.087 14742.301 4693.002
3519.9937 -31501.775 6881.5332
4232.3887 -14445.656 12854.922
-10755.686 -27731.346 6974.6475
-9316.2217 12261.746 5279.0708
-12026.443 19364.855 1349.4213
-2147.7039 30475.762 17055.4
11906.482 -4209.062 7501.9561
11691.604 9753.3018 11409.128
-3201.0293 -30616.711 2763.6763
-10127.095 -15332.605 5404.4512
-6309.2949 7373.04 18578.137
1248.5194 -30618.154 8939.5986
-6357.7314 29883.686 13597.797
-1811.0216 4114.5376 18975.871
-931.19348 27597.707 13933.291
-9596.1162 -19864.58 -66.594124
7518.7754 1207.1183 3548.6499
-10993.138 -19261.25 1003.2051
3289.48 -19593.945 1901.7745
6358.8203 31342.971 6641.5801
-10801.521 14826.212 12985.678
-2674.3796 32219.211 5187.8013
8235.3789 -29107.895 1598.4797
-1017.9519 -30512.803 9242.7607
-11820.624 33.525627 6832.9526
-11108.249 -9035.415 4296.2812
11663.078 -25158.359 5779.3184
-5330.4673 15935.051 17255.941
2104.6255 31403.961 6668.8594
-7151.7622 -19676.912 12010.678
-1303.7253 30284.902 7642.981
3773.833 -31541.49 5030.5117
-4252.0298 -29336.873 7698.8584
10335.092 27298.438 5621.9321
7316.5059 -15696.962 12569.924
11591.202 -21578.789 4458.4951
-499.6658 -5624.4854 2291.4192
10927.346 -13799.555 3015.3933
-6540.2002 -19997.316 8585.9912
10510.491 3633.4316 3127.1035
10807.999 15971.1 9198.4727
-11822.348 12569.076 7141.2441
-11627.863 1816.6897 6153.9326
8676.3086 -19265.521 7963.7944
10566.969 16904.26 5133.1211
-3371.2114 10414.725 18795.967
11435.89 -20139.064 4178.7988
1724.8115 30999.178 5944.6494
7787.8262 13527.57 8231.9971
-9342.5625 29529.859 17164.188
11268.521 -10142.652 3260.3789
2745.1377 -12334.457 2177.4624
9973.7656 -19362.086 -34.030628
10597.432 -28083.229 6877.7832
11649.059 15579.148 5916.8589
-7879.3252 -21732.004 2084.0334
7849.1182 22370.852 3787.3442
-11506.242 9549.2041 3508.2781
-11380.711 -4611.7119 3024.4917
10646.881 -12112.566 12467.001
11790.359 2128.4226 11166.208
10728.696 24954.135 3824.637
11985.352 13177.419 4668.4546
10375.938 11024.142 3781.3379
7753.0815 17164.852 8281.9033
9189.5732 16514.4 -55.637531
4303.7437 28630.779 7358.4473
-12025.432 4318.2207 8706.9092
-11925.338 17282.436 9830.8096
6446.9565 12327.641 18185.541
-12005.159 16823.932 9638.6201
7661.4736 -19329.143 12018.768
-12189.888 -17876.783 4809.9062
-1231.744 30284.9 7265.6108
11167.001 13244.038 5588.4497
-1730.8959 511.81573 2391.925
6540.1899 -21932.26 5737.3936
8470.2305 -28951.873 3205.3604
11104.082 16910.012 5135.4946
7387.0005 8435.3682 18336.326
4994.9019 9643.666 3432.1328
4101.0029 31488.609 17029.215
-6540.2002 16946.945 6645.4722
-6540.2002 -19945.064 6037.9316
-7367.1152 32011.945 17529.111
-11840.706 -13326.901 7526.5444
2319.5259 25068.117 14131.905
11328.803 -987.09167 11763.097
-8088.6465 -6387.6108 2266.2417
2986.386 20096.762 4131.1802
7124.3213 31051.199 6472.1768
-3922.4897 25436.879 3446.3687
-10102.184 -24454.484 2102.5405
5807.3428 5693.4844 2431.3655
-6370.918 24209.734 4303.2266
-6994.7031 -31809.207 1563.1152
8147.0552 30744.402 4080.4487
-2352.6694 9036.6621 18922.227
-4466.2856 11448.701 4080.9648
-10064.038 -20091.916 -34.546539
10111.266 -8392.5303 14303.86
2615.125 -9183.2646 2230.9797
7882.437 11645.318 4432.7217
-6540.2002 18032.328 7657.2417
-1461.8191 17910.164 16825.656
-8273.8877 -27527.088 8039.8008
9598.0723 2532.7715 15372.336
10274.825 -8612.3662 2220.9927
-9231.9707 13307.276 7465.707
10818.49 5013.3901 2483.0178
-11738.066 13342.843 5875.9287
-10255.971 1197.7227 13800.534
11101.9 9135.9307 12545.922
5762.4648 -29583.342 7496.3457
11312.664 14670.952 8583.0527
-4204.8516 -30931.266 1574.6135
-9727.5293 16656.695 9041.7393
6846.2256 10558.326 3760.9131
-3157.7158 -30713.902 6094.5928
9777.2168 28234.086 3628.0596
-8817.9414 8749.5156 2869.3052
10640.889 -16374.439 1314.5081
10095.483 -17006.734 7399.8857
8571.5889 -20382.783 8050.9448
-7906.4717 -509.10492 17844.996
11782.451 6108.355 11093.856
-8849.1738 13101.274 4765.0376
-12187.791 -17861.801 2131.718
-6216.2104 -6657.2544 16591.469
-1812.993 -14614.339 12931.387
-11571.67 16562.771 7049.9673
-5399.7314 -6081.2139 16939.148
-2227.4771 -31901.941 1561.4783
-5619.8345 -29651.035 8798.2627
10335.343 -18475.951 3649.0002
-7263.4463 23949.543 13893.837
11786.854 13510.484 4998.2549
-1667.5049 17944.92 4131.1802
-10906.959 1.6934204 12420.856
-6834.0562 3186.0527 2414.5461
8591.0938 -16321.705 12361.322
1926.3048 -29349.473 2941.1223
1188.0247 -24388.771 11943.778
-455.03226 -18187.77 12548.975
-2324.6677 29313.994 4642.0728
6570.8535 -9751.9766 15051.518
8342.5059 17289.607 15976.583
8904.7686 -21338.1 7905.02
-1973.4143 30985.27 8153.2407
7806.5078 -9632.9619 2213.3513
-9637.6426 13302.853 14991.615
11427.029 -22498.27 6345.2275
-4124.2271 -29960.076 3024.6404
-8666.6885 -27575.521 8929.4023
-10866.033 15094.641 4978.8364
-11979.371 -16750.705 3811.8047
1985.3375 -3945.96 2319.926
2182.0195 5052.8975 19026.238
10768.857 17085.666 5319.4526
-9640.9092 -15397.425 5919.1245
-4062.3262 -30713.898 5493.0259
299.05688 -30776.699 8261.7451
-5825.4438 -5447.1299 17148.035
8279.2129 19823.912 6409.6826
11921.422 -2047.6663 7541.022
11054.316 -21470.059 8576.2734
-8195.9092 -24252.947 6223.5659
4492.189 -12865.044 2168.4512
-2789.6851 11834.176 4131.1802
5847.9102 -785.57184 2373.5994
6540.1899 -20978.023 4573.3306
8894.2725 22255.867 13875.182
-268.67026 -21870.539 12396.672
-12375.349 -17056.541 3562.0801
9257.8145 14503.314 7369.5337
-6494.3057 -5776.7349 16910.777
-8902.084 -20956.133 11556.658
1257.3896 15117.557 4131.1802
11633.759 -3487.9009 6164.4697
-11344.256 -20757.852 5965.2256
3527.9412 -30713.898 5707.5884
4207.4087 -4193.1807 17820.805
7907.3755 -30279.957 5087.0723
-4616.6494 -31502.469 5622.2832
3750.5857 28725.469 13735.738
-2658.8137 -10950.863 2200.9602
807.57324 -30713.9 6354.4658
9840.082 -2129.897 14889.429
-2520.511 -18255.246 12500.184
-4940.4297 31403.451 5609.2871
11287.729 20930.186 10972.027
10623.093 -27229.016 2227.1604
192.08684 6991.3071 2972.146
-9965.7168 9053.9922 14376.875
7087.8008 -18115.996 8766.4248
7085.8618 -484.52774 18164.5
-9305.3174 24263.658 13411.803
11638.346 13588.613 1260.542
8076.7959 28100.09 3871.4619
10667.179 8428.0537 2556.8193
683.03168 -30604.57 7918.8447
-4924.1582 25389.98 13977.643
-6345.1187 31692.533 8532.4375
9279.8809 -5260.3408 15792.253
11820.499 -13737.835 7226.1973
8110.0044 30945.986 5819.9702
980.30695 30664.707 13516.08
-5553.4619 28254.139 3689.231
-2343.6477 22339.695 14813.539
-2511.8677 30404.549 8153.2402
3089.3223 3889.064 18930.457
-952.55432 25883.953 3390.0598
-8694.0752 -20327.541 7911.0352
2494.5808 -21751.289 12339.793
-9855.2686 25880.021 12789.883
-6540.2002 -19062.982 3411.8132
-12147.532 14804.756 1546.156
-8924.2949 12118.137 6272.3926
1698.2183 8754.625 3150.2456
-8320.2246 17069.664 9262.9219
6214.2471 -9465.9424 2226.179
-6903.2715 -21811.828 11678.391
10923.751 -24178.295 3434.2695
11545.471 17948.805 2093.1335
-6540.2002 14750.029 4783.1582
-11627.851 16693.941 10928.507
2596.5635 -11312.823 14628.998
-409.52197 -30713.902 2574.9595
-3183.3752 19911.523 15894.176
6540.1904 13148.584 6201.7446
9659.2666 23439.75 13336.354
6540.1899 -18233.598 2100.7668
-8265.1797 29668.133 12945.321
-11028.605 -19677.863 4753.5488
8472.4189 17344.832 -37.163612
3654.2749 11236.864 18660.668
-10624.235 3442.562 13118.468
-1916.0909 14992.348 4131.1802
-7365.2046 -23467.396 4297.0098
11997.594 2228.9373 9724.667
3410.7114 -30078.477 1585.7773
10459.781 18437.133 293.4921
5404.7422 18926.766 15931.012
8534.7969 29595.701 3802.4846
10341.388 -6425.082 2249.6545
-8550.0449 2082.9458 16731.762
8783.6865 -30076.648 5308.293
-4724.3682 -20578.287 1852.5643
4299.375 13352.06 18252.893
3239.5144 6305.8252 2681.0137
2675.2065 8824.0381 3168.5605
10023.572 28458.844 9838.5938
-5264.0337 28341.613 3886.896
-11820.539 19561.262 1044.2115
-5101.0908 31034.264 10372.596
-6758.6606 -19936.77 12006.119
-8691.9463 24872.248 3682.4243
3248.4587 -1439.1295 2362.5
9873.9004 4765.3599 2924.6282
-1436.1917 -30535.666 9153.0928
2038.191 -4542.6626 2309.792
11349.184 19357.047 816.90308
-5361.8936 -30870.684 1575.4052
-8807.7295 13344.67 5814.5337
-5387.5581 30546.328 8153.2402
253.93387 -28529.598 8883.2109
-4536.8486 18202.674 16400.24
7891.9839 20597.113 3518.8542
-10922.965 -11857.438 1866.0754
8465.4688 -16283.219 1903.9355
-3185.3127 3852.0591 2417.22
10016.825 28345.67 4019.2896
-2152.0586 29897.232 16297.119
10549.284 -14729.374 2136.3027
-4555.4604 29519.014 16912.584
9622.1143 -17269.84 5170.5908
-10706.088 15500.21 2943.0759
-11385.827 -11684.68 5274.3467
-5049.7998 10491.532 18573.668
7731.3228 -3854.5806 17342.576
11640.834 15628.836 6822.7666
-6540.2002 15172.076 7128.2539
11541.779 1758.5591 5846.8945
12286.705 -21629.611 6979.0518
11989.278 -4456.688 8468.0117
12053.539 3552.7676 9322.0791
7856.5425 11611.249 4252.2271
4054.0476 -1486.1536 2361.7012
-7945.1611 -10293.409 2201.041
-2041.4612 -23309.727 1716.0107
7061.1562 -9555.5801 2220.5464
2420.1238 16398.072 17403.668
3462.2893 31347.727 8153.2402
9371.3652 30219.951 7374.3936
-9430.3789 -1281.3754 15501.562
6443.668 -17564.336 6866.7471
-11478.908 22108.566 6840.1499
-7732.2065 31369.432 5097.3945
-3051.7522 -14861.65 12742.372
4814.1816 30593.023 13039.004
11279.403 -18827.176 8838.375
7755.0317 -15926.297 7018.8125
-11211.456 -20626.904 4216.6387
7128.6777 -30158.615 3315.2278
6540.1899 -17391.738 7033.5898
3285.437 -29360.348 3887.2458
11409.561 1780.0558 2687.8994
11828.207 8299.2129 7014.5498
-10692.279 5034.7676 12987.258
-1522.7407 28752.938 7496.0986
619.39404 27993 5156.8379
5589.4897 -28016.299 10357.314
10557.496 -19447.172 4054.2749
-4673.0703 3930.9285 2417.22
-11850.474 -6755.1963 6905.7954
11239.266 -23136.75 4383.1875
-11241.39 10789.67 4302.6782
-11093.414 19837.457 7850.7832
12059.725 -843.51868 9075.6279
-10451.918 27319.82 10113.633
11444.242 -7077.0361 3729.2537
9891.9561 28154.588 11941.711
965.46918 32046.938 5620.0796
8370.6006 17643.398 932.26288
8396.5918 2155.9258 2561.4663
-7348.7036 -23418.508 3905.3325
4629.9307 6167.2612 18828.418
9490.2734 4166.8721 15265.497
3313.7283 -20042.361 1879.3567
-3245.0078 -31569.924 4964.5005
-11963.299 18378.562 7965.4399
9695.7637 19986.012 1311.5016
-13718.651 -8385.0518 12322.904
-6516.1621 5957.5854 2417.22
11201.529 6874.8413 12290.406
11920.281 -4721.0991 7694.3149
-7990.5254 15914.481 16634.363
10194.096 -24690.396 1656.3118
-8100.2671 14343.683 990.14954
-5724.0674 14073.162 17875.875
-11006.162 -6635.7231 11992.595
10165.585 2276.9849 2790.408
10703.029 14579.771 5905.0068
-3587.4939 -3103.5317 18149.451
-11720.709 7445.8198 11381.62
7207.2568 -25261.891 1648.8302
-1739.5547 28234.625 13838.82
6826.2598 30284.902 6289.4277
-9450.4717 -22020.082 4539.5532
13285.481 -22792.027 6041.6982
-3117.4055 29288.75 16730.955
5188.4893 14838.626 17697.998
-4766.1392 24945.086 3508.3105
6641.1021 27188.393 13654.439
-6350.1392 22443.023 4189.251
9921.5361 -21987.529 1390.717
4978.853 -10920.797 14666.3
-11328.674 9787.457 4213.3091
-9954.7051 16894.111 9043.2402
-6540.2002 -23503.736 2926.1533
10828.777 18488.057 2678.2354
-6502.3062 8890.4297 3186.0779
3507.136 29478.789 4651.4609
-11761.261 20393.736 7566.3687
9059.8027 -3666.688 16108.117
-9766.5586 -26286.32 8583.8809
-11845.887 -8149.686 6991.498
-9293.5244 -17154.402 12143.6
10022.928 17823.658 1017.6638
5363.9946 -20932.494 11977.263
-9377.9277 14517.307 15698.789
3303.3206 30152.768 4698.4185
10771.871 -20844.93 7902.9043
-3234.0466 -25707.666 11469.689
-11448.348 20303.146 5310.3379
-6415.4414 -27799.301 9195.8301
-6535.6885 31386.252 17324.59
10354.151 -18680.93 4689.5044
1011.341 -30014.551 4482.166
8512.998 -27249.693 8475.4346
-12355.737 -19343.27 3933.2095
8556.5166 20586.646 6889.6465
-10211.552 -22455.094 7491.5742
8381.3193 -26730.557 10297.429
-10902.948 24595.59 4866.561
-5438.144 17179.365 16703.375
-11836.748 -19006.367 303.37732
348.80432 -24970.779 11802.414
9359.0312 21657.721 3283.1235
-1509.3705 -8406.0117 16155.309
5898.4097 -29189.16 7426.9551
11877.3 -2421.1895 10323.566
8020.4277 12337.213 4558.5288
-11187.384 -4824.9355 4576.0957
1137.6222 -30713.9 5765.2803
-9949.0576 -21124.66 4789.0708
5173.814 -30975.711 2399.6702
8874.9941 13664.795 16518.543
373.10059 30284.9 5556.6743
6893.8364 12884.16 17946.072
6948.147 1273.0358 3548.6499
-8144.7656 -30243.953 6523.3945
-6331.5649 3051.9573 2417.22
-10130.628 -3950.0212 14260.315
9170.918 -16826.207 12208.541
10329.914 27236.574 11260.073
11225.47 2794.6533 2376.2961
-12007.697 19881.021 6581.04
-1005.957 -31040.264 7546.3228
2164.4609 26293.979 14016.84
11589.257 -13481.65 10471.357
10998.025 -20582.785 5639.1602
12479.197 -21735.801 6760.8188
-1506.5637 28411.998 4045.9424
1415.8955 -23.599468 2384.8977
-11795.662 14056.957 4626.6421
6803.4053 -16223.349 4873.2598
-9944.0254 -509.42578 14568.783
6981.7319 -28687.338 9690.0547
11634.788 -21668.266 8812.1201
7090.2891 7932.8418 2894.9749
-8009.1738 19985.939 14971.816
-6312.7568 -13930.938 12864.14
-9174.8154 -28466.166 7512.7344
3187.5576 -29607.588 8898.46
-11790.225 13453.438 7453.8945
-1346.8112 -30950.062 7569.6343
-11910.577 7969.8496 10110.85
5487.3623 31799.863 6947.293
-795.18933 30592.648 11873.357
8473.332 29299.906 3813.5044
7809.4102 9772.0273 3330.582
-8374.5879 29067.568 13203.006
7572.2881 -3125.4397 17545.646
2899.605 6203.9893 19010.918
11213.633 -19909.684 5514.376
10361.55 -16796.953 7967.8364
11618.628 -20125.334 9017.4561
-11795.378 -15046.93 9313.7695
-9434.6748 -23048.199 1293.0004
-1246.6526 10949.329 18832.695
11884.507 -1977.8401 10291.54
8555.1133 -27982.682 7330.0127
226.67188 15107.938 17964.844
-10754.461 14988.354 1314.2961
-8418.9541 9599.7695 17065.395
5960.1006 12354.898 4131.1802
5617.9189 30284.902 7102.6646
7154.6577 -28558.855 7657.6484
-11859.797 -4777.9844 6943.1445
-9174.0547 21551.727 3664.6348
12016.469 11234.338 9445.1689
-6493.9756 31623.447 17109.814
9062.9541 -29796.605 6368.4277
-9767.9824 12180.012 14829.047
3086.9414 351.57141 18682.479
9397.8008 13103.697 4828.8203
11758.251 -20583.805 7885.2983
11913.58 1368.5568 7294.8027
3530.2446 -14467.785 12900.782
-10879.608 19204.516 1833.6576
-3931.8447 19204.289 4131.1802
3.9886637 22590.139 14742.893
9723.7734 6477.0625 14781.243
3154.4268 13708.771 18290.727
-8247.209 -24616.977 4980.5674
-11562.321 -8596.4258 10900.389
43.148438 30284.9 6272.6719
-10863.065 -16208.858 7351.6274
1400.1964 -30380.535 2815.282
5984.7178 -30971.658 6787.9121
11597.997 13973.02 5865.3086
-8164.0933 7905.1265 2812.6262
8481.2939 2261.5618 2608.313
-11078.941 -19604.219 4658.1963
11674.525 -18281.92 9664.7041
10968.289 -27246.547 6839.4951
2880.7974 -8364.9102 2244.8777
-11835.623 -20212.234 3927.3259
5160.0596 -25876.844 1640.7804
2805.1123 7445.8418 18968.711
-11572.735 17993.979 6045.5239
4853.7729 -18603.439 12436.02
740.76221 30284.898 7191.0654
-1685.5793 30103.74 17006.053
-692.31152 30284.9 13040.396
-8663.4219 19613.051 7997.1836
11078.735 16271.857 3903.8472
11809.393 -18354.201 918.02954
-9020.9023 6078.6982 16012.978
-2127.1982 2597.0757 2417.22
-5076.1392 3810.9062 18724.281
771.35437 27993 4829.2148
8564.0898 -21627.473 7839.8745
1183.1886 -5902.7583 17323.188
3570.115 31899.24 8153.2402
9689.7793 -10617.861 13802.078
8399.7969 18844.879 434.79309
6540.1899 -22995.004 7790.0791
2199.1245 -30490.785 9156.0127
10090.273 11873.102 5639.4785
-11694.312 14714.606 6338.6377
11011.344 -18863.289 7161.6709
8202.1553 -20402.205 11751.58
-10657.74 18159.715 5073.5825
-12009.672 -4673.6436 9115.167
9002.1885 -17184.93 2041.355
10178.963 9881.998 13978.781
8652.7207 -18444.92 238.41629
6540.1895 16669.904 7584.793
11908.982 11857.584 10042.36
10807.146 15319.435 3632.7983
9956.0293 15635.094 14659.125
-3057.8298 29841.879 13659.233
-8865.8779 -21777.061 1693.3311
768.46387 -14274.745 2144.51
-98.21833 -26210.508 11422.115
8416.7627 1269.4531 3289.2144
-11301.307 12219.213 4023.4775
3846.937 3368.1782 18832.443
10642.929 4450.1768 2482.0317
561.96509 -20319.088 12653.281
-11847.457 -1941.2051 6920.0229
11097.796 4773.7646 3270.6006
-1001.4539 -22571.275 1752.9283
-1562.479 -25759.578 1642.3154
11511.734 16439.535 899.71863
-8063.6973 -21154.012 1509.4589
-8304.8242 -22044.504 2191.6677
-11761.639 13112.288 4131.019
-11606.813 -18616.938 5365.6123
-8761.0713 -8106.4121 2231.7458
3931.8965 -29893.023 9545.7363
419.34747 -25802.568 11537.345
12166.858 -20770.633 6952.1113
-10021.604 -11239.669 2186.3201
-6540.2002 20959.781 6437.7695
-5063.0518 864.62708 2396.5557
3720.4023 -18455.453 12480.067
4201.2344 29672.484 16302.116
-11990.104 20738.854 3968.8083
2426.3701 24931.654 3510.0024
-11204.852 14876.276 380.61612
11952.229 13768.235 3096.7112
2466.426 5919.7979 2685.02
-11679.097 -24616.133 5003.6621
11752.046 7268.5938 6739.7227
10782.525 16359.338 4717.957
-4179.9341 30839.316 12735.137
10515.999 27238.055 7081.873
7971.7354 27768.391 13455.734
-13369.245 -16569.051 3585.354
8229.7178 2793.8076 2458.9182
-11842.91 14691.58 2543.6433
-6540.2002 20939.191 5685.145
9282.7197 28771.48 14120.959
11535.489 -22905.109 7321.7158
8158.9395 6119.207 17492.848
5518.5205 -26850.365 1628.0361
-4414.1313 24343.117 3584.1287
10592.24 18724.367 4020.6353
8157.2573 3293.7515 3161.7185
10105.596 3778.5935 3210.0837
-3669.9583 -4510.9839 17802.393
753.75806 8953.1689 18975.688
-1146.2065 28845.809 13799.639
-10435.2 24224.139 2952.5457
1007.1089 10494.221 18894.484
-10278.762 15003.264 13807.132
365.37973 -21210.133 12507.23
-8669.583 19879.234 2617.0835
-13267.316 -17881.424 4340.3311
8769.7666 -27028.312 8719.2207
-2435.7119 -26835.281 11158.562
-11648.441 13871.209 4365.043
2923.2288 17822.859 4131.1802
11706.139 16580.184 2126.3066
-9485.8477 -21942.992 4654.9507
-11886.938 -11981.102 9026.7539
8160.5293 -13087.949 12996.904
-10247.502 -3763.844 13971.021
-10791.51 25899.781 9013.7539
8297.4092 3384.1873 2487.0103
9470.4766 13167.844 7879.499
8922.3438 -23829.561 7219.5054
-11272.775 -25889.549 3234.6199
10051.834 6107.2729 14182.629
-6540.2002 16114.426 9087.541
2580.5879 31821.523 8153.2402
11373.318 -16291.894 7526.542
-11088.479 -17965.174 455.48572
11757.776 -19954.596 9076.707
-10251.404 -184.27802 13935.526
10611.137 25946.693 5056.9565
5917.2715 -3929.9365 17662.682
8915.8428 -16169.158 4141.0586
3346.2639 31147.297 5665.9453
11983.445 10337.529 8778.4688
5616.3652 -25609.768 11014.721
-9627.1113 -23366.27 3096.7629
11416.406 556.31012 3984.1882
-11306.679 -14794.729 4068.135
-11221.244 -13257.711 3253.7795
9364.1055 -10905.83 2189.75
-3246.7 -9055.9199 2233.1423
7017.27 -813.59076 18143.176
-9677.5176 22759.975 3258.2969
7345.1982 31025.051 17206.516
-10617.285 -20865.701 5312.2559
-6686.6987 -15059.907 4467.3652
-1275.114 26993.936 13981.105
8181.5879 14787.256 8567.0244
-9863.3604 -19072.24 846.11841
-10712.759 -19852.68 9101.8242
5732.3296 28703.592 13675.918
-8726.3896 19468.682 8483.959
6841.0103 -29997.664 7479.9229
-370.52219 -4791.0396 2305.5737
4967.1216 18341.553 4131.1802
-8879.2686 -31588.484 1588.5187
11623.16 -6898.8584 6098.6201
10755.183 -19546.156 2212.7622
11242.722 -13952.286 10908.021
10098.057 -24457.947 2112.3865
6540.1904 -19700.545 8816.8887
9337.1387 2056.282 3543.5386
6540.1904 -18988.598 3749.0002
-10314.833 13273.301 3366.7366
-11104.882 -20243.799 4496.9946
-9166.0352 30030.902 8153.2402
-6540.2002 17707.102 5853.2061
-10666.737 -5961.481 12917.908
-741.34576 30950.881 13057.641
-11180.749 16654.678 3350.2644
5615.0625 27120.02 3234.3772
3358.4915 29832.621 4674.7119
-428.46866 -30479.516 8420.9814
6540.1904 14543.764 5294.2661
5024.4961 -28161.795 1610.8683
13543.938 -7879.5928 12625.643
8722.8545 -16018.984 6978.561
-8993.9971 29708.094 16301.326
1776.0564 22786.469 14631.238
-9592.75 19652.455 2298.5596
3171.4717 16472.301 4131.1802
10321.887 -21549.557 7640.6348
1829.0688 27969.352 13862.143
5587.2529 -32108.027 2084.3569
-11918.265 -1947.7236 10040.9
7749.5806 -25984.91 1639.3645
10647.414 19159.43 1789.548
-9885.1465 -23976.896 4982.8105
3906.8667 30864.426 6054.2808
-10645.102 -18019.762 11352.072
11261.078 -5620.6899 4849.1221
-2948.5547 -16673.344 12631.385
-9897.7285 -28673.887 5201.2871
-10427.408 -20544.482 3020.3865
4908.4209 11380.911 4056.5969
-7746.6631 397.06183 2378.709
11364.969 5544.7007 5370.1455
13326.887 -8053.4644 12185.015
10103.628 4040.6182 3350.3521
10135.93 -18328.211 8845.3701
1309.0935 30274.734 4709.0171
-8505.5273 484.08969 16903.328
8545.4971 -19478.326 -59.167133
10123.666 1580.2485 2370.9434
12003.538 13872.381 9397.625
11831.636 -6309.8789 10280.449
-9922.4736 -21588.383 4747.9551
8535.8467 -4914.5015 16736.449
1543.3435 -17195.941 12559.678
-9249.2158 31731.158 16100.521
11394.965 20896.143 6692.3408
7277.8091 -17762.439 6572.0513
2558.2839 30284.9 5670.0347
-5000.9004 -959.83075 18339.682
7638.9355 11306.992 17965.377
-10730.787 24834.883 11341.543
-5628.3008 19724.389 4131.1802
-8577.7549 20585.82 14478.19
-8787.8193 -17958.98 8824.7812
1181.2551 1761.5862 18841.623
9103.5713 28019.301 14348.847
9565.8545 12274.77 5374.6045
1592.9786 -14638.51 12927.391
9178.3125 30426.037 8794.0469
3699.6196 1277.9152 2401.9802
-12016.812 -17597.055 1012.2012
6709.1914 -25841.738 1641.2388
-7880.3423 30093.154 12163.219
11594.273 9894.5996 11579.828
2798.7681 7030.2891 18983.705
-3119.0791 30284.898 8046.8164
-11818.292 -13729.614 9318.5928
11075.881 11660.115 4511.1138
7783.146 20382.055 4859.8892
11434.81 10886.906 11808.077
-10926.094 360.22302 2345.9023
2151.1221 1610.26 2406.342
4716.125 23882.242 14121.078
-6540.2002 19737.18 6807.6777
-10411.249 -29077.137 2067.1106
-11135.672 -20372.031 10294.871
10899.984 -14208.195 3024.5769
-5573.4141 -24470.162 1659.1951
6988.3032 -17313.184 3239.9929
-7147.4004 20124.812 7816.4897
12047.87 389.31976 8891.5967
8490.7061 152.46973 2367.7974
10864.243 15224.629 9094.752
-8464.9795 -22964.793 3719.6382
-2058.1365 -13302.611 13601.282
-1168.6024 -10504.158 15121.696
-7687.7285 19868.357 15088.085
-2579.1653 -29103.709 10267.381
-11289.866 1801.624 2147.7249
6138.459 -14689.115 2137.4729
8298.0186 21284.582 4537.5732
8434.7119 18640.965 339.10577
4250.0581 8589.6797 18781.502
-7750.2217 18135.762 15837.038
320.72833 25466.725 3442.6099
-11506.507 -11358.069 5702.8213
1023.4446 -12871.603 2168.3398
11363.734 3248.6729 4088.0132
-1768.6669 17292.18 17068.391
10149.308 21020.117 2983.5918
7935.5322 15699.937 703.71838
6439.4922 -1828.4807 2355.8877
425.34631 22450.309 3955.6025
-11891.877 -2028.9342 7208.7817
-8147.5703 20523.162 2238.7393
4427.5015 -1951.332 2353.801
-4462.54 -20911.932 1835.8842
-6540.2002 -15333.658 3886.8794
11681.773 -16674.738 9736.8584
6431.0796 14525.045 4131.1802
11850.393 -13928.152 7663.6943
10884.178 -10294.266 12669.939
9838.7373 29360.641 5252.8218
9282.5371 28864.566 3634.3501
-6408.8843 28040.57 6085.7441
-8237.9355 6669.5918 2481.4658
-11021.696 24627.846 9176.2949
-586.43982 27888.953 13916.951
4039.6265 -18326.627 1965.1317
6540.1899 -22623.916 2767.4248
-11297.088 -1024.2745 2138.449
-8240.3145 -8714.1035 2225.5342
12961.629 -8368.5762 13544.203
7164.0977 7393.1943 2747.4294
-6540.2002 -16134.756 4632.5908
11362.585 -24762.178 7885.2495
7776.6367 15941.256 8321.4717
12769.541 -21372.99 7358.6016
-4407.2788 14399.528 4131.1802
11473.3 4836.2744 3258.208
393.12329 -30713.902 2708.2571
8929.0557 -24289.004 6136.1196
1537.0948 7567.04 18993.395
2887.7705 31333.639 16936.584
-10699.409 16730.17 3237.4626
3941.385 -29385.457 3264.4053
11657.503 -19590.117 8811.373
3989.7546 5878.1982 2577.0469
-2750.7109 9154.2734 18908.904
9484.709 4573.791 2591.9216
10163.588 -18579.297 6426.5205
5775.439 -2512.999 18005.768
-6540.2002 -20881.346 7667.6636
5793.7329 -19394.951 12172.66
2546.3037 24431.445 14186.19
-10897.857 -14941.157 11544.468
-11051.266 19164.68 7247.9229
2823.7117 25324.992 14087.702
6485.2212 -17332.375 3257.5752
2335.6284 -20624.766 1850.2406
12565.779 -8660.3936 12039.545
-4381.3076 26982.035 13865.52
-11624.843 -25020.029 3950.1074
3117.2219 2321.0535 18829.34
7445.936 26562.186 4036.1782
7395.0508 -5793.0923 2281.811
-5430.7876 15988.83 17214.943
11841.765 -2062.6497 6898.9785
2392.666 21440.809 15224.06
11851.732 -22501.227 8524.123
9757.3555 2922.1472 3237.1582
-4061.4248 -15912.386 12761.916
-217.67355 -9673.8633 15579.506
7139.4053 26434.191 4312.5674
1338.5518 -9479.9541 15626.078
1376.752 22917.621 14586.422
-2476.7256 32183.967 7328.9805
-6409.9751 10052.324 3579.0273
-9725.9443 14283.907 8668.124
-461.14783 29335.855 13776.093
9004.7344 9088.4707 16126.802
-8637.3398 18574.006 309.9942
-2343.5032 24490.82 3565.5256
3609.2041 -31161.164 4646.4727
7705.4326 -16498.383 2075.9885
1751.1843 21716.02 15122.006
-10809.678 23718.113 11656.403
-10880.193 19157.295 4355.249
-3504.6965 -30713.902 2618.969
-13699.608 -17129.605 2913.3872
-647.56799 14211.332 4131.1802
-10234.557 -22299.977 8544.5957
9659.0176 -20365.084 8997.8477
-8703.7441 30430.59 14223.814
8071.6445 -21593.502 8829.4697
914.41754 -24890.594 1653.6912
-8128.4097 -22486.461 8448.1172
-10465.604 12678.525 13238.745
6540.1895 -18174.885 5693.6777
-5470.8003 -28106.547 1611.5916
-245.6709 23650.176 3671.4048
-12011.773 13163.989 8632.0889
6540.1899 14377.767 8276.0898
-9907.9492 15845.13 962.08142
9472.3574 28246.133 15481.23
-7291.2861 29188.527 13709.353
-11412.541 5468.1714 2527.3716
6540.1899 -22840.121 4300.3682
-5039.3984 -6262.5693 16910.678
-11572.369 5435.2046 3931.9668
5580.4712 29247.16 16631.365
-6540.2002 -19623.947 5979.3398
1723.4562 30849.104 13134.512
8112.7837 -24864.486 1654.0326
2253.3555 -26495.684 1632.6792
10718.877 -5406.3682 2263.4937
-9310.9688 -19515.379 9009.2598
9832.4658 9523.1855 14668.757
5298.9824 3939.1543 18703.893
4897.4131 -30713.9 4028.8423
-9527.6768 -13477.109 2155.1128
-8608.1152 11626.893 4335.104
-9743.7139 -21710.73 3121.5605
-11977.828 10201.824 9679.6699
-5455.71 24703.938 13996.523
4252.3667 -27365.938 1621.2869
8353.9648 12685.389 2404.9604
11597.883 21302.711 8836.168
-3552.6816 -30054.758 2460.6841
-1034.8857 27993.523 5589.855
-9343.8799 -14934.36 2133.2236
-10685.566 -3428.8989 12896.765
11558.682 -13669.932 5622.0591
-7025.6221 549.29297 2387.7053
-11746.76 -5447.5244 10858.596
8818.8799 -1020.8168 16455.289
-9202.4717 -28859.691 1601.7307
7826.8584 -24660.568 3583.8333
-1582.0812 31774.008 6744.7314
-10884.368 19075.926 4664.9014
6801.1665 -4648.2842 17285.543
-2117.499 -24392.674 11912.076
-1536.2644 30284.898 4714.019
-11335.506 -26204.266 6348.54
-7999.4741 30342.508 10180.677
-2088.408 -12661.26 13939.289
-10310.414 -26854.512 8409.7715
4308.6172 29296.457 13655.774
-8924.5137 -26776.32 9349.2676
6817.5562 -30242.195 7441.4263
8870.9688 -4803.9873 16482.031
9926.5938 29459.133 7631.5205
6185.3345 -29608.23 7369.9644
6340.5103 -30713.902 5357.96
11342.84 -4213.9438 2586.1709
-13669.724 -8239.2109 12198.749
7204.752 -11770.908 2181.79
9467.042 28457.574 15558.909
3274.9871 31704.164 17158.057
85.374931 29089.107 13815.066
-2658.9827 -29522.066 1593.0613
4935.7549 -10706.811 2205.105
2381.9976 -31707.355 6255.1514
5818.6035 30284.9 13088.585
5297.2373 30284.898 5657.0186
-7439.3589 29258.75 4439.4282
-11358.852 -3924.3225 5182.1582
10283.577 13293.504 13570.677
11969.707 9788.5361 9731.2344
-7352.915 -32231.186 1767.6246
-11286.586 -20241.773 41.866833
-10895.498 17559.688 3682.3486
-825.18817 31138.645 12429.411
6540.1899 -17192.85 5283.0591
-3274.6187 -23553.445 12034.252
-11504.557 19560.416 2217.8811
521.99731 7879.2363 19015.061
-10077.944 10203.303 14198.559
9360.374 4693.3984 15471.311
11605.785 16918.672 10944.581
-11860.799 20950.234 5623.9556
10138.341 -29026.359 5668.9824
-8646.9697 -14340.219 2142.1482
6026.3916 3296.5222 18588.352
3000.573 -30340.139 4522.2393
7577.2861 -18212.896 8272.7344
11135.002 15927.598 9192.4277
6744.5376 -17471.168 2029.1688
11788.209 4169.126 11142.9
9831.1855 -170.97212 2349.6885
-7989.5918 13671.213 7513.0005
10668.899 -3283.3433 2298.105
-80.990479 10598.393 3775.3157
-11477.74 -1522.6946 5592.4341
-3023.9297 -16011.294 12773.002
-8070.1689 20982.039 3677.1846
10178.473 -16825.088 8300.8281
6540.1899 -20366.477 5956.3599
7095.7241 -17797.299 2274.9663
-4396.3521 31022.641 8153.2402
6540.1895 19254.045 6227.8364
11557.26 -24950.27 2278.8135
10656.801 -3103.2061 12957.652
-11349.976 -19959.01 964.0755
-447.08316 -31454.957 2304.3513
5682.3682 -25622.287 11006.468
-4359.958 4391.1689 2417.22
11313.578 -19901.672 4222.3135
-1188.5659 25555.375 3431.4448
3185.1816 31275.193 9308.0527
-6540.2002 -17174.453 2939.4624
2077.9268 7322.8789 2886.2654
-11377.015 -20495.688 7636.6304
5470.1655 -8720.2998 15713.242
5185.1499 -30194.953 8207.8408
-9506.7812 -24898.352 10644.82
10895.593 15838.461 9180.043
6448.1646 -25852.703 10891.825
9341.2109 30742.199 13907.291
7623.998 -18956.361 527.30896
12798.836 -22358.662 4641.6436
6387.3647 5314.1279 18684.016
-7909.8359 -7258.3726 16039.575
-10225.268 11620.951 4303.6323
-8725.5352 -21414.059 8871.1123
-8399.6055 -26175.66 1636.8693
5011.1724 -29004.143 3978.1035
6187.8936 -21791.555 11751.248
6351.8452 -29638.412 1591.5353
2033.3987 -29467.449 10120.337
7335.5278 -20955.539 8977.5166
2160 -30713.902 2664.4912
-11159.306 -8052.478 2481.7625
5346.9653 16052.491 17208.32
1802.0917 20386.188 4131.1802
-11608.512 -18628.053 5104.0127
-11221.434 -20127.684 9089.5322
9216.4668 -15499.514 6202.9492
6332.8169 30822.332 4919.9609
3558.9822 26585.092 3301.7515
-10472.389 -21560.086 10852.658
-12621.114 -19807.787 1319.6117
-9813.3291 -1219.5088 14889.097
-11182.072 12200.788 6431.6401
5529.3027 -31078.172 6905.5425
9934.6279 -4747.9326 2279.5247
11897.254 1239.2544 7117.4092
-2857.866 -20593.676 1851.7948
3813.7463 24207.273 3601.2383
6491.3716 26363.088 13736.549
-10543.734 -26379.334 7903.9424
-132.50415 30284.9 7792.5347
4024.0435 18322.305 16444.637
-8253.4551 12491.627 17259.426
-10594.819 324.62256 2348.7791
11156.573 -19500.619 9043.0654
-6688.7339 31575.043 7214.9155
11602.426 -23761.578 5740.8677
140.32779 -28668.812 1603.6085
10528.551 -14136.775 12206.367
-10025.917 -23750.961 4794.7852
-7227.1475 29382.809 4549.6787
-4466.2568 -12627.501 2172.4856
-1575.597 31839.998 8153.2402
11883.381 -2581.9038 10266.012
-7842.5361 21932.471 14159.844
10291.552 6067.4824 13739.038
-10308.646 4798.0132 2401.0034
8342.1875 21506.465 4564.8916
-9531.4971 27716.926 14327.506
1115.3756 -29319 1595.324
-2222.5559 18842.365 16413.051
5840.978 25824.422 3397.5579
6540.1904 -19492.91 1918.1609
-5236.5269 -14026.972 2148.718
-13005.145 -18055.945 1167.1321
-11522.056 -21375.775 1440.9865
-10835.818 -19898.553 5560.9023
8484.9951 14579.991 16729.594
10293.256 26928.826 3716.6582
-2432.5518 30578.426 11754.291
4089.2754 14267.58 18072.223
2715.5208 -24479.113 1659.0779
1747.3486 30284.898 5492.6094
-6124.2964 30284.9 7166.7559
7171.4941 -28109.141 8373.4873
-6256.3706 2490.9312 2417.22
-11451.896 5134.4009 2875.4563
-10897.772 14085.824 829.52185
8197.4307 -24643.643 3456.5676
4969.9893 30699.148 12810.826
11486.978 717.03711 5640.0396
-11174.128 21759.24 3048.3105
-11136.673 -9563.8906 2784.0095
10107.239 -17521.18 5752.0225
-9005.0117 14699.129 7507.0293
-8524.4424 -29053.982 4112.7871
-811.84064 22474.062 3947.3115
9418.21 -27442.957 8025.2734
-11838.344 -17248.729 9094.9609
-2656.448 28137.115 3424.7961
-2449.0156 -17782.279 1992.3455
11969.845 10743.684 8556.918
-405.43347 -3350.4424 18160.82
9190.2949 -8326.8408 15124.42
11526.361 3665.4905 3597.4717
11904.023 -6855.8936 7576.9873
2094.5625 23556.756 3683.1709
6540.1895 -15189.916 5076.8647
939.97443 -32878.668 1968.9349
-4274.001 -2294.4448 18250.039
-2217.3525 5.4938965 2385.2793
9935.4746 28533.678 3863.6587
10677.323 -14168.375 12022.762
2798.561 3009.072 18881.303
11353.242 -11558.643 3517.0623
-7722.5947 2524.4407 18128.398
-3436.1868 22711.359 14589.034
-5073.7666 31037.945 9565.5684
-11115.188 -21310.783 4994.6543
11096.498 -11154.417 4243.4019
-4930.2925 -32144.742 1558.7268
8011.7539 20414.428 7394.4004
10529.75 18860.879 5772.54
-8372.1865 13637.248 8339.4717
-7226.2051 -19743.148 9061.0371
11549.375 15864.821 1950.627
10770.429 -28993.678 1599.9785
865.83478 30778.25 13337.761
-2161.5164 -11555.508 14521.059
-8038.4395 20950.9 5459.2305
-4077.8481 -30833.227 7647.0239
7442.25 28516.785 13734.816
12031.02 -20435.414 4852.5361
4218.7236 27347.441 3205.7332
3997.5029 15171.462 4131.1802
2270.3247 9313.9053 3313.5979
11405.64 -22209.932 1002.0868
-3437.1853 12951.85 18432.949
-1322.912 20434.109 4131.1802
9282.0361 -24653.656 3976.5479
-5956 25923.582 4206.5498
11358.563 21752.682 4471.3232
-7823.8491 31269.609 6897.0947
11950.121 8225.248 8167.3193
-3145.0264 -1068.5913 18507.779
10207.74 24696.676 12485.027
9291.9111 30674.219 15267.807
4075.696 6401.9585 18885.039
-9984.6201 23407.594 13048.252
-13686.91 -17281.863 4999.6997
-6540.2002 -21472.826 4448.5527
-11937.021 10885.045 9907.5312
-3386.7646 77.14962 18638.684
4469.2759 -19079.211 12461.364
11865.368 17601.713 8247.6289
-383.30328 29924.158 8153.2402
10576.994 -17513.59 6403.9419
11168.175 -18116.904 2745.021
9187.8516 -16936.145 4355.1245
6669.8428 8023.8311 18544.723
-9511.1934 -5677.2676 15348.165
11857.225 814.60425 10628.864
-7727.8521 19076.682 15428.423
-9949.6592 -21420.037 1215.3217
9365.916 -9712.7832 2205.335
6724.4951 -24627.027 4705.4121
-4071.0845 -4885.6963 2303.9661
4367.5659 -29988.863 8870.2773
-8742.6436 15430.295 7878.376
7172.6533 15203.698 9091.8438
10882.712 -13677.375 11782.803
11281.365 -3817.6399 4019.6035
10068.812 -6974.8188 2242.0889
6071.2954 -15690.031 12675.423
-5610.0488 30928.473 10838.223
9610.7314 -3609.1531 15228.078
-11349.374 6091.8535 5345.3799
-1002.8425 -13872.193 13337.482
-5252.6445 8429.002 3064.3289
9935.2881 11801.176 5258.4277
5860.5684 29908.672 8153.2402
-10880.622 3972.7407 2390.4956
3330.1499 -8702.0957 2239.1516
3050.5696 7661.4268 2862.8711
-1553.2637 26312.605 3336.0713
10540.658 17459.844 6292.543
7769.5693 13455.885 6238.3564
-1862.1418 32228.574 8195.5654
10264.063 28394.055 8452.543
-697.74585 6972.3184 19036.398
-8284.3506 -6120.0059 2269.2424
9985.0693 -4109.4189 14618.601
10777.429 5112.2393 3543.4106
3644.0269 18712.902 16356.221
11067.042 16965.889 4418.3867
11600.436 20636.477 6771.6982
-616.19214 11715.913 4131.1802
11096.934 17150.08 12020.523
7885.877 8492.8691 17943.018
3079.0312 -33145.734 1825.3152
-9093.8223 -23113.953 7621.6768
8751.9355 30002.023 16294.906
1757.1106 -26496.99 1632.6621
-2238.1438 18502.441 4131.1802
6963.2969 -16815.707 6713.3613
824.24829 28105.715 6363.2939
-11459.643 16923.697 -8.0373812
-952.16791 -18372.285 12545.852
2824.9348 -17255.291 12528.138
-384.75641 -5532.0117 2292.9895
-11646.044 13730.262 11206.587
-6445.0215 -30303.396 7335.1646
-10692.27 17160.168 3553.499
9511.8076 -22101.285 11291.52
-10522.023 19142.949 8370.5488
-9347.959 20904.635 6679.9673
4926.3701 -9891.2852 2218.9551
1607.5563 7787.5923 2975.9749
11636.469 20962.086 8995.2012
-5354.6514 30609.328 16503.672
11924.597 -2832.0579 7626.8701
9361.5303 -28643.133 2378.5352
-8027.2485 21448.855 4861.1113
-9086.3535 791.08423 15917.518
-8617.8848 -5490.8154 16505.584
-12024.62 -131.70294 9372.1865
-9451.3672 29963.693 5020.417
-9924.4355 15452.788 14760.949
4864.2617 -30383.664 2814.5962
-852.54193 -30389.523 1581.0515
-13796.225 -8383.5547 13171.407
-10484.262 -14960.438 2617.7031
11596.393 20978.26 9363.7363
-9853.8008 12188.993 4483.4111
7842.4287 20568.52 4205.6191
-2069.1472 -20666.213 1848.1685
-10899.094 -9774.0244 12796.939
-11487.453 6556.8486 5854.2256
-10190.495 -7346.3511 14209.109
1507.7838 -28603.297 10533.812
6744.5127 -9144.4912 15327.078
-5968.1758 14638.657 17612.16
9164.2139 14384.344 8718.8633
11210.725 2053.6631 4671.623
8374.2783 -20790.846 698.82336
1379.5427 24588.141 3553.2676
-5543.5283 -29156.969 7608.0977
-13435.752 -17995.689 1797.7455
-10713.405 17853.816 2622.0981
11642.844 -19235.938 8402.2139
11709.903 4298.061 11335.834
-5620.1772 30441.783 13080.719
11756.668 -8016.21 10625.126
-677.92389 17115.539 17181.785
-8561.7617 3480.1118 17028.396
10795.064 19298.646 5927.2148
-9953.0635 29349.572 7413.0044
-909.56763 11306.809 18802.908
3109.6926 -28989.088 8898.46
-11585.971 -24852.301 1654.1923
-9531.0947 31474.195 14356.203
594.50439 -23808.816 12056.316
-7767.4771 11594.282 4162.3384
11034.299 16447.191 12193.209
-3552.2954 20223.855 15701.756
-6721.4829 -21322.385 11777.666
-4770.2139 -21036.375 12059.135
-25.079473 -30785.582 7618.8188
8913.9717 21527.729 4378.0654
-1859.8582 32225.629 7873.6274
-10380.76 -23303.297 3033.8901
6910.6855 14288.19 17544.898
-7252.437 -30619.891 6101.5425
11689.992 15880.829 4736.4399
-8939.332 8999.3496 16233.024
6540.1899 16696.717 5784.6348
-23.620281 -27753.396 1615.6975
-11064.556 -19451.58 5935.9326
-8469.7461 1447.7992 2385.4817
-8305.0645 27993 5027.6299
4557.4067 23830.945 14136.242
-1166.8793 -30041.232 4486.4243
9072.3926 21288.049 4484.8423
-5103.3271 -14381.491 12815.851
5983.6455 -31508.957 2245.4219
-11147.538 6402.8247 12456.436
-9546.625 -20853.719 1056.4236
-10619.096 -21998.648 5395.085
3197.7344 -14297.396 2144.1255
-9474.5547 -21794.268 5865.4702
-290.04303 18437.307 16644.545
-214.32451 32322.432 6889.582
-10889.698 -8587.3213 12728.737
-8902.1582 19390.672 1971.4769
9494.665 -22622.848 8252.3936
-10034.696 -10979.83 13416.511
3089.1948 31902.266 6777.3896
-11456.18 8386.498 11754.707
-9188.0293 -14955.137 2842.9871
-6296.021 -26112.064 1637.7004
-3955.3284 -10169.356 15163.85
12010.508 4443.8369 8541.0947
-7398.1758 5468.0576 2410.5391
-4358.085 -29841.453 4093.8979
5820.7183 -31220.219 5294.647
-4351.3608 -29470.936 1593.7305
10682.777 -25577.496 8741.3066
8375.9189 24200.496 13757.656
3966.6311 -16535.818 12636.518
11032.017 8800.2432 2501.6929
-10917.913 18564.814 3184.8008
7599.2627 31364.447 8459.1621
11357.494 3217.6995 5226.0659
11383.106 2080.0508 2397.4424
7460.9375 24153.391 13854.188
-11151.734 20554.91 7189.6597
-12012.258 2836.781 9619.2139
6283.7969 31671.352 7372.2158
-10382.397 -27202.006 4400.4541
-6947.7231 -24557.574 2915.918
7903.3403 -17966.295 8253.0352
7489.7407 -18864.238 12103.837
-9517.5732 -23441.777 5805.8623
6083.5522 -14162.83 2146.4106
11194.743 9544.1143 12265.106
10561.631 15777.346 5366.9922
8192.917 -19629.436 11895.998
9754.3662 -6785.2388 14982.583
8189.5713 -14588.113 12681.029
11943.364 499.21722 9989.0889
11510.07 -1512.2479 5708.7529
3071.7805 7242.8789 2809.2271
6245.5479 -30077.203 7359.0312
10925.758 -7035.853 12105.166
-9122.2852 8929.958 15923.023
430.28357 14324.791 4131.1802
687.08173 -23674.648 12076.902
9733.7734 11856.336 5550.6528
-2150.7434 -28529.6 7178.124
10621.236 -26371.521 1634.3032
225.38359 -28202.285 10767.764
-2871.4473 30284.902 13527.51
11384.531 22384.883 6220.9551
11365.221 -581.67322 2423.9463
1742.0242 31815.877 8835.8506
-9226.4473 30970.961 16345.088
10952.187 18727.943 1464.6011
9509.8008 29591.393 14565.794
4570.1543 -18098.117 12441.039
-6540.2002 14445.733 5233.9111
-4439.0962 7788.3223 18790.15
-3270.78 -24412.932 1660.858
-9701.167 -26059.664 1638.3868
11799.701 -12466.479 9529.7832
-6096.7461 20169.195 15245.736
3104.9224 -27914.879 10735.302
10117.887 -16460.59 7927.4561
-5903.1577 4174.0605 2417.22
-3126.8105 -7259.1616 16666.852
-7458.1416 -15019.588 4145.5361
-7267.4253 30284.9 6800.8896
-10438.16 6214.7275 13462.109
-8285.1777 -27333.938 8513.0264
8960.1094 -16015.584 1972.3251
8610.627 29119.281 3803.0269
-3691.4902 31179.875 4948.5527
4393.3789 -18928.688 1935.0325
-10803.005 -15645.219 11594.618
-8054.7988 -29121.469 7417.2676
-10240.346 -18556.5 1001.7098
-4537.1875 -28242.908 10406.1
-3292.697 -30809.645 2377.8235
-7398.6216 31613.545 17103.906
-3337.9983 -31645.473 5858.0947
3253.3318 -6264.1685 17092.219
-9874.5547 -29233.934 6049.8447
-9345.3174 -15924.526 7016.3545
-6903.5024 31062.619 9297.4922
-11474.424 5344.5371 3066.6189
10607.556 -20484.621 8968.751
8481.3145 -22751.508 11292.211
7797.1924 20420.863 5145.481
1310.9208 13856.656 18322.668
6540.1899 18467.018 6536.4253
-2403.2292 11846.252 18688.889
7768.0259 14568.668 7639.2988
11752.857 15361.445 7460.9189
8222.9482 17915.129 7915.5103
10277.105 21537.074 3884.9592
-48.889076 -1482.5293 18521.52
-5792.1885 -11870.249 14036.661
-11960.708 -8017.5615 8409.3262
-9371.0371 11056.396 15591.513
11001.705 -18120.105 10886.588
-7173.2988 -28257.691 8129.4473
-10584.838 26189.621 5656.5791
7861.9688 28651.723 3958.0254
9772.3066 -24139.002 5406.3564
-1658.5538 29748.389 4671.1748
-6058 -20635.299 1849.714
-12044.335 15874.059 496.87292
-7328.7266 -9102.6602 15267.578
-10755.501 -14003.615 1817.9133
11622.912 -25100.518 1938.106
5089.0713 -2728.2722 18046.633
6186.5059 -8268.3232 15839.072
-9707.4141 -24069.742 10786.339
-6292.0308 2682.0239 2417.22
3486.0522 -22605.377 12187.784
-13471.247 -16997.477 2668.9377
2189.7959 10966.453 3907.6172
10837.002 2883.4092 2717.7351
-10711.26 23533.449 11884.424
6540.1904 16037.551 8730.5586
-8789.583 -15513.909 6242.9678
1056.4429 -24641.402 11876.841
4422.7393 30284.902 6573.8818
10150.576 -18913.707 8146.8057
11532.525 9607.8438 3740.1665
-6201.4312 19258.121 4131.1802
-10699.699 -28032.453 5871.063
10549.583 -19825.889 6507.0308
9685.1553 28509.727 12216.291
-1343.4843 29946.885 4684.4849
-10860.449 -24041.277 9467.6426
-8439.2148 547.50232 2373.7874
-7753.4414 11631.572 4359.8975
-8196.8076 -27257.482 10123.159
-991.18176 -27484.014 10995.502
-6172.541 -20267.006 1868.1262
-7146.1436 -30214.006 4462.3486
-11936.723 12508.133 9858.5479
-3720.4497 -6135.4219 2282.7419
-12240.842 -17809.543 3936.0532
-1676.6976 -29364.797 4274.0859
11873.465 -6433.1807 9956.377
-4589.8374 16551.656 17109.555
8907.6113 -13296.646 12711.195
-11822.593 12952.276 10574.822
6379.8516 -27900.207 8647.3535
9558.6943 8639.0664 2744.406
9140.9512 29792.234 17268.621
8213.291 -13651.931 2152.2559
-12713.812 -17618.578 7830.6221
-10672.41 -25872.879 8442.9268
-11436.766 2275.6697 2906.4507
4913.8696 17313.006 16717.326
8905.9629 -31574.244 1566.191
9230.29 2761.4651 2695.041
1868.3472 -9085.9941 15799.221
-10115.743 -17432.793 7448.4961
-5386.0972 12770.341 4131.1802
2054.9187 31238.051 11819.764
10385.098 -19745.098 9085.0586
-9620.7559 -21311.555 8894.8994
-9324.3008 27454.301 14985.098
-1749.1265 -11256.81 2195.7642
-2506.1113 28123.803 6420.3369
751.1087 29000.09 4623.1279
-11563.793 8279.791 11604.788
3159.4331 14887.928 17944.039
2213.0137 11321.482 18757.367
-10429.227 11602.937 13484.637
-10920.453 20419.703 7187.3179
10824.495 -19390.664 3256.4932
10775.789 25980.383 7049.9131
-11327.364 -1508.2839 5051.7593
7972.2568 -12402.811 2168.2295
10496.134 -967.14136 13370.59
-8827.6465 28000.805 5740.5469
-7732.085 -19752.766 11941.267
-7299.0879 26752.609 4216.3457
-353.87823 -12784.127 13945.543
11296.098 -2490.4624 11824.604
4146.4302 -28717.262 7159.2402
3172.2905 -30713.898 4788.6348
2944.1323 -30382.443 7159.2402
-8361.0381 -16309.477 7550.959
-6973.0752 29848.186 8153.2402
-6540.2002 13284.971 4168.7534
-10666.514 25767.154 5547.9629
11197.594 21881.934 10863.145
4805.8667 29324.51 16487.062
-11144.738 667.70758 4420.8472
-4162.7925 -25837.242 11114.411
-11191.879 14765.016 8911.1719
-1918.1008 28467.6 7138.6895
11909.699 4861.6123 10262.752
-1755.2748 -29527.84 3001.584
3389.9395 -13176.998 13584.34
2644.3496 -29736.064 2956.0854
-5778.7935 -31687.047 2203.9141
-2176.8506 -28529.602 8825.4863
2796.9902 10069.024 18876.691
10284.366 12876.553 2111.9094
5537.9819 29773.32 13532.994
-8070.8926 23216.309 13883.914
8163.5635 14242.464 8264.5088
-4070.5466 -3602.4766 2325.7593
6759.9414 -16357.759 5469.2271
-4299.0498 -6107.8237 17075.68
-6540.2002 -23075.287 4915.2041
5184.0615 4866.3374 2417.22
-4482.9946 -28277.162 10399.869
-3178.8418 21884.857 4152.9106
-5569.4897 10420.067 18516.355
7708.8765 -26167.959 1636.9681
4091.459 20870.512 15317.325
3888.7224 28606.533 4485.542
607.72162 11151.438 18831.338
11380.66 -20642.785 4127.7622
10941.593 -12579.094 2301.2109
5528.1958 24632.73 3547.6519
11734.283 -9232.4258 13450.41
1225.1211 -12549.881 2173.8037
-1092.6327 -27745.994 1616.1575
10215.367 18987.422 8458.8594
7403.1538 -9705.3594 14955.351
-8957.2441 -22472.697 6771.3252
6226.0557 27993 5084.5381
6746.6323 -27557.754 1618.7736
10061.553 -4608.8647 2280.8848
-7618.542 -7153.7085 16159.844
4543.5454 31978.691 8366.4521
431.56006 30284.902 7097.1392
8313.0098 8487.4199 17238.984
-7318.459 -19904.053 9072.9609
10925.846 10837.543 12895.109
-11241.303 16848.402 11850.417
-7965.2529 31025.293 4416.5527
1992.8019 31369.697 4978.1826
1587.5465 -31496.484 1566.6338
9611.0166 -3644.6274 15226.946
1788.9395 -27284.891 1622.3479
2205.2856 30284.898 7728.2422
52.821445 -18606.504 1951.1399
10815.188 14773.775 3278.2998
-5294.2734 30284.898 7395.561
8242.6035 -29327.885 4386.2622
-7885.1982 -20760.449 8531.96
-10854.088 -16286.111 11410.041
11460.752 -5978.9287 3757.7466
8129.8027 723.05981 2926.0991
11232.75 14330.201 674.9079
-11218.153 12397.918 3169.0002
3787.5916 19588.939 4131.1802
-7935.377 -29332.508 2831.46
-10796.784 25593.994 6343.1289
6540.1899 18651.078 8290.4766
10693.654 -24064.348 6680.9502
-5173.7744 -28644.48 10168.094
-10045.928 24088.887 12874.614
-8350.9492 -10866.875 2188.8257
7052.2729 -32028.07 1560.2499
-704.74817 31477.162 8960.8701
-7720.082 -26959.078 10335.221
1454.3016 -17329.645 12553.104
256.03098 -28970.805 10408.477
6540.1904 -18905.5 2457.5046
-3886.9785 -13748.602 2153.4456
-11562.567 20062.965 3036.0403
-6475.5342 10859.549 3869.1899
3521.458 17939.592 4131.1802
-10714.818 -16620.828 6428.8096
-10764.98 20415.111 1846.3895
-8974.833 13376.445 1418.9004
-11330.518 20334.965 3924.7781
7169.9214 25060.061 13795.085
6727.7148 19632.453 8372.4551
1929.1782 1562.7172 18810.301
6540.1899 18638.262 4429.7295
-10402.274 18738.334 3172.981
-9283.5811 -2300.5571 15772.256
11508.571 -14456.153 5394.2803
