# .PCD v0.7 - Point Cloud Data file format
VERSION 0.7
FIELDS x y z
SIZE 4 4 4
TYPE F F F
COUNT 1 1 1
WIDTH 1576
HEIGHT 1
VIEWPOINT 0 0 0 1 0 0 0
POINTS 1576
DATA ascii
10.729013 63.869709 35.926361
-49.126724 238.28426 21.972591
-8.116046 201.32089 46.788929
-39.116158 172.85078 15.521407
-11.44713 244.53229 31.923906
-17.651148 141.56281 18.333508
-4.2708654 108.57114 45.718956
-19.025055 39.677288 29.119167
12.591985 169.40315 54.262062
-50.541939 208.98044 11.496849
-27.187717 50.944885 40.660751
15.984765 102.6595 38.276817
7.7974863 140.44044 60.466255
5.0673294 210.672 22.729471
-39.635033 26.393585 36.184788
-27.023052 55.81781 39.423264
8.8650942 191.83566 23.073626
15.806808 158.24466 22.221365
-23.38176 73.525848 41.203617
-27.272919 241.22917 22.504753
-35.839462 161.37123 26.562855
-32.45742 91.465546 14.190452
22.502827 136.83344 40.204575
-23.75934 104.15148 20.041189
-56.42794 205.43752 23.782539
-27.395163 34.354755 38.901688
-58.125183 94.517143 23.902798
-22.686817 239.08955 26.705206
-44.52586 37.798405 27.007208
14.727516 143.77896 39.810246
-50.18766 180.18149 29.861771
6.0264807 122.39688 13.443663
-7.1004248 91.229683 15.583401
22.579597 222.2933 28.605396
-28.102186 156.22263 13.216891
-12.763165 140.10582 19.115845
-0.3595219 129.35486 24.764202
-3.6812358 47.57333 38.467995
-36.3955 93.195381 43.586311
-11.494677 140.81145 16.188498
8.3496227 103.67556 14.457656
-37.276817 36.291004 27.21666
-17.283842 228.90164 26.678417
-19.914831 27.837595 35.467804
-18.043631 181.33914 40.447662
8.3989773 90.935341 16.056992
18.811039 32.930214 37.131378
-11.979279 136.98926 13.904499
-32.380836 189.03922 28.095394
16.906538 31.736202 32.508961
19.866692 56.706284 5.0448112
19.197233 208.13116 29.806583
-49.008488 233.22673 42.508018
-29.840673 177.34465 60.610153
-42.684818 194.11215 36.53867
-35.325809 91.875084 16.809666
-36.771858 158.71088 26.779568
-34.207466 179.32808 30.415493
-54.946327 179.21521 26.936369
-31.53092 242.24998 19.784597
6.2263699 137.43292 59.402645
-47.708748 178.15018 19.761141
-32.4454 235.87665 26.012081
-37.3839 174.32443 15.025666
-57.389606 63.995274 33.126266
5.8859234 185.37756 57.682095
-14.886128 37.562698 20.372274
-20.658674 103.63712 41.091072
-11.189407 166.78889 22.302692
9.1574068 209.81757 27.041857
-1.2326689 89.945374 18.522015
2.360333 141.58472 26.112232
4.5297022 65.529221 17.033205
-37.505409 192.3652 45.991562
-40.171261 67.997345 40.621395
-32.719875 64.82402 39.986046
-18.463383 229.38451 41.710693
11.327906 114.16182 54.043358
8.0847292 166.79239 22.302349
-50.581577 172.53915 42.636173
4.5450211 233.76231 23.85677
-10.305774 173.98314 22.370125
-55.146095 193.1308 44.885891
-18.168451 131.50607 18.111353
-41.662804 155.24432 16.0728
-41.68264 136.21219 16.332523
-16.733541 39.498863 33.168606
-46.171112 163.69783 25.811737
-56.120865 67.655846 33.826839
-53.350582 62.682274 23.301561
-19.676727 96.694473 26.735674
21.778641 45.126507 22.853205
-40.065224 66.564888 40.531048
3.3159118 36.291798 32.321655
-20.359518 48.653275 30.836294
-13.648096 55.118752 13.376194
18.255331 240.24495 28.092615
10.819946 64.666977 14.351032
-52.006195 98.273277 36.569172
6.4709077 180.93837 30.445215
-55.559799 62.232525 8.8192091
11.045831 82.132324 41.672432
-27.680397 121.73991 60.035686
-53.304119 62.021217 11.119833
-48.682198 124.44854 28.936563
-35.484184 246.97375 20.823322
-45.111145 76.320671 37.773949
-33.361629 77.064804 15.937764
6.2071099 200.39445 46.541084
17.687126 39.91534 38.089424
-16.98875 88.116379 41.7477
-16.434317 117.6358 24.179878
-13.315145 142.6441 14.148087
-13.436017 211.96913 28.094868
-39.632713 126.11391 24.929848
-23.990496 49.643902 11.238799
-38.36932 180.42998 33.152485
-52.859009 241.96066 28.092682
-3.1494539 192.95813 28.095322
-29.097418 139.84758 37.045441
20.649513 178.73621 24.917252
-53.691376 139.4547 42.438271
1.3185883 115.85162 42.102779
-16.620674 187.75699 44.553032
-5.2406573 175.64687 24.423525
1.6217948 77.344109 37.364773
-13.733884 246.08931 30.7715
18.641247 228.56517 19.999622
-19.231577 39.202938 32.336971
-22.793518 196.21075 12.220496
2.3860855 218.90758 21.292015
-14.666981 123.90894 61.645439
-45.431946 64.001419 10.698067
-10.469028 94.107605 15.580529
-44.126984 179.50067 52.755669
-50.919464 108.12907 17.040625
1.7982116 96.846786 44.188789
17.005909 232.76991 28.092253
-51.373383 111.96242 37.519775
-5.1115942 179.5694 14.779375
-35.409691 241.71907 20.323355
-1.8352816 187.87869 24.026003
-55.281479 136.39267 15.972921
0.014456749 246.17911 35.865452
-49.391365 179.84387 16.767008
-41.521492 105.99932 45.875076
-18.6784 162.97888 18.038046
-45.35281 201.63535 35.386444
1.762991 36.62299 37.115009
-0.36643147 119.76579 58.553894
-3.036665 229.72604 18.072361
-27.380472 116.04761 15.411899
6.8824644 69.621773 34.605133
-48.980824 171.38318 50.847092
22.987558 128.89505 37.734016
-50.211117 172.7832 45.072998
2.8740697 90.261185 14.117474
12.024394 31.61408 32.848454
-52.33865 181.61923 6.5786152
-6.993392 136.14531 26.153704
-32.04644 244.52737 35.181229
-33.927845 152.73196 15.414839
-32.884186 89.09626 27.589201
4.4813952 187.75702 43.971832
-54.233818 196.60165 20.972792
22.316334 91.673225 19.263226
-26.617325 221.16049 26.644451
-39.302189 217.64635 23.856712
-0.20642579 183.45534 15.63386
-44.779411 38.234482 34.7579
-44.018353 103.29372 33.417645
19.724396 105.8969 17.137066
14.974203 104.01358 33.10276
-38.909794 37.528656 23.119463
-28.99255 85.215721 13.939467
-46.197048 244.65671 20.328571
-26.438189 104.235 38.884663
-44.747643 151.0079 59.270531
4.2469382 220.55356 21.041534
-56.632862 77.87043 41.190903
10.840923 48.523827 38.853012
-44.516678 67.867035 12.648668
9.011816 158.0228 26.832495
22.950306 119.03374 24.22064
-47.857788 72.72731 3.5818932
2.6889431 248.09198 26.481007
16.388786 126.16672 42.630283
-29.235138 89.698151 11.139871
14.703233 110.90079 23.591272
-17.863312 23.005812 23.34643
14.612474 26.815609 35.069294
16.606991 115.78218 43.113838
-5.3475881 241.40076 21.053652
0.25115439 68.319374 15.411993
-9.1456947 64.38414 42.383476
-33.922112 98.517311 44.664673
-32.663929 241.79295 23.950338
-11.605757 101.16972 16.02994
-9.7699604 112.19775 14.460482
-41.529533 112.13527 55.088867
-16.224771 96.010521 20.520432
-18.215065 42.68689 40.735115
4.5763774 38.611557 38.953033
-49.433941 107.35633 47.429504
-32.32822 184.32721 16.120569
3.0024419 173.29735 15.521193
-55.703907 151.1004 37.567413
-22.610041 154.34988 62.2761
-42.89695 175.7003 15.07156
8.1449795 221.14624 43.442963
19.122433 82.594482 12.567623
4.7387753 202.07077 24.234453
1.9302725 198.57146 34.7015
2.8431251 155.67133 59.885403
-25.649124 47.729733 40.907753
-33.70303 199.17422 23.196056
-35.742081 215.47577 20.705395
-46.471825 241.55273 41.685349
4.5296998 62.481831 17.874043
16.388729 115.02981 24.695965
1.7219455 142.22882 13.216525
-21.274776 28.918999 34.632126
-11.969565 108.93196 15.731021
-5.3143301 24.980072 28.740047
-12.222525 116.12907 20.627537
-14.117612 134.75705 25.708742
-29.173761 37.757725 37.427551
-54.941029 194.59229 7.8258777
-30.736298 141.75397 13.216496
23.874834 206.4259 36.335232
-29.899582 211.464 45.382629
-35.319023 36.655659 16.112551
-30.034979 59.564491 16.069262
0.95122361 178.9614 13.248283
23.871733 82.745369 28.863756
-58.209507 132.00639 37.225712
-47.673294 202.71577 34.796505
-31.281246 26.633516 21.607826
12.402053 117.9148 52.49313
-31.89126 197.31494 46.144127
9.4038162 60.847355 6.152112
6.2110362 72.576591 34.569675
-3.7346652 82.491966 43.193153
-21.144588 232.46658 26.4503
-10.274377 180.76671 47.226395
-45.378826 235.79228 40.443363
16.875296 200.35603 0.28896263
-22.840181 140.92642 62.200386
-6.2899699 24.487411 17.010656
-9.1711349 139.10217 34.396732
-58.528015 183.69809 12.760202
-21.990696 185.02652 16.77132
-56.614689 152.42998 18.525249
-46.740616 187.12691 46.787148
-45.684013 123.21038 57.216278
-12.355318 103.94966 23.234831
-32.965607 88.954605 43.474037
-14.251245 196.80789 46.157082
-37.732986 88.244148 43.120735
-49.664032 211.2224 22.468967
-36.861965 179.87669 31.7782
-13.97159 140.02563 12.181631
-38.948135 238.41093 28.092426
-47.748795 181.34189 40.641777
-44.449326 47.302822 38.710602
-51.101105 193.78697 -0.79724497
-14.430219 53.914398 11.981079
-50.012394 135.83516 40.631783
15.096534 106.40743 17.196037
16.385727 192.65042 15.384901
6.9750175 158.02849 13.216557
-50.229591 128.03333 43.347458
-0.85411787 93.115677 15.894466
18.833349 43.581417 27.105196
-20.090286 205.88428 24.693644
9.2148151 198.16612 52.43734
-44.304672 169.4017 22.326994
-35.535622 240.84383 17.492443
-54.918339 160.63196 43.433578
-9.7165985 40.722431 18.753613
-49.366356 185.07443 49.415798
4.4123564 47.212605 33.943348
-5.5336151 51.224655 14.811446
22.521833 78.155029 21.389797
3.9477742 47.733311 35.0877
1.9376444 32.615898 32.78714
-27.821102 152.96698 60.626362
-21.659639 55.69878 42.002106
-22.421396 233.60356 41.871201
14.888783 169.56992 44.038128
-43.752434 61.202324 29.890137
-5.6290951 31.481144 25.510284
-37.842705 34.572487 31.034248
-12.881977 187.75702 32.252975
16.284557 66.438278 32.873413
-52.230358 59.61861 19.411568
-26.242065 243.50397 40.622288
22.066185 151.10953 40.775017
-25.69677 61.127281 42.033745
-55.754402 240.91833 37.922245
18.175808 234.91573 30.450533
8.6380472 206.58151 12.855744
-12.93742 143.56432 15.632915
-45.764038 188.2473 0.92165184
7.0140796 104.78548 37.278255
-37.589321 240.63663 40.987633
-23.798677 247.84242 35.905983
-48.522816 172.84441 50.351746
-15.649415 60.671261 42.42448
2.4230814 91.922279 24.641827
7.9682679 30.11371 19.967854
-22.521786 121.01807 15.020355
-39.704826 144.94989 13.216342
-47.97348 205.73401 46.910419
14.059559 53.254883 13.329508
-5.4552426 38.9897 26.548458
-36.322952 36.290516 31.332544
17.58057 203.54559 34.150776
-42.216759 123.45448 13.2163
-34.458527 89.766815 43.456543
0.34002489 200.18384 22.145632
8.7729473 104.24275 15.194522
-45.993038 176.78249 24.092646
15.640128 175.7285 43.12207
7.400063 80.66494 42.438103
-49.931213 127.36148 39.301834
-20.611523 192.69969 20.622696
-57.739891 103.33498 23.608624
-37.919178 70.185791 20.538513
-10.317617 37.528599 17.933008
-4.2608609 132.13002 60.02153
-1.7030892 80.042511 34.172935
-40.854832 56.866615 29.230789
-35.991993 66.338318 40.553326
-57.109344 198.94128 7.3256407
-1.9414895 189.87827 21.936691
2.6167367 231.14488 21.036018
-27.204285 249.16528 25.385254
-37.297668 193.46179 14.587107
-13.296938 236.15521 43.020523
-43.575615 29.376778 20.430855
-35.665478 213.88867 21.640739
-15.570214 38.563587 32.410057
-10.29993 82.277321 41.557747
-8.6020565 44.680981 38.246571
-40.859428 86.648605 34.552223
-1.1967273 106.52548 37.182064
-25.203163 148.00951 60.696117
-11.197362 39.269516 30.651762
-45.572891 178.67288 41.178463
-31.259075 131.0361 59.975201
17.255428 128.32919 17.358091
-44.746368 235.41795 28.092272
-24.646976 134.97601 22.297977
-53.626602 170.82571 14.806368
-51.373333 119.35199 26.12636
15.664743 154.38742 43.020603
-26.710503 90.630806 16.684765
20.08486 242.84808 25.91782
-58.468765 201.17926 21.815863
2.3839095 236.41766 21.488411
-26.13485 46.276531 38.402534
-53.341637 239.52637 33.43082
-44.97168 40.690784 38.865719
7.9190922 61.435829 39.651199
-11.731502 118.68117 61.118004
-15.011866 217.85303 43.298386
-40.298954 121.65643 13.605322
21.269211 150.27921 24.689831
-11.066551 205.87628 23.580406
16.823864 72.775345 9.3859119
10.713329 130.15707 58.724846
-13.567169 95.163803 26.047588
-19.447285 39.006081 20.6394
-4.0992594 89.602776 16.355961
-55.111645 33.918137 21.442873
24.428022 196.35191 36.337379
2.5007954 164.91531 61.122787
-20.233095 140.05621 62.225365
-12.930061 245.78587 41.813351
-0.99280596 40.722404 19.955284
4.6281152 132.90936 15.407184
-0.19994636 188.47861 28.963205
2.0267506 124.79242 25.283035
8.0378246 205.11426 47.9142
14.703561 121.00636 18.474922
-23.388802 225.31677 26.661057
1.6352552 139.44919 20.84613
-55.585732 156.47757 16.684658
-45.816254 57.616783 39.86599
-48.828384 247.38351 31.891365
-23.344175 37.183739 18.798365
-51.373325 133.84383 24.581974
-0.59500146 103.20206 40.645679
-29.07552 72.387939 15.499963
-43.711563 82.467621 41.011978
-10.629539 110.11965 13.434737
-28.629627 120.26091 19.518543
-20.926962 229.30481 28.09338
-16.455679 28.203701 36.173378
10.455006 229.38487 23.856766
-0.41140547 80.121017 41.040489
5.0674224 205.37823 21.508986
11.280216 202.75633 25.903942
-43.38953 38.191231 38.643501
-4.0089035 185.92029 19.172558
17.921381 223.46771 18.066404
-45.077415 141.68562 30.966854
13.018642 156.24109 26.735119
-2.3543062 39.860706 23.241224
9.9626226 142.49809 30.427158
-1.5494168 150.19891 61.981575
-1.459547 194.2356 13.982697
-22.937309 161.01344 62.074005
-42.886574 143.51233 43.47868
-41.662102 175.28885 31.361057
-29.599201 159.44357 13.216915
-18.023506 209.59164 26.621304
-13.949391 128.96518 61.895691
18.055836 216.27312 43.888908
-15.679667 225.22968 26.450298
-8.2284832 170.56787 14.741347
14.704006 134.00645 30.207726
-51.373337 146.61441 26.87785
-32.374382 242.67996 41.996407
-4.1153498 147.1868 15.5731
-32.020401 100.93262 48.135033
-26.647951 168.9519 22.32299
-29.188227 247.47253 33.084991
-17.290678 54.47142 13.1237
-17.60766 180.54144 33.672462
15.664448 161.62755 43.031517
-27.085316 32.731171 25.365255
-28.698624 205.8815 18.302269
-2.2942433 40.722507 36.433357
-54.955486 187.13829 26.888418
-52.366356 151.74779 31.620289
-0.28134525 73.530037 42.529259
-42.294617 33.886772 26.385303
-33.253201 169.31833 59.35796
9.0544853 79.121078 35.251038
-35.372665 78.603668 14.976198
-46.977734 58.941933 4.1130409
-48.447296 53.182022 10.327148
3.6077628 175.03815 24.733883
-21.361013 37.858299 19.100777
-34.332245 145.71799 60.082157
-53.471863 201.08257 11.117916
-20.390018 230.89389 26.68771
20.637836 76.54216 26.618959
-45.123497 71.771866 41.775837
-39.373474 177.73508 38.668198
-48.358521 248.68768 38.077488
16.833822 208.80055 28.453262
15.090715 180.57379 36.212139
-39.639397 32.896317 25.931484
-35.784939 227.67548 21.031879
3.3009653 28.219744 35.20332
-57.184937 48.907051 35.43853
-33.413078 86.006683 43.22308
19.912159 28.272486 21.468267
-35.0896 64.086731 16.180992
-49.68819 112.51755 19.572546
-36.270435 215.05573 45.012859
-28.95561 213.89917 26.4503
-24.849203 96.503639 44.55806
-13.107306 50.179672 41.452633
10.771678 221.96678 44.330429
-30.52936 30.336521 26.630707
-50.557396 126.44348 13.12011
-9.1057682 234.31683 43.179543
8.5619164 244.49695 20.338013
-35.567245 233.78784 23.856771
-57.15324 124.63533 20.024118
17.863434 225.88164 36.0998
-57.029583 100.49022 30.15011
8.6610508 221.5379 43.394054
-2.002615 177.53786 25.96883
2.2377315 97.993729 15.406544
19.655596 63.922272 40.727844
13.430639 180.51466 30.298492
-14.053911 125.35946 25.992432
-18.209167 118.69952 59.871281
20.014002 111.20288 16.218445
23.309332 157.67111 23.841881
13.069094 164.80949 26.071535
-38.224373 66.174698 24.006456
-57.707279 99.202522 27.684395
-47.129044 158.74208 22.226212
-20.723644 60.07254 40.25161
20.490551 203.20142 1.9605881
-21.456488 223.79596 26.654116
-42.08136 58.729034 29.967432
2.5100183 175.38559 31.873434
-39.081692 162.13077 26.315067
-1.7247565 199.19231 28.095274
3.0872574 192.83492 52.502045
-22.814156 121.7392 14.325589
-11.204792 29.752411 38.241974
-43.426834 79.166656 20.729641
-14.927285 196.97476 19.273088
-22.511505 53.48101 12.243035
-14.52704 153.02505 62.326942
-58.494789 154.36884 24.94305
-37.499386 88.4702 43.158688
-27.183155 109.65929 55.593353
-26.191654 72.154305 41.03857
-41.873955 195.92854 36.623302
0.24713376 95.713173 44.089428
-23.299244 47.993286 13.689217
-5.1188297 192.40414 14.80044
-56.713379 71.752663 7.7530413
2.3867888 204.49078 21.654837
10.629926 140.04822 57.33144
-29.747591 129.96034 24.419302
-39.523899 44.344418 17.784113
-17.773441 187.52182 13.230944
-4.8863764 43.961636 15.552125
10.430825 76.1017 14.063017
-25.286301 124.55302 25.032686
2.8049705 190.52365 54.076584
9.3513279 126.78036 24.894806
1.9942646 231.65659 43.201481
4.6662164 192.83008 16.681898
-13.23977 171.72685 25.346077
-22.60334 222.62354 44.52021
10.103227 29.630743 21.285631
-29.34029 240.85626 26.332308
-57.875515 184.05746 7.1303663
-24.535667 128.90764 21.005165
-5.2555528 204.52219 22.651867
-49.278896 93.748337 27.606152
-0.50426269 243.01564 22.390747
-1.7493324 61.628639 14.627008
-27.853886 173.87993 14.752182
0.12783718 149.25481 13.216768
-7.057189 35.576218 37.124668
-41.569145 47.370396 34.499199
-4.1423216 241.00436 23.189558
16.530304 129.10718 42.925236
5.5015192 98.307121 15.406277
12.154036 227.2621 23.550083
-6.565937 64.218742 17.548237
-5.7068825 170.33366 59.529903
11.833117 164.48007 54.023582
-1.3221059 170.58569 61.126976
-46.792816 202.00902 36.98732
-16.710688 212.53909 45.448761
-6.6573296 99.175865 31.363348
-6.7844319 81.570679 15.159756
14.664258 110.12661 12.949725
-56.809391 53.255741 38.386402
-16.218763 103.61952 46.116386
1.5513654 139.82974 38.407951
-57.568588 152.2989 29.996126
3.4106758 55.772881 40.601913
-28.882692 29.268833 37.942665
-9.594491 142.81747 33.280987
-52.993504 108.75857 42.104702
-17.111462 245.19012 28.611448
-19.373102 235.1167 41.429665
-14.191538 103.16229 43.873703
13.819008 31.566786 28.695114
-27.005272 71.349068 42.866951
-39.515617 198.42203 26.06357
-13.5294 101.56264 24.603167
-38.742195 84.750412 14.285904
-35.835514 88.322929 19.555244
-48.997505 165.94199 30.678158
-54.645546 117.02541 16.081409
-49.809338 166.49828 33.476414
4.3554616 37.994507 28.849981
-46.594242 151.16635 13.216306
9.3002539 193.91281 27.479969
-49.698189 158.68819 31.413273
-24.53096 39.026253 36.7939
-16.164377 167.43181 18.311857
-8.1969948 172.99907 59.519806
-19.265125 37.8937 36
-2.9811161 70.897247 42.528374
-4.4614758 211.30281 26.384384
9.4448881 77.373611 19.425953
-58.874878 168.49121 38.717686
-53.58762 79.500999 30.266134
-12.184052 190.76076 28.095387
15.109969 152.41824 35.265594
3.8636765 44.804443 25.530699
6.86551 179.90244 45.422001
-51.373394 109.7261 40.268021
18.081244 25.916204 24.136786
-56.720131 55.616779 15.933064
0.90277737 32.615898 33.234772
-41.583275 187.36176 35.826157
-42.877747 174.02725 25.495575
-25.167959 83.917633 43.472534
-50.461735 244.47285 28.092798
-23.375784 96.096634 21.605618
-4.0693951 63.88448 16.989288
-37.944584 183.99586 16.481544
-19.945511 152.47586 62.345055
-35.714951 241.19518 17.594723
15.55898 234.88918 19.020227
-24.80571 31.875021 27.459261
22.373867 110.8784 37.773529
-35.598755 26.236378 34.626965
5.0681772 185.26791 15.329741
-28.151608 62.633987 42.050041
8.7976637 183.91893 14.310186
-42.849045 66.220901 14.21315
19.633265 36.873516 37.694553
-26.227774 56.356796 20.846268
16.3887 105.04172 35.712402
8.20292 121.55225 25.590515
-24.015862 157.84299 26.830227
-6.3171 178.6402 41.196747
-20.264183 82.602539 43.527649
9.414422 70.245995 41.730537
-56.515625 153.04373 21.923323
-49.180534 246.07016 30.144102
5.15698 189.00217 54.625553
-28.569632 216.20175 28.093054
-50.63205 166.04674 14.138432
-58.104908 215.06223 37.788052
1.3751572 242.57498 33.388641
-44.548096 36.535599 37.405048
-14.565199 236.07631 26.706921
2.7621036 94.653152 15.406506
6.804122 192.67844 50.770836
-41.732628 83.565353 34.598129
-25.098795 132.12114 23.837467
-27.983849 181.88585 45.177425
-55.569305 74.34523 28.80587
-7.4704781 136.88802 29.128822
-35.409817 59.306297 16.288454
-41.036297 127.6505 15.40625
-45.432587 61.135967 41.027802
-0.47727549 40.722504 35.830948
-49.906612 160.07045 22.238647
-27.840784 230.42554 16.829458
-50.513401 176.76697 30.388988
9.4967842 182.50725 6.164464
-6.6982985 83.740807 43.354164
-17.142897 187.757 37.517654
-16.682837 251.66093 30.150669
-1.2851467 245.49561 31.8022
-34.221237 148.28307 13.21653
-19.969364 85.426941 24.426765
22.528856 97.77272 21.001331
-50.575676 149.29933 31.261818
-33.276268 195.65312 15.121176
9.9669838 137.63896 28.132395
-50.502846 127.38449 37.223892
22.40414 177.78979 20.111315
-33.192543 102.41168 43.571754
1.624444 191.83228 25.482882
-56.002716 241.96527 29.333147
-30.498146 54.995686 41.006439
4.6682606 36.117588 16.405449
-57.226772 124.01726 39.7416
-55.264427 100.57071 28.544655
-46.9786 200.7066 11.639235
-2.8585637 226.3643 25.08556
0.89554369 131.44841 24.590305
-29.345367 176.06764 33.705147
-14.155591 99.930595 19.281263
-34.630676 197.94127 46.162209
-59.361687 177.83182 36.83403
-24.094028 110.18349 12.33593
8.915597 101.37283 46.332104
-51.412464 148.94234 17.375179
18.796227 44.52253 27.108503
-35.114059 212.37492 45.218452
9.3903008 195.41776 27.651159
-0.77013266 217.32347 44.822517
3.5633881 178.60411 57.919582
13.876889 165.41496 15.069414
-15.842677 230.47319 26.4503
7.2688427 32.889332 30.310593
-37.158726 33.270973 36.608139
1.7090633 104.15381 39.117752
-46.836876 224.11269 43.728397
-0.93716049 224.13684 28.091743
-17.187588 27.002058 26.240992
-43.162273 138.63791 23.306318
15.911957 107.86295 14.016436
-0.99714947 38.437164 31.256868
-31.791191 86.697449 42.822979
14.694118 155.04344 19.164894
-37.680382 69.607979 40.7435
-18.311188 209.40094 45.635471
-11.163487 54.864326 12.52934
-57.578495 205.82327 20.768766
4.8919868 173.55701 26.032412
-6.0147233 39.260246 32.335072
16.15132 106.82463 45.279823
13.928972 203.83466 36.417278
-39.461174 42.904015 18.460699
-36.385864 37.52861 35.181374
16.789612 219.09418 44.600197
22.955872 51.252995 27.721573
12.039577 155.45515 22.562258
-50.913506 103.20274 36.633224
-37.317898 169.18153 14.898378
20.916908 35.433472 35.391239
-6.2319565 97.084312 12.595469
-45.956379 249.2675 25.972433
-25.116461 168.49252 22.318682
-42.177269 139.48224 21.066629
-4.549171 247.58917 39.583557
-18.174234 36.820927 36.708355
-53.92091 208.86778 27.946787
-30.73748 204.60635 28.095301
-52.302841 142.92812 17.347433
-49.926003 242.13936 41.435547
-49.688652 138.55836 30.343723
-39.863571 37.528652 22.467852
-25.218502 205.8806 24.181103
-45.40242 28.916342 36.995274
18.252716 236.20381 40.50621
11.302579 59.849373 40.89658
-49.440262 180.57582 19.212759
-44.985256 200.04343 7.0638418
2.6121299 47.743851 18.285919
-27.773058 40.010201 27.261292
14.834872 132.28488 40.880539
18.350611 187.08273 12.856575
-3.8571565 107.85738 14.110682
-51.722046 149.51566 13.163897
-55.373318 147.66769 42.412262
-44.700558 223.80063 43.365974
-46.301659 243.75583 40.60244
-12.183677 228.77525 16.891193
-51.49292 249.21039 40.796497
-36.616375 238.61366 23.856787
18.893944 122.39452 17.211355
1.0107632 239.66656 42.254276
-36.738037 137.52844 59.670135
-30.49815 188.79497 55.504372
-27.803738 63.649151 19.94433
-49.742134 171.36674 43.832897
22.009556 54.808922 10.081774
-6.8889456 166.85779 10.558756
-43.597485 61.715263 39.664104
-24.371138 176.44467 34.343815
-39.574951 131.17592 24.382805
1.975491 215.16217 28.09248
22.109167 81.420609 15.711222
-32.202202 177.47638 14.758733
11.4085 68.044449 14.600807
-19.769341 165.64751 17.765314
7.0412645 141.23721 25.143488
-51.074249 91.061272 42.032856
15.58081 184.94864 34.613945
-49.688503 157.71887 19.12067
-2.4182048 166.41554 12.106875
-30.202852 239.15007 26.704903
-28.750927 91.925415 12.602571
-37.37764 238.94682 22.987967
15.96176 125.6015 43.31974
-16.647297 160.97751 60.630009
-48.024719 173.17883 53.17691
-55.459518 85.537506 15.344343
-36.172386 243.17999 21.390854
-19.610565 86.741356 27.542004
-2.8585699 217.98141 18.76791
-51.025963 207.57295 31.3894
-39.808388 58.029598 40.789764
-21.325523 102.8679 32.740921
4.8362117 26.459921 34.67453
-16.118546 228.54361 41.874847
7.8986945 190.07281 38.913792
-25.142258 107.22729 44.7202
-24.635492 96.550934 45.040192
19.6091 199.45589 19.553953
-40.699802 54.677605 28.43745
-29.053097 224.46671 28.092434
-12.13613 196.42999 19.037628
17.284901 208.05678 40.493881
-20.337782 178.05731 27.259121
-41.078766 189.14874 56.068069
-47.476387 206.03949 33.41404
14.999568 94.37458 42.396381
10.286892 200.93405 14.480415
15.314976 63.212666 40.751343
8.5793781 81.088501 36.090015
16.146231 149.21442 28.772072
-44.890488 155.10736 19.79891
21.992287 126.94468 19.411079
3.4461718 177.32175 25.432049
-41.797153 142.17439 15.407644
-50.697899 104.38891 34.001957
-10.329406 160.62686 14.832781
-51.373318 139.22878 21.400162
-55.505932 76.5168 6.4755273
-28.019903 176.01945 10.679365
-35.148602 37.322475 21.467167
16.034348 172.23613 17.924673
-56.451309 72.578423 6.9495358
-41.63187 64.203552 31.051516
-54.2299 133.05049 17.164545
-38.016739 84.632248 24.640167
12.872109 103.67415 44.674419
-1.9149249 138.0862 33.497849
13.992105 89.680405 23.29121
19.787159 137.52063 15.144767
-3.0702133 49.001282 31.37891
-58.148384 142.24292 23.89768
-52.45562 126.94064 17.333332
14.486977 246.00632 35.84864
-41.697594 155.40132 22.278986
-43.792641 59.203751 30.140186
-15.119401 245.00311 41.944084
-45.136967 242.97336 41.553509
-39.076466 185.24896 17.775009
-14.924028 220.68488 44.721115
21.195114 187.67213 0.87709635
-21.457979 129.50992 61.919544
22.169525 100.21497 19.52882
-46.621883 58.347591 29.316994
-5.281692 37.8937 35.158932
-1.572746 50.321953 35.0877
24.027241 163.39871 37.439285
-36.582729 108.08197 14.458321
-17.036179 33.166664 16.41781
2.5817399 208.62321 21.048883
3.4615278 46.403183 35.0877
-36.699844 140.68474 23.900526
-50.787556 190.33514 28.194267
-43.844513 121.86995 55.948593
-23.757256 220.54437 16.966633
-34.486179 125.44704 61.285343
-2.4613414 152.48386 62.021191
-7.8256855 125.33189 13.06403
6.7952185 192.69397 14.780269
-12.377182 109.75337 11.473102
-5.1762943 76.39711 40.823387
-33.157288 181.22275 15.431977
-19.840168 40.315201 26.63773
-40.399754 47.91111 37.576942
-13.804954 215.23384 28.094452
-24.436977 241.00317 25.975807
-41.199139 131.05618 15.406233
-21.87657 127.36803 23.47118
-17.820011 208.37245 45.703632
-38.402138 134.21519 61.336952
-54.952366 97.972229 20.3263
-16.476816 217.81618 43.342091
13.427924 181.68054 31.689568
-40.382801 220.79736 42.684269
-13.664938 132.48872 21.431198
-32.049988 38.809605 21.487425
-21.859993 105.30339 44.352028
-42.009758 176.45573 23.281
-43.101631 62.098869 7.2114506
-40.956177 178.90613 26.207968
2.6510365 179.42749 13.429612
-37.381371 191.9218 25.952492
-57.995464 89.772278 22.035496
-41.518433 63.504559 39.941513
3.7437387 234.34885 28.092293
-21.055531 135.35448 25.378931
9.4764919 32.694706 34.641228
-11.919436 98.357826 16.786505
6.8761654 207.64192 32.892765
4.0823989 195.54935 30.05508
-48.482334 150.68466 15.405642
-7.9165659 28.848572 35.395325
-27.129869 205.71542 26.512112
-0.9971627 38.607895 21.637651
-46.651939 29.820034 37.070377
-29.245527 30.210209 38.077454
-18.704937 159.18221 17.880394
-29.75798 205.40633 25.467138
-44.90596 140.66505 35.655399
19.763441 144.51744 15.206245
-52.612 51.609726 16.568607
-53.787075 200.01996 0.30565611
-27.40464 101.63217 15.409055
-45.019718 188.30533 20.474516
14.077555 30.653566 21.301434
-6.7680407 242.87558 35.914902
-36.381248 101.58145 48.106304
14.703388 106.33779 30.01103
-26.60331 124.34224 61.552078
0.28178573 86.787308 43.142181
-15.925838 128.41112 60.983345
11.057386 161.91341 57.191532
21.693348 43.119255 23.612421
13.814425 159.11224 22.229631
-58.477592 200.36432 22.511608
-51.833229 182.92148 23.279716
-37.337418 97.508499 44.770111
-35.648972 95.167801 14.057117
-51.373306 141.1864 18.707718
-6.721025 177.52954 15.099948
8.0412655 216.22263 42.867466
3.4253371 90.821625 15.194506
-2.8866191 77.330536 14.900423
14.703031 144.84709 26.734549
-40.375725 44.543003 34.802319
-27.96121 137.02341 13.216629
4.6395254 121.50048 57.214474
-37.320801 77.082878 42.598614
-1.5620809 150.0463 13.216822
-38.609985 48.143326 27.685184
8.2403898 26.65666 36.058769
-34.62109 65.775002 14.802797
11.951847 181.70389 43.777939
-55.336155 247.83484 36.760799
-51.37336 102.87108 31.945232
-43.188019 139.88765 37.748901
-25.770308 38.607674 22.315323
14.703458 145.84753 20.119764
-52.510857 149.91977 43.386066
-57.693871 132.52859 39.106518
0.46309727 143.72586 44.303787
0.57662714 236.1218 19.496767
-46.156723 198.95055 28.086603
-11.474884 179.43791 30.688328
-29.367231 31.216793 17.782021
-37.786087 78.626717 18.121399
-12.235888 124.81229 13.550519
-35.79287 68.463539 40.693848
-11.859652 121.54568 20.107944
-52.164085 201.62175 43.641037
3.3567948 115.11696 42.130253
-38.345467 103.0574 14.458189
15.663363 226.00856 18.146471
-37.918583 239.76099 21.031572
13.548664 98.274155 42.989967
-43.713634 104.9438 45.590195
-14.692024 187.825 23.919022
-53.425728 149.89183 35.543015
-9.908124 146.86162 62.233986
-1.3757253 105.2244 44.042625
17.471903 74.395981 11.506956
-17.754784 26.810392 35.965588
16.388737 117.64801 26.634254
-39.609505 72.237289 20.612041
-49.918674 136.82579 34.265888
-41.140976 29.809731 26.553593
-6.270236 152.02759 13.216803
-25.176533 181.17474 39.051365
-8.3114672 251.28853 30.809137
6.2432055 76.621101 16.06282
-55.555557 80.792419 16.757105
-10.542924 97.58992 19.41452
10.414736 33.061222 20.142811
12.017316 235.40533 42.40955
-48.220085 179.45357 28.420494
-21.953732 216.879 28.094038
6.1717215 102.35071 40.648193
3.594995 245.40404 34.401917
-8.6089573 176.44281 34.256741
18.708946 53.406639 11.887073
5.4546857 54.571617 40.306587
-26.184381 41.082401 20.470125
-35.962013 123.94044 25.437284
-24.067305 228.56085 16.893158
-50.057159 135.01353 38.581142
-31.754421 90.231667 43.587158
-9.4339752 168.59474 22.319618
-33.8354 59.405865 40.083855
-2.6838386 211.29489 45.347015
-3.5318065 68.129616 40.388687
-53.536453 227.67314 19.691933
-57.953667 107.5771 25.154047
-40.826244 175.06776 57.301975
-46.041622 120.25928 57.159103
-23.485943 155.96571 14.889487
-13.15134 26.360958 25.386837
-49.655807 153.4841 41.751377
-16.66654 192.16284 25.471415
-57.907482 180.55902 42.625046
21.569405 203.66101 4.6836681
-41.084496 126.9845 13.428928
-7.3719535 146.72046 15.5731
14.703518 136.65395 19.188713
-44.761276 105.19896 40.270523
-55.593376 145.5741 16.602699
-20.068596 29.270483 28.215872
-58.06464 221.82135 32.99374
-28.344204 30.31595 32.680656
-50.428101 144.87663 37.320316
-31.991699 61.151443 41.652328
14.742922 136.28333 42.126747
-12.629192 152.34698 60.980335
10.661934 235.73155 40.483543
-18.296347 39.761581 34.062347
-56.286999 94.97831 29.270584
-11.491936 166.8394 14.130688
-41.948536 32.698029 31.661726
-58.735157 162.68814 38.707703
-6.0296507 183.50131 58.756931
12.33599 103.35789 33.583672
-1.2054791 88.059891 20.580391
-59.82357 191.38458 32.697247
20.868576 95.034752 23.601242
15.749304 122.72197 43.392357
4.6577811 74.92775 20.871016
-11.627386 86.345627 40.007797
-27.800774 118.97334 14.459558
-0.38637972 37.519463 39.04454
10.388562 51.39957 40.162357
-38.431942 113.81758 15.406473
-16.364958 213.45876 26.621613
-58.669189 145.04782 26.736988
-42.187687 48.690796 38.449959
-49.354015 170.51926 25.199135
16.975197 39.270035 37.991119
0.25647449 123.52936 59.513474
11.183748 62.792217 30.971363
-8.3920517 30.694515 38.306793
-29.927858 225.14127 26.658945
-27.405136 106.89 15.410087
14.703259 117.09511 29.202122
-52.326485 202.51013 26.321121
-3.6297462 161.95856 59.896477
-5.3783369 222.36588 26.647842
15.924995 194.75287 35.884621
-33.28627 169.694 14.852514
-53.381912 247.89989 29.397022
-18.091919 218.821 80.090492
-33.101425 77.3909 16.058372
21.805496 180.97913 31.240387
-20.404121 174.50377 61.114799
-4.3791909 58.9524 39.921551
8.1584864 34.099766 17.652813
-46.771667 90.506073 17.231625
-28.650389 52.742729 39.165443
1.0467205 111.5735 40.92485
-34.152412 173.97202 27.827612
21.138792 60.895916 1.5908389
-39.387272 176.55588 23.5298
4.6625452 34.041733 34.599998
12.500719 192.71463 16.543913
-32.654144 178.17363 60.340988
-13.151676 223.4794 44.437321
-41.046265 243.4906 21.047251
-27.70015 62.256691 19.932812
-29.120842 247.22168 39.501194
-51.724388 51.671223 17.882072
-21.362423 195.17093 51.383224
-53.839306 59.322075 19.562431
-44.419529 71.619186 41.809952
-33.479927 174.68707 29.787903
-19.34757 192.31616 14.711969
-12.634383 125.47754 22.061701
14.323386 94.762939 25.780052
-31.978741 74.901764 40.669476
3.7850666 116.22168 47.822456
-18.515526 179.06992 59.326668
8.703249 167.42256 15.017294
-42.279846 189.08096 45.887859
-18.676445 44.866089 40.892982
2.786634 72.392143 18.528673
-14.482899 142.6525 61.056007
-19.180082 82.896248 43.560566
12.323385 46.106522 27.051422
-20.96208 194.66382 46.086098
14.703521 136.10986 19.128376
9.3520079 78.564339 19.566685
-21.969154 94.275146 24.9405
22.730944 94.48185 37.006641
4.9061618 74.951019 22.402039
-27.296688 104.54174 36.64703
-22.093025 235.88248 43.042984
13.052691 75.999161 32.352169
12.810054 69.690964 -0.12223616
-18.454718 247.93898 39.448959
-25.846052 37.575748 34.062401
3.6435931 164.84149 59.227699
-31.248325 38.5765 25.679121
-7.237905 104.52536 10.932276
0.26601601 178.62912 28.679363
6.9428229 102.85659 39.297462
0.76666117 106.4458 14.458941
0.28500772 83.330376 35.022301
-57.199604 151.3165 37.171745
-3.5713122 219.05197 26.159058
-55.351875 240.25345 39.476788
-59.326664 188.24298 37.950493
-51.02248 138.3308 43.393291
-39.378277 124.5163 58.301613
-10.122868 130.12079 13.216496
-14.584086 179.94211 59.244934
-12.636776 92.515968 23.886143
-6.7981997 52.694164 40.837315
-48.485378 36.318501 33.485954
0.38170648 215.40266 21.98122
-8.2453032 32.463791 19.485998
-50.130947 73.506844 17.611103
16.38872 115.54365 22.374813
-19.584879 133.93591 16.37907
-45.484814 71.667747 34.795994
-52.341904 211.57343 32.986313
23.87904 144.03271 28.455839
-28.957272 92.660927 14.225503
-56.732178 230.61813 38.154671
-41.27742 180.65816 34.663662
-25.06299 70.52977 19.417412
-12.439953 139.83667 60.85815
16.388718 113.4711 21.764387
-47.642426 166.48721 25.823442
-5.7915258 26.57815 16.0319
13.273526 177.94373 18.118847
0.91704416 40.086338 33.100533
-51.373322 147.60507 23.027393
-7.0683208 67.142441 40.685806
-34.138565 179.04443 29.711006
-28.578308 199.78917 46.216949
-50.975082 223.66452 28.091761
-18.959534 54.791187 39.846794
-45.14859 191.33443 7.4285221
-5.8111105 224.24152 26.654753
-47.473209 177.63571 50.116001
-10.24796 58.288116 40.091045
2.3843913 102.04563 15.406525
-49.687988 124.81808 29.396652
-37.775063 46.575283 40.141983
-12.365599 237.64815 28.09277
-23.516266 155.40393 60.735283
-0.94965267 243.13525 21.610149
17.626179 219.52008 33.814655
18.634521 151.08165 43.064693
-42.288559 68.329002 31.983715
7.8967581 57.019444 40.472244
-16.100647 125.82605 17.799042
-39.615898 187.757 38.588001
-19.110691 28.954399 34.642109
-15.193695 184.47652 46.23143
-11.512851 156.17422 14.10162
20.575016 150.26501 40.756237
22.062771 60.815346 26.363806
-29.841904 27.087393 35.322464
-22.175491 92.080688 20.435123
-39.076439 186.37334 24.908058
-41.835331 65.393967 31.300797
-51.957413 189.98569 40.064533
-34.375549 227.08804 42.002487
-4.989131 245.35011 34.8535
12.941644 83.330978 22.30097
-15.834646 152.79292 62.343391
-37.381767 184.16277 14.380897
15.619479 208.72975 17.259733
-25.00596 141.37335 12.965706
17.097006 61.820389 10.954621
-22.766676 149.16745 14.358959
14.270525 247.99709 36.703304
21.186756 236.93712 27.587814
15.646974 243.86151 28.092781
24.422798 158.49591 33.1194
15.163504 176.68112 38.231606
-44.169155 139.76479 59.706642
3.3765819 34.867352 36.823219
0.71272886 190.04684 25.471189
-36.863987 117.64824 20.34169
-44.349922 246.33244 37.045761
-32.350945 175.7289 24.374647
-51.373352 139.89058 30.770777
23.496452 215.75864 34.439911
5.1361723 84.579369 34.227276
-33.285366 147.96127 48.831543
-34.236 78.795677 28.626848
-21.732548 71.24617 43.021057
-22.909447 187.757 41.577736
-16.457623 183.55844 13.741785
-14.694016 174.40678 22.374104
-4.016892 68.836601 40.75312
-58.462261 204.13379 10.303057
-9.2776966 139.57706 60.500774
-57.607494 172.68423 43.002121
-53.26152 161.42055 14.289209
-39.973389 37.52869 28.328911
-6.2899699 22.446823 21.121773
17.960705 233.37534 20.202599
10.70497 106.14586 37.129372
14.902222 233.83902 19.251541
-45.752998 64.493713 19.695951
-8.9165087 51.671379 38.979614
-16.062349 199.34096 25.520416
5.6080303 101.74849 15.406263
-47.137783 155.35011 21.640535
-20.859653 87.525925 42.195095
-58.344975 212.75766 37.076828
-41.79007 44.017784 37.941055
18.482327 150.0101 42.32996
2.8961864 68.47007 18.485687
21.040958 206.6297 44.003567
-58.422935 55.772324 30.476057
-33.426311 95.569077 15.5731
-37.96006 182.4066 57.724709
-19.733326 110.65126 26.644331
-50.547543 186.75354 1.2701361
-18.298203 173.25227 61.279118
-0.65954888 177.37907 38.191196
-42.375298 246.32352 39.624584
2.5891128 83.362617 15.320723
-39.895721 160.12462 61.079948
-52.17799 202.54056 42.81723
17.623985 219.45483 33.829601
-51.275063 101.24252 36.287735
-9.0090876 103.4528 15.641418
-56.413074 71.836227 27.456997
-8.5679388 131.98671 15.415642
-22.344351 77.607529 41.114208
-33.05632 227.02232 24.010674
-13.159815 94.30426 24.008579
10.283591 106.57962 14.882879
-2.1972594 248.45099 36.21125
-57.682518 98.116302 26.918587
21.62672 183.29468 7.237874
1.6020535 29.671631 23.563091
3.1575923 162.36888 22.260788
-58.279305 96.411667 33.884468
-19.7206 171.1131 18.203665
-40.062592 141.51663 25.922949
14.703164 115.53949 24.663969
-51.548176 73.457573 41.269619
12.617879 89.82103 27.872303
-37.172394 199.24812 25.521423
-11.370459 234.05605 41.814529
23.964424 203.83464 36.688183
-10.32683 86.366615 39.307251
-16.403749 54.42485 39.816498
-32.334816 40.224976 23.046869
-40.616707 236.17236 28.092304
-22.516277 115.20988 12.472016
-33.033039 55.948151 40.97398
-45.669376 192.56592 15.266298
-50.079067 107.24245 14.926832
8.9830685 38.852509 27.006783
-25.210461 141.34084 33.173923
-13.158672 39.116554 24.766539
-3.1841929 249.31772 24.868338
-15.672966 117.72244 55.4706
-16.46587 129.87856 16.250288
-42.959827 64.890678 4.7272501
15.143628 124.14016 13.216307
-36.650948 227.97206 43.640507
14.939674 169.77103 28.59725
2.1398559 68.056236 42.047455
-18.293049 174.47838 29.340174
-21.70974 190.29355 45.939682
-57.269943 179.96294 10.823155
-9.0634384 246.00906 28.329834
-40.486916 85.09333 39.702942
-54.869484 71.335007 41.091316
-34.269459 220.72737 22.152378
-30.29425 221.82718 43.356056
-52.839218 243.35107 40.866814
-9.1474714 39.273331 33.176109
-50.479443 106.73592 17.334513
-46.686989 31.444286 18.342175
21.536324 52.607689 39.035923
-32.038033 100.24336 47.581848
-37.792694 26.797388 35.241596
17.900759 227.49066 32.141945
18.050962 206.2657 32.929516
-12.765757 174.68533 30.826862
-3.2106805 172.14207 14.62204
-31.65723 109.83536 12.719233
-44.730495 202.09877 23.542542
-12.081842 177.52669 38.398037
-22.481544 39.285973 24.760918
15.264408 131.1098 17.879192
22.429726 60.477364 38.038536
4.9916234 216.17628 24.039078
-47.140968 31.504757 21.144955
-53.554989 46.275848 16.780996
-38.220417 203.61655 35.622898
9.3665257 58.046989 8.8137646
16.593903 166.37076 13.366247
-8.3606825 137.82248 31.071964
-51.789974 85.664536 15.192978
-24.269007 32.25663 33.732571
-54.877846 80.145432 22.446854
-11.473883 137.37341 16.723738
-48.366291 164.63158 54.341858
14.96442 107.944 32.693253
1.4484437 88.424652 19.125332
-51.373375 141.70833 36.367085
-5.357419 245.6895 35.470699
-38.988068 39.817322 26.405252
-24.574574 26.071596 35.550392
-33.628796 178.83881 42.416809
-36.681648 239.71213 28.092493
11.642371 207.63474 32.068542
1.1282421 47.683598 40.350807
-54.876442 188.51237 12.956297
-8.117075 104.6684 12.963801
-2.1910019 247.73616 39.372646
-9.2966347 32.480049 38.651348
-4.4550462 198.34407 46.174412
-37.254501 55.793846 39.266911
-32.8284 220.12192 19.302647
-46.72435 204.60437 24.678991
-55.061302 52.535767 39.734291
-33.576096 167.92934 59.420013
-17.274405 225.04028 42.256447
1.6087768 29.108767 22.863983
9.3753166 170.67368 15.071048
-24.796074 102.04373 18.227497
-50.050694 120.63933 36.028187
-46.478611 92.322906 16.188072
-56.742195 140.28143 18.79491
-6.9462328 55.585243 13.01778
-58.296928 188.10545 23.739681
-55.604248 127.85004 16.343168
-32.629364 181.69199 10.588346
5.722867 155.53928 61.089565
-14.959009 138.93558 62.212311
-19.496796 172.72742 16.471476
-0.90764236 94.210884 29.498421
-49.757401 160.49042 39.872269
1.4342895 61.131905 41.371124
-23.686634 158.50241 26.607738
3.3414774 78.986191 42.627029
-16.779343 228.84642 16.890539
-8.4358969 47.823456 13.285387
5.747664 102.2951 15.40625
-24.894646 205.84833 19.690292
-14.61388 62.853554 42.552399
-13.723003 140.80542 24.705816
-55.858868 249.43689 29.666445
17.056238 151.2968 25.979643
-32.8284 208.4996 20.744001
10.708336 40.494381 35.108669
-2.828867 135.35873 59.868248
7.0946341 171.29901 25.17094
-36.128754 147.04703 61.804737
-5.3785858 56.690502 15.89384
-1.4326602 219.48013 21.181108
-31.258818 124.3674 15.411008
9.9774475 248.48892 37.419525
-26.184723 138.79114 20.158829
0.67300725 200.42422 24.997433
12.713575 209.94746 31.767838
-8.7310839 229.16989 42.431232
-57.721565 131.69905 38.93203
-3.8922448 102.87576 49.780594
-57.366405 184.62794 12.934854
-30.807209 83.271729 43.241901
2.3373787 205.48398 33.778038
-13.848629 104.52135 38.271366
5.6902394 225.05402 41.631519
-6.6937828 219.61296 42.943573
23.41326 152.52672 38.9016
14.703159 140.14825 24.748314
7.9845524 248.37839 29.626137
-23.003792 239.36319 40.453644
-44.943649 195.4305 23.63216
-29.735193 84.039398 41.740829
24.650249 181.79861 30.90036
-1.472212 187.757 32.317192
-33.562122 40.047844 25.142113
-19.879269 27.987957 38.016415
-22.980776 86.13324 42.55909
-2.4468486 171.08859 10.944437
-12.951585 246.18355 33.779823
-11.766726 129.4561 13.517141
-19.366076 47.242001 12.101414
-51.373322 141.05901 23.860489
-25.536705 246.96983 21.256907
-0.61495304 34.114029 36.785812
-44.269073 120.31247 57.797455
-19.48941 178.05814 16.327148
-35.518959 216.34093 21.848871
-20.109375 196.07384 50.744766
5.0969639 80.867447 42.599556
4.0824947 208.48779 24.285112
-28.617313 74.614876 42.963486
18.665428 187.20282 26.751602
2.1571589 106.02274 36.445751
17.308256 192.01451 35.734257
-26.771721 52.812859 14.644338
-15.016328 99.941284 26.060087
15.43878 134.55495 13.204856
-45.372322 192.36716 27.624071
-26.449877 39.040039 37.1586
14.703514 146.91342 19.242533
4.3884077 134.62007 59.418251
-19.347763 181.39961 15.295956
-20.982645 234.19423 41.796379
3.6991668 232.32797 28.092194
-55.885956 34.550255 35.068897
-20.829365 41.082405 19.982496
-10.268124 60.918556 13.654246
-27.578545 211.25137 16.969906
5.0572486 140.04541 38.081551
21.146803 242.562 30.298626
-10.90801 142.62717 62.199497
9.8962317 31.511747 27.496834
-9.4371977 242.42107 28.092644
-2.0495498 248.8631 29.535803
15.00316 201.22986 12.46196
10.273328 63.065487 34.784737
9.3864002 72.149506 2.666424
-13.828928 86.328934 39.615402
-28.172771 95.869736 14.367699
-42.308449 198.52231 50.966896
-3.12888 51.76527 30.013449
-2.8196676 183.73064 14.624724
20.875053 195.43706 28.533112
18.612799 80.536087 25.983501
-8.161932 231.25941 16.854052
15.255894 218.07454 23.55747
-54.426006 33.148205 20.960533
-33.106342 153.21284 13.216671
-22.48477 86.368149 37.404388
-42.719345 133.02115 58.68544
-55.269306 214.84839 19.473171
19.892036 170.41046 16.205627
-48.58062 75.488525 32.600483
6.1595955 218.59335 44.551479
-36.339588 76.325203 15.71081
6.2816758 33.398697 36.549969
14.70435 146.31912 29.299644
-54.138256 101.95078 16.169022
16.388767 131.39201 34.485405
-20.079456 203.14426 46.008804
16.388725 114.66611 38.921303
-12.665758 93.612671 23.824947
9.702652 214.27133 47.141006
-22.951754 114.15312 13.104606
-58.300056 53.84338 31.044628
5.0642195 238.93555 23.761562
-32.860718 140.23813 13.216396
23.76392 144.53078 36.15831
-19.067059 152.24385 62.358028
19.529808 196.16672 21.231251
-21.401735 26.921219 35.441025
8.0416012 195.89661 15.452003
15.045915 67.300774 41.072369
0.20308715 80.34021 34.283195
-7.4837284 214.38618 26.621685
1.568105 140.45287 15.410666
-9.0671902 40.358681 30.615629
-28.663332 161.63597 22.254263
-16.635563 192.65494 21.477774
-37.722179 139.21774 22.992397
14.693972 164.41547 29.853098
-34.018314 225.28276 23.856739
-46.953953 62.574894 31.207298
-43.177204 120.4663 56.727352
16.388758 136.17413 32.185707
14.694189 159.92952 18.06315
-18.707836 29.520641 25.611553
-28.434843 193.65138 18.442207
-49.149025 154.25221 15.872246
8.7712708 35.180283 36.768715
-25.873993 208.08128 45.651245
11.792279 107.18507 15.40575
22.214991 190.93394 35.325977
-15.321448 107.83666 26.864796
-2.821538 176.44485 35.119545
-49.687981 129.90158 22.884991
-3.0549481 96.961937 15.406977
14.83983 132.19481 33.896484
-33.313446 147.54155 15.41422
-24.654446 135.4549 22.108969
-5.1115284 127.54128 25.190805
2.9263816 86.010941 22.120159
-11.732775 178.52628 28.423956
3.9213519 118.98602 60.224483
23.803738 140.13431 34.742119
-55.907589 69.490623 4.3693371
-11.073424 221.70807 28.09374
-22.540575 104.76774 37.811325
21.544022 181.1964 12.907094
17.097742 196.84312 40.164963
-26.481621 88.94899 21.399363
-7.4250908 119.39144 25.643166
-6.9732094 36.356693 18.798656
10.990137 171.68456 56.211025
-27.780783 40.339371 36.7939
21.708399 66.744667 6.666213
5.067924 192.03593 25.865118
-13.866797 61.676495 42.4538
16.388788 130.89978 42.68692
10.560015 247.87305 39.008377
18.543699 70.196266 41.085346
5.4640532 186.46745 57.457901
14.703304 124.75064 22.499069
-22.074438 103.64786 24.011436
7.2454777 122.78941 16.068369
-28.307552 34.984577 17.748899
16.388716 146.72751 41.465672
-53.264263 206.64917 5.6501951
-53.921135 209.34589 26.126369
-53.060368 201.75964 34.964741
14.693671 166.42694 28.041271
-56.842331 231.74623 37.411156
-48.597683 64.231323 31.765945
-15.816963 233.37108 26.699083
-39.108471 236.6703 42.525875
0.83755219 100.51379 31.862551
-18.742514 49.158165 41.448509
-50.860062 107.79962 46.265568
-31.95322 219.80765 17.387339
-2.3313866 38.07687 25.645477
-25.131491 134.3083 62.055439
-54.300568 187.52982 27.063438
-35.864799 38.202084 37.36747
2.0486979 143.89346 32.548813
2.3835661 239.18228 22.645906
-6.2722216 123.08699 15.569454
-45.025887 147.20335 59.079433
-0.13749249 67.81324 40.397129
18.028301 114.40081 17.208225
14.303314 174.98846 15.069187
-37.174637 142.45595 13.216354
-49.687969 168.34137 26.458916
-27.643143 85.74437 24.302719
-28.615789 124.07946 60.135513
-40.869724 218.51437 41.168129
22.665066 85.945763 19.948303
-10.467031 41.283585 37.959633
2.3873725 188.36522 24.603722
10.353001 83.899841 31.521917
22.881981 112.71948 23.960751
-39.981606 140.97491 13.216331
-44.238461 238.8708 41.056042
-48.769909 83.030724 22.480957
-8.0541325 104.78214 10.743256
-4.3860302 184.40825 45.757244
-46.432018 88.432922 42.554222
4.5001535 82.758575 21.677948
-0.12323618 99.212296 15.406733
15.181803 68.078003 21.629341
21.297604 139.58786 17.940384
-3.7360175 181.31367 10.556597
8.9731207 183.24635 6.955574
17.615875 70.311554 21.434647
0.74702644 161.55733 14.737005
-47.747143 245.59836 20.509392
-11.626961 73.657585 43.103317
-19.829784 54.625641 39.820766
-37.543842 104.29611 33.985935
3.8916559 172.72382 15.521465
11.124186 167.83281 56.55616
-31.789835 182.35594 58.645634
-46.836403 79.404175 42.059559
-19.823174 102.90266 42.597324
-36.705528 145.92358 13.216402
-27.710093 139.11263 19.705069
-56.840679 140.18773 19.040543
-29.989124 190.61018 28.095387
-7.2297559 49.218636 12.572214
-49.667923 143.48759 41.60833
17.796143 224.67264 31.802319
2.1085563 212.25162 28.092962
3.1210535 55.076077 20.549944
11.097566 212.06906 29.143589
-10.255845 188.75485 28.095394
8.5147896 116.28111 57.125591
6.0821438 50.9245 38.706264
-42.135712 232.8326 42.89061
-5.3342414 155.21022 25.625877
-20.952559 208.67949 26.4503
-11.19559 165.50223 60.130947
-33.871166 236.68498 17.134726
11.24761 71.477303 13.8272
-35.973465 245.0321 36.472401
-17.551706 182.11266 20.574165
-49.798885 144.3734 33.69857
-19.408953 140.54793 61.207939
-56.485497 178.25267 19.810104
3.0441194 95.3741 15.406481
23.164503 130.5555 37.259621
-58.492142 134.05661 26.58523
-43.081989 31.028721 30.775408
-16.844381 225.84283 26.4503
5.9934006 31.872906 36.328072
4.0825038 180.78015 21.54438
0.52638614 62.242149 39.77639
