# .PCD v0.7 - Point Cloud Data file format
VERSION 0.7
FIELDS x y z
SIZE 4 4 4
TYPE F F F
COUNT 1 1 1
WIDTH 1557
HEIGHT 1
VIEWPOINT 0 0 0 1 0 0 0
POINTS 1557
DATA ascii
3.4267087 1.4135125 0.19999999
5.660974 1.6298282 0.19999999
3.6739638 1.7144358 0.19999999
4.187983 1.744763 0.19999999
5.6408815 1.837538 0.19999999
4.4998393 1.9138707 0.19999999
4.4841905 1.9553466 0.19999999
5.5230498 1.9563725 0.19999999
5.1968417 2.1086199 0.19563241
5.2802453 2.1086199 0.19567907
4.0759163 0 0.20741744
4.4781461 0 0.20992161
3.840064 0.031427138 0.2
5.2085295 0.055640835 0.2
2.4943643 0.063918807 0.2
3.8014727 0.082629256 0.2
4.5803843 0.090687014 0.2
2.1856894 0.10982434 0.20562747
5.7027383 0.10389975 0.2
2.393126 0.12466111 0.20027386
5.7841339 0.1318098 0.20746098
2.9441478 0.14358234 0.2
2.2553139 0.16637614 0.20300263
4.8892517 0.16514885 0.2
3.3794866 0.17046653 0.2
2.4171369 0.20612653 0.20012857
2.5093024 0.20288329 0.2
3.8089187 0.22317168 0.2
2.6834564 0.23487988 0.20000002
3.6414835 0.24974631 0.2
3.4450316 0.25403461 0.2
5.5414515 0.27899116 0.20000002
2.8874965 0.28554979 0.20000002
3.8810644 0.28853697 0.2
2.5035858 0.29228243 0.2
5.0235934 0.29691675 0.2
2.6998439 0.36444113 0.2
4.2476573 0.36271816 0.2
2.2421429 0.38640511 0.20340811
2.1269045 0.39003745 0.20850807
5.5794477 0.3937293 0.2
5.480278 0.40186527 0.20000002
5.2602844 0.4381623 0.2
3.1440911 0.44447115 0.20000002
3.475486 0.44581541 0.2
4.28895 0.45774817 0.2
5.4489183 0.45598257 0.2
4.8622036 0.48014233 0.2
5.7768278 0.48630595 0.20539966
2.9796147 0.54149771 0.20000002
2.8986707 0.55955559 0.2
4.7985449 0.55907035 0.2
5.7174063 0.55525422 0.2
5.0206747 0.58891803 0.2
2.2417843 0.60186648 0.20342457
2.6812675 0.61424214 0.20000002
3.2097726 0.61840665 0.2
2.3885255 0.63682395 0.20030418
2.622628 0.6329785 0.2
4.7765193 0.63886553 0.2
2.460068 0.68735111 0.2
3.7153261 0.68020511 0.2
5.4171519 0.68750405 0.2
5.1057239 0.7026251 0.2
2.2193334 0.72633237 0.20419712
2.6574724 0.72238135 0.2
3.5531266 0.72237968 0.2
3.7015564 0.7239905 0.2
4.8964567 0.72847575 0.2
5.5622153 0.72168821 0.2
2.9238987 0.7392633 0.2
3.0000739 0.74903929 0.2
5.1491222 0.76225042 0.2
3.9045839 0.77546549 0.2
3.1095278 0.79562855 0.20000002
4.3458662 0.79449129 0.2
4.7386985 0.79621679 0.20000002
4.2590122 0.84354216 0.2
4.2730703 0.84864283 0.20000002
4.9044304 0.86202884 0.2
3.1620293 0.87439752 0.2
4.4819374 0.87873435 0.2
5.1648631 0.87599719 0.2
2.5222216 0.89571011 0.2
4.7427707 0.89356643 0.20000002
2.1136465 0.94846052 0.2092717
4.7729788 0.94337225 0.2
4.8417091 0.95011485 0.2
4.9106932 0.96538788 0.20000002
4.6919723 0.99761689 0.20000002
2.8099036 1.0055866 0.2
3.9255807 1.0056818 0.2
4.6603899 1.0019882 0.2
5.2475128 1.0018033 0.2
2.1855259 1.024399 0.20563442
4.8453269 1.0208288 0.20000002
2.7656214 1.0561447 0.2
4.4610853 1.0526458 0.2
2.6721325 1.0636773 0.2
4.3518329 1.0745897 0.20000002
4.9339008 1.1185933 0.20000002
2.2140048 1.1286882 0.20443812
3.6833527 1.1271611 0.2
4.9741478 1.1287844 0.2
5.3666439 1.1290407 0.2
5.7662563 1.1340976 0.20221938
2.6595778 1.141286 0.2
2.3465285 1.1540211 0.20081796
5.1458092 1.1564375 0.2
5.243907 1.1565745 0.2
4.088819 1.1635107 0.2
3.2041419 1.1949432 0.2
2.1258528 1.2061222 0.20860389
2.8100865 1.2127765 0.2
2.3669844 1.2325114 0.20044678
5.5976334 1.2529291 0.2
3.005295 1.2606211 0.20000002
5.2804184 1.2785668 0.2
5.7398434 1.2762256 0.2
5.0067558 1.3214288 0.2
3.018934 1.3307352 0.2
2.2859173 1.3589469 0.20207489
2.5596087 1.3592891 0.20000002
4.2740774 1.3666693 0.2
2.280582 1.3996706 0.20223786
2.3696127 1.393399 0.20041732
2.8710723 1.4160388 0.2
2.8748341 1.4280535 0.2
5.5024428 1.4403859 0.2
5.5480747 1.4717592 0.2
2.1138358 1.5040156 0.20926134
5.4565468 1.5144219 0.2
3.9466274 1.5233314 0.2
2.1590829 1.5327655 0.20678838
4.9614363 1.5570223 0.2
2.4776008 1.563207 0.20000002
2.1293981 1.6090617 0.20840994
4.0714188 1.6044214 0.20000002
4.1556487 1.6033726 0.2
5.7108679 1.620406 0.2
3.7419362 1.6442268 0.2
4.1765108 1.6461713 0.20000002
3.0830374 1.6582969 0.2
4.7343187 1.659658 0.20000002
5.611434 1.6681538 0.2
2.5758953 1.6842985 0.20000002
3.6186428 1.6898106 0.20000002
4.8538241 1.7049744 0.20000002
3.0603585 1.74149 0.20000002
4.8820858 1.747373 0.2
5.1747036 1.7538129 0.2
2.8189688 1.7706491 0.2
4.1583414 1.7876451 0.20000002
4.6442542 1.7834418 0.2
5.7427449 1.7818552 0.2
3.5195293 1.7984974 0.20000002
5.0440321 1.796979 0.2
2.8929346 1.8058727 0.2
4.9931402 1.8022864 0.20000002
4.451232 1.8187494 0.2
2.9094164 1.8226455 0.2
3.6194777 1.8269907 0.20000002
3.7835851 1.8404453 0.2
4.8983297 1.846191 0.20000002
4.4070344 1.8796726 0.20000002
2.3337023 1.8812399 0.20106292
3.0891576 1.8808229 0.2
3.52195 1.8871315 0.20000002
5.3088098 1.8914504 0.2
5.3842769 1.9105054 0.20000002
2.6345186 1.9273781 0.2
4.3292341 1.9277885 0.2
3.1502447 1.9334962 0.2
2.4374197 1.9458135 0.20000857
2.9796593 1.9505429 0.20000002
4.7084832 1.9686201 0.20888498
1.6487451 2.1089799 0.20945728
1.8197649 2.1086199 0.20873366
2.0121512 2.123106 0.20248479
1.997786 -0.090107165 0.21767038
5.82374 0.93945801 0.21994796
2.0695469 1.0583123 0.21192205
2.059351 1.2130568 0.21260431
2.0890357 1.2728469 0.21061814
1.7027296 1.9627059 0.21118724
5.8223648 2.0684757 0.21924865
5.4006443 -0.088463582 0.22105336
3.3680077 0 0.22689235
5.8497996 0.17939299 0.22924854
1.9141979 0.70392066 0.22397666
1.8546536 0.82686919 0.22980005
5.850811 0.89827168 0.22937162
5.8481369 0.91707146 0.22859201
1.9128087 0.94951439 0.22410372
1.907016 1.0189567 0.22463349
1.855722 1.3114151 0.22968915
1.9240258 1.5915657 0.22314185
5.7968402 2.0638659 0.22328483
1.826792 0.7031486 0.23261914
1.8244226 1.1976796 0.23293772
1.8429229 1.9492209 0.23101756
5.0682201 1.9592164 0.23290223
3.1308732 1.9686198 0.23557447
3.3417454 1.9686198 0.23893869
5.2286053 1.9686201 0.23176977
5.625803 1.9686201 0.23883459
1.9425154 2.1089799 0.23733976
1.4487087 -0.12717591 0.2416485
5.8781133 -0.040947117 0.24043117
4.9822817 0 0.24571569
5.3053503 0.058616996 0.24442524
5.8901062 0.064141579 0.24575317
5.8897014 0.95725268 0.24556819
1.7168767 1.0244614 0.24548189
1.6967636 1.4101373 0.24815989
1.7358173 1.4719025 0.24313492
1.7004488 1.5251621 0.24768573
1.7182295 1.5951136 0.24539791
5.5693893 1.9686199 0.2431559
1.7450361 2.1089799 0.24069789
2.5747933 -0.13937257 0.25775701
2.8184924 -0.13767225 0.25775701
3.4084277 -0.13425764 0.25775701
3.8764527 -0.12011595 0.25775701
1.5230869 -0.081382997 0.25523853
3.8082073 -0.067358665 0.25775701
4.2079892 -0.061054792 0.25775701
2.7088351 -0.022538945 0.25775701
3.9184027 -0.0091755893 0.25775701
5.0985088 0.058983006 0.25378841
5.9019823 0.6065495 0.25117886
1.6444632 0.81412482 0.25514099
1.619836 0.96037924 0.25871691
1.6353974 1.0423375 0.25651982
1.6289117 1.315449 0.2574355
2.0594974 1.9361184 0.25338238
2.1346486 1.9686201 0.25059637
3.3437486 1.9981771 0.25775701
3.9641414 1.997843 0.25775701
3.2968102 2.0172279 0.25775701
4.1879101 2.0128014 0.25775701
4.3490009 2.0396509 0.25775701
3.7969267 -0.15000001 0.26075834
5.0940456 0.058982998 0.26038635
5.3010283 0.058982998 0.26123905
1.5806744 0.50032049 0.26822466
5.9251385 0.94191694 0.26216295
5.924149 1.0329267 0.26164484
5.9360123 1.2598956 0.26749104
5.0410647 1.9686199 0.26282778
5.736834 1.9686199 0.26478568
5.7556119 1.9686199 0.26640964
4.7537713 2.0668998 0.2634908
1.4855177 2.1086199 0.26898852
5.3262682 2.1089799 0.26417175
5.8482852 2.1786201 0.26469883
5.9098153 -0.19328453 0.27786848
2.0881577 -0.081382997 0.27847913
1.9491997 0 0.27258381
1.5655125 0.61558253 0.27314317
1.5738015 1.4298321 0.27068132
1.3753606 1.9317889 0.2755551
5.1671906 1.9686199 0.27264461
5.3552074 1.9686198 0.27872223
2.0482781 2.1086199 0.27428606
3.1667719 2.1186199 0.27958351
3.7666459 2.1186199 0.27197307
5.8028893 2.1412983 0.27627108
2.8792942 -0.18806262 0.28996584
3.2271636 -0.17752713 0.28894806
2.9335716 -0.16111395 0.28605419
2.4691024 -0.15941401 0.2850748
4.9723272 -0.088966727 0.28857854
4.7532907 0 0.28034887
1.528083 0.4709017 0.28528523
1.5266583 1.5411737 0.2859745
3.4340208 -0.20672891 0.29232693
3.5438926 -0.20999998 0.29576084
3.9565101 -0.18671444 0.29039285
5.4180584 -0.088483296 0.29674336
2.2049532 0 0.29487559
4.9038448 0 0.29594481
5.6457729 0 0.29644072
1.7712283 0.058982998 0.29320627
4.7837896 0.10530714 0.29448658
1.5001971 0.36053333 0.29428041
1.5257684 1.9686198 0.29698613
2.2047226 1.9686201 0.29222912
5.3014903 1.9686199 0.29286835
5.3761921 1.9686201 0.29374367
3.1546879 2.1664319 0.29146522
5.9924264 0.092982158 0.30016407
1.4795423 0.97700584 0.30110392
5.4939489 1.9686199 0.30628407
3.9302583 2.1786201 0.30082649
4.9235206 0 0.31338245
1.3388937 0.031417031 0.31078607
1.446798 0.10112393 0.31134304
6.0186844 0.90136957 0.31747609
1.4507492 1.7790761 0.31030419
1.4226596 1.8820331 0.3192797
1.6306567 1.9640696 0.31191227
1.764237 1.9686201 0.31963432
4.9915476 1.9686198 0.31855044
2.7525058 2.1786201 0.31593555
4.4624243 2.1786201 0.31266421
3.4311528 -0.21000001 0.32127899
3.5042109 -0.20999999 0.32340646
5.3551149 -0.08138299 0.3260197
1.4019026 0.82117969 0.32560867
3.5997148 -0.20999999 0.33506167
4.5423284 -0.1540526 0.33526284
2.1340046 -0.081382997 0.33072633
4.879127 -0.084652297 0.3335405
4.6229668 0 0.33414337
5.4034996 0.058617003 0.33495519
6.037034 0.13747746 0.33150268
0.8120513 0.20037174 0.33238304
1.087718 0.20448917 0.3309814
1.3809469 0.4053978 0.3322019
1.3735015 0.60212016 0.33454448
6.0387421 0.93409097 0.33227587
4.8786783 1.9649301 0.33888045
5.0926256 1.9686201 0.3362858
1.4735036 2.1146312 0.33587167
5.5651565 2.1403894 0.3360672
1.3890296 2.1589799 0.33228222
2.9245751 2.1786201 0.3335036
3.6788216 -0.21000001 0.34155771
1.7558739 -0.081411004 0.34942281
1.3511989 0.089351997 0.34156153
0.69704735 0.20578545 0.34146783
1.3440726 0.29214275 0.3438037
1.3470584 1.5117657 0.34308448
2.0781846 1.9409068 0.34439409
5.7427664 2.0740972 0.34489095
6.0491862 2.1131997 0.34029138
2.1575291 -0.11852358 0.35413069
4.8388352 -0.081382997 0.35110819
2.1888957 -0.027522236 0.35275799
4.5530872 -0.015027542 0.35076472
5.2739983 0.058617 0.35981163
6.0692806 0.7449407 0.3576141
1.3179801 0.8654955 0.35219318
1.3160508 0.95681274 0.35279059
1.3214729 1.5654807 0.35111105
6.0645552 1.6845338 0.35289186
2.2173595 1.9686199 0.35463405
5.2045431 1.9686198 0.35296381
2.0296826 2.1089799 0.35650042
3.0748661 -0.21000001 0.36716315
5.149724 0 0.3636899
5.1742167 0 0.3640222
5.3234892 0.058983002 0.36536485
1.274865 0.30215135 0.36533111
1.2744324 1.5175463 0.36568114
1.4463958 1.9686201 0.36630943
1.5097482 1.9686198 0.36461979
4.5687423 2.0296338 0.3687689
1.5126425 2.1086199 0.36880824
5.9521475 -0.20999998 0.37616417
1.723568 -0.084571443 0.37737757
5.7200098 -0.061266493 0.37801868
1.1632582 0.18141125 0.37759957
6.0888286 0.20128728 0.37503281
6.0915227 0.62725258 0.37769645
1.2428362 0.69174397 0.37525231
4.9021635 1.9686198 0.37819037
4.9451227 1.9686201 0.37357867
5.3266931 1.9685431 0.3780418
1.2934233 2.0490992 0.37084889
4.9280248 2.1089799 0.37135208
4.94661 2.1089802 0.37046564
2.3801427 2.1684964 0.37305966
1.2146678 -0.17561311 0.38389122
1.7030184 -0.091103643 0.38207689
1.2210531 -0.02878282 0.38194412
1.5800242 0.058982998 0.38977119
6.0969486 0.85000312 0.38305944
1.685827 1.9652447 0.38884774
1.9935211 1.9686198 0.38478845
5.7226686 2.1240911 0.38405675
2.5641942 2.1786201 0.38251501
3.6489708 -0.21000001 0.39332375
4.6358385 0 0.39286956
1.1836495 1.5528644 0.39356345
5.1486282 1.9686199 0.39777702
1.8037814 2.1089799 0.390459
5.0672836 2.1089799 0.39458033
1.1698229 2.1775115 0.3977797
2.3239489 -0.16395129 0.40986511
4.6261773 -0.1359437 0.40761188
4.8138123 -0.1307365 0.40275604
5.1363735 -0.091383003 0.40749794
4.6561346 0 0.40426934
5.2824979 0.058983002 0.40171388
5.011035 1.9686199 0.4082526
5.4082689 1.9686198 0.40765247
5.5686922 2.1086199 0.40404242
3.8698556 -0.20999998 0.41102898
1.4481981 0.08587686 0.4187848
6.1273594 0.69434279 0.41519243
6.1298127 0.80784637 0.41796136
1.1005503 1.2273079 0.41871092
1.0964181 1.8422468 0.41995084
1.7083666 1.9655967 0.41246858
6.1290159 2.0472126 0.4162721
5.6915865 2.1176047 0.41555491
2.8127718 -0.20999999 0.42504179
4.9462609 -0.081382997 0.42820901
5.1108255 -0.081382997 0.42484227
1.0932426 0.24965264 0.4206937
1.0852723 0.29583168 0.42308539
1.0672778 1.1562037 0.42869514
1.0781652 1.301386 0.42542809
1.0933604 1.7999518 0.4208684
5.2535434 1.9686201 0.42561054
1.793036 2.1086197 0.42839146
1.8375624 2.1089799 0.42288643
5.880641 -0.20999999 0.43784562
1.6885124 -0.081382997 0.43964106
5.3809476 -0.088143542 0.43417108
5.407444 -0.081382997 0.43697867
5.6743231 -0.03138274 0.4339456
4.8982744 0 0.43387678
1.6840596 0.058617003 0.43166304
4.7652555 0.090232916 0.43377265
0.90425467 0.28551489 0.43921861
1.0586747 0.93026763 0.43106666
1.0348653 1.8117415 0.43836421
2.0389631 1.9686199 0.43278068
4.8186555 1.9686201 0.4326497
5.382247 1.9686199 0.43437755
3.1934435 -0.20999999 0.44358641
1.5482048 -0.087775066 0.44701955
5.0102882 -0.081383005 0.44650367
2.1232708 0.058616996 0.44471061
2.1825521 0.06677027 0.44840673
2.1744859 0.075894102 0.44875699
4.8078594 0.10898301 0.44990838
4.8204403 0.108983 0.44863331
1.0210418 1.0448905 0.44244647
1.3763542 1.9206152 0.44339103
2.0090122 1.9609448 0.44029281
5.2081976 1.9683399 0.44946599
5.6628408 1.9998376 0.44747096
1.7842681 2.1086199 0.44423696
5.9291754 2.1786201 0.44108218
1.2060512 -0.23000002 0.4559173
1.7792103 -0.090580329 0.45200309
0.97092605 0.72640932 0.45703965
0.97072393 0.83968931 0.45709935
0.99014926 1.0212994 0.45136279
0.98139733 1.552135 0.45415407
1.9703341 1.9686198 0.45611471
0.99224794 2.1338024 0.45094973
2.9077632 -0.20999999 0.46608385
5.1914654 -0.090284102 0.46700901
1.6228396 0.058616996 0.46102589
4.9493828 0.058617003 0.46467459
6.1599998 0.90150678 0.46166274
6.1606998 1.913919 0.46229216
0.95275146 2.0894246 0.46261081
0.92546362 -0.23000002 0.47999939
4.8238363 -0.13129663 0.47686723
2.1500599 -0.1160852 0.47879711
5.4300327 -0.08138299 0.47872904
0.91454792 0.13664365 0.47350657
1.0259932 0.21841562 0.47508883
1.0110785 0.23019478 0.47430634
6.1599998 0.59555572 0.47290626
6.1599998 0.87961191 0.47694805
0.90210378 1.4008152 0.47732529
1.605157 1.9589798 0.47871405
5.0652032 1.9686199 0.47360772
5.599246 1.9686199 0.4793953
2.1342168 2.1589799 0.47919142
0.88463759 -0.19142112 0.4821963
5.6514864 -0.16969457 0.48119634
1.7018129 -0.087814108 0.48995882
0.86303687 0.6957767 0.48847187
0.86930877 1.7447433 0.48685309
6.1606998 1.9404068 0.48001823
1.5597726 1.9686198 0.489472
1.955681 1.9686201 0.48304951
5.1650877 2.1089799 0.48312855
2.4109399 2.1786203 0.48863366
4.678442 2.1786201 0.48115438
5.6280813 -0.16485539 0.49694383
1.4777761 -0.081382997 0.49164334
1.488183 -0.08902894 0.49948502
4.7513638 -0.089002319 0.49125558
5.4705477 0.058616996 0.49194616
0.85305196 0.68955129 0.4913449
0.82767749 0.78306019 0.49859616
1.3894407 1.9186201 0.4936983
5.0448565 1.9686199 0.49046072
5.2110639 1.9686198 0.4935919
5.3390827 1.9686199 0.49550322
0.83880812 2.0444813 0.49561542
5.6150746 2.0495508 0.49169874
2.384758 2.1786201 0.49721983
1.8095037 -0.08138299 0.50439757
1.8369983 -0.081591815 0.50839645
2.2400749 -0.0086374925 0.50296497
0.79639876 0.70968497 0.50753462
0.81740046 0.86103749 0.50153297
0.80262113 1.0247617 0.5057565
2.1612356 1.9577777 0.50298524
0.79187667 2.0952654 0.50902694
4.7472963 2.1422002 0.5006901
3.1188354 2.1786201 0.50686878
3.2932072 2.1786201 0.50112498
2.8119812 -0.20999998 0.51584047
3.5430207 -0.20999999 0.51819032
5.582932 0 0.51144105
5.025888 0.058982998 0.51061428
6.1649399 0.11009751 0.51089728
6.1653872 0.55655015 0.51339102
0.78187162 0.9651224 0.51168603
0.76280224 1.13352 0.51732188
6.1690254 1.1664417 0.51339102
0.78742957 1.5436594 0.51029778
0.75809383 1.6085021 0.51864511
4.7932386 1.9247918 0.51936084
1.3575923 1.9620917 0.51142299
1.5840493 1.9686198 0.51581633
1.7720215 1.9686201 0.51169914
1.8995274 2.1086199 0.51884991
2.9330454 2.1786201 0.51799816
1.1896921 2.1986201 0.51547742
5.396102 -0.081382997 0.52569652
2.1645827 0.034659289 0.52202559
1.9110473 0.058617 0.52078199
0.72476923 1.0355349 0.52801019
5.5290165 1.9274127 0.52431285
5.2112226 1.9686201 0.52021807
5.5684614 2.0831578 0.52753723
1.9474008 2.1086202 0.52858984
5.3653064 2.1089799 0.52915299
3.340054 2.1786201 0.52906978
2.9491701 -0.21000001 0.53409141
0.70352393 0.0084755421 0.53378403
1.8583782 0 0.53235638
5.2900038 0.058983006 0.53195602
6.1599998 0.69931918 0.53300369
0.69777954 1.1436387 0.53559506
0.69245493 1.9691583 0.53709143
5.0630598 2.1089799 0.53509331
4.765543 -0.025331765 0.54601127
4.8354812 -0.010694862 0.54745889
5.1727943 0.058617003 0.54513806
4.8673539 0.10095328 0.54262567
6.1874533 0.14330241 0.54037565
0.66498661 1.872645 0.54498351
2.0361996 1.9686201 0.54376829
5.6074347 2.1674824 0.54948789
2.0969992 -0.081382997 0.55586857
1.6122812 0.058983002 0.55965453
5.3156147 0.058983002 0.55078155
6.1606998 1.2745593 0.55412006
0.62383342 1.4300276 0.55825704
1.5909351 1.9686201 0.55560744
5.0330272 1.9686201 0.55486268
2.1824238 2.0907202 0.55518156
3.0588613 2.1786201 0.55113745
4.2074099 -0.20999999 0.56597835
5.8774996 -0.20999999 0.56900704
5.1353731 -0.081382997 0.5699864
6.1722937 -0.026316183 0.56436133
4.9058361 0 0.56663454
5.5520768 0.012486551 0.56167698
1.5817999 0.058617003 0.56668049
4.923027 0.058616996 0.56113994
5.5018044 0.10898301 0.56893861
0.60903758 0.70283628 0.56392503
6.1606998 1.0165478 0.56861842
1.667188 1.9686199 0.56288832
5.1134162 0 0.57514542
1.9625733 0.058616996 0.57540464
5.0308499 0.058617 0.57640308
5.5221663 0.088683262 0.57141143
0.57948816 0.17262286 0.57698125
0.58564413 1.4133427 0.57420921
1.6464275 1.9686201 0.57338524
5.4236488 2.1086199 0.57630903
3.9404521 2.1786201 0.57971656
2.0872064 -0.131383 0.58304322
5.5239553 -0.092701495 0.58983982
5.2296109 -0.08407601 0.58657539
6.1749201 0.1026681 0.58845162
6.1599998 0.2495352 0.58816993
6.1606998 0.61181843 0.58643585
0.5584622 1.2421738 0.58801883
6.1606998 1.4469246 0.58006555
1.3864868 1.9907582 0.58625072
5.1190248 2.1086202 0.58335495
5.2684498 2.1089799 0.58511227
5.5384293 2.1589513 0.58496553
3.8267784 2.1786201 0.58425087
3.979852 2.1786201 0.58170211
2.1187208 -0.0538949 0.59786516
0.54922462 1.2303457 0.59335285
0.54663861 1.7221031 0.59498191
2.0943618 1.9247817 0.5925436
4.9812608 1.9686199 0.59912217
4.2671719 2.1786201 0.59663552
6.1356936 2.1786201 0.59101194
1.0300512 2.1986201 0.59003419
2.766027 -0.20999998 0.60576087
2.1051784 -0.10504667 0.60491192
2.1137655 -0.07402461 0.60052574
5.4378157 -0.07470724 0.6011281
1.6588361 0 0.60302073
0.52228487 0.72165275 0.60988259
6.2001696 1.918414 0.60689288
1.4009095 1.9686199 0.60058177
0.53643322 2.1773033 0.60141081
2.3266721 2.1786201 0.6039055
3.551975 -0.21000001 0.61818957
1.4001288 -0.032590948 0.61246055
1.9761879 0 0.61808431
0.51816911 0.41968298 0.61270577
5.0648236 1.9686199 0.61122328
5.2218165 2.1086199 0.61829567
4.0975308 2.1786201 0.61570382
4.3193583 2.1786201 0.61424541
3.2958407 -0.21000001 0.62794995
1.4909236 -0.081382997 0.62920678
1.6660843 0 0.62633556
6.1955152 0.058440935 0.62244582
6.1887202 0.075701132 0.62421465
6.1707001 0.78495139 0.62746096
6.1606998 0.91732013 0.62040675
6.1599998 1.0386536 0.62751389
1.6974397 1.9686198 0.62049758
6.1972146 2.0210631 0.62382841
0.81202978 2.1986201 0.62744582
5.8941498 -0.20999998 0.63928753
4.9506636 -0.16617744 0.63056213
5.0911574 -0.081383005 0.63161784
2.0896778 0.081172459 0.63195705
0.49120107 0.66576183 0.6336081
0.49162734 0.77634209 0.63327771
0.49102384 0.91717815 0.63428807
6.1878099 1.8069353 0.63589537
6.1924095 1.8976398 0.63114983
1.9280856 1.9554763 0.63698357
1.7096771 1.9677128 0.63072157
3.9671299 2.1786201 0.63518739
2.9563935 -0.20999999 0.64533281
3.0131972 -0.21000001 0.64945835
2.0865984 -0.092570931 0.64757681
5.0028048 -0.097054213 0.64543831
4.989893 0.085997172 0.64786857
4.93924 2.1589799 0.64715624
6.1649399 0.33288795 0.65417802
1.5195549 1.9686198 0.65035272
4.8334694 2.0710366 0.65701234
3.7631292 2.1786199 0.65619659
3.9958823 2.1786201 0.65270704
5.0238585 -0.081382997 0.66002184
1.7523806 0.058616996 0.66386777
6.1599998 0.72481251 0.66231871
6.1707001 0.97822464 0.66197371
0.45741183 1.9276769 0.66722894
4.9762669 2.1568279 0.6695264
2.0739262 2.1739058 0.66507137
3.6046429 2.1786199 0.66499096
4.1927328 2.1786201 0.66029894
0.76091719 2.1986201 0.6679672
2.5073111 -0.20999999 0.67590147
2.8855023 -0.20999999 0.6755814
3.0858395 -0.21000001 0.67859149
5.2501807 -0.17955476 0.67827892
5.1397943 -0.10017304 0.67184454
6.1505671 -0.016724585 0.67446125
5.4243035 0.058617 0.67705524
6.1599998 0.82710201 0.67630094
0.45295358 0.88416249 0.67170048
0.44788069 1.7771041 0.67856801
4.2792158 2.1786201 0.6790148
1.3385295 -0.21589315 0.68982798
0.78136694 -0.18428493 0.68982798
0.889871 -0.17395104 0.68982804
0.81663269 -0.16815263 0.68982804
1.4627187 -0.053935286 0.68894154
1.845126 -0.034957055 0.68435687
1.4749434 -0.029325124 0.68982798
6.1887202 -0.0080399243 0.68519115
6.1599998 0.97158492 0.68143898
6.1707001 1.2652506 0.68757051
1.4966016 2.0283263 0.68982798
1.8264679 2.1267321 0.68961334
0.89054561 2.1640198 0.68982804
2.0815237 -0.20999999 0.69476229
1.4356421 -0.17373882 0.69371963
1.6873448 -0.15946178 0.69137907
1.7974691 -0.10673457 0.69744968
5.4499388 -0.081608862 0.69519776
5.2769165 0.058617003 0.69423652
6.1649399 0.07642974 0.69718087
6.1606998 1.5034038 0.69118011
2.0530939 1.9673705 0.69125259
4.9194846 2.1419373 0.69830513
2.5917864 2.1786201 0.69353384
2.8938789 2.1786201 0.69522268
5.5982952 2.1786201 0.69131541
3.0684788 -0.21000001 0.70173424
5.2975597 -0.1308645 0.70049858
5.4427619 -0.014333487 0.70468426
1.5027692 1.9516141 0.7079851
4.2974014 2.1786201 0.70773017
4.4198265 2.1786203 0.70647699
6.1122212 2.1786201 0.70378786
2.6448441 -0.20999999 0.71698505
0.47886902 -0.15226592 0.71618599
0.42261863 0.72039866 0.71272737
0.42153662 1.2716848 0.7154299
0.40842229 1.6949439 0.71498668
2.4532886 2.1786201 0.71315795
1.6166079 -0.20063326 0.72188318
4.0870728 -0.20999999 0.72921991
0.52573615 -0.17213792 0.72155124
0.54914159 -0.17287453 0.72161281
0.57332033 -0.15943614 0.72049022
5.1097493 -0.081382997 0.72886205
4.9040852 -0.0010426715 0.72571629
6.1707001 0.59732741 0.72919816
6.1606998 1.9327866 0.72922122
0.98750633 2.1460929 0.7219969
2.7205052 2.1786201 0.72548723
3.1080267 2.1786201 0.72189319
3.1213827 -0.20999998 0.73893589
5.3241234 -0.081382997 0.73260808
6.1607294 0.6507234 0.73339099
0.40825486 1.1096967 0.73939681
6.19241 1.8811774 0.73381627
2.0037177 2.0812016 0.7388832
4.2564378 -0.20999998 0.74548197
5.2290859 -0.131383 0.74380958
1.5385578 -0.010921648 0.74768269
0.40484476 0.21886119 0.74627447
1.5577531 1.9480348 0.74076915
4.9627137 1.9501157 0.74567169
4.9418201 2.0434082 0.7497617
1.5320787 2.0645816 0.74355429
0.4109056 -0.1605024 0.75927877
5.0660648 -0.131383 0.75744951
4.9926572 -0.10400156 0.75685143
1.5549258 -0.088624015 0.75044298
6.1544595 0.038836844 0.75352192
4.9509354 0.058617003 0.75508004
6.1599245 0.18640004 0.75352192
0.40152213 0.45698541 0.7538715
6.1606994 1.7087854 0.75516552
4.9458532 2.0159192 0.7523315
3.4049516 2.1786201 0.75728655
0.53007692 -0.20999999 0.76071024
1.7659292 -0.21000001 0.76527166
5.1731567 -0.21000001 0.76157916
6.1599998 0.54057747 0.76003188
0.39764714 1.65407 0.76715493
0.39178318 2.033112 0.76329982
5.1039481 2.1589799 0.76000524
4.7121711 2.1786201 0.76546913
5.2194114 2.1786199 0.7699697
6.1165462 -0.20999998 0.77248174
0.39619321 0.83795106 0.77137637
0.39527035 1.2568254 0.7740559
1.7963755 1.9303114 0.77756941
1.8348732 2.1086199 0.77248996
1.8260802 2.1466284 0.77356458
2.4220142 2.1786201 0.77720201
2.5996003 2.1786201 0.77532423
5.0887403 2.1786203 0.77792454
6.1035156 2.1786201 0.77683681
1.4236964 -0.20999998 0.7870388
1.9263945 -0.21000001 0.78586137
0.39102972 -0.12978855 0.78514862
6.1606998 0.13195688 0.78574175
0.52741903 2.1786201 0.78770399
4.2632513 2.1786201 0.78634048
0.55680799 -0.20999999 0.79718477
4.8475437 -0.20999998 0.79322433
2.8445354 0.29474068 0.7940827
2.8991578 0.29972765 0.79463243
3.6566777 0.2947613 0.79367912
2.9384623 0.3091819 0.79502815
2.9089553 0.36581206 0.79473114
3.546859 0.36847383 0.79239511
0.38868743 0.391637 0.79680681
3.0885959 0.4977456 0.79653919
2.9118211 0.50963444 0.79475993
2.9517951 0.50888252 0.79516232
3.5640697 0.5149436 0.79256833
3.8579407 0.51453608 0.79552609
3.814539 0.54012042 0.79508924
3.9310184 0.54587811 0.79626155
2.9773681 0.564475 0.79541969
3.7348292 0.57340854 0.79428697
2.9015632 0.61143613 0.79465669
2.6390498 0.6264134 0.7920146
2.8920372 0.79758382 0.79564595
2.937746 0.79974186 0.79589581
3.0040026 0.92235804 0.79548204
2.7919259 0.9383831 0.79334748
3.0942233 0.98863602 0.79639006
2.6503873 1.0229921 0.79209119
2.7548151 1.0273402 0.79297388
2.8881435 1.0755231 0.79431587
3.1104774 1.1194463 0.79655361
3.1246054 1.1468505 0.79918784
2.9312027 1.3975018 0.79455245
3.0239141 1.4294355 0.79548562
2.7050521 1.4575647 0.79227626
2.739409 1.4690089 0.79262209
3.0162797 1.4634893 0.79540867
3.5706544 1.4660054 0.79263461
2.8925934 1.4868199 0.79416382
3.8009148 1.5353481 0.79495209
3.0436611 1.5560818 0.79568434
2.9729652 1.5763062 0.79497278
3.8645039 1.5969927 0.79559219
2.7291346 1.6550252 0.79251868
2.6978312 1.6630956 0.79220355
3.9741986 1.6855977 0.79920828
3.6202931 1.6922009 0.79313415
3.4995356 1.7173705 0.79760814
2.8281178 1.7220501 0.79351491
3.6665456 1.7797294 0.79464066
3.7405057 1.7710429 0.79510438
1.6468335 2.0935502 0.79521298
1.6938447 2.1148767 0.79930294
0.55787128 -0.20999999 0.80261111
2.8102221 -0.20999999 0.80277073
4.5899606 -0.20999999 0.80507761
6.0103359 -0.20999999 0.80124146
5.2371826 0.054916814 0.8042962
5.2086349 0.064793222 0.80306989
2.6774039 0.22884479 0.80833864
3.9924462 0.31059712 0.80983686
6.1599998 0.37255111 0.80779445
3.9791603 0.59935552 0.80209827
2.9790747 1.2127542 0.80288506
2.9046607 1.3457315 0.80590403
3.0506663 1.3516895 0.80326396
3.9689703 1.3976429 0.80185932
2.6693373 1.6394849 0.80032551
3.4990833 1.7113478 0.80433714
1.8422903 2.0225985 0.80316448
3.1109657 2.1786201 0.80409694
0.81743205 -0.20999999 0.81055158
2.2647481 -0.21000001 0.81694227
3.9592946 -0.20999999 0.8181721
3.1259151 0.25295991 0.81722331
3.1317697 0.28865302 0.81572229
2.6296365 0.50534338 0.81891608
3.9945486 0.5171321 0.81113291
0.38531172 0.83813691 0.81919223
6.1599998 0.99001682 0.81492633
3.1547868 1.1294855 0.81735361
2.8921759 1.3374605 0.81431544
3.1088493 1.3441329 0.81065112
2.9707923 1.7898111 0.81766045
0.38174281 1.9623504 0.81910038
0.38537359 2.0410421 0.81819063
2.1804931 2.1786201 0.81775844
3.2812722 2.1786201 0.81361997
4.0594826 2.1786201 0.8197242
4.4674549 2.1786201 0.81809443
3.3463407 -0.20999999 0.82656872
0.38442799 0.11194576 0.82216829
2.7836463 0.2158498 0.82243145
2.8114758 1.7592231 0.8236053
2.6931319 1.7842735 0.82036972
3.6272564 1.8081114 0.82752788
2.6993952 0.21580908 0.83610058
3.1345296 0.25111261 0.83017325
2.6497171 0.6698221 0.83491081
2.6604664 0.67126876 0.83940965
3.1729388 0.8392812 0.83884609
0.38156959 1.0503941 0.83460611
2.5480611 -0.20999999 0.84304142
2.7185588 0.2120502 0.84861255
2.6300998 0.22929293 0.84118003
6.1707001 0.36438572 0.8494038
6.1068215 -0.20999999 0.8525998
2.6858411 0.67549443 0.85313308
2.728775 1.7826631 0.85268033
2.7445123 1.7826835 0.8589344
3.9602163 2.1786201 0.85653675
0.49103689 -0.20999999 0.86748844
2.6733277 -0.20999999 0.86589181
2.6161273 0.32158205 0.86756206
4.038528 0.51383358 0.86885703
3.0631893 0.67941982 0.86146373
6.1599998 0.79098934 0.86126679
0.39011747 1.3134724 0.86650711
3.4842906 1.488883 0.86761785
3.4874966 1.6284895 0.86164534
6.1606998 2.0495152 0.86661732
0.91325128 -0.21000001 0.87922096
0.37274683 0.010885295 0.87509954
0.38876402 0.11847457 0.87780362
2.6580727 0.29638511 0.87770599
3.5232043 0.57130128 0.87910211
6.1606998 0.6840772 0.87815839
3.1933789 0.85874134 0.87709075
3.1903675 1.1191745 0.87145638
6.1707001 1.2360032 0.8769204
4.0217829 1.4001219 0.87802708
3.4710541 1.4883864 0.87653178
3.4708791 1.7300266 0.87870669
1.3595231 2.1786201 0.87330079
6.061182 2.1786201 0.87173361
4.0402441 -0.20999999 0.88550007
4.8945899 -0.20999999 0.88787967
3.9657974 0.24260813 0.88191003
2.743396 0.28091794 0.88878429
2.74824 0.33521622 0.8894133
2.7273698 0.36394498 0.88670349
3.4657481 0.36198109 0.88285673
3.6012077 0.43795949 0.88720179
3.5034931 0.44223356 0.88023794
3.4597924 0.46925074 0.88347811
3.9338305 0.7201646 0.88177633
2.770494 1.1694634 0.88964814
3.5913348 1.4808701 0.88591993
2.7720551 1.6143824 0.88731182
2.7825327 1.6231493 0.88867223
3.5197363 1.718135 0.88653386
3.6185482 1.7223742 0.88945323
3.5100269 1.7630707 0.88209289
3.9111691 1.8213749 0.88576108
0.37690699 1.9169511 0.88007224
1.6848279 2.1786199 0.88457668
3.6453028 -0.20999999 0.89654994
4.4000125 -0.21000001 0.89444333
0.42497784 -0.00057983829 0.89644587
3.0738883 0.20265506 0.8999058
6.1606998 0.22816566 0.89950341
2.7717624 0.29506034 0.89246738
3.1739273 0.29801577 0.89033073
3.5466194 0.30539608 0.89514065
2.8045654 0.32814074 0.89672655
3.6593485 0.47904474 0.89475071
2.7650366 0.50030965 0.89159417
2.6784768 0.87514812 0.89007998
3.1941729 0.90370667 0.89415729
0.39876139 1.0043013 0.89876562
2.6266851 1.2128289 0.8926897
3.61185 1.3417634 0.89496076
2.7961903 1.5479242 0.89044547
2.8155608 1.5992314 0.89296055
3.6756926 1.6112649 0.89687288
2.816879 1.6439641 0.89313173
1.0425639 2.1786201 0.89798641
2.3615499 2.1786201 0.89073861
5.1074162 -0.20999998 0.90623444
3.6262836 0.24690321 0.90126073
2.5785365 0.30655071 0.90800047
3.7493455 0.35151568 0.90703064
2.888639 0.45784932 0.90883207
2.970036 0.68717247 0.90904403
0.39115077 0.71334958 0.90899909
2.8700604 0.95914525 0.90257525
0.41130307 1.1060952 0.90502781
2.692245 1.1771309 0.90460587
3.7568069 1.337119 0.90468121
2.9332151 1.4095445 0.90971911
2.9161997 1.4397416 0.90642095
4.0430675 1.6229795 0.90354544
3.7604771 1.6321387 0.90918839
2.8761008 1.7208478 0.90082109
3.7457199 1.7228467 0.90632796
1.8745356 2.1786201 0.90347356
2.5023875 2.1786199 0.90456361
2.5294054 2.1786201 0.90961945
2.4577584 -0.20999999 0.91449189
4.8990164 -0.20999998 0.91138238
0.38876402 -0.0087226853 0.91732341
6.1599998 0.0075120442 0.91044879
0.36812699 0.038266737 0.91928828
2.6828887 0.27277756 0.91068721
2.9182003 0.31741175 0.91456187
4.0300622 0.34647638 0.91734445
3.8063142 0.50762844 0.91807288
3.7074416 0.67903399 0.91125727
0.41737974 0.70423919 0.91685271
2.9261634 0.75673532 0.91628122
2.9867694 0.75689566 0.9101007
2.9296637 0.98201996 0.91282105
0.41606492 1.0175247 0.91293341
3.6848478 1.3415785 0.91571534
2.9762464 1.4469591 0.91805971
3.537544 1.5177939 0.91797554
4.0276141 1.5492721 0.91994166
2.9550529 1.5741177 0.91395187
3.2853193 -0.21000001 0.92114031
3.7887738 -0.20999999 0.9215349
5.8380108 -0.20999999 0.92935771
3.7154889 0.23994863 0.92758375
2.9683774 0.38405055 0.9265188
2.9713516 0.39731234 0.92737609
2.8450279 0.64684606 0.92670286
2.8944221 0.68735051 0.92210126
2.8604834 0.79687309 0.92395651
2.8673396 1.2004799 0.9216736
0.39530528 1.3041614 0.9245038
2.8936474 1.3188894 0.92908466
3.0069289 1.4722855 0.92610133
3.1903071 1.5658648 0.9276942
3.0857825 1.8044765 0.92950302
3.8238151 1.8250177 0.92790288
0.384051 1.9214354 0.92776227
4.984127 -0.20999998 0.9376936
0.39728054 0.67415679 0.93187535
0.40899587 0.78751266 0.9369604
3.0181689 0.93340093 0.93497765
3.0090752 1.0518508 0.93235672
2.959981 1.3180037 0.93548173
3.0259275 1.4845713 0.9315778
3.1797016 1.722362 0.9388932
2.6111627 1.7495184 0.93028575
3.5450785 1.7613852 0.937015
2.8731112 1.781283 0.93147302
0.4597356 2.0002553 0.93813235
1.7587265 2.1786201 0.93103063
0.70267689 -0.20999999 0.94384027
3.7121477 -0.20999998 0.94885218
6.18748 0.097456165 0.94835985
6.18748 0.10187547 0.94417977
3.0976675 0.2877835 0.94798326
4.0086031 0.32357529 0.94004327
3.9253697 0.34845805 0.9480834
3.0339525 0.4111945 0.94411349
3.9007068 0.5891183 0.94351184
3.9928167 0.59576237 0.94324595
4.0028448 0.6046983 0.94168276
2.7211134 0.76397598 0.94540393
2.6844542 0.84013838 0.94671589
3.1114078 1.0572352 0.94934958
3.1106477 1.1153446 0.94950438
2.9387238 1.3598249 0.94540513
3.9744716 1.4810257 0.94659704
3.1751306 1.556029 0.94132638
3.1338472 1.6028092 0.94876152
3.088289 1.6514179 0.94677091
3.4327531 1.6809963 0.9470799
2.6186607 1.7850361 0.94343787
3.7325897 1.7904248 0.94703549
6.0194025 2.1786201 0.94440818
6.1964889 0.028171701 0.95440608
3.4609504 0.24644324 0.95979369
3.5840144 0.28253525 0.95486897
3.0868759 0.57356596 0.95018184
3.1240761 0.6557591 0.95231009
6.1600003 0.74591076 0.95365185
0.43821263 1.0390179 0.95739198
3.0286539 1.1878177 0.95344377
2.7392354 1.2176664 0.9568727
2.6725738 1.221537 0.95264339
3.5781038 1.33874 0.95870167
3.5315027 1.509344 0.95427883
3.1265402 1.5755941 0.95025027
3.9452026 1.6443493 0.9517597
0.38246301 1.9985082 0.95749676
6.1599588 -0.14834443 0.96506351
0.44321269 0.052795976 0.96712172
3.5424056 0.66713983 0.96184021
3.0433841 0.75734258 0.96364045
2.6779995 0.9032644 0.96319556
6.1606536 1.6400006 0.96514452
3.5270085 1.720345 0.96443623
6.1568317 1.7663894 0.96518242
3.150857 1.7842971 0.96474981
5.5154581 2.1786201 0.96782196
5.7736444 2.1786201 0.96574414
3.5911047 2.1897655 0.96557111
0.38563716 0.0032075585 0.97503221
3.7840095 0.24849074 0.97136301
3.5235982 0.38918453 0.97214448
2.6542096 0.48925337 0.97075486
3.5210238 0.54644251 0.97796285
3.5889659 0.70431066 0.97491515
0.4478918 0.76793432 0.97622693
2.6510024 1.2605739 0.97641164
3.033093 1.7606481 0.97435749
6.0141535 1.868844 0.97221696
1.8995181 2.1786201 0.97194135
3.6194568 2.2040224 0.97581422
3.1313202 -0.20999999 0.98308629
3.9409418 -0.20999998 0.98153919
4.1250319 -0.20999998 0.98922932
5.7224636 -0.20999999 0.98992807
3.4375255 0.72458637 0.98528332
3.5918865 0.74474227 0.98183751
2.9640646 0.76802862 0.98303658
2.9737411 1.2337561 0.98413515
2.9871387 1.2374527 0.98322695
2.7057421 1.2652223 0.98334432
3.9285531 1.3499191 0.98548567
3.8899083 1.3781798 0.98532295
6.18748 1.7786292 0.98820162
6.1684618 1.9716015 0.98272884
6.1582947 1.9914126 0.98456937
2.2064221 2.1786201 0.98026061
3.8463292 -0.28 0.99282002
2.6089559 -0.20999999 0.99002469
4.0124574 -0.20999998 0.99638987
5.0946908 -0.20999999 0.99806505
5.9712501 0.098288834 0.99940252
2.7370727 0.21538064 0.99259955
0.45805383 0.29106355 0.99600148
6.1535873 0.55847591 0.9981091
0.42397475 0.69135451 0.99286127
3.8547704 0.69953835 0.99558645
2.6372313 0.7495138 0.99754399
0.41393119 1.0673802 0.99401593
0.45686918 1.4770569 0.99233496
2.6590137 1.8272657 0.99241632
0.45678565 1.9398204 0.99217236
3.7305818 -0.22092202 1.0062222
0.71906441 -0.20999999 1.0086261
4.5503068 -0.20999999 1.0096205
3.4996929 0.22886881 1.0037297
2.6910396 0.71624643 1.0066116
2.6594939 0.8568396 1.0050389
2.5643349 0.90532136 1.0004948
3.4103422 1.6248032 1.0041525
3.6077266 0.23842028 1.0108519
0.42943013 0.50637496 1.0132207
3.4111173 0.60325038 1.0101731
2.6619635 0.74716502 1.0135115
3.8365409 -0.2176106 1.02388
2.7188034 0.18599631 1.029292
3.5414038 0.22532782 1.0254438
3.50543 0.75253177 1.0284075
6.1426086 1.0834656 1.0204103
6.1360793 1.0979588 1.0291373
2.665885 1.1946737 1.0268831
0.42411703 1.3418939 1.0210651
3.4069912 1.381094 1.0290515
3.4974704 1.6554505 1.0280254
2.7631462 1.8397064 1.0241482
6.2414718 1.8779048 1.0213201
3.5147433 -0.029077001 1.0375319
6.1266012 0.21384424 1.0387956
3.411299 0.25774333 1.0389885
2.5969145 0.71046287 1.0361023
2.6998091 0.74373353 1.0359268
0.47845376 0.98371017 1.0343366
0.48077542 1.0234225 1.0388545
3.40115 1.4641856 1.0387082
2.6831334 1.7580781 1.0363309
6.0450988 1.9677711 1.0347819
3.4312644 -0.20999999 1.0479267
3.39537 0.48651788 1.0427257
2.5264885 0.52858943 1.0474193
1.91842 0.89887357 1.0425009
3.5453331 1.371928 1.0478258
3.94415 1.4147344 1.0489109
0.48446012 1.6124133 1.0460246
6.1242313 1.9929924 1.0403742
1.3139147 2.1786201 1.0467778
2.9111745 2.1786201 1.0462202
5.0532966 2.1786201 1.0491085
5.8194876 2.1786199 1.0498942
0.9930374 -0.20999999 1.0552307
1.5225186 -0.21000001 1.0592427
3.1702974 -0.20999998 1.057656
4.4054265 -0.20999999 1.0565562
3.4864933 0.22535619 1.0543985
2.5620346 1.4963825 1.0584295
2.6561575 1.5567975 1.0502648
3.94415 1.6864625 1.0588067
2.6537309 1.7307372 1.0550323
2.0818462 1.9832001 1.0571178
0.78777611 2.1786201 1.0503718
3.2608318 2.1786201 1.0520587
6.0867906 0.30043331 1.0669894
6.0903983 0.41590041 1.0651399
2.5168767 0.43514293 1.0667471
2.6827686 0.67929769 1.0634742
3.94415 1.5233171 1.0652257
6.2441788 1.8954562 1.0638303
5.2217426 2.1786199 1.0645529
1.547158 -0.20999999 1.0748831
5.127943 -0.21000001 1.0710717
5.6829925 -0.21000001 1.0745045
5.9987049 -0.18716615 1.0781003
2.3715422 -0.029077001 1.077957
2.6238546 0.18563107 1.0774477
2.6895268 0.21466717 1.0706711
1.9177198 0.67101645 1.0716122
2.6249616 0.91422284 1.0731425
0.50079209 1.0311233 1.077805
3.481657 1.323633 1.0782313
5.8168263 2.1786203 1.079547
2.065824 -0.20999999 1.0866188
4.5048685 -0.20999999 1.089676
6.049602 -0.11211938 1.0810806
2.5166914 0.24175486 1.0872495
3.4315619 0.74524927 1.0869454
2.5389142 1.2040772 1.0817107
3.94415 1.6952554 1.0845206
6.0390415 1.982481 1.0841053
1.8139846 2.1786201 1.0868257
4.6814561 2.1786201 1.0855544
0.50835168 0.044801518 1.0938776
5.9902167 0.18846051 1.0970325
3.4141831 0.23872425 1.0951213
3.5738297 0.23021153 1.0980284
3.4172854 0.73921549 1.0937783
3.4284649 0.74273032 1.0964125
2.5489044 1.5061607 1.0941607
6.0023813 1.8646729 1.0939529
1.7904489 -0.20999999 1.1051673
5.9330215 0.089803107 1.1060433
0.52900195 0.30119768 1.1097307
0.52388608 0.42372951 1.1061306
2.5858333 0.52068871 1.1076715
3.3740201 0.52483755 1.1060078
5.9667792 0.65537483 1.1028594
5.950726 0.82276583 1.1069423
2.5225706 1.0126396 1.108453
5.9738679 1.9204762 1.1013024
2.6489537 1.9832 1.1040452
2.8103666 1.9832001 1.104193
3.3873456 1.9832 1.1021479
2.7200468 2.1786201 1.1027092
5.8414445 2.1786201 1.1059595
2.5416236 -0.029077001 1.119053
3.9434497 -0.017678536 1.118903
3.94345 0.17768949 1.1101811
5.9272795 0.3548083 1.112486
5.9004712 0.45199835 1.1190195
3.4500484 0.52540529 1.1182189
2.5054286 0.59820509 1.1138182
3.4503336 0.62523359 1.1176986
2.6645627 0.73054188 1.1148939
2.7075987 0.73973864 1.1128106
5.9136858 1.0198083 1.115799
0.53951001 1.1213396 1.1160618
2.5439994 1.4143242 1.1184263
3.3698328 1.5711696 1.1149518
2.6203101 1.592767 1.1177419
5.9129782 1.6075702 1.116142
3.4583077 1.7694675 1.117209
6.195919 1.9951352 1.1125753
0.55287969 2.1236036 1.1192721
2.6609097 2.1786201 1.1198223
2.6855729 2.1786201 1.1186447
3.0602367 2.1786201 1.1166263
4.5449777 -0.20999998 1.1274279
5.2044115 -0.21000001 1.1211915
5.7594795 -0.20850432 1.1282978
6.1490259 -0.019376444 1.1264467
5.94842 0.13019863 1.1214216
2.496572 0.51430184 1.129778
2.5005572 0.54810774 1.122221
3.4502978 0.66823554 1.1294636
2.5172911 1.0146354 1.1233848
3.5416787 1.3161727 1.1237848
0.5537408 1.3472165 1.1241586
3.7996819 1.5106697 1.1220839
5.8678021 1.6523181 1.1271521
2.8891342 2.1786201 1.1256168
3.2404568 2.1786201 1.1287596
1.3359531 -0.20999999 1.1322904
2.6604524 -0.20999999 1.1322931
4.5518022 -0.20999998 1.1318728
5.825808 0.0053320425 1.137216
5.8179059 0.64433283 1.139142
5.8456416 1.0845604 1.1325529
1.9184201 1.2709155 1.1308415
2.5888424 -0.20999999 1.1449296
4.1038146 -0.20999999 1.1426722
2.5645695 0.33798262 1.1464396
0.59125614 0.51361907 1.1411475
2.4932783 0.52578491 1.1402431
5.8012309 0.86298817 1.1431571
5.8056717 1.1590507 1.1421844
2.612679 1.2011702 1.1417015
2.6892221 1.3336043 1.1407135
3.3626866 0.30339924 1.154152
2.4855688 0.3875578 1.1597004
2.5596058 0.52779329 1.1586301
3.3593082 0.57646215 1.1527767
3.5005412 0.75501466 1.1518732
5.7601795 0.79339844 1.1519963
0.65137744 1.0330398 1.1567748
5.7445765 1.0949024 1.1554142
2.5820899 1.1340134 1.1528634
2.5102885 1.167351 1.158851
0.65834856 1.1919291 1.1578875
5.7381058 1.5161667 1.156985
3.3589969 1.6620772 1.1521127
0.6397633 1.7353545 1.1544474
6.0190458 1.800138 1.1531523
5.7484283 1.8472755 1.1547239
5.7662582 1.9944577 1.1508181
0.66630721 2.113467 1.1592999
2.7807608 -0.029077001 1.1606371
0.701078 0.070554435 1.1655937
0.69821227 0.50794917 1.1650853
3.35795 0.64925367 1.1643144
2.5090709 0.8664701 1.1600493
3.3536897 1.6232828 1.1628501
3.3568749 1.7348931 1.1658427
2.5907815 1.810744 1.1652839
6.2289414 1.8520906 1.1680478
0.72372401 1.9606277 1.169488
2.4561691 1.9832 1.167969
0.6888957 2.0719972 1.1633079
5.6398225 2.1629074 1.1604626
2.7104907 2.1786201 1.1606431
3.4218142 2.1786203 1.1654675
3.0267708 -0.21000001 1.1719989
3.4890487 -0.21000001 1.1799892
0.90286767 -0.18867458 1.1762307
5.6649389 -0.084198423 1.1728592
5.6595001 0.055676915 1.1740506
5.6351175 0.14858648 1.1793917
2.5535483 0.29767549 1.1758016
2.5542464 0.34724987 1.1738229
0.77488405 0.37729576 1.1786901
5.676898 0.49885747 1.1702396
3.4223161 0.59882587 1.1792942
5.674746 0.74966288 1.1707109
0.76843679 0.92363375 1.1775461
0.74299616 1.1006815 1.1729076
2.5746305 1.1098123 1.1740086
1.9184201 1.1544435 1.1729344
0.74526656 1.6787703 1.1733104
5.2438908 2.1786201 1.1799238
2.8286641 -0.21000001 1.1869366
5.4175177 -0.21000001 1.1805432
3.5893056 -0.089630418 1.1887209
2.0295005 -0.079039097 1.181064
3.0099282 -0.029077001 1.1877538
5.6152205 -0.0017986447 1.1833557
0.78491598 0.18007368 1.1804702
2.6337962 0.2065807 1.1851444
2.5749767 0.25671172 1.1801269
2.5494528 0.41975498 1.1874111
2.5908506 0.70307279 1.1841297
5.6103601 0.85317612 1.1844399
0.823048 0.93896484 1.1871121
0.8070966 0.97411525 1.1842817
0.78365827 1.0532413 1.1801227
5.5853767 1.1781886 1.1893111
2.5899417 1.5033978 1.1860249
1.6503679 2.1628866 1.1892362
2.0725713 2.1786201 1.189924
3.3729553 2.1786203 1.1820637
5.5342598 -0.1177972 1.1991415
0.84472889 0.098458424 1.1910834
0.86986107 0.11773971 1.1955429
3.4494333 0.28601858 1.1944826
1.9177198 0.45332628 1.1958703
2.5469806 0.59475237 1.194419
1.91842 1.0142319 1.1942452
0.89482999 1.1013725 1.1999736
0.85229564 1.2359557 1.192302
0.85385156 1.4002712 1.1925781
0.8400979 1.4912776 1.1901375
0.88296509 1.6253699 1.1977439
5.5679388 1.7165282 1.1927111
0.84542507 1.7430613 1.1910828
3.4539156 1.7949476 1.1970456
3.170969 1.9832001 1.1987721
3.983218 2.1606355 1.1980298
1.352777 2.1786201 1.1918932
2.9943178 -0.20999999 1.2056546
2.6619582 -0.11528341 1.2072663
0.9050858 0.035312299 1.2017933
4.2786613 0.53514129 1.2042869
5.5032969 0.80277735 1.2051786
5.4926858 1.1087828 1.2072475
2.6194828 1.2304755 1.2099081
2.6515217 1.3297031 1.2075835
0.93807554 1.6255038 1.2075227
6.110877 1.8735291 1.2050049
1.4351459 -0.20999999 1.2198578
0.99501824 -0.12714759 1.2177511
3.525795 -0.029077001 1.2100048
3.4176641 0.31419402 1.2132626
0.98128939 0.39280397 1.2153151
5.425221 0.68051648 1.2197564
0.98867029 0.75479597 1.2166247
5.4287596 0.79457265 1.2191507
4.2636108 1.0778993 1.2199273
0.96509099 1.2181031 1.2123165
0.96653026 1.4384733 1.212572
6.1693296 1.8397996 1.2120712
0.99752939 1.8501796 1.2180725
4.2643952 1.8778304 1.2191113
5.4767404 1.8967621 1.2104931
1.5890698 2.0601287 1.211725
1.8676436 -0.21000001 1.2231622
3.7928011 -0.20999999 1.2290047
1.206103 -0.19621585 1.2276422
3.7892709 -0.14161801 1.2263044
3.2260716 -0.029077001 1.2224107
5.3685684 0.020754986 1.2294526
5.4035282 0.49474484 1.223469
2.4662902 0.6015721 1.2240297
5.3902845 0.74716973 1.2257358
1.0156125 0.86739004 1.2212812
5.3904562 1.3475842 1.2258261
2.6134689 1.3642972 1.2205378
4.0749822 1.5467074 1.2295789
3.4374442 1.7868038 1.222253
3.3662024 1.7938654 1.2252038
2.4609349 1.9832001 1.2229542
5.4240208 2.0187485 1.2200816
2.7265282 2.1527865 1.228689
1.9169443 2.1786201 1.227564
2.546303 2.1786201 1.2235363
3.854219 2.1786201 1.2249357
4.1442757 2.1786201 1.2212543
5.0891418 2.1786201 1.225291
2.5764337 -0.1595733 1.239285
5.3341575 0.80713087 1.235342
2.5533712 0.94775271 1.2342744
5.3498716 1.0270563 1.2327724
3.4011188 1.5372055 1.2393835
3.4182198 1.7682881 1.2336984
1.116375 1.8165033 1.2391607
2.3651934 -0.21000001 1.2499162
3.3292513 -0.21000001 1.2426472
2.3094435 -0.17015688 1.2469361
3.94345 0.0050898213 1.2433174
5.3031225 0.13655272 1.2406535
1.1713456 0.45900938 1.2490389
5.3066802 0.47900748 1.2400447
1.1747459 0.49182796 1.2496424
2.4564505 0.50660199 1.2414565
3.3241081 0.52605122 1.2460952
4.2429996 0.67467731 1.2413447
5.3056097 0.6855548 1.2402279
1.1309975 0.88808632 1.2417552
5.2895985 0.97458166 1.2429682
1.1402247 1.1368836 1.2433926
4.0250149 1.5144873 1.2429706
4.0730362 1.6288927 1.2498323
2.567678 1.6317229 1.2496915
4.2442269 1.8262266 1.2400696
4.2400541 2.0450292 1.244406
3.5829458 2.1483703 1.2459401
4.781405 -0.21000001 1.2570528
3.4184229 -0.18340182 1.2565113
1.9654725 -0.17884587 1.2532176
5.1814289 -0.089757346 1.2593665
2.649931 -0.029077001 1.2585316
1.2021763 0.10296104 1.2545097
2.4547653 0.26262063 1.2598426
5.2333498 0.43929905 1.2516968
1.2310886 0.5085094 1.2596399
5.214685 0.60899174 1.2544539
5.2150431 0.8279357 1.254401
5.2129817 0.96046364 1.2547054
5.1789188 1.0428809 1.2597373
3.3420379 1.3877482 1.2559416
1.221115 1.4903311 1.257746
3.321902 1.5128559 1.2555702
3.9441497 1.667037 1.2520423
5.2381654 1.7710168 1.2510886
2.5542316 1.9831998 1.251977
1.2772312 -0.136839 1.2678275
4.2233195 0.079025567 1.2617953
3.94345 0.21576104 1.2685962
1.2426513 0.42818746 1.2616916
1.2400812 0.54017073 1.2612355
5.1707621 0.65619618 1.2609422
5.1411133 0.76070714 1.265322
5.1634169 0.79611725 1.2620273
5.1140785 0.85549194 1.2693156
5.1289916 1.073665 1.2672161
1.9184198 1.2125937 1.2654674
1.2541 1.2371892 1.2635989
5.1557274 1.3113518 1.2632666
1.2865306 1.3852032 1.2693534
3.9761996 1.5123644 1.2602921
5.1629763 1.5315543 1.2621958
1.2497454 1.7573063 1.2628262
1.2876035 1.959783 1.2695438
5.1012993 0.13305068 1.2712034
5.0717387 0.30333298 1.275148
1.3080494 0.4677273 1.273296
1.3380672 0.82587117 1.2786224
1.3037945 0.91645086 1.272541
5.0949144 1.0683101 1.2722499
2.5096734 1.3458339 1.2779261
3.8278103 1.37308 1.274153
3.9576049 1.5270309 1.2790481
4.0784898 1.5233419 1.272705
2.5608547 1.538524 1.2718903
1.3324935 1.6572596 1.2775092
1.2927569 1.6987939 1.2704582
2.601645 1.7909315 1.2715814
1.91842 1.8783324 1.2757906
5.1073189 2.0084701 1.2704176
1.3204203 2.0243526 1.2753668
4.2718992 2.1786201 1.2777159
2.5526624 -0.20316602 1.2854718
2.8168554 -0.20486811 1.283048
4.2620611 -0.20999999 1.2811378
3.94345 -0.016752696 1.2870851
1.3830156 0.19867396 1.2865981
1.91772 0.27323943 1.2888788
3.3154328 0.29771662 1.2864501
2.4815061 0.78550744 1.2857138
4.9747162 1.2508107 1.2873186
3.4203789 1.3877004 1.2833345
4.0098214 1.6096281 1.2887218
3.8299985 1.7694795 1.2823296
4.9841642 1.9461325 1.2861419
2.1508002 2.1786201 1.2876409
4.2544255 2.1786201 1.2825205
4.5239463 2.1786201 1.2826078
2.8751612 -0.029077001 1.295011
4.9199343 0.12691429 1.294054
3.4331579 0.26357222 1.2964685
2.5271208 0.27138823 1.2960515
1.4049685 0.45897108 1.2904935
2.5143366 0.4651725 1.2930963
2.440814 0.57351929 1.2921455
4.9234304 0.65406328 1.2936186
4.9110823 0.7555908 1.2951565
4.9085927 0.86922455 1.2954665
4.9267802 0.87964177 1.2932886
4.8734641 1.1022222 1.2991385
3.94415 1.3894351 1.2928269
1.4182903 1.4036193 1.2927332
4.0826244 1.5575825 1.2903793
4.0116386 1.5987555 1.296538
3.3833444 1.6583613 1.2963239
4.8916044 1.7429943 1.2972956
1.58907 1.9406476 1.2950354
2.1370251 1.9832001 1.2977144
3.3403292 1.9832001 1.2936562
2.1580794 -0.21000001 1.3042957
3.2144878 -0.19514605 1.3072009
4.8155603 0.22217938 1.3049502
4.8596859 0.35991743 1.3004673
1.91772 0.36463872 1.3014787
4.8090615 0.86175144 1.3056817
4.83354 0.91438222 1.3031235
1.4818131 0.93450201 1.3041291
4.7792211 0.95644403 1.3087133
4.7758846 1.1490028 1.3089812
3.3034778 1.5490165 1.3031461
4.1775761 1.6084968 1.3093299
3.4100299 1.7790637 1.301465
