# .PCD v0.7 - Point Cloud Data file format
VERSION 0.7
FIELDS x y z
SIZE 4 4 4
TYPE F F F
COUNT 1 1 1
WIDTH 1473
HEIGHT 1
VIEWPOINT 0 0 0 1 0 0 0
POINTS 1473
DATA ascii
-2.0188818 1.8873868 0.26047188
-1.689942 1.9125481 0.26052132
-2.0670395 1.9358746 0.26955119
-1.5261662 1.9773535 0.26772019
-2.1264515 1.9969105 0.26043427
-2.0356889 2.0347173 0.26044166
-2.1639547 2.0843282 0.26044735
-2.5381048 2.1063519 0.26407823
-2.1612117 2.1996412 0.26934749
-2.3344555 2.2234657 0.26324382
-1.955255 2.3325522 0.26334286
-2.2086163 -2.1746814 0.27586436
-1.2316178 -1.4762868 0.27841741
-2.155664 -1.362258 0.27306572
-1.6227323 -1.219884 0.27564013
-2.4827621 -0.91317093 0.27052033
-2.1675293 -0.82872301 0.27380711
-1.6594425 -0.69902682 0.27753726
-1.6923575 -0.25977302 0.27522716
-1.8214257 0.17558402 0.27897924
-0.96677935 0.36204892 0.27564523
-1.0404942 0.71502519 0.27659473
-2.0607002 0.89460862 0.27366462
-2.6673384 1.1237891 0.27473921
-2.1785865 1.1226741 0.27490556
-2.1537449 1.2000299 0.27995509
-2.7265899 1.6573706 0.27275968
-2.7802382 1.8655449 0.27159601
-1.8118727 1.9617271 0.27181813
-1.9277427 2.0007699 0.27519184
-0.99514216 -1.6817393 0.28402144
-1.2048283 -1.4691261 0.28157556
-2.5876322 -1.3740931 0.28447253
-1.1918268 -1.3627616 0.28272641
-1.2725945 -1.3195404 0.28083012
-2.4159937 -1.0290627 0.28300348
-2.1935995 -1.0087121 0.2896443
-2.0851543 -0.959993 0.28244764
-1.4835541 -0.8913011 0.28335637
-1.6166246 -0.82698447 0.28861126
-1.6666481 -0.68610281 0.28323168
-1.8098326 0.29599363 0.28113854
-2.8116951 0.61322039 0.28971013
-2.1238692 0.95871389 0.28427553
-2.1662426 1.2100921 0.28727138
-1.091145 1.5473373 0.28902394
-1.0376986 2.0443978 0.28971395
-1.8884602 2.0835733 0.28030196
-1.9985511 2.2752993 0.28139114
-1.3584511 -1.7747235 0.290402
-1.1690037 -1.5642374 0.29235855
-1.5769601 -1.0511105 0.29437262
-1.3531548 -1.0183542 0.29297858
-2.5956321 -0.95399094 0.29628867
-1.0881782 -0.84974504 0.29221886
-2.0615854 -0.56465125 0.29577345
-1.7115161 -0.56218314 0.29823983
-0.95911843 -0.52335602 0.29433003
-1.8835623 0.019051854 0.2965951
-0.96112674 0.14487527 0.29066864
-1.6637448 0.25327218 0.29247382
-0.96046031 0.26941013 0.291619
-1.6574912 0.47486979 0.29550645
-2.8123477 0.58792305 0.29133603
-2.8146384 0.7317856 0.29717973
-2.5731816 0.76592922 0.29593933
-2.2381086 0.83377784 0.29578543
-2.180613 1.0495446 0.29762807
-2.118968 1.1274477 0.29123378
-1.12826 1.5529901 0.29411173
-1.2533399 2.0965412 0.29635054
-2.2114713 2.250505 0.29717696
-1.7243507 2.2914777 0.29638332
-2.4086995 -2.0767801 0.30964535
-1.4380957 -1.7501643 0.30474204
-2.63307 -1.4607023 0.30730689
-1.02808 -1.3612714 0.30646828
-2.0022166 -1.3366446 0.30993098
-2.4285805 -1.0145226 0.30446318
-2.1628821 -0.97325027 0.30610073
-1.6495137 -0.87759233 0.30661201
-2.82267 -0.64062983 0.30816698
-1.893044 -0.17288789 0.30041695
-2.1019285 0.31950834 0.30806628
-1.8462479 0.39802104 0.30913705
-1.902251 0.47675437 0.30851579
-1.8481915 0.52724844 0.3032797
-1.105206 0.70387059 0.30080724
-2.680254 1.4397874 0.30532598
-2.8086371 1.46806 0.30820638
-1.6777015 1.5015347 0.30772531
-1.6592577 1.8298631 0.30326784
-2.5951922 1.8512294 0.30240428
-1.3388705 2.1272497 0.30118197
-2.1124699 2.2215252 0.3011595
-2.1745992 2.2491789 0.30121481
-1.3016428 -1.9919149 0.31508991
-2.740257 -1.8591297 0.312659
-1.2508956 -1.8141538 0.31565928
-1.3196304 -1.4795067 0.31380776
-1.7889128 -0.85217625 0.31335765
-1.806053 -0.8234728 0.31333959
-1.5398358 -0.80631101 0.31750581
-1.5663102 -0.67529166 0.31708586
-1.2468786 -0.6788438 0.31714004
-2.4368782 -0.63866228 0.31694782
-1.164202 -0.61470431 0.31722981
-1.6780231 -0.60442811 0.31598401
-2.4410493 -0.56651062 0.31666687
-1.4001731 -0.56602448 0.31662983
-1.3030059 -0.56996202 0.31669858
-1.388703 -0.50292802 0.31645098
-2.2194517 -0.49361178 0.31637132
-2.3605461 -0.45805943 0.31646106
-2.5038805 -0.36607245 0.31658068
-2.1083686 -0.35766792 0.31638533
-1.7930509 -0.34527558 0.3127633
-1.738906 -0.30218747 0.31966981
-2.0372095 -0.29333743 0.31288233
-1.2596024 -0.29726028 0.31662497
-1.6547358 -0.27253062 0.31643918
-1.3804177 -0.26456475 0.31658289
-1.7250509 -0.17767963 0.31679964
-1.739732 -0.16918404 0.31265706
-1.1903243 0.016618773 0.31681624
-1.8482146 0.035313468 0.31725886
-2.5790763 0.1188468 0.31686532
-1.7123133 0.19384944 0.31230021
-1.3571401 0.34960425 0.31690899
-2.4817607 0.36579904 0.3169471
-1.2861762 0.37383366 0.31695378
-2.0961847 0.38834536 0.31707072
-1.4519191 0.39573431 0.31682247
-1.3158455 0.4188861 0.31682113
-2.3645196 0.42130876 0.31677225
-1.8633826 0.42239863 0.31678939
-2.5473659 0.45190486 0.31667969
-2.2399797 0.46992171 0.31868416
-2.114826 0.50130439 0.3101511
-1.6764033 0.65111023 0.31200296
-1.638406 0.66399556 0.31218261
-1.6490314 0.68342304 0.31206653
-1.643255 0.69351232 0.31206578
-2.0599456 0.72504163 0.31674296
-1.4430892 0.80058348 0.31964475
-1.6732197 1.3270836 0.31723607
-1.6857071 1.7241243 0.31110725
-2.3935797 -2.3020878 0.32529178
-2.4008064 -1.9924297 0.32765681
-2.3497198 -1.8654912 0.32825381
-1.1217901 -1.4123812 0.32626957
-1.8039935 -1.3999584 0.32072276
-2.0733683 -1.3417263 0.32612118
-1.4445637 -0.82261515 0.32058868
-1.1584556 -0.57907516 0.3228938
-1.9419289 -0.54922664 0.32874984
-2.6151874 -0.23775655 0.3293274
-1.8638572 -0.0019514537 0.32877007
-1.9238826 0.039662495 0.328677
-2.8221765 0.22285819 0.32749063
-1.8622866 0.42232999 0.32367611
-2.5473673 0.44969034 0.32052499
-2.6680703 0.53958964 0.32973346
-1.1855437 1.2053337 0.32523802
-1.675332 1.2606283 0.32719514
-1.57008 1.8298779 0.32109448
-1.8658633 -2.2570212 0.33139151
-2.1960125 -2.1318595 0.33362296
-2.2141259 -2.1294475 0.33411041
-2.0745258 -2.1109574 0.332883
-1.7006329 -2.0963521 0.332883
-1.9998436 -2.045053 0.332883
-2.166976 -1.9895229 0.332883
-2.0510058 -1.9359016 0.332883
-2.1956687 -1.8190084 0.33288357
-1.7876062 -1.7874033 0.332883
-2.4378796 -1.7353368 0.33582905
-1.9445111 -1.7097476 0.332883
-2.5901752 -1.6459867 0.33355296
-2.8333075 -1.546787 0.33887875
-1.2501476 -1.4146469 0.333799
-1.3238809 -1.3956871 0.333799
-1.2849237 -1.3834212 0.33546767
-1.1570809 -1.3803705 0.333799
-1.7606734 -1.3181922 0.33867443
-1.9557943 -1.1139212 0.33975014
-2.0715203 -0.91840374 0.3308776
-2.2689934 -0.82538998 0.33528864
-2.5376201 -0.62865436 0.33045089
-1.65497 -0.55041063 0.3328189
-1.8029894 -0.24665825 0.33686391
-1.1577612 -0.22215 0.33033457
-2.8278735 -0.018980235 0.33421513
-0.9488166 -0.0071785878 0.33099964
-1.8684908 0.26617914 0.3330608
-2.785084 0.49806142 0.33984801
-2.0380058 0.96114111 0.33064377
-1.716298 1.0647725 0.33161727
-1.5921816 1.3056393 0.33970273
-1.0563153 1.4727447 0.33686456
-2.1095953 1.5665396 0.33675122
-1.7642903 1.8495593 0.33024761
-1.7867397 1.8667752 0.33473912
-2.2205336 1.9907136 0.33766651
-2.3774567 2.1909943 0.33217132
-1.6261898 2.2708054 0.33217001
-1.6163944 2.27161 0.33217445
-2.1124325 2.3019776 0.33219498
-2.223496 -2.1393051 0.3428629
-2.782295 -1.8199112 0.34368411
-1.2339356 -1.7354113 0.34533599
-2.4514375 -1.3947953 0.34373701
-2.3787515 -1.391072 0.34303027
-1.3540571 -1.3706944 0.34373701
-1.7676387 -1.2315305 0.34904048
-2.2068415 -0.92908269 0.34950066
-1.4986053 -0.82751423 0.34757727
-1.921234 -0.77544808 0.34892988
-1.7788633 -0.76003599 0.34185243
-1.9055738 -0.30694026 0.3411822
-1.8685771 -0.24432848 0.34204346
-1.9812109 -0.12515038 0.34841532
-2.0628715 0.019413278 0.34929088
-1.7760279 0.044446766 0.34337276
-1.6784201 0.37921843 0.34883267
-1.8176311 0.54272395 0.34314358
-1.5279138 0.54203904 0.3437317
-0.94067067 0.82121664 0.3460395
-1.5417662 0.83638036 0.34722638
-1.0412341 0.91448045 0.34200069
-1.0412459 0.95817816 0.34399268
-1.1638163 0.97692263 0.34995762
-2.8361545 1.2378846 0.34459454
-1.660737 1.4395137 0.3430132
-1.13555 1.4637786 0.34127229
-1.12826 1.4816639 0.34798351
-1.0345401 1.5798919 0.34562385
-1.9128304 1.8365901 0.34500015
-1.8047256 1.8596951 0.34610775
-1.8294725 1.8676671 0.34677708
-1.4418781 2.0831659 0.34609064
-2.5499489 -1.7372148 0.35696855
-1.2251793 -1.736536 0.3565208
-2.3811073 -1.6848605 0.35844046
-1.4570136 -1.6315182 0.35059977
-2.2010298 -1.2972271 0.35634804
-2.6382301 -1.1828063 0.35965621
-1.4709923 -1.1244922 0.35470468
-2.3345239 -1.0312161 0.35890037
-2.07953 -0.33019418 0.35121313
-2.8036025 0.056802027 0.35265738
-2.7917666 0.30238354 0.35443529
-0.93770099 0.46001703 0.35588467
-1.040238 0.49899608 0.35673362
-1.041024 0.80508935 0.35563046
-0.92029262 1.1739612 0.35814059
-2.1040065 1.2172254 0.35088295
-1.12826 1.5294089 0.35962188
-2.5117724 -2.2110348 0.36346957
-2.5340366 -2.1824334 0.36107996
-1.3911002 -2.0347254 0.36139154
-2.5023527 -1.9825222 0.36995155
-2.5470355 -1.9075679 0.36378437
-1.2518451 -1.6964589 0.36230206
-1.2955409 -1.3934882 0.36785865
-1.5186889 -1.3128704 0.36100954
-2.3908446 -1.2563639 0.36949223
-2.8333099 -0.9283281 0.3698231
-1.8626722 -0.8982361 0.36153221
-2.096101 -0.68325907 0.36953631
-1.3659084 -0.66764444 0.36929917
-1.6457629 -0.56163299 0.36832699
-0.93503189 -0.5693152 0.36129907
-1.6549699 -0.4257234 0.36970106
-1.4370648 -0.42745164 0.36832699
-2.2582521 -0.3803423 0.36832702
-1.6051683 -0.28766987 0.36832699
-2.5760701 -0.2305813 0.36262089
-1.4241103 -0.23841596 0.36832699
-0.96961862 -0.23772612 0.36374646
-1.0007398 0.028604735 0.36939451
-0.97944582 0.060286894 0.36198932
-2.7715001 0.19470724 0.36700058
-1.7582216 0.23664898 0.36698955
-1.1050556 0.54564726 0.36988872
-1.6644258 0.57028383 0.3681615
-2.7322757 0.65041524 0.36364293
-1.0462785 0.84140182 0.36697221
-0.93569595 0.86315238 0.36248067
-1.6791329 0.89838135 0.36121652
-2.1113639 1.2271718 0.36054692
-2.8270402 1.3576649 0.36022156
-2.0355544 1.7272201 0.36188173
-2.0238383 1.7272201 0.36610228
-1.9487028 1.8516642 0.36027896
-2.3501759 2.0621703 0.369443
-2.1102479 2.2968068 0.36502218
-1.9854788 2.3001387 0.36529103
-2.2396286 -2.1396801 0.37236673
-1.6859262 -1.4495825 0.37396109
-2.0784707 -1.3982002 0.37311774
-1.6765636 -1.3122804 0.37669796
-1.0424432 -1.2692208 0.37374634
-2.1417427 -1.1405356 0.37671387
-2.2713389 -1.1385885 0.37077361
-1.6512558 -1.133 0.37829056
-0.92128623 -0.93150878 0.37105614
-2.0972285 -0.82393491 0.3776114
-2.4264123 -0.81589484 0.37284288
-1.0031012 -0.06763415 0.37373683
-0.93208182 0.096522763 0.37642041
-0.94377613 0.45735937 0.37412184
-1.7196679 1.0772226 0.37683925
-1.1283711 1.4215996 0.37239945
-1.13555 1.5784277 0.37058863
-2.0799046 2.3487666 0.37538177
-1.4451181 -1.7731732 0.38259283
-1.5201086 -1.7662776 0.38857481
-1.1290801 -1.4522264 0.3853083
-2.3811235 -1.4494606 0.38311824
-1.3146622 -1.3312197 0.38650671
-2.0741427 -1.3134129 0.38026386
-1.7137871 -0.95091277 0.38769943
-1.9098818 -0.90548933 0.38063246
-1.1769899 -0.58662379 0.38414752
-0.9283694 -0.54799831 0.38891652
-1.9690158 -0.2569204 0.38338932
-1.1578377 -0.10850753 0.38699555
-2.4003649 -0.094191842 0.38357413
-1.02534 0.15511484 0.38847378
-2.74348 0.230551 0.3842825
-2.8424149 0.56236351 0.38255525
-2.8432899 0.73219883 0.38602054
-1.9543252 0.76172632 0.38401356
-2.1855645 1.2603498 0.38575613
-1.7647302 1.8365901 0.38717979
-1.85778 1.866908 0.3823007
-2.2819619 2.0413246 0.38191217
-2.3495295 2.0732167 0.38288778
-0.93940258 -1.74876 0.3947545
-1.248494 -1.7337903 0.39908126
-1.1217901 -1.4406538 0.39575428
-2.5362632 -1.2969658 0.39109015
-1.2373676 -0.77027333 0.39308766
-0.92391628 -0.66490632 0.39829192
-0.98562676 -0.47091281 0.39729542
-1.7875893 -0.080523521 0.39195362
-1.6969891 0.16779822 0.39584011
-1.0404862 0.24728587 0.39120558
-2.0196631 0.28989962 0.39168119
-1.0383444 0.3705771 0.39019829
-1.0223962 0.88967657 0.39712486
-1.9932604 0.89182729 0.39738187
-1.1285758 1.0554633 0.39539927
-2.6004014 1.0631649 0.39826
-1.5798491 1.1075876 0.39819971
-1.5483451 1.1097969 0.39819491
-2.2665794 1.1761851 0.39209795
-1.6449616 1.2881964 0.39538607
-2.4377267 1.3114814 0.39730531
-1.3734652 1.3833644 0.39727309
-0.95053619 1.5536189 0.39636791
-2.4116721 1.5791103 0.39717996
-2.4337773 1.5922451 0.39717275
-1.8822416 1.8465183 0.39583975
-1.7922224 1.8519717 0.39632246
-1.8456314 -2.3288667 0.40134871
-2.4503198 -2.0762963 0.40232366
-1.3556815 -1.9841759 0.40010995
-2.3582642 -1.7078042 0.40782684
-2.6474881 -1.6842175 0.40907574
-1.4564617 -1.0629945 0.40041396
-1.8082225 -0.30552873 0.4073109
-1.043043 -0.27032763 0.40497333
-1.0343295 -0.27497354 0.40028444
-1.1475053 0.18544212 0.40802169
-2.6332381 0.24391153 0.40991676
-1.6605434 0.5924989 0.40116075
-2.7319999 0.73683608 0.40048966
-1.9954962 0.89769924 0.40880409
-2.1694083 1.2499042 0.40222922
-1.5267932 1.3704278 0.40419382
-1.696213 1.7272201 0.40490949
-2.1213369 1.8441722 0.40628713
-2.5641787 2.0058799 0.40388942
-1.4959643 -2.3197312 0.41794986
-2.4016669 -2.1974795 0.41055861
-1.6685917 -2.1967988 0.41548502
-1.3693459 -2.0822756 0.41094387
-2.4336474 -1.8921436 0.41029173
-1.3673246 -1.8255762 0.41837874
-2.3194733 -1.603456 0.41069809
-1.768065 -1.3984082 0.41736439
-2.63094 -1.3485069 0.41855562
-1.7612077 -1.2939843 0.41401824
-2.1536865 -1.1486881 0.41699311
-1.4720492 -1.1097748 0.41229579
-0.96076691 -1.0739335 0.41595021
-2.7687452 -0.86094719 0.41400284
-1.7770993 -0.74206245 0.41856572
-2.7253401 -0.048395552 0.41515827
-2.7412062 0.19710307 0.41258755
-2.0122623 0.2099323 0.41363445
-0.92276728 0.61239243 0.41329616
-1.1739298 0.82731146 0.41678977
-2.5341887 1.059778 0.41596794
-2.8561175 1.2113982 0.41726828
-2.363663 1.4195383 0.41097289
-2.7384 1.4764042 0.41554072
-1.0458326 1.6689951 0.41112405
-1.8407279 1.7272201 0.41023129
-1.7031326 1.8676612 0.41993904
-1.5704553 1.9646477 0.41807002
-2.3021374 -2.3212707 0.4241451
-2.447 -1.9548995 0.42894506
-2.4783797 -1.8695744 0.42636073
-1.4381056 -1.6128092 0.4276337
-1.3906195 -1.6104767 0.42931974
-2.2801082 -1.5566896 0.42635509
-1.2908114 -1.4131997 0.42479408
-2.63094 -1.2916741 0.42578989
-2.1752973 -1.2002406 0.42539734
-2.4247489 -1.1445097 0.42818171
-2.7522502 -1.1242378 0.42058328
-2.0870001 -0.68316519 0.42284271
-2.0443373 -0.15949987 0.42646587
-1.1015093 -0.11614977 0.42016485
-2.6604924 0.1089485 0.42582592
-1.0280468 0.15638891 0.42069742
-2.7464943 0.31559953 0.42265305
-1.0411139 0.78145963 0.42776024
-2.7311466 0.91630679 0.42883372
-2.3675654 1.165843 0.42172801
-1.5641975 1.2019713 0.42738235
-2.8239436 1.3309846 0.42457533
-2.8422108 1.569664 0.42853376
-1.3343998 1.9189882 0.42335191
-2.3466296 1.9989599 0.42861852
-1.410158 2.1450145 0.42174545
-2.2626114 2.2186241 0.42217839
-2.109786 2.2328796 0.42221373
-1.7760892 2.4172244 0.42888507
-2.3928435 -1.9230663 0.43097606
-1.1290801 -1.2259074 0.43609107
-2.4524901 -0.97545254 0.43052199
-1.6974459 -0.65939611 0.43282166
-1.0410217 -0.51756132 0.43744764
-1.0501742 -0.47240111 0.43195221
-2.7126734 -0.32628435 0.43027768
-1.9701803 -0.25004512 0.43699095
-1.7724547 0.082778633 0.43356109
-2.0516937 0.63560617 0.43910134
-2.5038035 0.8181408 0.43027484
-1.1777033 1.1303378 0.4352718
-2.2460215 1.2378578 0.43702522
-2.3635495 1.4500375 0.4348591
-2.1545641 1.5476058 0.43049616
-1.9792815 1.8365901 0.43207097
-1.7856511 1.8551228 0.43439603
-1.63696 1.8632214 0.43263876
-2.2179873 2.2543271 0.43551743
-1.6856911 -2.1968358 0.44794601
-2.2526422 -1.8123807 0.44136873
-0.89056039 -1.6232599 0.44801533
-1.8641324 -0.92806494 0.44904923
-2.8729105 -0.86754119 0.44978052
-1.0535841 -0.8677929 0.44152009
-1.5411428 -0.70213342 0.4482542
-2.4951377 -0.60428607 0.44060856
-2.4789524 -0.58183753 0.44548476
-1.6981988 0.15732482 0.4490639
-2.8569427 0.64522326 0.44241396
-2.4372299 0.82813185 0.44136614
-1.7961755 0.90181422 0.44951096
-2.6658731 1.0399517 0.44578111
-2.170223 1.0982627 0.44390327
-0.92408943 1.1478622 0.44323641
-2.5002742 1.1733291 0.44348222
-1.4093189 1.3605926 0.44504705
-1.113921 1.5202409 0.44382754
-2.43876 1.6652273 0.44933113
-2.7422225 2.0955141 0.44049761
-1.4030697 2.2330627 0.44835597
-2.2297363 -1.6269522 0.45997551
-2.1585157 -1.5922115 0.45615447
-1.7449474 -1.5879817 0.45244819
-1.7545651 -1.5053699 0.45378608
-2.7523079 -1.33239 0.45132822
-1.1290801 -1.2962925 0.45966381
-1.931186 -1.2206447 0.45253801
-2.1000681 -1.1562622 0.45918721
-2.3456433 -1.1015444 0.45435864
-1.3251835 -0.58419192 0.45117331
-1.1018656 -0.10089869 0.45285887
-1.7508678 1.0711603 0.45943168
-2.6071768 1.135623 0.45497453
-2.4301465 1.1574227 0.45375955
-2.7373514 1.5390699 0.45521933
-1.8042902 1.7272201 0.4552063
-2.8640151 1.8042163 0.45559239
-1.6249651 2.1903765 0.45431635
-2.1701379 2.2611187 0.4597528
-1.1889879 2.277637 0.45355451
-1.9390574 -2.1971564 0.46007323
-1.6372079 -1.5647378 0.46351048
-1.7168858 -1.5154239 0.46278736
-1.70366 -1.32485 0.46987596
-1.6966598 -1.2666496 0.46317375
-1.2303236 -1.2311018 0.46391743
-2.4255474 -0.99399197 0.46297273
-1.5865684 -0.60449368 0.4634828
-0.91096556 -0.46328855 0.46915227
-1.0348499 0.49851221 0.46729726
-2.3879051 0.77980775 0.46572608
-1.1058708 0.77929842 0.46163091
-2.7316105 0.79835713 0.46791971
-1.6962516 0.90070498 0.46069568
-2.0167019 1.0640246 0.46309286
-2.2169127 1.3555441 0.46316159
-1.12826 1.5269451 0.46619472
-1.045812 1.5923104 0.4658795
-1.7172806 1.8298285 0.46251595
-2.317102 2.0752869 0.46322507
-1.3348587 2.1187718 0.46917811
-2.5663025 2.2890654 0.46083093
-1.3394324 2.2956519 0.46278945
-1.7662795 -2.19701 0.47122601
-1.3934405 -1.6129135 0.47423699
-2.0640969 -1.56631 0.47589108
-1.655935 -1.5663099 0.47744647
-2.1426151 -1.488475 0.47994876
-2.0740693 -0.83726948 0.47314486
-1.8503377 -0.7799167 0.4734664
-1.5529952 -0.70461237 0.47100368
-1.0515324 -0.57648337 0.47674578
-1.4993976 -0.48718441 0.47232735
-1.397729 -0.43983138 0.47941422
-1.9613475 -0.3529011 0.47231561
-1.0333519 0.84602559 0.471028
-2.2330239 1.517996 0.472615
-1.1544855 1.7199684 0.47010154
-1.741601 1.7272201 0.47290671
-2.1348944 1.8365901 0.47473049
-1.5655525 1.8623347 0.47814727
-2.438333 1.9109573 0.47484058
-2.2553344 1.9792829 0.47534773
-2.0588789 -2.1968973 0.48387393
-2.6382301 -1.3807305 0.48848623
-1.6274519 -1.1384146 0.48652482
-2.5934532 -0.58620656 0.48865664
-2.7056189 -0.50587952 0.48202261
-1.1647834 -0.43793482 0.48022187
-1.1039094 -0.19906192 0.48857909
-1.7754343 0.042915374 0.48882863
-2.6676269 0.3276962 0.48936334
-2.7299912 0.39422905 0.48418236
-1.287235 0.82729566 0.48581213
-1.1071444 0.93063545 0.48146865
-2.730803 0.95016932 0.48226255
-1.3902974 1.1751161 0.48604029
-2.64469 1.4988357 0.48295739
-1.9523573 1.8298261 0.48715633
-1.7542331 1.8491185 0.48106831
-2.0404351 1.8552811 0.48226494
-1.9737738 1.8682175 0.48181003
-1.8534188 2.2067537 0.48869863
-1.3617671 2.242672 0.48575509
-1.7134624 2.4344394 0.48089212
-2.4347956 -1.3760346 0.49558637
-1.7276164 -1.278897 0.49670094
-1.6268884 -0.70673984 0.49061328
-1.6450423 -0.44009283 0.49301857
-2.6689482 -0.42552152 0.49135569
-0.9064253 -0.23909616 0.49333107
-1.7639829 0.16755277 0.49855229
-1.7309059 0.53124946 0.49220982
-1.2235847 0.81820959 0.49176419
-2.8667846 0.9417156 0.49475271
-1.6664321 0.98254561 0.49469194
-2.1967936 1.2511221 0.49154919
-1.5872287 1.2683867 0.495942
-2.726675 1.4749949 0.49117514
-1.3341434 1.5201732 0.49964643
-1.8831596 1.8298268 0.49206489
-2.1429725 2.1912224 0.49795306
-2.2990615 2.3619413 0.495114
-1.8402667 2.4670625 0.49049324
-2.1272042 -2.1967494 0.50455427
-1.1555254 -1.38746 0.50418723
-1.1290801 -1.3268204 0.50774199
-2.7404599 -1.2066326 0.50580531
-1.597452 -0.85581023 0.50711489
-1.8502744 -0.78469622 0.50836802
-2.2192066 -0.68842953 0.50672603
-1.4648745 -0.26634789 0.50966287
-2.5368283 -0.07806354 0.50174916
-1.7651514 0.15296936 0.50944471
-1.6926773 0.19264634 0.50311536
-1.7325773 0.51317888 0.50047272
-2.0966589 0.55689418 0.5059157
-2.1609263 0.59050977 0.50324112
-2.7317019 0.69198549 0.5013572
-1.70877 0.77022266 0.50826836
-2.5573535 0.81822544 0.50807637
-2.7575896 1.3030984 0.50298691
-1.1309178 1.305182 0.50209254
-0.98168117 1.3050112 0.50715554
-1.409517 1.3618679 0.50794739
-1.9255428 1.8503919 0.50946462
-1.4741689 1.9886853 0.50171059
-1.8421624 2.2060614 0.50531828
-2.1513619 2.3206306 0.50592381
-1.9448169 2.4057748 0.50665617
-1.985893 2.4311733 0.50604182
-2.7356973 -2.0437791 0.51329952
-1.5197644 -1.6838852 0.51935536
-1.81113 -1.3300149 0.51819384
-2.5167351 -1.2091529 0.51418197
-2.7941954 -0.61128145 0.51249278
-1.7271881 -0.17026998 0.51684028
-1.6782324 0.61421299 0.51626229
-1.2014825 0.82736391 0.51401055
-1.2112137 1.0376136 0.51415968
-1.8729173 1.08547 0.51054674
-2.7182949 1.1457987 0.51019323
-1.7729913 2.2015076 0.51631361
-1.7585773 -2.3469985 0.52181858
-1.3303325 -2.2499218 0.52201557
-1.9131984 -2.2309067 0.5218538
-1.5315661 -2.2160447 0.5218485
-1.4340668 -2.1856542 0.52134073
-1.9695613 -2.1758578 0.52915698
-2.5937843 -2.1637778 0.52489126
-1.6900134 -2.1450522 0.52187496
-2.5068562 -2.1238062 0.52184242
-1.7976294 -2.1112928 0.52188736
-1.9418919 -2.1011329 0.521891
-1.7752558 -2.1030993 0.52188945
-2.6361594 -2.0927703 0.5218187
-1.6148514 -2.0908201 0.52916139
-2.0199342 -2.0790696 0.52189624
-1.9421185 -2.0798745 0.52915698
-1.6756303 -2.0780082 0.52915698
-1.6132293 -2.0735855 0.52189279
-2.6245692 -2.0638251 0.52182728
-1.5783331 -2.067682 0.52189314
-2.5924735 -2.0180957 0.5218448
-2.4578171 -2.0196917 0.52187634
-1.3380005 -1.9941549 0.52188039
-1.3449595 -1.9723309 0.52188665
-2.4171989 -1.9616022 0.52189797
-1.3490875 -1.9078594 0.5219003
-2.0113873 -1.8801489 0.52195412
-2.1552858 -1.8634082 0.52918124
-1.8016608 -1.8477964 0.52915698
-2.4548199 -1.811131 0.52192199
-1.9341543 -1.8176835 0.52197343
-1.483264 -1.7965702 0.52200305
-1.3753484 -1.7753193 0.5219335
-1.8615501 -1.769065 0.52915698
-1.6153494 -1.7010685 0.52919686
-2.485532 -1.6842599 0.52192825
-2.3287847 -1.6763175 0.521981
-2.1274381 -1.6500151 0.52201653
-2.7412877 -1.649102 0.52661717
-1.9403567 -1.6426985 0.5220241
-1.7250699 -1.6218736 0.52202755
-1.8227086 -1.6134157 0.52203178
-1.6700721 -1.5877393 0.5219208
-2.5677938 -1.5622865 0.5237698
-1.8127489 -1.5594943 0.52204734
-2.1866372 -1.5458318 0.52207029
-1.5012565 -1.5455272 0.52201486
-1.8504851 -1.5044239 0.52206379
-1.7922661 -1.4765877 0.52207142
-1.8403865 -1.4535409 0.52207839
-2.4152186 -1.4333795 0.52180386
-1.9118203 -1.3967134 0.52209532
-2.1805186 -1.3800071 0.52207887
-1.8685932 -1.3883672 0.52209765
-1.421064 -1.3800632 0.52186799
-1.70366 -1.3456113 0.52413797
-1.3759829 -1.3149941 0.52188373
-2.3992276 -1.2815924 0.52174944
-2.0165296 -1.2101681 0.52214789
-1.7494808 -1.1548162 0.52218509
-1.4844375 -1.1251698 0.52158409
-2.0604029 -1.1139345 0.5221355
-1.4069421 -1.0747806 0.52167439
-2.3384168 -1.0477517 0.5219785
-1.9479712 -0.50883728 0.5269174
-1.4635384 -0.20793913 0.52562088
-1.7942665 -0.17067534 0.52772927
-2.5769613 -0.11530559 0.52017033
-2.6643076 -0.093962803 0.52697557
-1.0413381 0.7275815 0.52696884
-1.0413332 0.73823923 0.52409112
-1.1061445 0.7906214 0.521438
-2.3765872 1.1712614 0.52773821
-1.5749085 1.248353 0.52238369
-2.6707537 1.3269162 0.52802986
-2.3634462 1.6696258 0.5273512
-2.7320929 1.8389003 0.52134609
-2.0417721 2.262471 0.52586859
-1.9407034 2.2707577 0.52585828
-1.9130472 2.3952737 0.52461547
-2.4376802 -2.3404922 0.53087848
-2.6897426 -2.0093217 0.53177905
-2.7762518 -1.4761684 0.53080881
-2.7805643 -0.97527206 0.53991711
-1.2174816 -0.53542936 0.53578305
-1.9484062 -0.40682516 0.53059393
-1.9320669 -0.25162441 0.53269112
-1.8470451 -0.17695796 0.53369999
-1.8970673 -0.024137065 0.53576499
-1.9791095 0.12797038 0.53782028
-2.8736472 0.16325392 0.53846079
-2.726141 0.37926069 0.53487694
-2.8430233 0.49798977 0.53048885
-1.1066041 0.85351133 0.5339359
-0.90013331 0.95672607 0.53336066
-2.6512172 1.0498806 0.53709561
-2.2224023 1.3534746 0.53938019
-2.5646901 1.4468291 0.53685248
-2.4106407 1.6298113 0.5384686
-2.201858 1.6469539 0.53210789
-1.1277876 1.6570488 0.53319287
-2.1608272 1.8298891 0.53724504
-2.6169944 1.9789749 0.53036314
-1.1511232 -1.7218651 0.54950696
-1.8975794 -1.6621033 0.54942334
-2.0977314 -1.6569136 0.54415846
-1.0361167 -1.3750838 0.54072738
-2.8958015 -0.90726888 0.54898876
-1.9361954 0.51341653 0.54302859
-0.89810824 0.55910146 0.54597205
-1.9454004 0.66727763 0.5451076
-1.9039253 0.69682896 0.54550695
-1.1810831 0.76602668 0.54237485
-1.2036657 0.82738745 0.54930335
-1.8420308 0.83142316 0.54732561
-1.5590665 0.84418696 0.54318273
-2.0588794 0.87472934 0.54120499
-2.723062 0.92596895 0.54806387
-1.6311344 0.95577991 0.54781675
-2.651619 0.98656154 0.54818654
-1.5828949 1.0618638 0.54762775
-2.1951497 1.0879562 0.54766685
-1.409325 1.3832662 0.54776841
-1.2215422 1.4287021 0.54662782
-1.5635912 1.6115099 0.54756093
-0.92730486 1.722577 0.5438664
-0.93211567 1.8129138 0.54695082
-1.7605958 1.8365901 0.54268521
-1.8527029 1.8445892 0.54509991
-1.7781389 1.8514802 0.5449245
-1.6413949 1.8528621 0.54194915
-1.5655308 1.8743485 0.54794335
-2.4170544 1.9492372 0.54705352
-2.2035568 1.9612312 0.54679388
-1.4078863 1.9806561 0.54705215
-1.2900151 -2.25138 0.55564225
-2.1851954 -2.2010715 0.55907172
-2.2774754 -1.9422781 0.55145031
-2.8316922 -1.862967 0.55605209
-1.20503 -1.6786174 0.55995113
-2.8087249 -1.1642448 0.55312324
-2.8270409 -0.9038254 0.55190909
-1.3244665 -0.83516932 0.55546212
-2.4995518 -0.59297532 0.55063117
-2.1152697 -0.1337848 0.55217159
-2.7264442 0.39807212 0.55757546
-1.5611637 1.2854166 0.55002534
-0.96322978 1.4808989 0.55857831
-1.9841692 1.8572783 0.55657744
-1.516899 2.3590145 0.55966252
-1.8583171 2.4591341 0.55483603
-1.6837585 -2.2089953 0.56475353
-1.9148855 -1.2604032 0.56393701
-2.6830883 -0.99111295 0.56742841
-1.2064409 -0.67185307 0.56734961
-2.0744522 0.12605935 0.56827474
-1.1956391 0.81827879 0.56800127
-2.1608157 1.0852491 0.5664196
-2.2351961 1.1938504 0.56418461
-1.3543901 1.3485856 0.56620491
-2.2192316 1.488692 0.5647434
-2.6046944 1.9662731 0.56196076
-2.2470033 2.3120706 0.56729347
-2.2797 -1.9272593 0.5708214
-1.1892129 -1.5292709 0.57445198
-2.7185149 -0.61877275 0.57236981
-2.6574233 0.12153855 0.57132757
-1.2613862 0.81824487 0.57962674
-2.2248523 1.3951751 0.57510006
-2.1953466 1.3934959 0.57528651
-1.5491557 1.463398 0.57534838
-1.5172255 1.5119826 0.57424378
-1.0783828 1.5947518 0.57732618
-2.0107255 1.7272201 0.57745618
-1.5851901 1.8564396 0.57968462
-1.4452157 2.2972023 0.57743758
-2.1258187 -1.6556233 0.58800972
-1.7681196 -0.63822091 0.58079737
-1.9291835 -0.032211859 0.58301437
-2.058239 -0.015987769 0.58449596
-0.89345545 0.064050563 0.58162236
-1.677485 0.42481843 0.58440208
-1.3868368 0.45129371 0.58234793
-2.3010998 0.48559433 0.58273679
-2.1160369 0.5150364 0.58306789
-2.5422516 0.53628409 0.58330983
-2.5079999 0.57690191 0.58376908
-2.3833904 0.5748961 0.58374655
-2.4928875 0.82734674 0.58271283
-2.1949363 0.90246701 0.58733582
-1.9763786 1.0852094 0.58295035
-1.1124662 1.4158685 0.58355761
-2.5739746 1.4853745 0.58831316
-0.94151646 1.5129544 0.58763909
-1.8036197 1.7272201 0.58667433
-1.63696 1.8467245 0.58430135
-2.061197 1.8567063 0.58986199
-1.9891286 1.8588479 0.58375269
-1.3352571 2.1677885 0.58578825
-1.1449264 2.2810407 0.58831537
-1.5175943 2.331728 0.58494264
-1.6671474 2.4137282 0.58981913
-1.6931415 2.4213552 0.58498424
-1.9074621 2.4795129 0.58288443
-1.5607221 -2.3413541 0.5985297
-1.494715 -2.1860716 0.59714973
-2.6512938 -1.3291655 0.59555459
-2.5676689 -0.97579873 0.59944779
-1.696606 -0.86198819 0.59177905
-2.3385882 -0.73241782 0.59226751
-2.1082919 -0.56544328 0.59108406
-1.8805276 0.059400916 0.59008831
-2.87977 0.66458416 0.59153175
-1.0415419 0.70197344 0.59513122
-1.6508676 1.0852456 0.59924698
-1.5104786 1.3997961 0.59386927
-1.10542 1.5205468 0.59580559
-2.7594414 1.7908223 0.5967558
-1.42541 2.0869322 0.59691274
-2.5256472 2.3483126 0.59127975
-2.0640295 -2.3561621 0.60326278
-2.3543866 -2.3014646 0.60312778
-1.0762044 -1.8688467 0.60905236
-1.6172594 -1.651397 0.60126776
-0.87953949 -0.95003176 0.60285056
-2.8909185 -0.80598938 0.60076988
-1.3816203 -0.73726135 0.60576814
-1.2030206 -0.67885596 0.60395598
-2.7182631 -0.62545359 0.60937357
-2.56163 -0.53776157 0.60514629
-0.89242589 -0.24256642 0.60358381
-1.7262602 0.11053921 0.60574216
-0.89582109 0.42585766 0.60913152
-0.89233667 0.43225065 0.60225117
-2.8706207 0.44622663 0.60919917
-2.2507393 1.4164252 0.60081792
-1.239042 1.4815714 0.60040092
-2.363409 2.2343307 0.60144234
-1.775852 2.4327745 0.60185629
-1.0762306 -1.8945099 0.61025125
-1.2053057 -0.99460471 0.61968017
-1.2153772 -0.78141987 0.6135639
-2.5652401 -0.5505175 0.61742234
-1.950353 -0.055466443 0.61893874
-1.4765821 0.30612016 0.61237532
-1.5241845 0.89318514 0.61729813
-1.4566131 0.99489903 0.61963665
-2.8212168 1.952778 0.61995834
-1.5285207 1.9769573 0.61444396
-1.3442935 2.2353592 0.6169821
-1.5705433 2.3595295 0.61285079
-1.5898081 -2.3456712 0.62634909
-2.6212075 -1.388647 0.62464553
-1.1160657 -0.38869303 0.6204406
-2.7095973 0.31908956 0.62739938
-2.730998 0.39906937 0.62822688
-1.3260686 0.84573454 0.622904
-1.3270419 0.89378548 0.622904
-1.2691443 0.90885329 0.62290406
-1.498091 0.92311311 0.62264949
-1.3908372 0.96463192 0.622904
-1.1736023 0.99993891 0.622904
-2.3824997 1.0339155 0.622904
-1.1991512 1.073284 0.622904
-1.2183113 1.0981147 0.62290406
-2.55779 1.1882164 0.62528402
-2.2482097 1.2412058 0.62368715
-2.2501152 1.2579612 0.627581
-1.3747075 1.6197447 0.62623739
-2.5921791 1.6652427 0.62221515
-2.189549 1.782045 0.62570691
-2.080698 1.8442172 0.6243934
-1.3744018 -2.0564766 0.63758421
-1.0833699 -2.010263 0.63103491
-2.3196445 -2.0047469 0.63761097
-2.3170984 -1.8363497 0.63759297
-2.3588512 -1.6090177 0.63750112
-2.8954701 -0.84097481 0.63030815
-2.8333859 -0.68055934 0.63709593
-1.2330891 0.81830049 0.63047993
-2.5268581 0.84337735 0.63246202
-2.3608007 0.8557477 0.63246202
-1.0894918 0.87806928 0.63318908
-2.0988023 0.89635986 0.6389702
-2.5992632 0.92405224 0.63246202
-2.6546023 0.95782369 0.63246202
-1.3224472 0.95966697 0.63246202
-1.4547319 0.97260123 0.63246202
-1.4242387 2.072247 0.63872051
-1.5309889 2.1755757 0.63839054
-2.1697953 2.180486 0.63766283
-2.5169754 -1.8851985 0.64922881
-1.7005374 -1.6102575 0.64440167
-1.2051314 -1.1546572 0.64699435
-2.3430195 -0.65492934 0.64152694
-0.89128172 0.41747138 0.64488697
-1.2951875 0.81822312 0.64973533
-2.5974016 1.4281919 0.64100802
-1.9544973 1.8524339 0.64452004
-1.102327 1.9245262 0.6417135
-1.8555573 2.1813221 0.6491397
-2.5808573 2.3276873 0.64062446
-1.6957325 2.3334048 0.64935601
-2.3957891 2.3592136 0.64356828
-1.7633588 2.4338253 0.64928257
-2.6561058 -2.1687365 0.65599608
-2.4500155 -1.6118138 0.65976942
-1.0925362 -0.60921305 0.65815091
-0.89175129 -0.26434383 0.6553036
-0.93869942 0.39753246 0.65931082
-2.6406064 0.82749963 0.65175414
-2.416909 1.1154935 0.65836573
-1.51354 1.5530788 0.65163988
-1.807252 1.7707698 0.65215307
-2.0459645 1.829838 0.65890038
-2.506747 1.9155371 0.65650737
-1.6419021 -2.3502192 0.66288006
-2.8871884 -0.79016918 0.66239941
-1.8689542 -0.42169338 0.6672523
-2.8503017 0.64586294 0.66674483
-2.6171465 0.82749796 0.66835523
-2.5252409 1.0462893 0.66612321
-1.4057035 1.0443771 0.66198993
-2.8632071 1.6022377 0.66212666
-2.1327119 1.77077 0.6614902
-1.991302 2.1397076 0.66115004
-1.4327914 2.3685069 0.66767216
-2.0120637 -2.2301931 0.67072225
-1.0987958 0.014872045 0.6762231
-1.0607679 0.49883598 0.67893535
-2.6666515 0.55959338 0.67308265
-1.327945 1.0338864 0.67031837
-2.630985 1.0583227 0.67952508
-2.6656098 1.1505857 0.67106521
-1.3143146 1.3413464 0.67392981
-2.2740865 1.4372175 0.67858362
-1.6870196 1.8365901 0.67199326
-1.6622765 1.8609016 0.67255902
-2.8668361 1.8744906 0.67658913
-1.013433 1.8985353 0.67777336
-1.4879572 2.2561681 0.67333794
-1.9930506 -2.3845778 0.68951625
-2.3055539 -2.1862552 0.68574828
-1.1917968 -2.1769271 0.6864894
-0.89308792 -0.53032362 0.68365294
-2.8422778 0.61017257 0.68379033
-2.8341801 0.68388975 0.68283176
-2.333945 0.86268353 0.68506849
-2.276365 1.0993901 0.68217593
-1.235129 1.4586084 0.6816045
-2.5313246 1.8950552 0.68121099
-1.7731831 2.0702496 0.68669832
-2.568135 2.1589885 0.68990374
-2.5859661 -2.2430525 0.6986537
-1.0784409 -1.7717965 0.69656605
-0.93932593 0.74208987 0.69296944
-1.6712942 0.90255505 0.69688028
-1.4071981 1.0595574 0.69726455
-2.4332483 1.1357356 0.69973564
-1.0265114 1.327208 0.69884443
-1.2184761 1.4958842 0.69613612
-1.7925154 1.7707698 0.69030881
-1.7334399 1.8365901 0.69650793
-2.094749 1.8447919 0.69704187
-1.9726381 1.8693612 0.69178832
-1.599705 2.0093179 0.69414932
-1.5147537 2.2641618 0.69513333
-1.4146447 -2.164938 0.70704412
-1.0761983 -1.8466498 0.70472974
-2.092999 -1.6059673 0.70341396
-2.7123542 -1.1626992 0.70873511
-2.7162824 -0.69373357 0.70922172
-0.90409172 0.48997393 0.7081629
-1.3266497 1.0092969 0.70169091
-1.1115446 1.0074383 0.70096403
-1.5458194 1.0854599 0.70993096
-0.89431411 1.2702246 0.7078808
-2.1184139 1.856807 0.70960635
-1.6970799 2.3139215 0.70800936
-2.612639 -1.7159433 0.71444595
-1.7492497 -1.6079994 0.7181263
-1.457463 -1.5870068 0.71953595
-2.5665019 -1.4174168 0.71193957
-1.0500107 -1.1757023 0.71454197
-1.6660166 0.1892831 0.71687996
-0.89880872 0.55689675 0.71681923
-2.437963 0.81894797 0.71441954
-2.5377822 0.86576474 0.71538258
-2.123868 0.867181 0.71605986
-2.8579831 0.94267702 0.71354038
-1.3468335 1.132225 0.71030217
-1.1389432 1.1347893 0.71493214
-1.105836 1.1369972 0.71814704
-2.3828259 1.563781 0.71157706
-2.0708034 1.7272202 0.71977162
-1.7288761 1.8164811 0.71272171
-1.8417764 1.8593748 0.71959364
-2.1988244 2.2643306 0.71340632
-1.8705826 2.3212757 0.71790314
-2.1618011 2.3879325 0.71004117
-2.0533118 -2.235764 0.72666639
-2.3158309 -2.187398 0.72528899
-1.0929419 -2.0362458 0.72757125
-2.1023252 -1.6040981 0.72877347
-2.6866221 -1.0650334 0.72204393
-2.1080384 -0.65266252 0.72733879
-2.6975188 -0.47566658 0.72680414
-2.6946864 -0.3480238 0.72019839
-2.8637674 0.37565449 0.72609603
-2.8388622 1.3968563 0.72127426
-2.6247945 1.4112504 0.72836232
-1.506297 1.4918653 0.72439933
-2.4161046 1.5317523 0.72349817
-2.2714982 1.6441629 0.72237569
-2.231277 1.7272201 0.7268011
-0.92719448 1.8497099 0.72814041
-1.6702921 1.864339 0.72033501
-2.0390251 1.8708 0.72539479
-1.9591824 1.9868122 0.72123057
-1.0814825 2.1085629 0.72902179
-1.4946337 2.2437057 0.72919172
-2.3213153 2.2691822 0.72981501
-1.2662501 2.2863219 0.721973
-1.5937915 2.310235 0.72981501
-1.9756064 2.3226717 0.72726685
-1.8243902 -2.3634524 0.73531252
-2.5383878 -2.2792754 0.73432803
-1.297255 -2.0703456 0.73993552
-2.0229611 -1.6072835 0.73061043
-2.5806751 -1.4396738 0.7393347
-2.6087427 -1.2901658 0.73004419
-2.4133794 -0.79536879 0.7312457
-2.153131 -0.78680801 0.73088878
-0.89684343 -0.015419913 0.73275518
-2.8762136 0.30165184 0.73178589
-0.9688521 0.40336776 0.73338628
-0.89664477 0.46188027 0.73069155
-0.92627883 0.47270209 0.73285604
-2.8341801 0.5856126 0.7338329
-2.6186914 0.8184166 0.73099059
-1.214821 0.82748574 0.73224783
-2.4225554 1.3689934 0.73662281
-1.4446313 1.7837148 0.73409104
-1.8091735 1.8708 0.73411393
-1.6547621 1.9126863 0.73908377
-1.4589566 2.0736649 0.73539531
-2.4157505 2.1798668 0.73342294
-1.7394693 2.2005858 0.73763651
-1.4569473 2.2260482 0.73376203
-2.2702909 2.2514148 0.73048502
-1.5801132 2.2536969 0.73001802
-1.2670126 2.270479 0.73012054
-1.6466724 2.299912 0.73303723
-2.128263 2.350739 0.73578572
-2.5208831 -1.9083056 0.74972773
-2.4880917 -1.6398053 0.74038464
-1.7345703 -1.6060917 0.74821866
-0.90129942 -1.0962484 0.74283844
-1.9545031 0.1744962 0.7457273
-1.9354535 0.86701548 0.74434996
-1.1025755 0.87399018 0.74389803
-1.3566718 1.1279402 0.7409209
-1.3133321 1.1756253 0.74615616
-2.9004068 1.2388827 0.74615246
-1.5306454 1.2707319 0.74750435
-2.2475116 1.3452578 0.74372864
-1.2796946 1.6137433 0.74268055
-2.3530045 1.6968446 0.74528438
-2.3439386 1.693773 0.74177212
-1.4157898 1.6904888 0.74823856
-1.7022731 1.8708 0.74279737
-2.6065016 1.9778024 0.74616808
-2.6277616 2.0535409 0.7490055
-2.0378222 2.173619 0.7440697
-1.5761539 2.2196579 0.74022388
-1.6493272 2.2978275 0.74789572
-2.0109658 2.3261585 0.74035192
-1.9604465 2.3812802 0.74212146
-1.0762396 -1.8651518 0.75178695
-1.2278221 -1.7212689 0.75633836
-1.1788751 -1.3807495 0.75010943
-0.97863996 -1.1296182 0.75897944
-0.95507205 -0.72089541 0.75679898
-2.486285 -0.71435469 0.75863767
-2.4316399 -0.71577644 0.75660801
-1.0567181 -0.69361073 0.75740993
-0.89902431 0.24749087 0.75215411
-1.5150197 0.82679081 0.75108218
-1.7772188 0.90259182 0.75591189
-2.3295622 0.99491417 0.75988197
-2.4152572 1.1279368 0.75121254
-2.5028372 1.3486052 0.75115442
-2.546056 1.4073098 0.75890177
-2.5772758 1.5376887 0.75828093
-1.3593639 1.5302871 0.751441
-1.5286646 1.6070337 0.75202793
-1.7438173 1.7272201 0.75985456
-2.7530284 1.8143399 0.75301313
-2.6368129 1.9935343 0.75011981
-1.4644305 1.9907484 0.75647479
-2.6728425 2.0855193 0.75405252
-2.2784574 2.1033666 0.75276548
-2.4096696 2.151289 0.75843251
-2.1904624 2.1877763 0.75307107
-1.4817994 2.1954122 0.75258911
-2.2798376 2.2490647 0.75265265
-2.2190218 2.2737784 0.75554317
-1.9752066 2.3029046 0.75420851
-1.8060436 2.3602047 0.7505185
-2.2038283 -2.2158566 0.76628089
-1.2073976 -2.1682012 0.76997811
-1.0315065 -1.9511987 0.76865286
-1.076237 -1.8608756 0.7613222
-1.2239155 -1.6748707 0.76971185
-2.5831146 -1.44253 0.76339829
-1.2051332 -1.1713508 0.76465321
-0.89492446 -1.1462793 0.76474166
-0.88057709 -0.93911999 0.76336801
-2.8752382 -0.75654292 0.76044989
-2.7134206 0.49894783 0.76055753
-2.1508634 0.86609483 0.76830369
-1.5228273 0.90825933 0.76363611
-0.89424443 1.0462302 0.76061368
-2.561759 1.175488 0.76917684
-0.89146161 1.1834447 0.76109505
-2.2294812 1.2196432 0.76489818
-1.3291681 1.3652225 0.76568234
-1.2420552 1.4579369 0.76861101
-1.5379179 1.5568178 0.76160228
-2.8966558 1.7091048 0.76857305
-2.0925217 1.7272202 0.7676686
-1.8465502 1.7707701 0.76617688
-1.3460333 1.7719283 0.76524663
-1.9182588 1.9061879 0.76985979
-2.2716374 -2.3214924 0.77798903
-1.6389949 -2.2352717 0.77466625
-1.6639812 -2.1775773 0.77846003
-1.0642892 -2.0204282 0.77038288
-1.1694968 -1.4425302 0.77389878
-2.6828034 -1.2259283 0.77959669
-2.2278476 -0.070104018 0.77946383
-2.071799 0.13923186 0.77614331
-2.7254341 0.24282691 0.77191025
-1.3253834 0.98525894 0.77316928
-1.1175396 1.2169243 0.77019298
-1.6080613 1.8816345 0.77770066
-1.6630614 1.9171818 0.77938533
-2.1452782 1.9293925 0.7783429
-1.6040857 1.9616352 0.77460134
-1.2038378 2.1003282 0.77501863
-1.3916273 2.1819098 0.77093351
-2.239553 -2.2562828 0.78764975
-1.6271225 -2.2392154 0.78358436
-2.5232918 -2.1909072 0.78280163
-1.8087513 -2.1702547 0.78294456
-1.3020921 -2.1607149 0.78537047
-2.622649 -2.1003489 0.78062129
-1.2904464 -2.071434 0.78952038
-2.5346489 -1.6555951 0.78481764
-2.7416284 -1.6320438 0.78964746
-1.7955142 -1.6045243 0.78290319
-0.93320978 -1.6009774 0.78003132
-1.0530128 -1.4067829 0.7826699
-2.6393638 -1.3461518 0.78936779
-1.1813585 -1.3367475 0.78936189
-0.85984516 -1.0853877 0.78916323
-1.0768284 0.0063068625 0.78859651
-2.5034363 0.76538014 0.7834788
-2.4751487 0.76518583 0.78484321
-2.6444225 0.81846839 0.78414601
-2.1272688 0.86677361 0.78568321
-1.4444951 0.86541724 0.78312492
-2.3437736 1.0157058 0.78640878
-2.3755035 1.0884821 0.78905243
-2.2170596 1.419984 0.78155124
-0.99392569 1.8908637 0.78575528
-2.0164204 2.0549562 0.78135335
-1.3110795 2.1438723 0.78132939
-1.6288295 -2.3324752 0.79036582
-1.7459061 -2.2399149 0.79261434
-1.3181536 -2.1151626 0.79146367
-1.3057339 -2.096302 0.79418933
-2.5294676 -1.8845329 0.79110032
-2.5425925 -1.8228217 0.79490483
-1.0761777 -1.8081882 0.79633647
-2.655169 -1.6997294 0.79884428
-0.8853606 -1.3493353 0.79232514
-1.249666 -0.70573163 0.79083395
-0.88744617 -0.7020157 0.79281354
-2.874023 -0.2204822 0.79996538
-2.8200097 0.40158758 0.79106808
-1.7382975 0.89342058 0.79983592
-2.6699128 1.1097785 0.79705334
-1.3908439 1.100086 0.79414749
-1.5703299 1.1583476 0.79357535
-1.1175213 1.226248 0.79162991
-0.88268155 1.2865139 0.79646879
-2.508538 1.348404 0.79864728
-2.4190426 1.5295075 0.79731065
-1.7874225 1.77077 0.79359376
-1.6057026 1.8154871 0.79895329
-1.7328357 1.9680597 0.79478753
-2.6525283 1.971007 0.79288328
-1.1298547 1.9746474 0.79392231
-2.4316041 2.0836554 0.79487568
-1.3500545 2.0956686 0.79819649
-2.2074983 -2.3097341 0.80245948
-2.3311248 -0.93020749 0.80915207
-0.95084101 -0.73184276 0.80867887
-2.7832096 -0.7270776 0.80085921
-2.7003303 -0.41309977 0.80770445
-2.8642478 0.42863384 0.80889654
-1.2474718 0.84197354 0.80608368
-2.5284324 1.2119505 0.80073273
-2.9005857 1.3894016 0.80484855
-2.5692601 1.4050599 0.80594325
-1.3424833 1.4696857 0.80964124
-2.3483226 1.8113122 0.80566204
-2.4617026 1.8732271 0.80953187
-1.3387429 2.0314984 0.80508524
-1.205056 2.0559843 0.80219221
-1.2905588 2.072608 0.80832815
-2.2325728 -2.2840343 0.81876194
-1.6669416 -2.2842782 0.81766164
-2.5185869 -2.0572553 0.81787694
-2.2683425 -2.0409846 0.81424236
-2.7149575 -1.9107049 0.81214577
-1.2946647 -1.621436 0.81147468
-1.4457495 -0.75281525 0.81447089
-1.4346795 0.1527051 0.81698084
-2.730756 0.65578794 0.81905204
-1.9355545 1.012265 0.81657052
-1.3992484 1.0694677 0.81313467
-2.1028037 1.0890605 0.81303197
-1.764321 1.1069163 0.81213325
-1.9880054 1.1145366 0.8122499
-1.6645577 1.1301116 0.81263644
-1.2779472 1.1969365 0.81692547
-2.0047252 1.2003858 0.81359196
-1.9291493 1.212472 0.81303203
-1.6983275 1.2127976 0.81303197
-1.5954615 1.2287257 0.81303191
-2.292738 1.2644262 0.81303203
-2.0848186 1.2678403 0.81303197
-1.7550621 1.284236 0.81303191
-2.8772588 1.3017677 0.81958455
-1.649713 1.3361876 0.81303191
-1.6079208 1.3570032 0.81579369
-1.7201905 1.3688077 0.81303197
-2.087611 1.387569 0.81303203
-1.9911096 1.4250183 0.81303197
-1.6548221 1.4373156 0.81678271
-1.6457136 1.4683597 0.81303197
-1.7728764 1.5189426 0.81303203
-1.7032933 1.5271568 0.81303197
-1.7964413 1.5329655 0.81819367
-1.9954693 1.5910519 0.81897414
-1.8757875 1.6034439 0.81914067
-1.8367488 1.6187048 0.81934571
-2.0455935 1.6414337 0.81965101
-1.6043142 1.6479601 0.8197099
-1.7975581 1.7133876 0.81841701
-2.542366 1.7912422 0.81354094
-2.3211551 1.8607292 0.81960344
-2.4201312 1.9628155 0.81450975
-2.4134858 1.9771283 0.81072086
-1.3389052 2.0357947 0.81058216
-2.5602942 2.1096213 0.81139988
-1.6080736 2.1334875 0.81030095
-1.68787 -2.2804837 0.82923388
-1.5860083 -2.2834547 0.82129502
-2.3598764 -2.2206297 0.821055
-2.2407851 -1.5900252 0.82587957
-2.8720107 -0.8627851 0.82234079
-1.2372444 -0.83757544 0.82388353
-0.90931028 -0.74816978 0.82803154
-2.2239106 0.12139954 0.82536602
-2.7307596 0.27465135 0.82764697
-1.3592359 0.83416903 0.8201586
-2.2964573 0.95146203 0.8200841
-1.4858615 1.1805284 0.82190305
-1.3023899 1.1841044 0.82276058
-1.1049011 1.2282467 0.82681185
-0.88649642 1.3429407 0.82295275
-1.1445441 1.7899058 0.82959688
-1.3392478 1.8171787 0.82772493
-1.8435307 1.8396916 0.82694471
-1.2861372 2.0410943 0.82023388
-1.7443576 2.1414628 0.82232893
-1.707764 -2.2755847 0.83212411
-1.2335875 -2.1158128 0.83413953
-2.4951744 -2.0438187 0.83403635
-2.2312651 -0.93781519 0.83891368
-2.8637807 -0.38531572 0.83798331
-2.8631501 -0.27183363 0.83954436
-1.0423841 0.49904746 0.83323157
-2.4810016 0.81828886 0.83005714
-1.274292 0.82744122 0.83735192
-1.9716452 0.86649364 0.83353204
-1.664135 0.86647344 0.83697009
-2.6036251 1.1347017 0.83490682
-2.5748661 1.1493702 0.83488423
-1.4785343 1.354766 0.83472592
-1.6041126 1.7180324 0.83704317
-1.2079378 1.8051176 0.83727515
-2.1530504 1.8130028 0.83377898
-1.2841599 1.8899524 0.8383559
-1.7480793 1.9027238 0.83330429
-1.9581733 2.1390324 0.83029628
-1.2210565 -1.9760853 0.84086502
-1.4721042 -1.9588176 0.84141803
-1.2259049 -1.9454087 0.84919387
-1.0523443 -1.8724735 0.84423941
-1.3765926 -1.5612943 0.84073853
-0.91618752 0.25831825 0.84039783
-0.9134441 0.6786744 0.84989327
-2.4918704 0.81830871 0.84524494
-2.5076063 0.82745641 0.84656739
-1.9000376 0.89337301 0.84408426
-2.4110126 1.0188161 0.84779894
-2.4009571 1.7186278 0.84607124
-2.2773175 1.7667701 0.84542471
-2.191988 1.7839916 0.84133166
-2.1675689 -2.1946018 0.85654175
-1.3968606 -2.1287241 0.85969138
-1.3072169 -2.1091328 0.85506189
-2.5791857 -2.0592732 0.8578043
-2.5502219 -2.0015752 0.85218251
-0.87347281 -1.3746865 0.85447598
-2.4107168 0.089153819 0.85040957
-0.91406113 0.7019946 0.8518436
-2.4455125 0.81824911 0.85410416
-2.0320539 0.89336175 0.85259855
-1.172393 1.0504539 0.85146797
-1.4785588 1.3509511 0.8566612
-2.8629532 1.4069611 0.85092187
-2.4829638 1.5620968 0.85533708
-1.9813898 1.6805016 0.85350096
-2.2031765 1.9808712 0.85471869
-1.1425933 1.9825902 0.85114074
-1.565008 2.0040443 0.85050416
-1.5009251 -2.146337 0.86445802
-1.9961202 -1.9247501 0.86214358
-1.2536631 -0.83264589 0.86118782
-1.064803 -0.66321284 0.86649114
-2.8522346 -0.13626099 0.86677957
-2.8502831 0.0074317679 0.86911851
-2.2773621 0.040428888 0.86087096
-2.8438277 0.17958099 0.86729819
-2.8557096 0.25385562 0.86195356
-0.93546093 0.39205831 0.8695721
-0.926768 0.40207428 0.86052495
-2.7130945 0.76600307 0.86944193
-2.6248782 1.2882071 0.86911398
-1.2398181 1.4011713 0.86193192
-2.5242381 1.5613811 0.8656894
-1.3210949 1.6495783 0.86308211
-1.7393219 1.6680324 0.86388844
-1.989453 1.694876 0.86286277
-1.1078895 1.6906294 0.86465454
-1.8622742 -2.1795397 0.87163925
-1.1977849 -1.8743711 0.87479538
-1.7944597 -1.8672516 0.87886423
-1.3555955 -1.7909346 0.87799466
-1.2202401 -1.7663682 0.87368906
-0.94787139 -1.6024883 0.87000471
-2.1442778 -1.5956029 0.87982434
-2.4473019 -1.5728674 0.87229949
-1.8709848 -0.90424383 0.87896192
-2.8490067 -0.5976305 0.87064266
-0.93097371 0.47942305 0.87679958
-2.8407793 0.57044798 0.87804657
-2.1741672 0.89331353 0.87583679
-1.8246384 0.90245295 0.87864882
-1.1228261 1.1658922 0.87399036
-2.8439946 1.1790402 0.87190068
-1.2148793 1.221303 0.87307823
-1.2714185 1.5412549 0.87585217
-2.6131039 1.5668422 0.8788687
-2.4134154 1.5826135 0.87430739
-1.2016575 1.6075618 0.8725543
-2.2931249 1.6495394 0.87494671
-1.1120304 1.718647 0.87956965
-2.0902367 1.7333241 0.87832975
-2.1357388 1.7484672 0.87347746
-1.6579267 1.7597588 0.87593931
-1.702598 1.9337487 0.8794663
-1.154655 -1.9439669 0.88923097
-2.4053898 -0.88089997 0.88486463
-2.8371494 0.15173848 0.88637644
-0.95350015 0.48320216 0.88798207
-1.9661473 0.89332181 0.88290966
-1.2010469 1.3841374 0.88601816
-2.545773 1.3919053 0.88682449
-1.6123126 1.5839939 0.88977027
-1.1614507 1.5874698 0.88116407
-2.5959044 1.7853515 0.88131022
-2.8462703 -0.98486829 0.89035577
-2.7256131 0.22015631 0.89943469
-2.1708245 0.23295906 0.89491856
-2.8043957 0.3329598 0.8985104
-2.825763 0.41006371 0.89338714
-1.1546321 0.55272293 0.89829564
-2.0529194 0.90243417 0.89303011
-2.3969243 0.91199923 0.89269519
-2.0617108 1.0426919 0.89770502
-2.7112789 1.0711367 0.89561343
-2.6979103 1.2822751 0.89572275
-2.5566654 1.5052092 0.89974666
-1.5364391 1.5284941 0.89770508
-0.98361564 1.6337982 0.89170533
-2.5098956 1.6491647 0.89735991
-2.612937 1.786587 0.89090508
-2.5670962 -1.69419 0.90540236
-1.6307149 -1.5924923 0.90070492
-2.7299867 0.26820314 0.90729713
-2.7263236 0.33416852 0.9037689
-0.97005677 0.54509753 0.90852535
-1.1573206 0.59610969 0.90737647
-1.9927999 0.90242046 0.9032355
-1.8311583 0.90241712 0.90566939
-1.2063249 1.0431128 0.90950304
-2.55019 1.1227955 0.90880007
-1.1188341 1.1575541 0.90833879
-2.4785705 1.3104359 0.90128809
-1.2051486 1.3369998 0.90258104
-1.1756599 1.3794565 0.90365088
-2.2728581 1.3943007 0.90120888
-2.5809507 1.4109709 0.90057033
-0.98195386 1.4219559 0.90536606
-0.97916043 1.49875 0.90307337
-1.255627 1.576798 0.90790808
-1.1618551 1.592455 0.90477419
-2.3010445 1.6920162 0.90747297
-1.701242 1.8211443 0.90304351
-1.1648633 -1.8666773 0.91154045
-1.1785762 -1.8166041 0.91631651
-2.2873969 -1.6387281 0.9139542
-2.4779763 -1.6155941 0.91928065
-0.92558599 -1.0919386 0.91437995
-1.2390616 -0.82550377 0.91198707
-2.7390168 0.20926851 0.91869372
-0.98912573 0.29818305 0.91137654
-2.7928329 0.54109055 0.91496313
-1.134798 0.81852996 0.91502959
-2.5758266 0.8394289 0.91036129
-2.79546 0.85293049 0.91322291
