# .PCD v0.7 - Point Cloud Data file format
VERSION 0.7
FIELDS x y z
SIZE 4 4 4
TYPE F F F
COUNT 1 1 1
WIDTH 1567
HEIGHT 1
VIEWPOINT 0 0 0 1 0 0 0
POINTS 1567
DATA ascii
-1165.306 -246.66986 566.48022
1518.5946 311.86322 243.2139
-59.740898 -587.68677 299.0871
68.022125 160.55122 971.67767
-1530.2225 16.917831 491.24982
1533.7145 -129.78134 277.32874
287.79321 -571.13843 237.88686
892.74133 -44.466969 282.202
-1184.8129 -131.17632 132.32608
-958.83411 -549.37787 526.03876
-1224.9576 -378.125 270.02435
648.20972 -581.32678 202.95067
-1514.9507 317.823 154.5336
536.86719 -498.50146 739.71863
-1270.5336 -587.35419 216.27744
-1349.9402 302.20999 132.25249
-1273.9275 -378.125 244.50078
825.13397 600.77338 370.71805
1327.6493 -541.01904 379.01025
693.73846 372.95819 920.94659
-362.59048 560.81775 104.46691
-179.47266 577.82568 103.90659
-879.92285 -322.62402 112.08987
-945.74005 443.578 318.41092
-711.85443 -197.81575 668.95679
-15.72545 237.84375 964.52734
624.86462 86.672668 103.83024
1300.6345 -497.70404 621.37769
958.94672 -592.08197 264.48532
332.05005 598.66199 380.6217
1145.1736 288.1806 730.97168
-1460.3967 -380.18842 400.7395
1159.9565 -143.43454 116.11905
686.98419 378.125 333.3945
-286.94019 -165.43175 910.46301
1067.7273 -384.46402 147.16768
1406.0657 -489.30978 247.76523
-559.89929 -570.3194 653.17322
-1247.3071 484.30225 401.93652
655.05902 -521.56714 239.38927
272.37015 163.30669 976.96436
1443.8116 -410.81512 185.14098
628.32507 -13.841621 247.56923
255.39203 -484.02612 775.33429
-1224.3585 -553.56683 330.38763
947.84399 612.52502 355.17267
68.519775 598.67334 357.5094
714.89856 531.05188 359.82932
-1239.407 519.72382 119.42986
-1143.9657 -585.16309 54.878777
1016.762 -203.41302 800.41626
867.95691 -616.99298 -1.21416
-1343.7374 417.21362 412.9473
1150.08 -380.52356 114.88163
811.35956 243.21773 889.4494
36.117783 0.020786459 113.52438
-1311.9763 557.91479 231.66577
-1094.9559 484.49948 396.93875
785.35242 -532.9386 385.22141
-221.63663 229.13055 931.27338
1067.0994 74.334503 236.52248
-304.61978 275.92764 896.5885
432.08411 -196.63519 103.735
1537.3865 -55.792057 327.2287
1063.0267 421.94339 224.20276
-453.22345 461.99603 785.56842
-370.67361 439.03128 837.18103
343.55255 -579.07642 590.6012
-1570.5288 -195.81334 167.59773
-1250.5896 -528.43896 272.97049
906.73334 0.23246193 282.202
-721.75482 -290.3107 111.0133
887.15125 597.28906 505.04257
-1441.3486 -481.48547 393.98004
841.98224 -335.18665 104.18997
-676.7403 -358.80905 109.33947
810.97473 463.5997 441.50476
-931.02441 511.29059 138.07855
-1170.8186 378.125 218.92296
-1311.4417 -346.2612 398.37781
-693.39966 570.6532 521.59052
1037.0166 332.16476 104.51311
-1362.5935 -424.64465 407.91718
-1318.6998 -562.28912 441.40845
1029.46 -616.99304 197.74123
-1265.1067 450.19223 382.74445
-766.12561 222.95622 629.7594
-694.90332 473.78922 633.72992
-1030.4148 -493.63126 387.78519
676.96814 96.640198 103.91656
-882.50287 -569.27515 290.95285
-1065.1311 -248.70326 119.55313
-433.32635 123.17626 115.93964
-1595.8252 212.8468 267.87491
-799.16241 204.9487 117.28445
-1103.8845 -395.45551 565.48315
-141.42018 -595.57141 402.30066
-215.54773 537.49023 669.14844
-1139.7163 581.08246 398.55182
1514.121 317.64185 410.57358
777.85815 -563.05792 388.67169
-491.71109 564.57233 104.43971
509.99252 -602.39551 118.26418
-1232.292 -544.49103 312.32559
1269.2689 -424.22708 131.50969
-1260.7166 -433.9769 387.30133
1475.8768 -91.090401 178.20222
1390.1267 255.76981 191.05099
-1203.6018 -541.46893 346.45004
1329.7057 308.59601 140.35408
-1531.5524 347.12543 178.58876
881.07513 -545.91821 31.978003
-790.66309 -482.18231 603.37823
-803.00165 587.19574 426.05225
-1318.3457 397.03979 116.56397
-1317.2139 -534.81293 158.00197
-537.07678 -518.6203 694.52161
496.53412 150.97397 967.92639
-1539.932 148.9722 147.24957
700.73376 -552.59082 343.75598
1442.8542 0.69166416 622.04291
878.46375 587.09772 9.3425894
1499.7458 -336.56287 307.81665
-1590.9918 -246.08205 296.03983
584.92493 -240.16785 955.66309
1540.4357 66.332581 336.10617
-318.72379 -70.955948 117.5787
-174.11552 281.31815 937.64062
-1478.042 502.43756 353.70358
988.20996 378.125 242.31009
988.23877 368.63699 104.4323
1070.5646 -108.47166 104.91914
-556.29431 660.13214 667.56415
-592.62024 -299.15848 741.02258
-559.5788 671.4989 675.99274
-104.17585 386.75485 937.50067
-1088.8884 502.07278 404.75488
1045.1079 -515.07196 272.38239
1049.9333 412.59595 286.68686
1023.2922 -378.125 330.33755
-1316.9185 -448.91028 168.06729
-829.00146 287.45865 113.15141
207.55447 22.216793 110.0332
131.84319 14.66098 228.22862
-858.71069 -508.17401 277.55139
185.79446 -46.352638 981.02441
1342.9017 445.70154 148.90541
621.15356 378.125 266.78299
-544.87598 -90.042709 782.58673
838.02753 175.22253 104.18341
1236.8849 329.73828 126.94212
901.06152 211.63275 104.28786
-693.12219 -270.58563 111.60519
171.27122 -426.02634 104.65964
-1242.349 460.88547 318.72141
-218.01834 -594.82385 394.07159
-1323.7803 -163.07965 537.02802
1463.4778 213.38145 158.4904
660.81842 524.30176 276.91113
3.6634007 -550.3653 655.07391
726.58295 7.4328423 214.80658
517.83728 -280.72034 103.735
71.509705 -471.79352 803.38489
1396.8947 -55.928547 715.80042
-1227.8992 585.5376 326.01602
813.49133 -526.50671 402.53708
-949.883 498.43518 321.41452
100.22952 -147.25163 110.14
184.01436 583.26715 589.27747
-1244.2694 559.15308 316.25751
1006.1466 483.45917 225.23697
1492.4075 178.08389 220.10167
1055.4888 -433.38879 751.44733
81.954681 -555.16888 651.20239
-247.17586 -490.94214 767.08167
228.41051 -411.70795 908.47058
50.668449 549.34052 104.53949
-570.04071 -593.0365 428.71277
-411.33002 -354.19128 110.03581
1543.4487 -21.318544 339.13922
1049.5984 471.40155 710.24524
-1304.1874 -575.19305 284.80768
-865.79596 -120.40646 123.31056
-933.4079 543.55585 132.44702
746.27051 427.43579 864.13232
-1540.7473 -24.427147 143.10541
-873.16016 -556.10742 249.82968
1090.1082 -101.64766 282.202
973.57843 -108.83703 829.81842
739.07391 -272.19168 104.01947
-919.76984 -575.08868 255.12936
789.61047 577.42517 552.28937
1498.442 -400.7738 277.74704
1318.6101 271.3172 243.43683
-1422.2432 269.43311 147.71826
-81.251007 -422.55209 896.22327
-1368.4211 -330.01422 417.55389
-935.98218 13.688898 130.66068
395.82309 414.63513 103.735
-1105.6515 378.125 360.88123
862.55981 189.14505 871.87177
762.95758 532.72034 634.74744
743.98212 496.83759 440.8782
276.2912 -281.05908 104.89357
-1051.4855 378.125 112.1566
1224.9218 -480.15833 651.63202
1221.4551 -88.097382 124.76587
594.33826 445.18079 849.38531
-548.97406 -674.85382 612.18115
-1315.295 308.22321 407.48184
-1048.1115 461.70786 451.11523
567.17969 415.06201 111.15467
-843.1532 -542.22357 568.29858
66.01181 -390.46948 947.06702
-1159.7339 -597.87817 471.41034
1192.781 266.19601 726.91522
307.43423 -570.40051 609.79071
219.11189 96.726891 980.20435
1477.7432 133.72008 184.8035
-340.40912 -577.16003 262.71875
1311.5645 -197.3262 719.29211
-264.91632 580.74182 569.55121
-333.53217 314.9967 884.76709
970.43744 -100.68688 104.4028
1443.9381 -184.35699 542.33539
-927.52832 -443.578 101.12863
-809.3324 379.75906 604.78131
-502.29782 -538.20282 105.15289
899.92206 559.09644 600.79254
321.51849 -51.239704 107.49892
-1389.5188 419.33209 406.82031
1433.1505 -287.88324 570.31445
1075.6284 40.581722 784.38947
-1565.363 1.5385458 457.36151
-736.43909 -247.22086 647.51636
1318.384 355.29791 202.29285
-1585.6227 -58.813816 363.26199
-1316.9153 -399.1167 168.17545
479.24768 533.60608 674.32428
22.966793 422.45126 898.56836
358.48221 -285.42752 103.735
-1024.4674 256.9765 589.40765
346.32901 -144.98389 105.63905
-614.44757 598.62433 400.11884
-903.82532 558.61792 359.50839
850.52576 -546.28778 38.860493
769.92859 -378.125 365.41574
-675.16205 223.77203 113.93117
1332.5977 250.49896 191.05099
-703.38977 -240.2395 113.51669
-1037.3915 207.59354 121.42882
-302.36243 382.8158 887.48779
1425.0548 -296.19965 153.52582
292.2901 2.8343401 982.27325
-9.806036 134.14719 968.60431
-904.24402 -378.125 222.47739
557.51416 133.60864 103.735
1421.235 66.417496 595.32483
1143.2434 -492.52637 646.53845
-1.0980501 155.98352 968.32623
-1.2163582 -564.51801 625.56445
-994.79193 -579.51508 364.5249
863.59192 -378.125 337.67282
-944.71362 -447.72171 104.88522
926.34369 490.13324 355.36777
-146.15472 469.32855 800.69458
642.71362 510.14523 259.48111
521.00214 -487.2854 762.4845
-1355.381 396.41129 429.27896
403.09235 597.1488 363.06693
712.24451 295.763 103.97501
701.7005 509.70993 80.640266
639.98608 606.15204 239.92258
1508.9828 -295.87354 421.08405
-1233.6218 -527.8103 389.51733
-800.35822 -466.21503 602.81433
805.87061 342.25031 104.13014
1420.0521 242.12408 228.2728
-1123.0505 -549.2381 400.52417
-318.62775 255.58243 112.62746
777.03625 588.6507 52.873638
-1265.4016 -578.83496 172.97157
1374.5896 143.46707 149.52684
923.46948 -378.125 284.5863
514.1405 -540.30078 103.735
753.00421 -587.31653 378.59995
-930.74823 -459.48621 317.36871
-1297.7468 -500.66656 305.23608
-1563.2559 -22.519981 464.86224
384.94617 -549.05676 648.99554
1005.3921 378.125 244.0034
-476.62988 541.46503 105.05081
-383.86804 575.09546 571.04541
445.96063 -540.36615 103.735
-739.15515 -281.4343 638.57544
186.00922 -21.601902 110.43941
1422.1284 -368.31274 689.31812
1005.9216 569.59973 212.59152
-1346.2532 -448.79462 421.0238
119.83476 462.52011 105.0614
-934.93066 483.591 311.27084
-663.25787 478.10938 658.67676
953.42487 -116.34168 838.23956
-809.56219 -148.28073 120.69231
-1222.6055 -464.26166 96.179214
-920.57623 -480.48834 261.04337
-1061.5552 590.1604 39.138023
1282.1766 204.05037 239.71805
-1307.1649 -332.06195 447.41931
828.84552 527.95813 405.099
730.80939 -480.57492 52.159454
999.64996 612.52502 293.22595
-729.0022 -313.48892 110.24543
-929.53918 482.38669 141.58798
-1517.3063 317.3457 382.2691
-1246.3359 555.06433 146.2005
-489.51196 -504.16391 106.05846
-480.12549 492.21817 106.37347
-1086.309 -489.77118 452.32898
-547.08502 573.61798 558.81946
-1506.0962 -280.41403 157.56039
988.69965 -407.23236 380.12399
1004.8568 48.177074 201.116
-1074.7194 -487.62036 390.73987
1440.1543 162.00238 154.34634
1407.1049 407.48642 534.29236
-917.03699 -573.27979 288.37326
-495.86893 -323.92047 110.84801
-1020.3473 -484.05615 63.747154
-1549.441 -118.35872 438.25015
-1465.051 -288.56006 491.09967
666.72272 -516.72119 294.62833
-1131.8704 259.72653 574.13104
-1268.5935 -464.6615 245.79077
-1314.0679 138.83337 540.77399
785.94763 539.02368 401.08368
1447.6749 -440.96152 454.87219
267.37531 -337.73508 104.20982
781.33984 -378.125 249.78563
-1101.9644 559.13702 187.87967
-849.32214 -584.12787 244.0755
-1457.3801 -493.81311 205.92563
922.87012 545.90723 374.34363
1124.1396 -158.93188 751.57471
693.78021 165.89018 103.94442
692.81696 400.28723 903.99707
671.07861 150.11726 103.90681
413.73376 592.70898 107.69591
-337.2818 -592.81195 447.38641
-106.38782 478.01859 786.13135
-12.65061 -425.84488 891.461
-693.09155 426.84946 107.63148
1483.8682 410.19427 244.51651
-996.62317 -432.07941 437.04407
-1339.3186 574.83954 391.97964
1443.9688 -249.14267 539.03479
452.67841 419.30453 894.38263
-920.2085 -474.28204 586.67285
981.60059 444.5224 776.30115
1106.7594 89.279953 219.24402
643.52063 -559.15509 245.39532
314.6272 45.281647 979.72699
-1297.7886 -443.578 213.36469
-1103.9858 -490.67987 45.698647
1152.2117 431.77789 115.14871
719.17023 -539.45264 367.71851
623.80548 -474.6572 364.58514
-1236.0138 -510.20056 333.04611
959.92975 378.125 135.06007
1298.1683 -549.16779 453.66943
357.52362 -55.995811 106.7643
791.64941 -580.8103 29.443727
695.61908 -576.79156 549.24084
176.21127 393.14444 943.04816
-1307.6545 561.77191 265.91684
-287.67899 594.55518 461.57947
597.15332 251.23752 103.78432
825.13397 600.40063 50.62175
-719.06311 -592.78925 424.00284
1045.7744 -28.31423 800.91345
-902.51282 126.79152 605.57031
-1095.0017 504.93628 391.17438
1527.4188 0 248.39597
566.12769 -380.59528 148.81392
662.53137 -509.86554 156.6691
622.20923 456.54684 362.5545
520.31982 -327.83224 952.61548
-208.27417 403.62674 907.79944
1438.3807 361.3363 502.6012
-1169.2375 -460.29279 426.75687
781.30731 -592.08197 197.75793
815.75543 -533.14221 388.99377
-623.24316 580.33704 284.18994
871.64685 481.27997 42.829704
892.28015 -613.46863 388.1427
-1435.1871 349.72244 490.5556
978.17841 28.010178 104.41563
899.48376 466.73553 54.110584
709.52722 -378.125 238.03033
-1144.3722 579.32465 381.4584
-1084.3513 323.52991 115.59495
-804.63672 -390.8486 108.09425
1453.1837 -69.905243 570.98108
-555.6355 -504.95465 700.28235
565.14471 -565.57697 183.9986
671.17395 505.88937 129.4926
-1598.3135 7.0063915 366.797
1250.2136 -376.39755 128.82205
1068.7474 -573.09955 200.11578
1404.5562 -108.87656 714.34662
-1302.208 -539.81274 479.58456
1053.3641 -505.15552 277.93265
-990.45013 348.48694 112.52934
-779.19653 -606.80603 127.11987
1059.5859 378.125 105.96548
-437.28644 476.96967 781.98694
652.16913 555.96442 198.33827
-1492.0557 -465.08795 159.62363
-1263.0269 463.28229 230.56888
969.36536 466.51007 381.71521
1121.3247 304.7388 111.27888
1426.2063 -296.27179 253.16196
1011.1556 -595.98535 218.67
-1374.9407 516.91638 120.02383
161.58124 -581.83789 105.21028
970.91107 236.7798 817.90283
-435.09903 -572.42285 104.19697
-909.15735 588.62366 201.11046
579.9801 -600.34204 431.6019
1195.8907 -560.71326 487.4928
1436.595 -359.34747 490.58212
1166.48 64.435623 239.95909
1006.4462 -600.30042 279.91373
1307.4082 -500.56561 580.64111
1469.6533 -197.27197 170.97337
-934.25714 -546.11566 322.01489
604.32239 506.88513 722.15497
-92.143997 504.67242 734.32892
-1383.585 -571.18738 241.33527
912.95715 590.19153 513.67706
-1252.1177 -134.02988 554.84418
-5.7135468 209.11874 966.40546
700.90076 423.72818 424.51443
-939.1507 -443.578 81.151588
-949.07507 569.94861 491.85095
-28.45623 460.58435 106.96473
70.280334 434.63519 874.4129
464.1004 -225.40407 103.735
648.47302 548.85291 153.69513
765.45105 94.35347 104.06317
1262.4205 548.64941 246.31836
-1541.6147 360.84305 155.86307
-1524.2247 392.50012 353.6604
-777.9137 261.09528 113.70628
-763.2002 -568.64154 528.12402
-1040.0414 491.98941 42.550797
-686.71869 -252.32281 112.52371
-541.42981 -567.71484 573.81836
754.22375 -339.43988 104.04456
1011.8764 -509.65756 212.64209
-555.28217 -570.49451 173.89523
707.70813 -463.578 389.62402
-1462.8088 333.33575 394.76993
277.52951 -527.79541 103.735
1333.957 -385.64282 256.50266
643.10498 -525.64581 185.40442
311.33017 413.194 907.66516
98.266792 -77.949448 975.61816
-1526.2675 447.45599 326.5036
-518.66144 475.30237 746.9917
933.62366 596.37299 491.276
-1196.7521 249.44966 121.80051
540.32532 -607.1463 158.82269
1169.3325 555.06299 568.75244
-911.00293 195.8307 600.21594
69.278183 -541.33038 682.51294
1141.1008 562.5907 539.70441
-1444.541 334.52133 414.45276
406.129 206.55519 103.735
-1350.4011 401.84283 466.64914
-1608.7155 173.98175 274.89801
1471.6697 5.5216069 716.77234
-169.46425 127.66808 948.91711
-1409.4324 392.16586 403.06131
-1151.3268 -452.60406 49.575806
944.77051 -499.99158 362.83771
47.605343 544.28558 668.79712
-832.13367 -330.53427 110.76435
-1421.8031 -416.89664 405.99554
1493.9927 -96.573959 441.09961
-1033.2977 -378.125 325.13
-1031.2726 -378.125 241.36154
408.31949 -531.71783 103.735
1168.8252 554.15448 576.36096
1463.4886 -376.96857 195.27882
56.45702 523.06879 715.23279
758.80878 -494.78653 431.71237
759.30615 -579.46667 38.622879
939.10419 509.2355 95.210556
288.40091 520.20978 708.05725
-701.85425 341.72079 109.66122
1443.6904 358.67963 514.85236
707.60364 591.81006 78.590317
987.72083 -528.31738 628.9444
1059.6538 -82.506882 791.31018
1064.6073 453.32199 199.50259
-126.92322 140.19678 955.11493
894.41357 -561.23328 37.383522
-708.25183 -96.602089 121.75851
646.79407 594.72296 233.59622
-973.35638 582.82013 329.82806
-1054.6392 278.22614 117.67691
167.64154 -325.58508 106.22942
345.23834 598.52417 370.03482
-1263.8751 537.4397 271.65094
-436.17438 -200.93344 840.27527
-1013.9888 -76.833687 128.51431
-649.55859 212.32085 114.10928
-723.96918 -549.11047 588.27588
97.331451 519.34601 104.62579
-1084.4816 -443.578 405.72711
-1391.3511 -226.21935 149.34665
279.55585 -551.47559 649.80682
929.92297 480.388 76.530029
137.22171 -312.23773 966.95398
-1504.4171 -436.46274 135.46886
-396.75745 54.504669 869.09497
982.07922 167.09549 819.96167
-870.81158 -183.58134 119.81746
-243.13037 -346.13644 110.15608
-1050.3407 -219.3064 120.98219
-778.09576 -80.015099 123.98692
929.11694 -466.74695 375.04102
-1085.5917 557.07446 1.2329637
-202.26598 -384.94971 109.09196
1413.65 263.18365 207.67792
465.24811 376.27405 952.60785
696.7655 -492.78125 338.66602
-1085.457 -534.09827 398.09341
629.68744 572.96503 590.49908
-1152.4647 -530.92126 391.47476
1044.4058 314.17633 776.43988
-130.56827 98.813934 115.11767
470.16559 -554.52472 103.735
1083.4399 -29.861664 205.50809
-81.242104 584.08307 561.77344
-1573.1217 253.94548 155.08014
-1131.9739 449.53131 452.96948
122.65907 421.17242 892.88318
-1315.5581 327.63885 123.48125
89.27478 -440.75119 105.95026
1298.0051 -291.20456 714.84216
-1014.3246 275.30798 590.32336
-1092.3722 560.13782 44.078831
-827.69421 -268.63931 114.19542
942.14001 -548.54285 78.788406
12.519241 150.9789 111.70045
-1435.1179 323.71338 393.86923
30.156033 -577.48645 155.51074
-1579.3076 230.19926 195.9314
726.78802 15.031067 103.99911
301.57556 418.06018 898.34137
684.42456 -4.7187514 210.32608
1000.2676 -568.9458 171.35388
1421.0925 -25.603317 716.30096
-1238.7664 505.42279 130.21704
-1547.5536 -321.63879 180.43689
-1268.2346 447.62408 271.17447
1049.2885 595.71674 303.13333
477.77515 -318.33627 957.23267
195.81061 -547.29028 663.56195
-135.49271 -527.85474 105.22164
1535.3829 114.97295 286.77216
1066.4403 427.67218 749.17542
915.06671 598.29712 361.87872
1331.1746 146.83691 140.65427
56.2747 461.86383 824.41553
-1594.6943 -48.103683 339.62766
-570.5849 -97.112419 119.19275
-1101.1453 345.46707 114.62868
-447.30032 307.90564 828.04297
-555.96796 -302.81055 764.35345
637.18994 -585.23407 199.88324
1070.38 -98.460869 242.36218
-846.42896 -506.53247 229.06349
-1058.9474 -21.698614 132.4682
699.22864 524.20312 406.40619
-1254.6833 587.112 440.94196
1031.1089 378.125 229.81517
1161.7032 -152.39587 735.4231
-60.124062 294.91403 110.88538
-559.48163 515.05603 105.80618
-1276.5967 -444.49112 364.38376
782.85535 -489.44788 384.33585
932.23682 -404.23865 422.1116
-933.54102 563.61798 294.90314
803.64197 515.08917 395.60101
509.1106 598.66199 395.61157
-763.96649 578.17206 234.44791
308.2388 131.68129 976.68927
884.41699 -487.56952 746.23236
-321.41415 -100.00467 899.64008
-486.8801 567.55878 579.65808
961.01135 -477.97351 88.640381
-969.60101 -548.85034 94.841599
637.58337 466.23511 222.69363
-787.55829 260.22098 646.86841
-908.02893 -38.380241 128.74422
-1529.5846 -416.83307 338.75555
149.62186 -569.96179 183.7193
-5.396492 516.11047 105.46255
1497.2843 -294.23843 431.88409
742.05188 -485.10349 374.16165
1054.8761 418.40106 264.50531
734.49756 529.21252 58.895874
-641.95532 -134.70485 719.76898
-723.05603 276.14182 652.18091
1439.6382 6.5344334 621.50726
1343.9155 473.54718 555.73657
-358.50137 568.32843 588.78979
-1021.8722 -461.37637 384.16956
-1428.0731 557.15778 310.50616
-1104.5642 555.5155 1.0974175
83.935219 -545.24622 676.78326
951.5741 -371.39767 104.37155
-1118.2812 474.1525 452.7774
870.37964 602.48956 275.51974
165.64407 565.26355 205.25023
-120.59342 389.8269 932.16943
-562.30878 547.52502 624.21619
-1609.1045 166.83517 274.89801
-1115.4838 -476.60474 388.58859
-1405.8362 -276.86398 511.15057
1229.7256 -538.15955 204.79344
1004.937 -607.22894 220.27242
932.646 505.51785 350.45547
147.57579 438.66162 867.26392
554.80994 398.8511 103.735
-561.51215 569.94672 240.55811
627.04663 540.79803 652.57629
-945.09576 516.60168 337.36905
-1411.384 116.8341 143.98055
-17.296343 -259.76016 962.55493
-548.54688 653.81299 674.138
-256.96509 -584.81787 150.00131
-1135.1322 584.15253 400.28918
-419.06818 -596.04877 358.1102
-261.72055 3.8249841 933.47015
972.45563 593.46246 127.24509
385.65677 -508.92877 725.41113
1132.3235 -442.23676 112.65691
1445.981 207.35776 711.17548
1187.4281 433.69608 119.96658
-840.91125 573.84625 467.1557
908.21118 -17.310453 869.17792
922.18188 74.334503 250.19211
-508.85678 -584.15576 503.67703
-807.26141 -402.6806 107.79804
-379.03583 -584.40686 103.84367
725.948 378.125 149.66052
-956.15381 -533.12866 91.192291
-1291.9998 472.09393 310.2919
307.52603 -70.893272 107.46269
357.8252 572.42969 603.51636
1028.6237 62.923122 279.37582
853.72058 -497.99887 26.820065
-528.48871 553.07001 610.81458
-198.33963 -539.27686 663.22614
392.84512 182.43387 971.24982
818.58472 -90.700737 902.50586
-677.44427 -178.39003 116.5489
252.24277 509.95895 103.735
-946.14722 -523.63263 103.04631
-399.81522 -597.74866 390.55542
-978.75574 267.48047 596.94824
-1148.0564 568.33899 199.77037
51.324814 223.87347 109.89468
-526.35437 409.95218 108.60593
-10.370621 17.975298 114.11237
-852.44434 378.125 204.55821
790.74249 58.406448 918.77551
658.2821 -582.4021 293.21591
-556.0528 -506.87851 697.96436
599.55188 -332.19302 103.78829
601.72577 596.19025 258.15759
-1172.7158 513.88013 57.971508
1459.1969 -176.62595 155.74225
666.45764 590.19299 124.10159
801.73376 -318.34216 886.20886
-1236.1451 599.46899 435.58844
490.97308 -239.7058 103.735
989.39142 216.74055 811.53125
1474.2651 -105.12488 175.52736
810.66223 526.62469 404.14429
298.19476 88.356232 978.76062
1255.6761 -206.37686 129.59253
-1293.8472 500.43027 453.29883
-314.69431 -300.513 111.42031
1167.736 -213.37582 117.18913
-1035.4467 -568.33899 91.183319
-855.58362 459.46429 596.67834
785.87903 605.99994 499.54816
827.36169 528.4292 44.276024
620.27039 468.89008 799.5379
1027.457 -59.571114 201.116
686.71356 -378.125 208.04787
-1524.3951 119.45261 145.71523
1436.1975 266.76456 561.50482
1507.4392 177.63292 251.43253
-263.43304 -551.7359 104.65403
1468.0695 100.83815 161.78319
1247.5752 474.37329 128.44992
-1107.5596 548.53113 389.6911
1125.7837 338.10272 731.11133
-1305.9082 -462.60815 268.99591
64.675323 -588.5863 301.18329
-49.88205 571.40771 237.7836
817.552 592.90424 338.73538
-62.981308 -460.75409 821.09283
868.68402 346.41171 104.23421
-1475.3037 402.89056 396.0874
-306.00385 338.88153 110.38642
-268.75662 211.38994 113.7842
1463.42 -78.781166 501.97382
1463.4233 -107.33186 466.94141
205.89365 -206.8743 976.60748
953.94257 -112.86964 838.3598
965.01013 -475.06894 347.84772
-243.84906 562.83923 211.78178
910.68274 593.40454 381.98175
-967.96185 -514.17865 80.795036
427.73993 602.79456 453.31903
1038.45 571.66803 227.82297
-1381.5483 480.35153 120.5546
-97.081993 463.77057 814.75427
-531.677 -316.17734 110.90421
1102.9237 -12.898428 108.97341
-1252.4272 378.125 349.0824
-572.51062 -447.26855 107.57927
861.51147 583.51727 387.03137
1283.3953 -495.20074 173.93076
1071.1417 -9.1731186 230.64746
-766.29584 -95.776466 122.87495
910.38953 580.63782 537.04565
-1212.3939 -103.49767 140.41014
-1273.4232 111.62051 551.18536
-1243.812 -500.82239 316.84439
1524.4058 259.46481 391.34369
805.58032 -580.6806 401.55737
648.61774 515.39648 246.67336
675.17218 603.56158 128.07556
-426.62979 -231.70053 113.32938
-1361.9045 396.56476 428.73233
1414.2893 -375.46921 671.62299
948.16803 -599.73438 268.46271
-1002.0448 -378.125 242.46167
1341.8824 -369.91779 262.91583
-1244.1321 130.14977 141.29155
-412.034 -260.12466 112.55882
98.307846 -501.8136 753.70038
1142.9072 555.61072 193.90094
1305.7488 124.64518 136.65616
-909.43567 553.448 242.40857
-883.26807 -468.83218 330.32245
658.36139 -590.92126 123.90414
-98.476837 -459.44067 823.41595
-1473.6846 14.624684 509.50122
628.13855 -378.125 200.86858
-619.17145 576.50446 516.27344
1511.9008 267.34222 307.4819
-1156.3982 549.25781 389.88083
-1585.4438 269.66818 271.32507
-968.89258 473.23001 361.36319
-438.26517 333.17743 827.60162
982.31024 553.83435 74.992012
1286.7528 -231.28275 211.92789
255.68863 -516.54578 716.336
973.35913 -580.80658 336.80286
754.45813 -561.34186 53.186707
-58.978283 -373.23401 947.79742
-1531.2971 -446.44171 300.82373
652.72601 -578.19147 259.1106
1202.5446 551.91779 562.21027
-1252.7008 586.75745 283.41934
1178.1135 566.69196 411.04343
702.98889 522.35535 344.01669
202.55547 265.71561 972.65259
-1037.626 561.00104 435.3208
1274.2224 -243.93842 719.69775
1009.8112 -609.64087 216.29735
878.58069 588.33899 199.06415
729.42987 -49.51825 104.00349
1213.7908 -526.52802 178.96848
-1277.0822 536.99506 363.96994
-1402.9099 566.16437 269.43726
329.16431 259.56021 104.24096
-783.08691 212.66426 116.55034
-1207.1321 493.85867 91.644295
-1111.9003 191.11313 573.18738
-1249.5999 -456.41241 399.38177
90.107803 -348.69794 961.23358
235.21341 175.84001 977.62091
-918.28516 489.35007 150.18665
-322.72498 589.55457 501.0257
1463.42 114.7971 534.06293
810.61035 -569.17596 567.37079
-1228.0868 378.125 332.4931
695.85327 -538.04138 353.91321
1136.8136 -564.57129 528.77063
-123.582 404.92953 108.51137
-928.97034 -446.89563 316.01645
1166.7351 47.275543 117.04798
1363.9321 391.17645 191.05099
-570.3175 -618.16406 610.70178
-844.97009 -541.5224 212.86545
641.52814 -532.11169 198.13475
961.92963 -210.73637 824.67212
1423.8513 -334.22629 589.87415
-403.56888 -488.01416 106.44263
-1567.7335 10.765408 431.91772
1399.619 404.33655 254.00999
-1048.7782 -445.6604 387.10358
-1230.0701 497.59625 334.47333
-955.66107 52.638428 128.81271
1000.4424 -614.69556 293.06708
334.57156 -406.28564 103.735
337.37073 -583.40625 575.54584
631.73529 378.12503 258.03229
-1274.6932 558.34888 219.96042
-1366.8341 -394.66202 433.09918
688.922 617.20233 441.43774
-1016.2211 561.49323 428.66333
-1180.3071 -503.5929 70.735336
121.62778 229.58228 972.77258
-1105.8057 378.125 297.58063
-1378.7874 -574.56287 253.49316
-1131.7307 -378.125 206.28558
-28.458401 -318.01828 109.95616
-342.52301 112.35004 888.72064
-1473.1301 -15.014185 509.60486
-1225.5748 561.49097 112.74655
-1022.8668 -378.125 266.74976
-358.77972 465.89276 818.60236
1318.074 502.74319 198.87474
-1226.5527 362.77863 115.81764
-1095.4696 514.24084 396.87509
348.76724 -193.65813 972.64417
-1271.3502 597.43903 410.90546
880.02148 378.125 230.53812
1072.3899 466.16357 105.14784
346.85086 -109.03307 106.16737
-908.44824 561.07306 267.17981
-450.92673 596.42517 364.48151
-894.87524 -539.21289 560.57214
-940.83228 504.95926 110.8456
1390.5541 408.20782 676.28308
-1419.3669 -511.3642 395.52066
672.17255 -537.88892 655.6991
1463.62 -118.83114 466.10187
501.38177 577.46509 552.82495
527.75153 -450.68829 103.735
-1258.0691 -333.00241 542.52386
-1244.6208 -220.36801 552.20203
-292.44644 580.8139 103.89075
-1346.3489 -324.58545 522.23413
570.0069 -70.663307 103.73933
-1366.8955 -406.81772 480.40314
-1142.959 -555.56342 395.32666
1293.7888 -556.22174 302.48999
-890.51135 378.12497 258.20303
806.79907 -576.99512 401.08136
1198.5385 -567.28851 328.46103
-1084.26 569.97845 272.89838
-1309.0239 -564.35468 193.31163
-992.36676 -539.60229 379.66312
1344.224 235.98599 216.99152
-884.97522 -505.55814 144.16776
-215.80565 589.50037 509.703
644.77527 -481.18112 258.88953
-107.58344 202.95436 113.13589
-1252.8523 -265.07922 123.16533
-391.68738 -596.77002 395.42957
259.63486 -595.62769 347.35767
1444.113 -339.88727 622.25256
-1560.2314 -306.48499 243.94333
1000.2441 -610.30121 275.94223
-543.45984 556.27319 613.63812
-944.54297 471.78107 323.99878
1491.5974 -9.7728481 631.3031
-403.69104 -577.05164 264.20023
-982.57184 -499.11938 74.299217
-859.23279 -378.12497 173.28928
323.59952 -549.88452 650.84271
1513.3901 87.713219 258.78769
579.45245 7.5311589 967.10486
147.71581 581.17249 552.14282
807.37988 -514.73639 -11.556664
804.97687 463.578 427.82819
-395.51794 303.79056 858.69843
314.1189 366.54602 103.735
1412.6121 -282.96457 639.34436
-542.08228 459.52612 741.82874
1314.3257 -148.24416 720.98694
649.79944 539.6134 222.12433
42.277729 -519.91498 105.33338
781.01575 -514.4483 704.20953
1393.184 -157.72479 151.37099
722.49628 -505.79849 435.01559
442.76239 597.18762 187.88441
1248.4849 557.84991 262.11932
647.49915 -489.16595 221.63118
-1103.2327 521.96661 49.768372
1179.1664 136.7538 118.80133
-926.96521 -352.35178 591.83783
-1611.2935 142.60597 271.36301
945.18097 463.91644 340.39197
951.57922 -616.99298 393.64734
-1036.1765 378.125 266.896
-648.22241 -556.22601 194.94026
-1025.9274 111.49826 126.74208
564.42731 -406.2438 209.67822
-895.46783 -449.81555 120.86661
640.37323 442.75745 860.09314
882.18494 -378.125 358.10217
-740.60242 -590.77997 319.58267
788.47107 -378.125 226.07187
564.78479 523.85449 215.52203
973.26111 604.03107 444.05194
-925.77704 -576.65387 143.27382
-431.34766 -69.298874 118.20557
251.8811 -208.91777 106.42281
156.73877 129.8701 109.35878
-920.84076 -479.63568 162.14076
-1215.1464 -378.125 381.23959
622.73053 -155.92693 956.78693
1157.9033 69.766754 220.36734
-1614.5225 59.555531 271.36301
678.28387 605.36774 108.44198
-1602.8622 -156.21481 264.3111
-1427.5947 387.53647 476.5274
-1101.3713 378.125 160.09097
1480.2753 -31.247639 448.36023
761.21777 -619.49579 467.64764
-139.70602 598.15833 476.48083
1113.8621 23.293297 110.34388
-1232.6512 -446.97885 105.1837
1541.6824 6.909121 363.51849
854.70074 378.125 340.51596
-286.50937 108.39468 915.62946
1495.8048 -393.435 361.30533
1193.1072 564.35071 401.34604
-1139.1174 -514.1073 389.31693
886.82642 -447.52271 440.01215
1447.979 -495.94675 396.34915
971.83179 602.93304 304.86127
-1305.0121 -505.33844 503.03973
-859.99744 405.78821 282.1395
1422.4006 453.28619 460.53387
685.05237 -614.29401 331.04861
928.29944 -378.125 274.98743
-1253.9283 -487.17456 146.27231
-1057.3898 560.24597 451.92334
942.75159 -526.04865 364.41168
-645.888 -179.08269 115.92809
-1017.4051 -313.51254 115.00475
-1144.4003 -336.0098 115.92386
880.04669 -378.125 430.24841
-883.2464 -443.578 192.61136
246.9689 404.06784 923.1864
-1141.916 537.65015 395.74933
287.86014 579.44867 592.21552
-1310.5424 283.43115 129.09917
-1271.2336 -335.45209 450.48804
903.75195 605.08301 367.25708
1083.4399 12.418877 219.60632
897.12408 378.125 292.43005
-323.4693 33.311378 904.45557
278.67352 -234.06427 105.55284
1075.55 -158.02264 779.7785
-41.199711 367.30045 109.45354
1420.1165 -279.39835 618.25598
803.42566 -303.81683 104.12608
1340.8467 268.04861 254.01001
1397.4978 286.74011 246.77927
353.00595 -602.86102 454.94913
951.20197 -607.88434 331.37018
935.41992 -489.30896 57.582737
95.82563 -591.62402 521.94849
667.81128 466.44476 319.70105
-998.47998 -98.195229 127.01614
897.91943 -523.36835 38.804268
-1241.1863 -381.12946 543.54022
-1197.915 -443.578 39.688576
667.13898 582.47925 533.18488
-457.72406 -129.02049 115.70858
414.12506 211.23586 103.73499
947.70764 539.72388 85.533432
-896.82397 572.95074 349.56836
-926.84918 -576.42651 161.15987
-1063.653 565.90771 40.468319
-1100.9244 490.49591 396.19949
-1445.4307 -426.93234 425.0307
1074.9596 -34.375183 105.4698
-408.16833 -287.01962 111.83537
-776.09174 -158.35066 650.99127
924.29944 -25.270622 282.202
1240.1315 -377.91122 127.40003
-1263.5723 192.92233 135.14551
-318.43317 -511.1019 733.08948
1360.8962 507.66205 475.09796
919.85736 -496.54968 706.88367
-981.50293 490.96744 368.02747
563.80505 -421.93439 890.97375
673.40314 -463.578 346.44714
1211.9587 -508.91937 156.78508
-1103.4543 -592.52502 413.32355
-365.45551 484.88446 791.73914
850.41064 -600.0213 510.159
1428.6926 272.91949 195.5174
-686.9035 -438.36298 646.83179
764.771 119.71204 104.06204
-1008.2141 378.125 355.74326
-278.17212 568.93158 189.0311
-1474.0535 34.065376 441.46667
-858.1828 -395.09967 275.66922
-1386.0076 -134.28305 524.44537
664.3656 607.66028 315.28104
-1270.25 -487.59351 471.40866
1064.9689 -466.21637 195.91483
789.01733 478.75598 792.47479
-227.13831 257.50134 112.52393
-901.16742 -604.41431 355.73477
680.70319 -369.33084 924.85242
779.16528 578.81995 42.278854
-519.54541 -562.02716 104.52382
860.07764 9.0450134 104.21995
445.56366 -213.41743 103.735
217.19684 480.43039 103.735
-10.238582 52.521435 971.19391
-116.67171 -598.67664 476.58398
-1101.8302 -491.98398 403.1521
420.95297 -60.31348 105.53087
-277.48431 -304.30164 111.29754
1203.9915 511.42795 625.4718
176.30664 211.97842 107.76962
-212.2243 492.69415 758.82886
1264.7001 337.27661 130.86526
381.81299 -327.72278 103.735
712.33258 -560.88086 345.99896
1083.4399 -35.398666 246.49063
-585.55377 605.76025 640.94855
-1547.3796 -332.21936 226.21292
-1201.626 -530.31708 91.840256
-560.97498 -488.80618 715.34058
-1068.3676 176.48689 123.7523
69.939362 -588.38092 300.03854
1005.1599 -592.04272 205.34778
357.95123 581.04504 572.39868
-1080.536 476.83838 391.54559
805.58881 -29.451107 915.05878
987.48462 -535.33795 317.0661
-1242.8906 -457.95312 123.04261
-1241.8486 -378.125 391.15533
-351.46527 -578.87805 270.02234
-593.4574 563.18469 611.59778
964.26624 -578.4198 80.056007
865.00977 -579.27722 252.39935
970.97107 -585.21698 316.90515
-1003.165 -584.00281 366.62491
950.50067 489.94064 88.3993
-1274.77 -499.72348 100.63702
589.61316 552.08594 632.90027
1463.8447 -186.20432 157.67078
990.51624 484.19504 292.92206
-887.17834 587.27148 422.83383
1459.1761 101.89291 485.08856
643.6897 -511.47388 175.62532
-1057.8434 -552.58704 451.92969
974.86267 -544.44342 106.40811
1423.4767 203.06169 590.65472
-1257.4377 523.50574 238.0643
854.96057 -588.96655 387.37213
981.23425 514.98486 126.11831
-921.76709 -523.87097 140.41086
658.50104 -613.97858 142.15179
1385.3757 489.91962 226.03357
410.90009 521.56018 700.44971
-1454.0266 420.4826 399.79901
-303.34 -502.41614 749.83423
-1390.6326 294.62726 139.39282
177.75578 -415.03299 909.55695
-931.31628 382.18311 391.8266
848.46722 -378.125 219.73634
-1283.0311 -500.21539 464.97119
-1260.0214 579.70715 252.09708
-1607.2852 -121.84779 278.51974
381.37772 -589.29663 520.73199
433.76575 538.85321 666.66052
766.92896 -115.60115 923.37866
874.11176 463.578 424.68591
1535.5732 118.56962 277.76135
-969.84766 546.19006 79.370926
-996.67273 -575.98932 419.86099
-1213.7487 -573.32764 97.084496
-342.97861 -575.91223 257.73608
-795.88678 582.95343 174.37991
-132.35918 524.41272 693.97119
654.71185 -481.66321 399.37439
-600.27533 -557.9715 604.76935
1363.2263 -196.29579 714.58258
1113.1168 80.635742 239.45691
95.3974 -16.333765 977.45026
-913.0141 -545.17975 278.44632
329.34625 -566.03076 103.735
570.45331 -497.46173 243.43591
902.15033 -590.57281 373.39893
593.3844 -501.61212 323.79871
1088.5895 103.984 232.61771
-1244.5126 486.82941 285.93134
1.0353469 586.3512 622.0722
-1093.8578 552.90668 44.286053
664.9801 -533.95172 310.63791
108.12422 41.846634 111.57169
-87.520012 214.10297 957.39624
-1263.9692 459.12207 282.82333
-1596.7869 -173.54213 245.37662
1203.5133 576.22314 311.52011
-525.3053 697.44049 666.84595
-926.51373 -285.42371 115.03464
652.49829 -561.62323 138.48373
212.93686 558.27661 639.77478
726.65527 -69.561432 103.99889
582.66052 92.518875 103.76031
-1442.9739 -545.4035 206.2923
-471.96146 -588.99316 314.70493
190.01099 -51.386398 981.12854
119.73172 -485.00525 784.66534
-122.49776 50.349224 959.13519
200.45769 284.29471 106.24254
144.34946 -215.9514 974.46405
-975.91046 -443.578 88.367073
-658.39282 -591.30725 444.53131
-1012.0268 -585.80927 380.40744
978.43713 -87.260399 251.41473
-922.43616 -487.54837 301.69611
-1188.3796 -378.125 237.49792
-642.06299 -459.47733 107.02841
1512.2971 299.94629 327.41431
866.51056 604.85315 261.02454
398.13312 436.80237 860.83838
-399.52405 -588.50513 497.24115
972.81195 -378.125 222.97223
-19.538973 -414.05945 108.20732
-588.66052 -6.8712797 760.77319
-1255.7081 583.63416 178.40138
-1114.0077 359.78363 114.03118
-1460.1281 -163.94482 504.56793
-911.93359 -530.31232 202.68448
-1607.6033 122.85987 297.74103
-870.51721 6.3489289 129.87094
-1299.9664 -543.42969 152.77946
1332.6439 -543.16638 336.27344
-557.78491 -284.42944 764.27167
651.84009 463.578 252.63257
-135.26657 -448.14157 842.48755
910.61267 469.6687 763.31604
726.23181 580.06348 436.03488
1413.6802 343.40802 222.69838
-500.1474 -514.03503 717.91711
175.25662 -3.5684688 110.90739
706.89929 378.125 354.2699
-926.60309 -537.99225 556.12286
789.01416 -304.11572 104.1022
639.80469 474.7738 203.75996
181.42572 576.56329 253.85883
-1407.406 340.35498 409.32086
815.17731 -508.10297 38.390926
-1268.4482 -372.15231 537.66724
1060.386 -378.125 203.42955
1427.8788 -223.12045 153.58505
1261.2788 334.68457 130.38272
844.49341 551.47937 402.91675
-268.61609 131.38741 115.92957
192.49022 583.5321 105.04167
-392.34604 556.57269 612.23267
661.66943 -589.17535 271.5231
615.03833 -528.85065 676.2099
646.39331 -534.31494 75.595718
492.38809 -68.038544 104.09895
-117.44364 -97.072899 114.90187
-910.73767 -500.89111 191.39922
-942.43817 548.51984 531.3526
684.00604 76.941223 103.92822
-1413.079 -225.31952 512.54987
-561.28052 -645.55963 682.62366
528.37274 -609.10522 237.65494
897.77148 546.04541 622.43756
1459.1237 -79.473328 155.54617
-1041.1689 -542.62378 398.57706
-731.19586 206.84709 115.92429
1406.7963 337.25681 193.18182
938.47272 -578.20227 367.74738
456.88843 352.49536 103.735
438.41504 -521.08478 699.89697
750.50311 503.65454 391.285
562.99469 154.96805 103.735
-957.00519 528.72211 348.01813
940.1933 -594.4549 499.06009
-1128.2611 -577.24548 387.16833
-1471.8361 -320.39529 393.03839
1382.9691 400.28384 191.05099
872.57617 378.125 148.28165
-1199.2391 523.96259 438.67249
200.68861 4.1034431 982.92389
371.20367 -179.78416 104.65998
-974.41644 525.61322 560.76697
-1593.7527 2.8298886 166.43921
-1350.9816 564.77014 406.46497
-1401.2153 -358.65125 398.7876
-1517.7697 291.43713 393.5372
958.42932 -464.23691 352.97809
259.79471 195.95282 976.23682
-1492.1923 -199.10074 150.38341
968.38293 491.31134 382.51761
1069.5605 -385.50479 757.86127
1302.8496 -300.06329 713.58228
-1333.2166 401.91162 117.5083
907.8877 -338.0246 104.29916
-331.26129 -595.99329 351.34021
-990.63696 378.125 231.25958
1005.9822 477.55133 208.64485
729.9765 500.23822 383.15363
-914.70618 -517.24451 182.8071
1313.6031 544.43066 396.76917
967.52563 -616.99292 89.976036
-842.91602 -427.80341 155.02936
1066.9135 -56.08831 788.45691
-1058.9089 -491.37524 3.9233384
-1145.0292 262.15002 120.17194
-1255.4449 499.94434 291.56982
-266.80402 -473.42691 804.97748
-1378.8939 -438.29153 466.06018
1129.2581 2.4705811 112.27286
1031.8163 577.64478 535.09033
1429.8607 -117.99968 577.35486
-1469.7883 -50.989189 416.89597
1322.052 508.56763 207.30966
-930.65643 -584.99463 132.43781
-1054.2242 -572.26221 248.62456
-1483.6329 -9.3964977 507.37418
992.30823 -313.2807 800.29211
628.93152 -378.125 345.07224
-159.81197 61.982666 954.22693
-1121.7809 -543.98663 51.922409
-1192.4692 459.12866 80.215248
-1062.5377 449.77203 568.77344
-1361.9236 335.90808 457.99103
1299.9561 228.58389 210.98218
934.94977 612.52502 366.69232
706.1886 378.125 358.12796
562.50208 -33.820194 103.73501
-805.39362 344.263 606.46826
-105.96048 597.12756 420.04846
338.66232 170.34453 973.95325
664.17029 437.79889 404.52252
-1517.4506 418.03857 349.85489
688.75763 498.18857 417.90509
-1038.9756 -454.07169 449.13196
1076.7175 51.417747 201.11598
199.02817 315.1369 105.80739
-842.37543 588.87341 380.62036
516.51099 -517.68719 703.42798
-1205.6819 482.8638 80.857018
973.62842 -44.575684 836.3913
-851.70087 108.42607 123.73077
88.362167 571.73071 617.3894
-47.602196 519.92627 105.38423
736.88318 -472.65106 48.788551
800.73706 -452.93518 449.94501
576.53888 409.0961 267.47034
-1190.0078 563.87756 68.635971
53.575115 241.82059 967.98633
1252.7366 -559.11121 273.97421
951.11353 -609.61499 262.38995
778.21008 -575.08282 31.297501
-842.91602 -522.35181 137.28357
-688.93347 30.903706 694.40564
-775.93665 -162.65666 119.25678
642.27216 564.06116 188.75098
-406.37054 -171.08827 858.55908
-174.80035 456.98749 824.68585
-1140.3595 461.90726 437.27536
-422.58786 140.83878 850.62634
947.26123 -580.9079 344.14478
-19.341049 -456.98743 107.05599
-1201.5902 533.00635 354.47101
-1564.229 -264.71613 347.30865
987.38068 515.11218 139.82664
674.71259 378.125 289.716
-908.69189 -412.34784 592.18823
1506.3088 284.90421 424.51721
-1241.4575 504.94882 134.16685
714.88245 594.78113 226.32655
461.62039 -5.9298096 105.59524
1451.1887 462.41275 265.26031
-653.78687 -572.42828 525.37897
1270.9001 -197.54208 131.73975
-790.28284 -344.96588 608.18695
-355.51727 180.66345 881.80371
-1183.6731 546.78748 377.5498
-883.87207 473.45877 331.1799
-1247.7498 511.95786 376.90927
-906.57343 -558.35474 185.97919
-427.07074 112.60242 849.29547
20.724579 585.62891 287.06897
-586.37012 566.61383 607.50641
-1085.5525 335.03458 570.70422
335.26407 -577.98859 269.44388
766.98303 -326.28662 901.03589
-930.25806 -378.125 242.30937
-1091.2925 555.20361 43.928246
-1457.38 502.85745 221.64171
-625.33643 -554.51746 599.95209
318.26846 8.0489664 244.86957
1240.3824 567.77576 296.43515
-1025.3008 546.16193 393.23474
780.75641 -209.29315 907.16351
-696.7312 550.7608 593.34174
-1024.3711 518.00433 391.93555
683.60333 497.2843 328.55188
1043.967 -79.406013 206.42572
1037.1771 600.83978 240.4538
570.26404 -416.82138 242.5038
-1179.3077 -378.125 422.81326
409.57837 496.12811 748.1123
793.81512 -534.30615 -9.3494043
647.80017 -489.28174 268.44998
-368.67032 -551.09119 627.70935
-1075.1831 -318.64487 115.71566
-731.92432 353.79236 653.09131
-1588.0898 251.35333 254.73615
-9.5009327 -130.15385 112.41783
-1318.3867 481.82269 476.98679
-1059.9924 475.97113 402.23169
1492.608 -163.58315 220.68958
884.10718 -598.52271 32.535847
1242.1204 -325.60547 718.46265
979.54321 -583.25745 99.652817
-1499.6062 89.439873 497.49915
-1239.4424 -461.67133 297.06445
678.0069 -579.82251 540.75537
-444.16589 -521.11029 705.15234
-164.28387 347.58908 933.39777
-1447.4857 -483.63596 198.6265
634.43628 -608.26898 92.200539
-925.40155 -554.95618 131.8233
843.37323 -604.83118 33.443214
-600.49792 443.61414 709.78674
-1444.1301 -536.07141 251.82257
645.25092 -593.0462 168.07893
-12.644899 -598.80353 407.42691
1398.8225 328.04916 228.05269
862.17554 -513.39386 400.2869
-235.74951 11.765643 118.35833
1374.0996 529.15259 304.117
-811.26538 -450.65005 602.09668
1362.7834 235.98599 240.51035
-1167.9885 404.96393 447.90521
267.79974 133.96556 978.27478
541.83252 598.66199 393.34485
-41.207775 -563.49255 624.72797
113.79142 598.84174 358.11029
-1202.3754 378.125 356.58575
969.42725 530.5896 626.99927
933.29907 502.50543 363.61108
571.89709 559.28778 250.54594
-725.07312 -239.48924 657.91858
490.94177 -260.52194 961.7901
342.26913 -162.14381 974.11743
-536.36139 -660.3891 687.21454
-758.8725 -593.901 360.72058
339.8082 415.87674 901.95148
-1470.3237 -534.15985 302.7514
-938.92743 -447.55347 112.30742
144.15094 -150.11816 976.11719
940.57812 491.80853 344.271
-1197.7507 -515.71655 350.66595
189.20467 -396.79608 935.54126
-285.11749 562.63647 211.59325
-1145.7982 -575.00342 7.8069496
-1230.0132 -519.86304 125.13129
-1176.7745 -499.72513 60.345093
-966.66943 -585.362 270.43716
871.79871 530.43213 384.50327
805.32208 -528.98071 387.69437
-461.22766 171.08643 114.67686
1440.7185 256.78638 548.4325
-1381.8994 -510.95691 426.65634
929.28046 353.45474 104.33461
-1234.6936 483.95959 308.29865
-0.56067085 -419.93558 903.40356
-924.07642 -206.39441 119.5042
604.16272 -536.26611 266.69156
-1183.2332 -477.11084 540.83063
248.98489 173.17819 977.55444
-1194.5483 -453.52637 88.880066
543.48682 349.41479 948.48419
574.56519 500.2316 260.87073
1082.1206 -87.260399 258.13184
-900.83624 -265.70392 115.70981
-436.90475 397.11566 108.89925
-1274.6069 -528.02258 100.41037
-1163.6454 484.46042 53.624535
228.81451 582.64075 588.2688
579.98389 444.42587 848.31824
63.232025 602.73334 471.94595
698.72906 1.2754266 951.33636
-1520.7949 -76.472359 143.85147
405.89505 30.814705 106.24973
938.39575 -273.20178 104.34971
743.09167 378.125 369.46454
-1276.5568 516.07184 364.94717
539.38647 -507.25281 722.50616
-1059.9564 397.05817 451.95932
-963.32904 485.45557 417.73462
165.58395 -176.15576 976.6347
-498.63135 -42.58073 811.53931
903.89172 543.8988 18.980255
-1293.022 578.44562 308.02176
-907.28711 -534.07739 221.10199
-1242.3669 -579.50671 319.67285
269.82602 -116.39163 978.86261
-1342.4962 132.40268 534.60864
1464.9728 -457.0394 292.94193
1067.6478 524.69769 151.47855
-1073.5557 545.82489 404.12314
79.94249 -479.88773 105.53663
-472.5332 519.71545 706.98132
-1450.3759 379.07062 458.91644
-910.85876 511.9512 210.39017
225.94064 -148.09154 107.81094
-1527.7883 145.45073 146.91919
-141.72133 -597.76953 357.56009
1248.052 344.8775 717.11957
863.4588 -595.29089 251.58035
1251.3892 -5.0824585 128.98785
-1539.5679 51.913345 482.53729
-1391.6167 -569.90405 263.77954
-1568.698 257.40045 165.52068
-1175.1757 -580.83734 382.92328
1074.3782 583.96436 233.77531
-1075.7971 448.63333 37.982258
-564.27118 -15.796782 775.23938
1052.6595 74.334503 241.8309
1287.6804 550.64874 428.25577
261.46982 -602.21643 489.40189
1298.2689 -544.547 264.30344
-919.12701 589.78687 381.23288
-95.113861 -597.63947 426.35712
-923.56714 443.578 322.72339
1107.8604 14.569637 227.53462
642.9906 553.10352 182.9502
794.28064 568.89795 40.135468
671.539 589.98285 304.46756
-1317.5454 427.55008 135.89084
-992.70166 -589.66632 66.40963
1070.3145 -100.27448 104.88782
356.48178 -249.08632 969.06342
-624.72516 539.1322 628.05621
1166.275 -103.32672 233.61145
-210.08549 -589.33813 510.55554
302.03824 50.234314 980.05853
831.22388 -609.61499 131.66072
-789.59369 -478.46179 107.00924
377.72028 -177.0946 104.58014
891.84912 -487.94824 392.10889
500.24091 -560.91669 103.73501
928.10345 19.747719 104.33266
1493.0664 6.33781 222.47801
921.15051 -593.43378 47.547489
-959.19336 559.78345 506.24396
-873.96582 -186.63374 119.70234
1459.4375 418.68527 197.37766
-1420.6777 -354.16736 494.58951
651.1557 -370.98871 103.87379
730.18488 526.9939 673.51843
778.21747 -601.76343 217.74229
687.32556 -566.72498 339.31665
99.630119 580.67157 266.94678
1471.9243 -460.28876 391.81601
-733.99646 -137.62181 659.06689
-1211.2207 535.6026 83.522614
1398.6534 -522.71924 405.61615
933.11505 -535.11182 55.842091
-1063.5282 518.06384 402.1156
-1154.5031 592.52502 11.325298
1006.6007 -501.56244 255.4455
804.52759 -615.54651 27.48513
-613.59308 547.04248 104.97919
1484.4746 116.24615 714.17352
1460.7732 284.73422 158.50429
-270.01556 -553.12323 629.27734
-907.56433 378.125 161.88687
-56.260036 -582.33936 560.02783
166.71451 559.92584 103.735
-78.19957 -318.76941 110.79613
162.71252 -314.30453 106.48904
-1174.4673 523.33954 523.76483
1028.6444 522.93372 633.65796
309.81055 391.56964 946.84058
800.45898 73.587952 104.12117
1172.2278 178.008 117.82269
-1600.99 105.15685 363.26199
-1119.7473 576.35754 312.98123
-345.23511 -210.40257 884.43445
765.31311 512.49182 381.22559
888.97656 260.54785 104.26784
1377.8423 -428.29462 590.27997
985.23712 -492.80457 295.40002
1132.5308 -129.09598 219.244
821.99146 -616.99298 -3.8951912
1333.5012 -178.6219 718.39722
-583.38031 577.56342 165.39043
641.2782 605.31934 196.77664
1065.5515 -547.47369 209.31874
925.64716 -583.26318 50.202316
685.97009 -214.54544 103.93147
849.38104 598.26849 514.62225
179.10931 586.26343 583.20245
1081.9875 23.562084 201.11601
-862.96155 378.125 270.72186
-879.61121 553.37836 156.07973
863.93188 378.125 446.11987
-1239.7085 -526.0694 119.82908
917.09705 586.26495 378.84436
778.33691 480.00623 449.94501
-1200.6829 -497.94159 364.70169
-463.24216 -90.719673 829.62512
-1454.9849 541.56927 258.32336
-503.66513 -432.69754 107.98304
1202.5282 563.42822 443.45471
503.24585 -136.73169 967.97644
-1556.2209 381.16702 307.10242
1001.8506 537.66595 375.32904
652.42603 473.0061 232.98643
-763.67548 -328.48807 613.04285
485.31 -602.35199 442.46466
1161.9006 -18.645786 278.07288
989.92438 -21.892672 831.17139
-989.67896 453.91925 73.938103
263.38437 -209.5947 106.20071
-424.11557 280.22595 112.02663
-361.26379 -497.08344 765.99829
-1354.0913 429.2796 408.63214
503.9989 -393.69891 103.735
807.96545 373.95099 876.24835
1128.7214 -569.34143 503.71259
772.47351 -592.03772 380.54352
335.55646 -597.78223 363.34601
-672.62567 -572.84143 255.28833
-794.34436 -386.86493 606.26349
1402.1624 241.6991 213.96515
-677.21014 576.64661 505.5181
365.2793 10.227797 107.3062
689.81104 -245.35835 103.93784
-36.891476 597.08929 379.34741
-1218.4407 514.19928 329.62567
