# .PCD v0.7 - Point Cloud Data file format
VERSION 0.7
FIELDS x y z
SIZE 4 4 4
TYPE F F F
COUNT 1 1 1
WIDTH 1587
HEIGHT 1
VIEWPOINT 0 0 0 1 0 0 0
POINTS 1587
DATA ascii
7.4084873 3.0333705 0.43326038
7.8475747 3.1031327 0.43810198
7.1553526 3.1704285 0.43046921
7.2258415 3.2394176 0.43124646
7.2934594 3.2546737 0.43199205
7.7446423 3.2572687 0.43696699
7.2185149 3.3275747 0.4311657
7.1227622 3.3500633 0.43010989
7.4732552 3.3866808 0.43397459
7.569798 3.4860318 0.43503913
7.5708089 3.598079 0.43505025
7.4861455 3.6508808 0.43411669
7.3316393 3.7882347 0.43241307
7.6902418 3.7877312 0.43636718
7.4718919 3.8225517 0.43393129
7.6919827 3.8260586 0.43634629
7.3407769 3.8737218 0.4323329
7.2021074 3.8973911 0.43073374
7.8903799 3.9134552 0.43929809
7.6382279 4.0104752 0.43520102
7.7757797 4.0364571 0.43663904
7.4913225 4.1262245 0.43323505
7.4693851 4.2165332 0.43272251
7.3703051 4.3586445 0.43120456
7.8171005 4.461237 0.43582094
7.5706525 4.4993958 0.43299052
9.4569063 4.5342407 0.43086386
7.8205619 4.5724053 0.43552577
7.5270109 4.6807036 0.43196601
2.8243895 0.83531451 0.44733095
3.0278146 0.84769469 0.44172007
8.7442017 1.1742301 0.44194555
9.1899529 1.2211564 0.44098997
9.2222967 1.2424806 0.44099
2.0023894 1.8139715 0.44740289
1.769948 1.83857 0.44948536
7.9914675 1.8515812 0.4432869
8.076683 2.1089554 0.44725984
0.69883418 2.1974103 0.44248128
8.0018616 2.2122138 0.44377151
8.0224504 2.3663783 0.44473141
7.9581738 2.7661242 0.44173467
8.0283461 2.7897673 0.44500631
7.9307575 2.9180577 0.44045648
0.68329322 3.0856531 0.4439508
0.69383776 3.1384552 0.44295371
0.52221382 3.1425071 0.44412702
8.0433273 3.1837728 0.44570476
0.62135124 3.6997852 0.44412696
0.59830785 3.8063991 0.44412699
0.70048296 3.8743892 0.44232535
0.69551325 4.0863023 0.44282937
3.2519879 4.5191779 0.44137788
5.3471694 4.8148046 0.44862705
3.6273587 4.8232493 0.44536227
2.3886306 4.9070845 0.4491086
2.8120337 1.8385699 0.45532328
8.2207994 1.944169 0.4539789
8.244278 1.9626354 0.45507345
8.2985506 2.5952368 0.45760381
8.3012581 2.9756598 0.45773
8.2782927 3.5266008 0.45665935
8.045496 3.8122997 0.45513016
2.9347169 4.1038237 0.45584819
9.199914 4.4169698 0.45450673
2.3007994 4.5329075 0.45721698
5.5666933 4.8141289 0.45244062
8.5157127 4.8487611 0.45992941
9.4736671 1.0216198 0.46851104
8.2180147 1.4724408 0.46106893
2.235394 1.8385701 0.46741146
2.3908944 1.8385701 0.46274686
8.0433512 1.8477 0.46776864
8.4160452 2.4446144 0.46308166
8.4999638 2.6631317 0.46699408
8.4432993 3.4556792 0.46435228
8.4395895 3.4612322 0.46417931
1.4976869 3.9825742 0.46446162
7.8903799 4.4913225 0.46895766
9.3136425 4.879663 0.46308371
9.3952637 4.9047799 0.46202129
1.7057092 1.1547917 0.47028154
7.8903799 1.5514514 0.47735691
2.5997102 1.8385701 0.47831589
8.7637939 2.056601 0.47929445
8.5765228 2.5090358 0.4705635
8.5853853 3.165504 0.47097665
8.7097073 3.5745692 0.47677279
8.7303801 3.6935179 0.47773665
8.6003475 3.7478704 0.4716742
8.759408 3.747988 0.47908998
1.6094574 3.82143 0.4761641
2.6497917 4.2544355 0.47207707
9.3201675 4.2848053 0.47774053
3.253314 0.84379047 0.48534566
7.8903799 1.0816503 0.48835847
9.0228863 1.17423 0.48947677
8.9527588 2.0076575 0.48810434
8.8802958 2.2199638 0.48472601
8.913703 2.2993238 0.48628354
8.9018955 2.5209854 0.48573303
8.9236355 2.7918103 0.48674661
8.8158321 2.9671712 0.48172057
8.902401 3.0872386 0.48575661
8.9052401 3.1674201 0.48588902
8.7995958 3.2361445 0.48096359
8.9163694 3.2730513 0.48640782
8.8426495 3.6098795 0.48297086
8.9686337 3.6943412 0.48884451
8.9057379 3.7030952 0.48591214
8.7723465 3.8123 0.48380366
7.8903799 4.2925825 0.48655438
8.4135227 4.832613 0.48517838
1.7953962 4.9516945 0.48929197
1.4968413 0.98295438 0.49248829
1.4968445 1.0050762 0.49237859
8.0459175 1.0323492 0.49362889
8.0171146 1.8477001 0.49679899
9.0367355 1.8780208 0.49201959
9.0677691 2.3910854 0.49346644
9.0223522 2.4388251 0.49134901
9.1042023 2.4492085 0.49516505
9.1735592 2.6062064 0.4983986
9.0847778 3.4104574 0.49425942
1.9020481 3.82143 0.49151614
2.62009 0.5036394 0.50065929
7.8903799 0.92783695 0.50929403
7.8903799 1.3750515 0.50019926
1.4963447 1.7268558 0.50891447
8.7547474 1.8477 0.50426364
9.3533278 2.3275239 0.50677979
9.337513 2.5243995 0.50604254
9.2736645 2.5907037 0.50306571
9.3182011 2.8264976 0.50514215
9.3023691 2.904057 0.50440401
9.2183838 3.0990949 0.5004884
9.2520599 3.1093874 0.50205845
9.2195988 3.1319985 0.50054508
9.2931061 3.4343007 0.50397211
9.2962456 3.6033349 0.50411844
9.2320538 3.6831613 0.50112575
9.3252096 3.6992083 0.50546885
8.4450245 3.8123 0.50798196
2.4466176 3.82143 0.50326985
7.8903799 3.9681773 0.50984561
2.3987031 4.4607301 0.50247359
8.4390478 4.4697704 0.50483274
1.7722641 4.9287844 0.50057328
8.1932545 0.76820326 0.51460469
9.4941711 0.90829134 0.51456153
7.8903799 1.2003065 0.51528174
3.2541547 1.2618347 0.5132184
9.4940624 1.4763259 0.51431429
0.62348008 1.5839465 0.51862723
0.49779615 2.1072667 0.51156414
9.4406376 2.1489506 0.51085037
9.5607624 2.2106681 0.51645088
9.4287586 2.5986443 0.51029658
0.45544761 2.7143581 0.51227951
9.5064402 2.7462451 0.51391822
9.4875498 3.1669145 0.51303756
9.5471096 3.4807792 0.5158143
9.5358162 3.5806694 0.51528782
9.7739286 1.5499649 0.52651423
9.4396048 1.8476999 0.52429754
9.6524029 2.4294612 0.52072334
9.6578264 2.4410019 0.52097619
9.704504 2.9916501 0.52315247
9.640749 3.4635892 0.52017999
9.6944971 3.5849841 0.52268589
9.7563486 3.6852798 0.52556974
3.0639739 3.82143 0.52214301
9.7452164 4.0405307 0.5250507
9.7235413 4.3700805 0.5240401
6.5308628 4.8244748 0.52703488
6.9695497 0.8382057 0.53966069
8.4865227 0.84363043 0.5332045
9.8124189 0.91100168 0.53124267
2.0453894 1.4171877 0.53435677
9.6872072 1.4840605 0.53481734
9.686492 1.6173182 0.53930509
8.1237478 1.8476999 0.53287327
9.85355 2.0601683 0.53629541
9.8040972 3.4461887 0.53022051
9.8743258 4.0278425 0.5388478
9.6870966 4.4384818 0.53550637
9.8149519 4.6131287 0.53155386
2.7235751 4.6417222 0.53217053
1.1899109 4.6504221 0.53247458
8.8525057 4.7965765 0.53761613
4.1671567 4.8386936 0.53267473
2.0299904 1.0309329 0.54756057
8.5180864 1.1742301 0.54385823
9.9307594 1.5286088 0.5457806
9.9499464 3.3614945 0.54842645
9.9593925 3.446207 0.54957175
2.8667727 0.80920088 0.55046773
7.4695969 0.83859581 0.55421591
10.008268 1.1840601 0.55530214
10.005676 1.2225314 0.55498374
7.8903799 1.3002007 0.55139428
8.0230627 1.4522556 0.55407226
9.9994383 1.796279 0.5543955
10.027499 1.9813908 0.5580337
7.9112096 3.8123 0.55421472
2.7672267 4.2158499 0.55438137
9.1493196 4.4322348 0.55504841
1.4950429 4.7465277 0.55203074
1.9054716 4.8870091 0.55806887
2.7574768 0.93013239 0.56482714
8.8477926 1.17423 0.56361413
10.093163 1.3106481 0.56595087
7.8903799 1.468601 0.56503147
10.083516 2.6377976 0.56502372
10.063709 3.3974776 0.56273437
1.8437368 3.8214297 0.56194049
10.091225 4.0464354 0.56587011
10.123712 4.3595181 0.56979722
10.065224 4.5611086 0.56231368
9.5095701 4.6464119 0.56283784
9.1686525 1.17423 0.57364535
9.5114622 1.4612992 0.57173795
10.127348 1.7862549 0.57051826
10.118503 2.4720507 0.57186389
10.154861 2.8106918 0.5701521
1.9057608 3.8214302 0.57701236
3.0014584 3.8214297 0.57212317
8.6708145 4.4857602 0.57760668
7.7378979 0.83444059 0.58923197
8.8604097 0.88525128 0.58908468
10.153024 1.0435965 0.58928335
8.7804174 1.1035017 0.58779651
2.3299012 1.162545 0.58534509
9.3662491 1.29585 0.58123326
10.266363 1.5144277 0.58789968
10.248598 1.9402385 0.58585835
10.275599 2.4921131 0.58938241
10.303675 2.8205044 0.5869056
10.216036 3.0535049 0.5806343
10.239842 3.5211067 0.58854252
10.239069 3.8236146 0.58461368
10.226475 4.2709789 0.58280253
2.4824369 4.3791089 0.58967537
10.227888 4.5097666 0.58285171
8.1636724 4.5571504 0.5850755
9.3793812 0.76537263 0.59868675
5.2146759 0.81154627 0.59076166
6.611752 0.82077014 0.5936293
2.9491324 0.89664626 0.59513021
2.6941063 0.97500306 0.59060514
10.317472 1.7890444 0.59445882
9.677597 1.7955934 0.59510589
10.358793 2.6061151 0.59687501
10.293386 3.4438398 0.59616923
10.33092 3.7482195 0.59709138
9.401948 3.8123 0.59074032
10.312802 3.921689 0.59384882
3.2564816 4.0863419 0.59036928
6.5228806 0.81766462 0.6043908
9.156292 1.14144 0.6080991
8.651473 1.1578567 0.60234952
10.342998 2.0933642 0.60393125
10.438119 2.489449 0.6079101
10.399192 2.5315237 0.60275704
10.410001 2.5777359 0.6031884
8.447937 4.4857602 0.60937178
3.2568283 4.8146286 0.60184896
5.2116609 4.8528509 0.60978377
2.5067253 1.1076803 0.61252505
9.2359657 1.185431 0.6138109
2.3406992 1.2252326 0.61890328
8.6814451 1.8477 0.61442578
10.466703 2.1949847 0.61624449
10.454494 3.7118311 0.61911732
2.411278 3.82143 0.61278772
2.5435572 3.82143 0.61362731
8.9027023 4.4772682 0.61440355
8.5410919 4.4857602 0.61407465
2.8644209 0.8553611 0.62511075
10.799284 1.4981937 0.62240815
10.575109 1.5115653 0.62807512
10.5737 1.5512297 0.6293394
10.493676 1.9087634 0.62425333
10.560207 2.4986963 0.62163436
10.611142 2.7946033 0.62231797
10.580513 3.3180285 0.62664926
2.9910419 4.0878587 0.62527996
10.546532 4.0839605 0.6251303
9.6733522 4.1918697 0.62173265
2.675153 4.6260567 0.6282106
8.7835732 4.6519794 0.62046486
2.1231117 4.6639142 0.62846494
7.8903799 4.7525444 0.62437022
9.7709045 4.8120775 0.62329066
5.7723894 0.80567336 0.63342339
8.7852421 0.96927851 0.63439184
1.5108372 1.8385701 0.63063902
7.9813728 1.8476999 0.63880241
10.664919 2.4883893 0.6337201
10.685572 3.34851 0.63912272
10.596846 3.564642 0.63276422
9.6714134 3.9670916 0.63389206
8.6993246 4.7153893 0.6341114
1.891966 4.9067984 0.63895398
3.2581446 0.84739363 0.64549255
9.6694765 0.98406059 0.6460464
9.6702814 1.1510299 0.64099592
9.6694584 1.4996166 0.64615846
10.65543 1.7168262 0.64596158
10.800607 3.2256939 0.64790297
8.3090591 3.8123 0.64774156
3.1979408 3.82143 0.64385289
10.650385 3.9392803 0.64532059
9.4497004 4.1486101 0.64934611
2.6017611 4.2911301 0.64781785
2.3428226 4.425601 0.6453613
10.539667 4.4237576 0.6446532
4.539259 0.8002435 0.65032166
2.6708713 0.9718461 0.65397769
3.2584918 1.0143166 0.65699911
1.4918747 1.0661454 0.65696681
7.8903799 1.723614 0.65031707
2.1601689 3.8214302 0.65072644
8.7655334 4.7105703 0.65878814
8.7024384 0.91544402 0.66634309
2.2943645 0.95476443 0.66977358
9.0397367 1.17423 0.66022593
8.919219 1.19024 0.66092193
3.2587171 1.2213749 0.66446781
8.623311 1.8477 0.66295636
2.1018493 3.82143 0.66873211
2.5402234 3.8214297 0.66177803
2.5176413 4.3531485 0.66708589
1.0419185 4.5588884 0.66509426
2.5488293 4.6274757 0.66660571
8.660305 4.6705461 0.66961414
2.4315815 1.1331253 0.67103297
3.2589257 1.1799542 0.67139304
8.5643234 1.19024 0.67545521
2.364141 1.2430612 0.67652863
1.4912277 1.6852344 0.67837715
0.51212895 2.3828976 0.67707902
10.91597 2.5903058 0.67204762
0.43494955 3.0001225 0.67707896
10.875027 3.5039699 0.67371523
10.882824 3.5533552 0.67876029
3.097198 4.4523082 0.67404491
8.579772 4.4906387 0.67463493
1.719793 4.6862636 0.67521626
1.7372323 4.7105784 0.67706305
5.8543243 4.8634005 0.67536759
1.9270061 4.9660659 0.67173934
4.9197578 0.79349637 0.68599057
5.1338224 0.79406011 0.68110597
9.2179947 1.14144 0.68896437
1.4910538 1.6882108 0.68413264
2.5731757 1.8385699 0.6849516
2.0907426 3.8214297 0.68988216
3.2593184 3.9301255 0.68440592
8.9293699 4.46977 0.68866432
8.5091019 4.4857602 0.68240237
8.8677168 4.7105699 0.68972051
3.6188016 4.8657956 0.68697572
3.7298355 4.8645186 0.68383664
0.98525405 1.1203368 0.69975477
9.2578888 1.1414399 0.69085872
9.2763939 1.1693676 0.69190156
8.6919956 1.8476999 0.69351554
9.1321068 1.8477 0.69172955
8.5933161 4.46977 0.69332445
6.7402592 4.8624196 0.69997984
8.832324 0.94259626 0.70381361
8.1385384 0.98204255 0.70329505
2.670886 0.9914434 0.70449913
3.1026664 1.0650864 0.7032119
8.2834501 1.18224 0.70323598
8.7865381 1.2418777 0.70172417
10.851987 1.3957353 0.70466387
10.724919 1.4116226 0.70033753
1.648246 1.8385701 0.7016502
0.48958609 3.0638123 0.70768797
8.1130676 3.8122997 0.70614272
7.8903799 4.1717854 0.70950532
1.4904761 4.3756695 0.70326543
8.8474007 1.034104 0.71457624
8.9697151 1.17423 0.71679169
10.991243 2.7857466 0.71748364
1.4900801 3.9308846 0.71638179
1.4902085 3.9993763 0.71212542
9.6586342 4.4058471 0.71406335
0.88541681 4.4429069 0.71893907
1.0676367 4.5102105 0.71151477
2.5577219 4.6227779 0.71670598
2.3852327 1.0262953 0.72923768
2.3096628 1.1605086 0.72895324
8.0064659 1.4933332 0.72829962
1.5388788 1.8385701 0.72538596
1.4897809 4.3932066 0.72629094
1.4897305 4.5133343 0.72795969
2.4792812 4.5508132 0.72795856
6.1411004 0.78592002 0.73058975
0.92325163 1.1852722 0.73858505
2.3205903 1.280283 0.73933005
2.3467524 1.2915248 0.73028815
7.8903799 1.583264 0.73353314
8.2330275 3.8123 0.7371195
9.6551456 4.3005857 0.73594558
8.1369896 4.4002771 0.73208094
2.3009198 4.4525638 0.7316398
9.1493206 4.4727955 0.73190874
2.163249 1.0639999 0.74248171
0.44504228 3.1081612 0.74768806
0.44531086 3.2709041 0.747688
9.486763 3.8122997 0.74871486
1.6557674 3.8214297 0.74471796
3.2399077 3.82143 0.74132687
6.6316338 0.78267348 0.75977278
1.1005173 1.0764898 0.75924873
8.6832695 4.4121699 0.75340247
3.261318 4.4560347 0.75070173
7.4559546 4.8632336 0.7545625
1.1709437 0.98575604 0.76844156
2.4608607 1.1760615 0.76421332
1.4885418 1.2871044 0.76732957
3.2617893 1.4795499 0.76632047
10.746283 1.5237451 0.76340878
0.5886054 1.6704262 0.76262307
3.2618182 3.8426061 0.76728106
10.655347 4.1087008 0.76333463
2.5307961 4.4031858 0.76395297
8.0566568 4.9047799 0.76488721
1.4882016 0.8534832 0.7785967
2.7744431 0.91811746 0.77373672
8.6753111 1.0224638 0.77183682
8.6928558 1.0386186 0.77525473
8.8519697 1.1270546 0.77172005
9.1238995 1.19024 0.7735846
0.58745468 3.9289615 0.77530992
7.4278002 4.8674498 0.77295613
3.9871149 4.8809204 0.77573359
9.5015697 4.8973999 0.77444893
8.6932468 0.92487502 0.78776693
8.7369719 0.92353094 0.78143555
1.1047 1.0806578 0.78065282
10.648379 1.5013794 0.78757358
7.8903799 1.5403852 0.78803521
9.5818329 1.8477001 0.78949869
2.9345698 3.82143 0.78745967
10.130951 4.6772208 0.78691173
8.6111088 4.6867628 0.78468263
2.4815993 0.9775489 0.7910856
8.8618383 0.97366905 0.79065371
8.7226686 0.98884338 0.79374707
8.7096329 1.0316831 0.79977506
1.0968791 1.0414243 0.79858512
8.647872 1.2352418 0.79384345
1.4878559 1.4468722 0.79004514
1.4878325 1.726195 0.79081708
2.698704 1.83857 0.79584575
3.081058 1.83857 0.79471928
11.028708 3.0618262 0.7954011
1.4878157 4.3501387 0.79136944
8.6718693 4.6906195 0.79717308
1.9895982 4.7424731 0.79942405
4.1499796 0.77364147 0.80559129
5.077631 0.77290452 0.80262339
2.5388808 1.0849106 0.80337846
8.8035965 1.1693989 0.8003872
8.5167828 1.19024 0.80513752
2.3044074 1.2373128 0.80414051
7.8903799 1.4808428 0.8091886
8.9724751 1.8476999 0.80747551
9.5270243 3.8123 0.80705643
9.3111706 4.4468184 0.80244255
0.97848439 4.4553337 0.80616361
2.3633718 4.4569016 0.8063786
9.0173235 4.4857602 0.8079586
5.0703521 0.7698878 0.81994534
8.1598892 0.77965695 0.81212664
2.1778264 1.1123569 0.8108207
2.298758 1.1235327 0.81598419
9.5265808 1.8477001 0.81009817
7.8903799 4.3726869 0.8151415
0.87195688 4.456296 0.8134864
2.4765177 4.4737415 0.81787223
1.4928052 0.80528682 0.82685483
1.4925797 1.4358698 0.82601082
2.7647996 3.7903714 0.82114667
3.2593808 3.8902261 0.82001823
9.1652946 4.4169698 0.82367784
8.918911 4.4697695 0.82517999
8.8706312 4.5023031 0.82884943
1.0995762 4.5976706 0.8273586
1.564472 4.66465 0.82616591
4.6399608 0.76823002 0.83276719
3.1258988 1.0579858 0.83688956
8.866251 1.24784 0.83601475
2.3620925 1.2806609 0.83434749
2.031985 3.8214297 0.83304727
9.6390495 4.2983789 0.83440161
7.99301 4.4657583 0.83562452
1.8718941 4.9052262 0.83272433
3.118609 0.84438121 0.84923303
2.3484657 1.0527515 0.84582424
8.7440777 1.0738499 0.84239793
2.5036912 1.1098257 0.84229255
9.1933908 1.24303 0.849998
2.9133732 4.2000022 0.84246343
2.3426297 4.4106255 0.84864634
2.5510869 4.627666 0.84147704
7.8427296 0.82076061 0.85668015
2.9982109 0.92837113 0.85592711
7.8961711 0.94657463 0.85394222
10.775126 1.4686875 0.85195261
7.8973551 1.640323 0.85913074
0.41268092 2.6152802 0.85837924
2.4938955 3.8214297 0.85452801
2.7461932 4.1903901 0.8543008
2.7588053 4.5833015 0.85756183
1.1194689 4.6943703 0.85434467
2.1431029 5.1024408 0.853576
2.6331263 1.0181742 0.86487091
1.8371785 1.1160488 0.86184752
2.2281075 1.2266397 0.86339253
7.8996606 1.2216358 0.86922991
9.5352945 1.226905 0.86940408
1.965456 1.83857 0.86896157
8.1311264 1.8477 0.86964011
0.54507244 2.168716 0.86349553
0.45421982 3.4283948 0.86768806
2.2978492 3.82143 0.86631942
1.5039097 4.3462119 0.8684423
3.1255209 0.86120981 0.87701565
10.505945 1.1387275 0.87340683
1.7068846 1.262781 0.87488317
1.5505815 1.2737291 0.87337512
0.70213401 1.4606853 0.87806004
1.504547 1.6451204 0.87082875
10.941686 2.1411183 0.87527966
0.40125787 3.2773325 0.87366086
2.3996084 4.5122466 0.87646985
2.6545873 4.625206 0.87252253
9.2933025 0.8004716 0.88663244
2.218128 1.3120248 0.88406813
2.9081531 1.83857 0.88032311
0.37947732 2.3897817 0.880759
0.46048725 2.7456126 0.88766563
1.9085288 3.82143 0.88932931
2.5678966 4.6652341 0.88509101
4.2280388 4.8986402 0.88549578
8.7457647 0.95518136 0.89198756
1.7095758 1.186178 0.89174867
3.2385168 1.4613789 0.89816701
1.6788487 1.4709232 0.89389992
2.3964849 1.8385699 0.8974815
9.1059084 1.8477 0.89380944
0.46120369 3.0517223 0.8952449
2.3157218 3.8214297 0.89794111
10.79311 4.1449108 0.89514911
2.5270803 4.3561335 0.89025265
8.7748518 4.5928698 0.89669073
8.7355537 4.7324243 0.89366782
7.7120609 0.79248679 0.90340364
3.0843465 1.83857 0.9001832
0.93515539 4.5471253 0.90560794
2.5210848 4.5603361 0.9003951
2.3753345 4.6827536 0.90182692
1.5137534 4.7914891 0.90530694
8.4856119 4.81563 0.90628284
9.5281677 4.8306413 0.90292752
5.1660929 4.9024644 0.90568155
9.6210651 1.0472553 0.91320348
8.9158659 1.1544563 0.91446227
7.9102321 1.5401825 0.9155401
7.9094262 3.8645043 0.9120096
2.436631 4.4128847 0.91958815
4.2779098 4.902657 0.91672158
9.4669924 4.9047799 0.91461968
9.3771572 0.88791734 0.92085916
2.449883 1.1479254 0.92892742
2.9901416 1.8385699 0.92447764
0.39806557 2.9026663 0.92228329
0.38370469 3.1503918 0.92548019
7.9117475 4.1396465 0.92217726
2.440166 4.4102778 0.92063284
1.5228225 0.89893681 0.93926644
9.5210438 1.2732267 0.9364388
9.3732214 1.4799277 0.93936735
2.8311558 3.82143 0.93249655
1.5211525 4.1981421 0.93301678
8.4975271 4.4857602 0.93120146
8.7012253 4.6101599 0.9323616
7.9159279 0.9963156 0.94049072
9.3716259 4.3688245 0.94687635
7.9167151 4.7969141 0.94394058
6.3409944 0.75019246 0.95117855
8.4357605 1.19024 0.95074183
1.5280783 1.3831862 0.9589535
1.9954913 1.6407123 0.95554733
10.996992 3.5748506 0.95698416
7.9196324 3.9826617 0.95672143
7.9187083 4.4344578 0.95267296
8.3142891 4.46977 0.95888853
2.3013864 4.5806046 0.95362943
9.7960291 4.8194699 0.95850974
3.298497 0.78427643 0.96062434
9.515974 1.3817623 0.96029305
9.4905891 1.8476999 0.96172261
11.040496 3.3615839 0.96771675
9.6098852 4.0099201 0.96218967
1.5289359 4.1141768 0.96216559
8.9973249 4.46977 0.9625634
8.791132 4.5402751 0.96682727
3.2189908 1.6614755 0.97130358
2.6961312 1.8385699 0.97043681
3.0632396 1.83857 0.97144866
9.2602062 3.8122997 0.97261095
1.531343 3.8686311 0.97118008
0.536906 3.9500251 0.97037506
3.7233467 4.9046617 0.97076833
6.9076304 4.9067974 0.9700458
4.2326584 0.74937528 0.98514175
10.894031 1.5813046 0.98679096
0.54639256 3.9740002 0.98179078
9.3693037 4.8939676 0.98294497
10.361611 1.0162883 0.99326509
2.5755076 1.8385699 0.99379945
11.075809 2.5778716 0.99194634
0.48574871 3.7765646 0.9994998
1.2378657 0.90064257 1.008306
8.6618071 1.18224 1.0072488
0.80470943 1.2422783 1.0001645
0.5646612 1.6424323 1.0061595
0.47178239 3.4002624 1.0071552
1.7985169 3.82143 1.0030681
2.6174741 4.2994256 1.0083506
1.7440308 4.9226303 1.00243
2.0042734 5.2504549 1.002506
9.6420383 0.80415493 1.0122566
7.9337072 0.84442365 1.0183762
8.0264454 1.0930455 1.0150939
2.5614331 1.8385699 1.0118339
0.4223744 2.9641123 1.0157821
8.185895 3.8123 1.0148884
8.4272785 4.46977 1.0188851
2.2913256 4.5200148 1.0137877
4.0173197 0.74618554 1.0231305
4.1232934 0.74553752 1.0245298
2.6627102 0.9776262 1.0213476
11.011415 1.9222254 1.0226839
2.9675605 3.82143 1.0288824
3.205441 4.3510885 1.0220554
8.5428829 4.46977 1.0292382
3.3491187 4.8871784 1.029313
2.8550167 0.54599905 1.0367112
7.1001644 0.74898672 1.0394152
3.2031126 1.3471444 1.0307766
9.5935421 1.3872377 1.0337986
2.4422009 1.1337618 1.0460591
8.5040255 1.19024 1.0400829
9.1805878 1.19024 1.0425693
1.5519615 1.5047899 1.0483968
0.39516234 2.3150442 1.04669
9.5905695 4.6478553 1.0419555
2.1939876 5.0599389 1.0457959
2.8820143 0.87344903 1.0582285
9.0346155 1.17423 1.0507939
0.42592821 3.4139049 1.053378
1.9547341 3.82143 1.0595664
7.947999 4.1025476 1.0573378
8.8559303 4.46977 1.0550035
2.13959 4.6318884 1.0584685
6.4632645 0.73537081 1.0670366
2.1632993 0.93564433 1.0629624
3.0940049 3.82143 1.0698252
2.5883441 1.040084 1.0796404
8.0540714 1.2033187 1.0779369
1.5647461 1.5382483 1.0739899
2.6787758 3.82143 1.0788965
3.1521978 3.82143 1.0751197
7.9570298 3.8442507 1.0751513
1.5646578 4.5066051 1.0738466
8.7220488 1.19024 1.0839169
8.2140961 1.2680066 1.0833764
3.1788175 1.6170312 1.0850399
9.4586926 1.8477 1.0878855
2.2717459 4.5443878 1.0811726
9.4724674 4.7041721 1.0874394
9.4218473 0.75903958 1.0933282
3.2244172 0.77018267 1.0955658
1.5804417 0.9566977 1.0994763
8.5893631 1.17423 1.0913849
9.3132172 4.2981758 1.0911207
10.696507 4.4832253 1.0970143
8.0614576 4.8060312 1.0945255
3.3332994 0.76507926 1.1013893
2.1580493 0.92905176 1.1066861
11.000696 1.7600052 1.1044605
11.1196 3.2434964 1.1096413
2.2871664 3.8214302 1.1048633
10.989783 3.9346499 1.1049274
1.5812478 4.2554321 1.1007854
2.1749647 5.1199193 1.1065392
9.5544796 1.0582917 1.1131439
9.171278 1.1770929 1.1170299
1.7832873 1.5010744 1.110329
0.4018417 2.9543638 1.1173508
0.40123561 3.1698275 1.1109389
9.5314808 3.8122997 1.1116772
0.52890426 3.8893726 1.1193715
2.7042756 4.2601857 1.11703
2.6115446 4.2938604 1.1132743
3.1596656 4.3088131 1.1161366
8.5262489 4.4857597 1.1125209
7.7391901 4.8880014 1.1198192
5.819962 0.72950166 1.1203172
6.903883 0.73356193 1.1278375
0.75883859 1.3130869 1.1280276
8.7617016 1.8477 1.1274469
9.4896879 1.8476999 1.123378
8.9148521 4.46977 1.1221952
9.2883854 4.5953798 1.1258529
3.5343533 4.9103708 1.1275921
11.1196 3.1994071 1.1314207
8.4824047 3.8122997 1.1366488
3.1314611 3.8214302 1.1350183
7.9874544 3.994061 1.1351645
3.1501164 4.6478181 1.1316414
5.9647856 4.9326873 1.1360664
2.7493188 1.8385699 1.1460829
8.6125298 1.8477 1.1479232
9.0263939 1.8477001 1.1450399
1.7559412 3.8214302 1.1449667
9.3646278 4.1486101 1.1409137
8.2575645 4.2823763 1.1467557
8.6473713 4.4857602 1.1430256
9.0645399 4.4857602 1.1462829
2.6014457 0.57671195 1.1506697
4.5368481 0.72969192 1.1506442
1.6169993 1.2526494 1.1588386
3.1337833 1.6273016 1.1581612
10.856073 4.2675695 1.1530837
3.1335692 4.5127954 1.1585087
9.4431353 4.5783606 1.1533146
5.0532789 4.9332476 1.1554809
6.6434784 4.9358392 1.1537154
6.7447653 4.9349513 1.1579695
10.086575 0.8860718 1.166587
9.5288496 1.7896215 1.1636981
8.5828943 3.8123 1.1687768
3.1289644 3.872303 1.1659856
8.2689323 4.1662655 1.1624016
2.9731951 4.2117348 1.1690667
1.6269549 0.87186545 1.175005
9.249733 1.1610339 1.1790564
1.6351199 1.2173766 1.1784588
10.852092 1.3832678 1.1788878
8.2268963 3.8123002 1.1742513
2.6166403 4.03508 1.1748296
2.5233505 4.3489447 1.1766764
2.2765141 4.5309319 1.1757828
9.4292154 4.8177648 1.1769754
7.5929599 4.9174242 1.1764731
8.7770386 1.17423 1.1866342
8.0146313 1.6762469 1.1887709
0.42784065 2.6347578 1.1849575
8.5626993 4.46977 1.1801063
8.8089981 4.46977 1.1812732
9.2432108 4.8751383 1.1880348
3.7817502 4.9303422 1.1828029
9.2370787 0.80627233 1.1964749
1.7898029 1.8385701 1.1958665
9.2003765 1.8476999 1.1994215
3.1115332 4.3682318 1.1942886
1.63943 4.7416081 1.1952622
1.8636849 4.9270072 1.198872
8.3223333 0.76941669 1.2082922
2.6014009 1.0301217 1.2066283
1.7413864 1.3457664 1.2079309
2.5266485 1.8385699 1.2023797
8.1219425 4.3970075 1.205039
1.6465487 4.7668624 1.2068217
3.0941026 1.0511702 1.2195855
8.6581926 1.17423 1.2191325
0.47798729 3.6310196 1.2151662
0.81384349 4.4137039 1.2190698
7.2200093 4.9278255 1.2126346
6.6411753 0.7154597 1.2225314
2.6789634 0.7879374 1.2204672
0.92645013 1.1045842 1.2258373
1.8837585 1.1950527 1.2277852
8.9650755 1.19024 1.2227509
9.497406 1.2931426 1.2257221
0.67444175 1.4446526 1.2295589
1.6981509 1.8385701 1.2250566
0.59570813 2.0564423 1.2294204
2.7108004 4.2339725 1.2213664
8.0316105 4.5350976 1.2222633
1.6661719 1.6695366 1.2386857
2.1646552 1.7433929 1.2347136
1.8246288 1.83857 1.2356887
0.57716912 2.2428968 1.2391548
8.5937624 4.4857602 1.2396225
9.2540722 4.9047799 1.2384251
3.0796714 0.812702 1.2460221
10.913644 1.5037574 1.2459687
8.0494537 1.8111776 1.2458725
8.2627916 4.9047799 1.2435943
5.297576 0.71510017 1.2507465
2.0103576 1.0223756 1.2585567
8.3613329 1.3110164 1.2583971
0.57101262 1.7009089 1.2580674
3.0272808 1.83857 1.2556385
8.0593166 3.8469522 1.2572558
2.9581091 4.2993188 1.2573185
1.675815 4.7058911 1.254344
8.0535746 4.806879 1.2506294
5.6092005 4.9472399 1.2588108
1.6813817 1.2863536 1.2633833
9.4690037 1.5880917 1.2600822
0.58721489 1.7495434 1.2650492
3.0658853 1.7936988 1.2684062
11.1196 2.5117953 1.2664078
11.066055 3.5802636 1.2642951
1.683212 3.9064121 1.2663556
2.2882276 4.522296 1.2661442
9.4647655 4.5296926 1.2649734
4.2591505 4.9411659 1.2607319
4.7325325 0.71475065 1.2777615
9.1594715 1.5001746 1.2751948
0.83218998 1.6781373 1.2799289
8.7864561 3.8123 1.2790835
3.0579083 3.8232164 1.2796936
2.3658943 4.4821725 1.27064
9.1529064 4.6894398 1.2732803
5.5004244 4.9484444 1.2743062
4.0464239 0.71665096 1.2895031
7.4213424 0.72824675 1.2819014
8.1807652 0.79331493 1.2860014
1.6999369 1.1988058 1.2863613
1.6956226 1.2861264 1.2825184
8.2194328 1.4994843 1.2881749
1.977856 1.5786437 1.2883368
0.80468875 1.5889895 1.2898535
1.927078 3.82143 1.2883081
9.4474258 3.9559989 1.2849834
0.64949995 3.9944949 1.2813388
2.8133543 4.1383448 1.2861974
8.3864508 4.3289614 1.2810119
10.198198 4.7474432 1.2859143
5.2172222 4.9483719 1.285605
7.8352385 0.76026893 1.2958863
10.129027 0.89149952 1.2918078
0.8862046 1.1663587 1.2986172
9.115716 1.415112 1.2999616
8.3652802 3.8122997 1.2941134
8.7617931 3.8122997 1.299353
2.4297543 3.82143 1.2975262
2.6509881 3.82143 1.2999053
0.85358781 4.1603374 1.2998049
8.095397 4.4313402 1.2988918
2.3508263 4.9679527 1.2908759
6.2140903 0.70538765 1.3067219
7.5182672 0.72715986 1.307243
0.90113866 1.4888331 1.3010111
11.1196 2.6211538 1.3083864
0.56927109 3.0225725 1.3098091
9.1142349 4.346231 1.3008173
2.1331816 4.7696609 1.3072929
7.4970064 0.72551835 1.3190715
8.4462767 0.82630384 1.3179882
9.4171467 1.1871145 1.3199251
8.8225117 1.8477 1.3191164
2.9488821 3.82143 1.3109521
0.72064257 4.0165286 1.3162811
0.96050835 4.2922058 1.3144841
0.80507207 4.3074427 1.313659
0.96470284 1.1887445 1.3254383
9.3093061 1.3408785 1.3262045
2.4919038 1.83857 1.3229353
0.57262903 3.0233574 1.3284212
9.2104702 3.8123002 1.3265547
2.332459 3.8214297 1.3290869
3.0017893 4.7337885 1.3296866
8.4515791 4.7558875 1.3210495
3.3544014 4.9249558 1.3257408
3.3438902 0.7341916 1.3356683
8.4324074 0.76101661 1.335403
1.9351466 1.4309955 1.3365272
2.1141818 1.8385701 1.335428
2.2709537 3.8214302 1.3324349
9.4068193 4.0818458 1.3318424
1.0777053 4.3340907 1.3308617
1.0539503 4.4217143 1.3323798
1.9451998 4.4410877 1.3325146
8.6892509 4.8573899 1.3325849
8.4927711 4.8898306 1.3310988
9.1148958 0.75630778 1.3418745
1.7641569 1.3092227 1.3435683
10.986472 1.70684 1.3449606
0.51931715 3.5826936 1.3447
0.75875032 3.9410129 1.3439428
2.9856825 4.4969764 1.3440351
9.0431986 4.5114818 1.3418303
2.9863317 4.5596771 1.3434571
1.006044 4.6111174 1.3441758
1.158008 4.7031646 1.3454833
2.9824691 4.7512474 1.346898
2.5310512 0.92760456 1.3578271
0.67442429 1.6938143 1.3593123
9.1985807 1.8477001 1.3568039
1.7045588 0.74201292 1.3623524
1.6500301 0.75233543 1.3606026
2.5213518 0.95848227 1.3661968
10.642727 1.1093076 1.3612041
1.0553949 1.3666393 1.3680062
0.8555938 1.4990804 1.365216
0.65908659 1.5337541 1.3638606
2.9592466 1.7475076 1.3675855
9.3738184 4.0310173 1.3699259
2.5181699 4.3269744 1.3610148
1.8512938 4.6581726 1.3672287
1.2707894 0.90596485 1.3760827
2.2392805 3.82143 1.3790554
2.5735126 3.8214297 1.3729279
2.955461 4.4024334 1.3709581
1.8047951 4.4841347 1.3797686
5.5043392 4.9596081 1.3752904
2.3361149 0.7962817 1.3848633
8.9408092 0.80154705 1.3803543
8.1696558 1.3035928 1.3845867
0.96156508 1.3178437 1.3827479
0.61241627 3.5232303 1.3846999
1.0349944 4.254663 1.3870414
0.76728165 4.3009758 1.3852477
1.0049024 4.3505774 1.3835626
2.8477664 4.3700624 1.3885617
0.94045889 4.4592338 1.3824233
2.2698569 4.6449742 1.3874375
9.2389412 4.8274841 1.3895599
4.3516464 0.70402646 1.3910074
2.3181779 0.80733436 1.391695
2.3754213 0.91805124 1.395522
0.95989382 1.21106 1.3913956
8.649579 1.319205 1.3963058
2.9336767 1.4322342 1.3903642
0.66563761 1.5401359 1.3918296
0.94172484 1.599762 1.3982393
0.58904862 2.4939587 1.3973947
8.414588 3.8123 1.3970989
8.1835747 3.8739407 1.3972017
2.9324541 3.9525366 1.3914533
8.8746786 4.1882715 1.3969904
9.3419619 0.89066291 1.4008749
8.7838259 0.92666852 1.4065409
11.11906 3.2134745 1.4064027
1.9394908 4.7159786 1.40026
1.8348256 4.8295259 1.4065195
10.584888 1.0842649 1.4170241
1.160551 1.1801455 1.4167238
2.1058447 1.5082326 1.4157304
2.6385221 1.8385699 1.4125092
9.3174667 3.8910222 1.4180675
1.0158104 4.2628961 1.4191805
1.2299991 4.5829449 1.4180324
2.49809 0.60447586 1.4228257
2.5767245 0.68245602 1.4238615
2.9131174 1.1486651 1.4208982
1.9359576 1.2525649 1.4209812
9.1842794 4.2648067 1.4266344
1.0792637 4.2891006 1.4231894
9.3098803 4.2801509 1.4233924
9.3047543 4.3286076 1.4269898
10.720168 4.4286718 1.4282179
1.86889 1.6618233 1.4368638
0.61678892 3.3440185 1.4362128
5.5995641 0.69227964 1.4447693
8.3698549 1.2951105 1.4401243
2.406404 1.5722195 1.4460664
11.021692 2.2116399 1.445296
9.1472864 4.6074233 1.4479933
10.6116 1.1681252 1.4538863
8.3996344 1.4596896 1.4573183
1.9007729 1.6051075 1.4580493
1.8890092 3.8807206 1.4525596
2.8575747 4.4252868 1.4543265
2.8275309 1.7752197 1.468347
9.0046139 1.8477 1.4650741
0.61316687 2.4339035 1.4614727
0.46903574 3.0065429 1.4600997
8.276886 4.1310697 1.4626939
3.1887889 0.72413135 1.4788287
1.0350497 1.4326785 1.4777232
9.1040144 1.4501746 1.4729778
10.7871 1.5311369 1.475667
2.6369004 1.8385699 1.479949
0.64409792 3.4663944 1.4725977
10.760529 4.2147164 1.4737434
2.5709991 4.2438788 1.4798179
9.1033497 4.5210276 1.4733618
1.3132392 4.5489779 1.4780415
8.3001709 4.7607055 1.4790378
2.8086936 4.8781228 1.4771378
8.1133747 4.9052744 1.4732821
2.0512717 0.89713997 1.4821333
2.7930746 1.1000236 1.4844267
8.4587831 1.2662009 1.4891261
2.6956384 1.3673177 1.4870939
2.7881322 1.6948198 1.4867333
2.2995589 1.8385701 1.4866555
8.9826355 3.8123002 1.4888211
1.9547861 3.8384266 1.4832557
0.61739385 3.90136 1.4814577
1.9526889 4.679986 1.4822769
2.7801938 0.87534922 1.4904379
0.68220478 3.6690695 1.4947122
0.90297902 3.9854207 1.4934988
8.3196697 3.9962878 1.492723
1.9730444 4.440289 1.4917762
1.9774495 4.7549653 1.493832
2.242424 4.8121223 1.4994254
3.0378349 4.9340467 1.4909921
4.368165 4.9659801 1.4945855
5.3719454 4.9706354 1.4948742
0.66243619 2.1134827 1.5046999
0.56132841 2.5807049 1.5046999
0.6731748 3.9621491 1.503345
3.7119799 0.69851381 1.5100142
2.0160193 1.3434943 1.5118313
9.1761055 1.6289417 1.516361
0.96387047 4.0103621 1.518342
2.2695489 4.7575364 1.5170431
6.1201668 0.6838454 1.522746
1.2585304 0.96233088 1.5276216
8.3884602 1.11151 1.5293612
2.7124224 1.1717278 1.5220647
8.9508219 1.1842935 1.5284919
9.1514359 1.5013508 1.5258508
9.1475658 4.1140518 1.5273393
2.6976588 4.3110433 1.5289545
0.90152889 4.3846893 1.5210946
9.1656761 4.5476937 1.5203727
2.7261372 4.7113032 1.5294156
9.1312027 0.9142704 1.5336335
9.124651 1.2073495 1.5361543
2.6742945 1.3438197 1.5398577
2.0763695 4.1486168 1.539995
9.1395235 4.2776694 1.5304329
2.6912069 4.5209093 1.5319653
1.4056859 4.5973449 1.5348873
8.4374228 0.78655219 1.5481951
2.6599422 1.3855489 1.5465555
2.4834101 1.4138665 1.5453558
0.61253047 3.6298966 1.5446999
8.4393101 4.2700548 1.5489212
1.307899 4.6624308 1.5464882
2.6562166 4.7119293 1.5482943
7.4529366 4.9577484 1.5429955
6.3228455 4.9783988 1.5404253
4.4339972 0.68952274 1.5512352
4.5463715 0.68902725 1.5509179
10.689289 1.5922482 1.551331
8.741394 4.2163596 1.5507289
9.0651007 4.3893175 1.5590612
2.5962458 0.94753098 1.5649354
1.2988954 0.97011018 1.5694548
2.5769434 1.5169907 1.5677648
2.594172 1.623359 1.5652395
2.1415164 1.752979 1.5630876
2.5686707 4.1056952 1.5689774
2.5771785 4.29284 1.5677305
2.1466851 4.3878698 1.5638452
9.0330687 0.80626237 1.5713825
2.5472119 1.0528696 1.5721231
2.5446408 1.1798397 1.5725
2.2183144 1.1996436 1.5743454
2.5496871 1.2872052 1.5717602
2.5044672 1.4203302 1.5783886
8.512331 1.5782359 1.5770097
0.963166 1.6211939 1.5709113
0.66123229 2.5878656 1.573696
8.5009975 3.9642282 1.5726507
9.0135489 4.1878085 1.578891
1.1335225 4.233386 1.5731862
2.2268603 4.3170838 1.5755979
2.5030015 4.5531082 1.5786035
2.5441053 4.9082856 1.5725783
5.5440531 0.68166488 1.5881209
7.1720219 0.69156444 1.5853939
2.2982845 0.72249383 1.5860678
2.2694988 0.81841677 1.5818481
9.7551308 0.8483848 1.5854566
2.2701511 0.92069179 1.581944
2.4814041 1.0152931 1.5817692
8.9848928 1.1839423 1.5899143
1.0711335 1.5229461 1.5854301
8.6784763 3.8123002 1.5886165
2.4846687 3.8678627 1.5812907
8.5318289 4.0315561 1.5845101
1.4069486 4.5791001 1.5860904
2.4455884 4.7800188 1.5870193
8.6043425 0.74486113 1.5987623
9.0556002 0.74224854 1.5922124
2.3655872 1.2479683 1.5959338
2.3497109 1.2751555 1.5936065
8.951931 1.4024845 1.5956252
8.9292507 1.681946 1.5984147
8.5788679 3.9142935 1.5956291
8.559185 4.3139133 1.593208
1.3862519 4.5239859 1.593816
8.5483522 4.62499 1.590866
8.6852751 1.1599228 1.6087172
8.6929216 1.6531296 1.6096575
8.8476686 1.7482369 1.608449
8.8703403 4.0779114 1.6056604
1.0194185 4.2493696 1.6020281
8.6831894 4.7143617 1.6084605
8.6563158 4.757412 1.605155
8.871314 4.8608918 1.6055408
3.5543411 4.9601059 1.6008108
2.4591815 0.71557814 1.6127009
1.433396 1.1108073 1.6149756
8.7526779 1.4623307 1.6170075
8.780035 3.9250059 1.6167674
8.7921228 4.2164679 1.6152807
5.1247931 0.68029737 1.6327348
10.810649 3.3655179 1.6333134
8.1859627 0.7374047 1.6412424
7.4828634 4.9631448 1.6413076
6.8276377 4.9834414 1.6459582
1.3520224 1.0209881 1.6507599
1.4960736 1.0764021 1.6507599
1.4565399 1.0828702 1.6504688
6.4192204 0.67173976 1.6675723
3.6454077 0.69176853 1.6674864
7.2581453 4.9712334 1.6680063
4.5530138 0.68073899 1.6744783
3.5885367 0.6960513 1.6729484
2.8335264 0.7145294 1.6780565
1.0444545 1.294118 1.685536
6.7438116 0.67029667 1.6917906
10.814953 2.7583587 1.6908578
1.0460099 4.353756 1.6951628
5.0404449 0.67595845 1.7027994
10.76824 2.1791654 1.7020078
0.66519642 2.7366517 1.7086892
7.9855795 0.72352105 1.7165351
1.118343 1.2473034 1.7195801
9.6546841 0.85439169 1.7292219
5.798933 4.9893208 1.7205542
10.79346 2.3763647 1.7384452
10.825118 2.6325068 1.731748
10.794121 3.3431726 1.7346449
2.4861836 0.74863458 1.7485086
1.790674 0.89432734 1.7461065
10.729757 2.0411954 1.7480782
4.103199 0.68943053 1.7519768
8.9670401 0.74342346 1.7528746
10.553885 1.3830687 1.751011
10.737476 2.6287894 1.768676
4.5895448 4.9776516 1.7610903
1.9673246 0.84623051 1.7767994
10.786713 2.4002481 1.7771655
10.78729 2.523536 1.7719878
3.7162337 0.6986329 1.7932808
1.2329504 1.3105981 1.7991706
0.95097768 1.7336774 1.7967986
0.82881707 3.0757258 1.7973605
1.4370341 4.5797997 1.7962241
10.167796 0.98878115 1.8066416
0.83648372 2.7297349 1.8012896
1.2632402 4.3802347 1.8034325
8.1782007 0.72027773 1.8108565
10.780478 2.7962928 1.812952
10.729745 3.4239726 1.8129208
10.331763 4.5649853 1.815738
10.022187 4.7332058 1.8117607
1.0883973 1.6184989 1.8291856
10.727209 2.2959018 1.8274312
0.88984329 3.1453896 1.8286347
2.2053785 4.8157845 1.83139
2.9596426 4.8952374 1.8348562
5.3841352 4.9822192 1.8324554
5.9632769 4.9949932 1.8353851
0.92768979 2.9917722 1.8480299
10.77302 3.2511201 1.8429383
5.7620964 4.988091 1.8471786
1.0666889 3.8463628 1.8588063
1.0603486 3.7023027 1.8697553
3.489593 4.9413042 1.8659551
7.1025786 4.9902239 1.8630462
1.0392311 2.1082125 1.8754501
1.4184237 4.1871719 1.8748257
9.4326725 4.8371735 1.8787186
10.779328 2.6466722 1.8800877
1.0736754 3.4376349 1.8866985
1.1962007 3.8888907 1.8898125
9.3592291 4.8494015 1.8805487
3.2488678 4.9040918 1.8852868
5.7994604 4.9808445 1.8893105
3.53686 0.7249288 1.8964248
10.482772 1.2773511 1.8926041
10.35758 4.5439467 1.8976446
10.07206 4.7207966 1.8964233
2.8951573 0.80093127 1.9011947
1.5903288 4.2645774 1.902389
9.9252586 4.7487521 1.9040437
7.3566737 4.9844089 1.9011739
7.9124441 0.69925857 1.9197648
6.1516571 0.71979779 1.9194385
1.2269578 3.6660385 1.9190989
2.5282807 4.7493615 1.9182394
7.6537681 0.6850816 1.924666
3.2255237 0.77558017 1.9229716
1.396068 1.7141678 1.9386451
10.708099 2.3536243 1.9367892
10.66002 1.923593 1.9407057
2.323833 1.0297946 1.9554015
1.9129561 1.41372 1.954633
10.732432 2.256424 1.9528
1.2801286 2.8725328 1.9517813
2.1066766 4.5171552 1.9578785
1.3856292 2.0734432 1.9671711
1.3480742 3.4625969 1.9642279
1.9639475 4.2644463 1.9608881
6.4894609 0.75250393 1.9718245
2.4761314 1.0253762 1.9714073
2.4418077 1.0360368 1.9731656
10.782015 2.6518288 1.9763227
3.7393675 4.9259944 1.9764793
6.4496679 0.7604757 1.9810545
1.4179406 2.53318 1.9849715
1.4270412 2.9171915 1.9867461
3.950995 0.74017781 1.9996179
4.373847 4.9220114 1.9964845
1.5089124 3.1070511 2.0027101
1.5330877 3.4003196 2.0005534
6.1910076 4.972929 2.0025523
2.6310501 1.0759006 2.0144846
10.775925 2.0916631 2.0153
10.784642 2.2594805 2.0153
1.5833101 2.2752945 2.0103788
10.863176 2.8285868 2.0153
1.5464548 2.8453674 2.0100305
10.822151 2.9218049 2.0153
10.775705 3.5550869 2.0153003
2.4701076 4.3732195 2.0154026
2.4591689 4.3940506 2.0131075
5.2216678 0.73750848 2.0240779
6.564755 4.8752136 2.0277631
3.6928649 4.9029751 2.0299547
6.5448704 0.67734629 2.0332017
5.7369652 0.72998393 2.0376399
3.0179489 1.0286093 2.0327239
2.8121197 1.1355343 2.0399106
1.8299963 3.7651753 2.0362062
3.3394289 0.91954827 2.0442514
2.9664936 1.0784423 2.0483372
2.7534277 1.3265647 2.0481043
2.7393706 4.3290358 2.0468338
5.487586 0.74537998 2.0500011
5.7361126 0.74337333 2.0591543
6.2226748 0.76220036 2.0531325
2.9484115 1.1454195 2.0524635
2.9243388 1.2297633 2.0630717
2.7318876 1.368482 2.0787294
1.8958619 2.6468585 2.078162
3.1082766 1.2151811 2.0837092
2.0375488 2.0646148 2.0832548
1.9093797 3.1906281 2.0807979
3.9516191 0.77457023 2.0993612
1.9611936 2.5853448 2.09044
1.9807892 2.8557482 2.0929172
1.9814129 3.2009814 2.0929961
3.6829014 0.82193631 2.1001563
2.4233868 3.9192171 2.1075392
4.6735792 4.8838181 2.108042
2.2980371 1.9955626 2.1100774
2.2847068 2.1892378 2.1189036
10.494305 1.3803167 2.1258371
2.3563507 2.1356964 2.1254587
2.2235899 2.969027 2.1236119
4.9239993 4.8771095 2.1291077
8.2472773 0.76079547 2.1331382
2.9123633 1.3860768 2.1385212
2.5387573 1.8863202 2.1317096
2.4092884 2.123522 2.1313975
2.2925215 2.8813758 2.1323261
2.2799122 3.0778184 2.1307321
2.5641999 3.8065557 2.1320806
2.8292499 4.2032442 2.1355574
2.7756822 1.7768843 2.1477294
2.4056194 2.4039955 2.144021
2.547874 3.3233612 2.1579664
2.780755 3.8236189 2.1522093
3.5647845 4.721242 2.1598706
4.6670899 4.8694158 2.1548784
7.4336076 4.8932776 2.1533144
4.1575713 0.59400463 2.1694291
3.4256303 4.2336402 2.1637595
10.312114 4.5479851 2.1615434
3.2774134 1.5399146 2.1729641
10.585684 1.6403596 2.1758676
2.8905516 2.0449502 2.1764889
2.6812446 3.3378344 2.1701782
2.7940903 3.3683431 2.1797178
3.3380728 3.6718159 2.1754758
3.1648333 4.0827098 2.1722288
7.6283259 0.78306508 2.1822469
3.7272668 0.88054335 2.1851935
2.7558086 3.1072259 2.1848459
3.3333435 3.5308285 2.1821551
3.3553548 3.1632638 2.1984985
3.3127294 3.4158483 2.191535
10.562263 4.0816979 2.1900504
3.1243734 2.2298312 2.2064171
3.384613 2.361836 2.2072453
2.947294 2.7806642 2.2041423
2.9353416 3.178046 2.2029381
3.2064471 3.4253974 2.207808
10.680416 3.674355 2.2194889
4.1383796 0.31100386 2.2349896
5.224431 0.81367171 2.2348931
10.783123 2.6852534 2.2366331
3.4919882 3.8793206 2.2314007
10.553482 4.0886693 2.2321584
8.1043262 0.81014097 2.2478232
3.4702652 2.1392071 2.2442458
3.4316158 2.7773836 2.2456584
4.9086294 4.8436804 2.244066
6.0877171 0.81811351 2.250288
3.5411241 1.6833962 2.253799
3.50524 1.9538386 2.2523587
10.450571 1.352684 2.2693715
3.9352441 0.85601473 2.2712264
4.0555344 5.1741648 2.2792819
4.1145325 0.31963697 2.2859032
3.4901249 3.0333483 2.2811799
10.210553 4.3523035 2.2872036
4.6319213 4.8304539 2.2899172
5.0205131 4.8329926 2.2811136
8.076189 4.8332672 2.2801607
3.65519 1.4173387 2.2986534
10.763882 3.0714092 2.291127
10.080284 4.4098792 2.2920527
6.5454621 4.8301787 2.2908661
4.2122402 0.67440808 2.3067513
10.760977 2.4748936 2.3096373
7.6538501 4.8262162 2.3045988
4.1013665 4.9645581 2.3026686
9.8481579 1.2118151 2.3177333
9.2766037 0.94392729 2.3249531
10.215555 1.5156289 2.3281207
3.6558523 1.7945279 2.3275974
3.7016275 4.2921367 2.3202784
9.2646179 0.95642203 2.3316612
5.4166584 0.8443898 2.3412735
3.6236944 2.2468262 2.3406894
3.6305056 2.2824838 2.3468056
10.274754 3.8980758 2.3472583
10.109447 4.1139379 2.3461518
10.747925 3.2055557 2.3576944
9.6720238 4.4521389 2.3584151
4.4265718 4.8106947 2.3554974
7.3253851 0.85257751 2.3649466
7.5466375 0.85232657 2.3642201
10.465433 3.4306514 2.3667631
10.064352 4.0160313 2.3631237
9.7345381 1.2941375 2.3722067
10.54904 2.4825649 2.3724744
10.021039 3.9932222 2.3757374
6.4541941 4.8052726 2.3711767
10.081925 1.8894691 2.3866603
10.131331 1.9917829 2.3858814
3.7053874 2.2046537 2.3843973
10.44814 2.9596648 2.3819025
3.8415666 1.3432126 2.3967209
10.312236 2.7314994 2.397696
10.341286 2.9715126 2.39432
10.11866 2.1438248 2.404285
10.254333 2.4725313 2.4044247
6.6378632 4.7947674 2.4015565
4.2189174 4.9775138 2.4067225
4.8307734 4.7892942 2.4173865
4.1093388 0.47342727 2.429461
4.7851238 0.87421912 2.4275427
3.7518229 2.7910614 2.4286079
9.7640839 4.1318374 2.4227245
4.1704149 5.2855015 2.4283197
4.1918745 0.64150083 2.4327106
5.8910255 0.87673807 2.4348259
10.116575 3.1413519 2.4302754
4.5417595 4.7832875 2.4347596
5.9728069 4.7837658 2.4333715
4.1408019 5.080595 2.4331119
3.8089304 2.7098343 2.4607344
9.6013298 4.2055159 2.4656644
7.1016669 4.77282 2.4650218
9.8273849 2.1586623 2.4815621
3.8694999 3.2297959 2.4894614
9.8809032 3.2989063 2.4856517
5.011281 0.89657199 2.4921873
4.0536504 1.2271652 2.4975834
3.8718851 2.8794792 2.4949288
6.3231039 0.90544152 2.517838
9.591259 1.7769376 2.5260472
4.3529563 4.7144241 2.5310223
9.5114031 1.6589544 2.5404797
4.0315185 1.865082 2.5418839
9.6913776 3.4065239 2.5445848
6.1557302 4.7441435 2.5470343
9.4886999 3.8747437 2.566941
7.0315013 0.92970407 2.5783403
5.7796602 0.93468565 2.5896015
5.619978 0.93618274 2.5929856
4.1710219 4.0789642 2.5934296
6.9382529 4.7250757 2.5901387
7.8057404 0.9420715 2.6062965
5.4546032 4.7190809 2.6036899
8.5193996 1.0319916 2.6115239
9.2580233 1.5070426 2.6130068
9.2990818 1.6218556 2.6175439
9.5681229 3.1324339 2.6103101
9.194129 1.4520645 2.6234066
9.3988209 3.6838226 2.6239676
7.6459203 0.96482044 2.6577222
9.2428532 3.9441299 2.6524754
7.7397647 0.96692383 2.662478
4.2241926 2.1444011 2.663115
4.1871152 3.1410842 2.6619182
9.2328148 3.8591063 2.6682556
5.1331511 0.97232616 2.6746902
5.714952 0.97417814 2.6788769
4.3914514 1.1991111 2.6706452
9.4096136 2.9351761 2.670486
8.9943132 1.4020514 2.6928074
4.4554839 4.3960834 2.7071419
7.2132769 0.99066448 2.716145
9.2946758 3.1726213 2.7141204
8.312851 1.0718497 2.7209187
4.4245763 1.6505396 2.7326448
4.4323592 1.6773826 2.7384152
5.3499241 1.0028058 2.7435918
7.424881 1.0073245 2.7538078
4.3700504 2.3680477 2.7524426
4.4272561 3.8033407 2.7510774
8.4058781 4.5145512 2.75741
4.7127881 1.1182246 2.7672672
9.0635462 2.1596022 2.7687418
4.3746891 2.8294601 2.7612057
4.3818765 3.1915812 2.7626646
6.189671 4.6429405 2.7754867
4.4195247 2.5820093 2.781352
4.4208903 2.9553702 2.7819657
4.6277037 4.3593373 2.7863841
8.6464653 1.3873644 2.7920837
6.5435429 4.6313782 2.798285
8.6592999 1.5404694 2.8194759
4.5666385 3.6017475 2.8267744
8.6147194 1.5568206 2.8346643
8.6871357 1.6947724 2.8309319
4.7318659 4.3721056 2.8304267
5.4136443 4.611062 2.8383496
6.641923 1.052512 2.8453875
4.7860327 1.2236453 2.8469346
8.4477472 1.3259385 2.8427815
8.6852627 1.7860909 2.8431036
4.6093974 2.0559309 2.8461905
4.5936065 2.1890311 2.8462944
4.5894117 2.2107763 2.8455653
4.5669713 2.6786313 2.8476079
7.0825381 4.6006336 2.8588979
4.6251516 3.3437378 2.8664701
7.7634606 1.0685421 2.8732009
8.5458145 1.6817583 2.8708255
8.6739864 2.0464904 2.8705077
8.7878027 2.8212016 2.8736587
8.7986584 2.8652902 2.8705308
4.635767 3.18434 2.8773375
8.367918 1.4405851 2.8867869
7.3266234 4.5895071 2.8808427
5.9195838 1.0768892 2.8934486
8.7160339 2.7107801 2.8943377
6.9619498 4.5832081 2.8932536
8.2795057 1.3607988 2.9006677
8.678009 2.6494288 2.9052935
4.8981547 4.3581157 2.9054298
5.1347637 4.5117683 2.9083233
7.3865123 1.0884926 2.9163311
4.8681517 1.606144 2.9292321
8.4245148 3.870801 2.9201639
4.8402052 1.7702231 2.932024
8.4034023 1.8188977 2.9301507
8.5738411 3.1375275 2.9353075
7.5087838 4.5395212 2.9527075
8.2171373 1.730908 2.9680076
8.4794035 2.5555716 2.9625175
4.8858795 2.0670385 2.9723585
4.8442264 2.7428989 2.972193
4.8447237 2.8945079 2.9724164
4.9077621 3.7389641 2.9743986
4.9679947 1.7482221 2.9841797
4.8726583 2.6256542 2.9849687
8.3923426 3.0460024 2.9876027
8.2801914 3.6059678 2.9836371
5.2612143 4.4308405 2.9895658
5.180481 1.3672843 2.9943948
7.5911946 1.2156843 3.0025394
8.0891991 1.7826207 3.0013392
8.332099 2.9519062 3.0020299
8.2697163 3.2663651 3.0081611
8.133811 3.7742045 3.002372
8.1601133 2.1728706 3.0176578
8.2179508 3.3715291 3.0127892
7.7875323 1.4490397 3.0206637
5.0904331 1.8380699 3.0225742
5.1510029 3.9879875 3.0220752
7.6184139 4.2589273 3.0397687
5.358037 4.3284779 3.0336587
5.7794189 1.1999809 3.0484734
8.1483269 2.5065875 3.0401411
8.1421928 2.5527487 3.0416217
5.2108426 3.8867412 3.0460677
5.3060374 4.1658869 3.0418527
5.4858127 1.3247381 3.0562909
7.5935602 1.4839618 3.0558677
7.9354234 2.047086 3.056061
5.1494465 2.1380446 3.0534005
7.9802203 3.4223845 3.0599942
5.1658745 2.212245 3.0611391
7.8817434 3.6163807 3.0664833
5.5742245 4.3687115 3.0616775
7.0544763 1.3407621 3.0779932
5.1784525 2.5047882 3.0738573
7.9847608 2.8145132 3.0744429
5.1663885 3.1115456 3.0711305
7.381063 4.2181225 3.0700057
6.7392821 1.2567228 3.0846596
5.4085722 3.9347529 3.0899572
7.3885975 1.6510836 3.094233
7.7539291 2.2352228 3.098289
7.6762075 3.6548972 3.0952082
5.8314457 4.2951517 3.0990763
6.3041115 1.4195766 3.1063735
6.0776415 4.280571 3.1010203
5.6991768 1.6141005 3.1148014
5.5028777 1.8357575 3.113869
5.3920946 2.184582 3.114382
5.3888655 3.3292222 3.118892
6.1156044 4.2081556 3.1106761
6.4696999 4.2022181 3.1114676
5.9608455 1.5933931 3.1274922
7.4787092 3.440402 3.1299243
5.5048933 3.5346682 3.1298742
5.5864305 3.8110504 3.1241364
6.3080769 4.0985632 3.1244621
7.5490546 2.4479895 3.134532
5.4381409 2.5270755 3.1361222
7.0619702 3.8056259 3.13626
5.9968815 3.9674907 3.136889
6.6820183 4.0093269 3.1329226
6.5159769 4.0198331 3.1319265
6.6240492 1.7407293 3.1414604
6.3934197 1.8014996 3.1472218
7.3380737 3.3879368 3.141223
7.3201909 3.4314637 3.1406801
6.7030554 3.8560889 3.1474504
6.2628813 1.8555865 3.152122
6.9892569 2.0792153 3.1544964
7.1639915 3.2902167 3.1564913
6.0441194 3.7344635 3.1559031
6.5030394 3.7339387 3.1559315
6.3605747 2.0729556 3.1638718
5.7149792 2.617723 3.166508
5.7460475 3.4259639 3.1611226
5.7644081 3.483891 3.1603785
6.0335555 2.2014494 3.1708171
6.1784649 2.2490122 3.1728203
5.8558846 2.3367515 3.1758459
6.6806908 2.3362048 3.1758268
5.8072567 2.5510099 3.1763127
6.9087348 2.9788239 3.1797996
6.9186625 3.1435022 3.1791024
5.9131765 3.3003857 3.1766343
6.8199372 2.481931 3.1808522
6.4472466 2.5000567 3.1814771
6.6500382 2.5971091 3.1818199
