# .PCD v0.7 - Point Cloud Data file format
VERSION 0.7
FIELDS x y z
SIZE 4 4 4
TYPE F F F
COUNT 1 1 1
WIDTH 1608
HEIGHT 1
VIEWPOINT 0 0 0 1 0 0 0
POINTS 1608
DATA ascii
3347.939 433.80927 172.12233
121.08887 463.95456 211.74387
3998.3413 1322.6116 788.71497
3894.9702 1270.6259 789.43866
1162.7852 1717.9429 255.30719
4524.4272 333.9769 733.02362
2879.03 645.10278 1157.8345
2735.895 914.00427 771.19269
4116.0146 663.55652 784.31628
2944.6057 1698.37 400.03973
3631.8652 291.92093 788.87769
1401.3934 171.56094 97.004189
1730.1797 241.27954 1004.9631
3458.9995 1506.915 598.02118
3831.978 1075.5916 192.88077
1195.8137 868.97528 754.43738
2677.311 1040.4963 772.16919
1956.5156 1598.8296 757.53241
4181.1143 1667.2427 264.67902
1680.9976 609.31323 761.68793
40.5294 961.76465 360.23193
1142.7627 239.5658 759.995
3014.0828 -24.54763 107.446
1325.5875 428.07016 756.0874
2505.0918 931.93921 106.17994
226.69971 627.32141 542.13379
821.05688 276.99258 234.6898
3296.9597 -19.861755 535.93091
1218.7642 139.41969 504.76755
1995.5588 1025.7739 765.10046
2001.7583 1610.4615 179.34607
3427.4214 -80.404228 171.2726
109.19527 179.3446 354.94916
3250.3491 -33.261078 426.38068
2703.7437 934.64478 771.12378
3743.4792 1371.4386 791.1853
2012.6372 1540.6783 876.72729
924.49829 1494.4041 487.71994
1341.4623 119.22322 102.97464
1877.098 477.92227 1134.7439
4516.3301 1410.4325 578.93811
1968.5615 -35.447918 359.92679
934.20453 555.94067 738.14307
754.74908 1686.5415 129.79359
830.27484 1197.9426 714.7868
1106.4061 1343.4792 564.29565
2595.1958 96.081795 106.85899
995.4765 1566.9785 8.4446907
3361.165 137.65594 481.20398
878.38953 814.42816 730.13666
2418.2742 961.92224 768.57861
3004.2485 -57.19265 163.20198
2476.9878 707.26392 768.51361
3086.1938 114.99992 107.446
1645.6637 712.53088 99.034958
3243.0029 164.99197 967.82849
2197.0977 129.85413 987.79211
2066.9207 1234.5209 768.40942
1466.6497 -95.427872 235.09317
2027.3209 83.316772 101.51746
4543.6992 626.85608 346.40295
3405.6667 1045.2339 174.59802
2846.4092 1486.3774 779.40576
1249.5149 512.13092 801.10815
2375.9341 1390.3013 1113.0885
3893.0559 1225.4021 195.50015
3076.271 190.60422 1035.1604
3251.1033 1016.7092 777.67004
2929.0271 1692.8374 498.11331
997.10754 305.59204 277.86951
2213.9526 384.41385 769.8595
627.92627 281.90186 139.7404
4591.6309 1330.8123 408.76752
3015.6895 1067.6191 145.1758
1240.7073 94.818222 61.656269
3442.9546 1715.3132 219.35997
2080.7192 1408.0168 102.65187
1105.1764 560.19238 771.16302
3406.979 69.265175 434.30481
3736.9888 926.22144 781.45593
4341.2837 1435.6256 271.13968
758.8476 265.18793 694.83411
3432.8857 1439.8109 194.46521
3846.2324 1415.2197 802.88043
2760.8835 318.00574 1153.5121
2905.146 1627.5127 107.446
2750.3672 408.22803 774.98248
3971.8621 819.92322 782.51031
2951.0027 1639.9579 107.446
4052.9639 691.25684 784.09717
3653.6548 1621.7002 507.37567
3651.7703 1277.4409 185.15239
126.40886 701.5954 318.87497
1964.7297 830.69934 101.68756
2113.6235 1387.4417 771.55823
1455.6641 989.80566 943.69397
285.33563 292.18777 558.6568
113.0563 1041.9175 352.56342
4183.9766 1436.7673 741.89923
1011.7775 800.32532 752.17395
1523.653 -82.421417 337.09412
1285.2573 1335.4991 769.84473
747.91394 291.77161 109.03349
804.4635 127.98795 155.28967
816.39978 1338.3584 707.84955
720.72339 1493.5767 364.29971
3574.1375 -100.49154 465.94867
2641.2913 978.74878 113.78584
1391.9032 115.16068 430.90598
1267.2565 1601.3982 299.21909
781.01843 287.78064 701.04004
127.10066 925.91736 499.14948
1037.6466 305.59201 333.25067
92.541496 1042.9766 430.52527
1888.4503 1556.7344 773.41254
3517.8057 682.85278 779.32916
928.63245 -44.586205 151.7576
2892.9204 740.08655 772.30786
2047.5359 1472.5204 986.49536
4153.9336 1669.6478 246.28152
822.57318 255.79495 446.39813
3883.4111 -81.72049 255.26155
4273.4863 1377.0063 737.72192
3093.6084 361.76453 779.02563
2735.6606 1654.1677 651.11499
1104.7019 305.59201 456.05536
148.28217 569.29504 178.66205
3710.7275 1647.6195 746.42603
3648.4631 700.95312 780.42444
1249.7653 924.38324 97.414726
4147.3447 26.25705 719.67224
4282.4634 934.02795 253.62607
2573.52 181.26451 106.72633
3596.9585 1123.3308 782.48541
2277.0549 784.13232 1176.8906
1612.562 517.8811 761.21771
1264.7635 1728.4963 172.90964
1823.2472 1648.0055 499.4649
1190.3103 1354.2484 554.62842
3469.2126 1718.7922 249.00639
2994.5308 463.15924 776.76764
1131.2129 305.59201 301.84323
3550.3792 1490.7063 611.44873
3025.3176 1145.6091 1125.7185
3788.6165 1012.2297 913.32239
909.13226 1363.8347 100.62224
571.74182 244.51111 648.5343
2076.0024 1388.9333 102.61266
2594.6033 1274.903 1163.7241
4527.2725 895.17517 295.96216
2300.8792 69.75692 886.77185
1536.584 848.44373 758.26617
1798.8986 1347.9352 1045.3107
1104.5081 426.14151 762.59985
1432.9734 -99.307251 449.37711
142.81918 338.49091 257.49451
1049.0206 1526.8622 524.09796
1029.8892 -102.69722 286.82288
43.54718 501.91516 389.5816
2892.262 254.71402 1111.7266
1291.459 1338.3204 327.92181
77.955048 1202.8815 433.98401
4134.5186 49.052155 179.26843
4543.3003 1255.0762 472.71686
2269.2629 1605.1489 755.82251
1559.5546 1653.9338 211.70569
3461.2202 1645.9662 670.78503
411.41492 1083.1685 168.28354
1186.0048 49.152435 479.42401
4452.5288 238.48528 313.32101
3881.4368 1431.51 392.66293
2941.9675 1444.2637 107.446
2626.9883 1651.1101 616.79431
44.741089 686.32233 445.82996
658.64343 473.52625 680.17682
3623.0317 1646.7629 516.63
2246.1921 810.19946 104.02753
2205.3264 463.29132 768.79437
4231.3022 215.18021 740.0531
2728.9783 128.65158 107.446
1211.2622 -88.08091 173.39621
1166.0516 124.19368 509.47638
762.28101 763.6488 706.36359
3856.2102 1031.2432 193.91997
2776.7778 -19.175926 706.54468
714.35828 -30.250412 217.86438
812.43982 1724.4382 610.05725
2422.1714 1594.4156 769.14429
1202.7253 846.48352 97.857674
3121.4058 193.43224 155.41248
2316.5955 1432.7706 104.60426
4089.8975 402.10251 785.67712
962.24353 1728.668 683.59363
3619.7549 206.78244 791.60522
3179.7615 422.60413 161.06314
2449.5171 1542.4546 776.77332
1956.3801 15.492472 165.36935
1689.7209 1648.9741 294.58328
3695.9893 1082.621 187.04877
1376.2151 1342.5104 96.794861
2341.1719 1329.4131 1154.6252
2026.0444 1048.0411 765.68445
3954.2231 16.897604 143.13261
2063.8958 1048.6931 766.07483
1339.3732 -96.3806 581.6488
2735.2852 1487.1116 778.29236
1431.9814 1382.2815 846.46332
2435.1238 1292.1431 105.59825
3768.1113 179.71628 222.53154
1583.532 1643.1774 625.65326
2179.6562 780.58691 764.60132
947.77765 935.38147 100.25833
2762.4055 629.25488 772.36359
1381.8785 1617.0918 238.6311
795.37903 182.53261 101.69337
3752.9805 63.267776 195.61267
1895.5938 20.705883 100.25285
1230.0623 741.80847 97.600258
3629.2075 228.35461 790.95203
3065.8386 1715.6411 364.5423
2678.9231 1303.5192 775.44666
579.25995 681.16998 151.36884
3444.5918 -102.06041 317.08307
4067.7168 1372.5334 766.03882
1477.8615 632.87402 759.04431
1498.8276 418.45749 758.93835
2442.7874 322.22241 105.66196
3311.4609 181.61209 557.50128
4454.5254 540.61414 314.09027
1342.576 1263.1322 96.540802
2386.052 436.18268 770.95593
345.75433 1591.8954 205.38414
1183.4633 305.59201 439.72183
2089.6316 -34.602581 490.02338
3394.823 69.502647 636.29706
2899.3276 1252.2078 133.90845
2589.0972 1653.6135 659.99084
772.65045 906.17664 708.61572
1524.4536 226.28134 98.02729
1705.2216 528.74536 762.75812
1716.5179 424.02426 763.09033
500.91571 888.7561 642.27557
2104.5488 1199.915 102.84996
454.13867 -28.597582 270.47214
829.60565 1378.7737 707.90289
3898.6863 505.39606 785.02405
2537.0171 -36.495064 631.22498
1177.667 1491.597 672.49725
3780.4668 184.59599 324.21692
1297.4456 559.62372 96.965752
3671.2236 601.00964 952.50293
4452.5278 1153.9413 313.32068
1492.0916 72.277527 97.75824
3802.0381 1478.5907 415.56238
2996.4187 454.18271 143.30989
2255.387 176.10353 104.04609
4260.9736 1208.0667 750.28113
2549.343 -36.142151 659.10754
2275.1709 713.49597 1176.7964
990.19916 -0.76961803 617.11127
382.93985 765.44891 169.23047
883.034 1246.0541 100.86798
3524.0042 1479.2949 793.36023
4489.1431 856.54456 722.93085
4476.252 1023.1948 724.37134
1861.1821 10.857852 744.97003
1005.8251 27.229713 109.35668
3196.2383 834.4928 774.85669
762.62854 1477.9719 103.52475
1362.5951 -56.438141 512.6452
3238.6299 1700.9111 235.58392
3446.4243 184.59599 646.52246
2866.8252 1414.9358 778.7262
142.3983 557.55151 253.35001
1225.5679 -108.14902 141.14484
4439.9204 1522.0377 630.88684
2362.9766 1407.4373 773.56769
3980.0254 1370.9194 200.11821
3646.0254 1431.51 318.90997
4163.4365 164.27866 216.46233
2067.0242 955.51221 102.53799
2820.9644 1650.9419 209.44479
3197.3145 1447.6282 984.86658
2286.4844 1654.6088 260.93045
120.45227 1287.0999 324.004
2788.4722 1089.4796 1165.1155
1903.9316 -23.027096 224.77603
1443.0837 850.36914 97.350777
3558.0879 1653.1168 750.70264
3600.9514 1715.0642 147.41405
2464.1296 159.5802 775.1853
1173.2358 958.24176 98.135361
2894.1313 258.92276 1113.7181
3496.1299 216.7057 921.79565
3598.4937 -96.872887 270.31329
3908.2163 -86.922882 655.55652
3282.1387 1720.923 635.45953
3486.325 672.66956 178.05713
1393.5759 -3.4251232 317.28723
1260.325 1547.3762 629.44177
2996.3779 1084.2385 1135.5542
3007.5845 1276.9438 778.43695
2226.7197 607.71545 1174.9553
1208.2144 1318.8141 190.80074
3780.1951 -78.323212 262.57941
1248.4561 1569.3931 224.14276
3233.5974 152.27444 244.98778
2390.627 -39.486191 280.29495
4238.5737 861.67249 240.67148
1649.7994 707.9657 99.069344
3717.4312 1713.6229 485.7702
834.56421 1356.7637 458.57855
4292.3481 19.552414 623.76306
2642.1499 1159.071 773.28424
2450.2493 936.91052 1179.54
3034.2598 1655.8469 662.02594
656.1153 6.7892461 643.1889
2656.0847 1658.0959 295.388
4546.9312 379.33997 491.47879
3732.6157 1637.4186 172.44444
2346.7979 169.59937 774.22778
3670.9539 1431.51 557.98315
676.64978 1669.71 599.09558
3031.7144 200.14587 780.4043
1384.915 1054.2737 900.92767
2496.5718 1591.2146 105.92744
4532.2109 1066.5249 641.20087
1922.4189 1216.5026 766.97009
1511.199 -28.639338 622.12604
3492.6025 1523.5057 613.36511
1973.3195 1644.7104 232.94098
984.03217 1388.4717 646.56866
2540.2942 108.83352 106.34061
4594.8901 1235.4937 417.65381
658.06934 1146.4954 132.02625
1435.1191 407.21646 97.284576
2747.5835 311.21881 119.89278
2643.0403 583.52252 113.88637
709.11328 9.5537281 665.0603
2707.9006 747.4411 117.61254
4281.2891 529.5611 253.2765
671.30109 1714.2859 371.87582
2650.6936 1389.0648 114.3262
231.15358 519.78357 171.32918
1342.2092 -81.665245 189.13467
3182.3413 1427.8428 786.88062
1490.5778 88.932236 804.74567
3596.9062 1020.2207 182.7995
3181.6895 221.87125 784.43878
1444.4714 967.47644 938.15277
1356.6189 1687.1515 140.60469
2990.8958 727.76044 142.77467
2192.1592 1004.9212 1173.1606
1464.222 90.299767 772.05072
1920.5736 873.16339 101.32046
4538.3452 1278.2705 529.44458
2909.6741 190.15016 134.91031
3249.9331 1531.7412 139.77733
1761.1782 -33.544346 336.21674
3930.0337 100.37428 301.31305
2846.2725 1609.3048 758.62549
1888.296 825.3324 1147.3958
3642.1643 -67.031967 688.44733
3070.7759 1658.9116 663.91028
1915.413 1352.6334 1093.1951
1397.1211 -59.284843 647.46387
4050.4424 123.45127 747.90308
2699.8325 149.35483 107.446
2639.1072 1035.1732 771.71729
3538.5518 -63.68681 737.03308
123.07291 691.80933 327.28745
3770.001 -91.446373 380.24536
1850.189 1259.304 767.3396
909.54742 1334.1252 487.729
3965.2568 1205.5089 199.3168
1558.7545 1352.2897 929.81976
1562.6057 1058.377 98.344452
1380.0487 20.363672 469.67896
2703.6299 466.70331 117.36744
3605.6992 1005.3932 781.11139
960.69196 1542.3257 126.34937
3287.1284 131.56198 323.37982
3148.9099 348.82214 779.74469
2681.6584 714.22955 116.10493
123.59501 1217.5001 325.86478
2549.1665 899.51257 769.12695
2105.4175 8.0746603 111.25027
2034.2028 5.9256487 178.66852
2940.3474 828.62903 772.19934
1945.8759 12.326838 169.36105
1090.6129 -102.68935 413.68484
3670.6558 1715.592 179.51993
2461.4912 319.18512 105.81746
127.25496 420.06549 200.43382
3948.3215 151.83739 176.47888
1729.3221 -29.277487 601.41431
2659.7339 1585.6776 786.03168
2894.6016 529.57202 774.93475
1359.0115 204.06345 477.59509
3912.522 1228.7427 196.45515
1141.6725 1639.9597 738.57715
1769.5571 1649.7278 285.98959
1338.7079 495.68396 865.4975
3768.4421 1701.9568 341.74094
1541.3562 655.84937 759.70056
900.48621 305.59201 231.01224
720.9942 529.50909 694.26471
1259.9017 1579.0022 373.87109
2774.979 -7.5178471 149.01704
3862.5088 1144.854 194.19009
3705.7212 950.87927 781.44586
908.0675 1550.4232 461.58679
2580.1709 1077.2742 110.27441
2520.7092 333.40485 773.59045
2420.5859 1040.6923 769.57849
4149.7363 899.50629 784.43347
2661.8865 1207.1584 114.96927
1380.9553 84.140625 96.834274
432.34753 1407.842 166.69904
3105.4104 -52.017036 659.37976
590.65137 1661.1619 184.14192
631.43988 773.18939 677.6355
3335.1189 -113.33015 180.26527
1486.2902 894.57104 97.709984
2232.1809 438.24838 769.3761
2398.8528 887.57263 1179.54
3603.5198 1690.7889 518.12177
131.20576 467.06354 294.40662
3897.4229 426.03857 195.68742
3373.2485 1637.2507 281.52301
3506.6377 1697.7628 616.0188
2704.0854 12.556129 158.10303
1292.1982 1372.3667 504.70636
2641.5322 616.37805 771.30231
501.22784 88.044464 618.68671
168.28372 1000.4854 516.99255
1324.4563 -29.18301 149.75198
3646.2231 1431.51 355.84805
2284.1592 -38.481106 342.27689
2566.3687 57.955517 865.71222
1207.8442 1384.9497 97.809464
1880.5475 767.9494 1145.688
2590.5925 423.45618 773.17987
1065.9689 1570.6038 737.7738
2565.2766 48.358582 106.57633
931.84991 1140.2089 100.40833
700.95459 597.14099 121.05119
3887.1387 1680.1274 702.63507
4036.6138 1532.517 150.7261
3756.98 1708.66 210.9519
1419.6438 1720.519 558.90149
1229.9275 1335.0378 756.31842
4007.0674 1366.0293 201.58565
901.17749 187.13048 717.75348
1080.2396 571.53748 99.011032
3412.0554 998.10144 1038.7101
1280.396 1721.3408 241.29625
2233.811 320.46082 1160.2869
1021.1258 1606.0249 5.0680456
3638.1492 1704.644 511.6214
2009.8127 842.27496 762.9696
506.76361 1668.2 469.35779
2258.9604 1124.1859 104.13368
61.938416 253.45047 448.90283
1961.6646 180.07176 771.5238
3203.0261 -76.207275 147.60405
1183.4985 245.62288 98.038719
1678.5012 1260.3444 99.307983
3027.4731 1280.0557 778.67639
4433.624 263.47113 724.82019
3802.1587 182.12085 244.08495
2209.1716 86.530098 920.84021
1255.4005 1066.7916 97.361664
1784.5293 526.0166 100.18944
3870.7349 868.52838 782.09149
3636.8237 263.41403 789.84448
1041.9895 1052.2555 99.371208
3478.7717 184.59598 275.17731
1312.4736 318.37811 755.19275
3407.0986 116.647 439.90918
903.71326 1508.5211 711.86121
911.58032 288.39078 473.11548
3176.0576 -27.561634 704.9422
2300.8936 1216.0333 104.48232
4065.0874 738.81073 208.64328
1457.2692 839.47839 945.52045
3241.7778 1425.6826 138.85214
3017.0068 261.15854 1086.3118
2124.4868 1648.328 650.95422
2616.5171 -8.5990505 725.49487
1662.3737 114.00732 771.13141
2821.9346 105.55702 957.23584
458.54248 1011.2278 164.6084
2617.6775 1408.1183 112.42931
227.87927 1206.2125 539.49567
3427.7041 204.04033 175.54312
2711.0142 1611.4791 754.6037
695.64734 1722.3898 351.88495
2114.1948 1049.8723 1170.1239
3990.8716 125.2351 156.26903
2851.502 1033.9888 1160.3181
2317.627 -36.950935 246.85379
459.21283 303.72095 621.61334
3270.3115 57.055977 485.93573
1273.7555 867.21301 829.33099
3332.5913 1432.6978 135.6579
2643.8423 1561.7872 107.31857
3734.7439 -66.760849 449.23013
1096.8263 1314.676 196.10144
1793.2205 1359.2963 1038.5128
2519.6145 62.72728 875.5144
4308.1221 -25.533165 482.10492
3997.7983 1448.1025 762.88062
2947.3115 1173.4409 138.55475
1340.5594 1468.4792 113.01136
3740.6975 128.347 653.59363
3872.5757 245.87456 792.22723
3973.9395 1702.9143 620.93146
463.05127 -24.256401 229.31641
1396.1985 134.73643 368.32278
2590.4814 1495.9263 106.81454
3676.8071 1141.6243 186.2261
2339.8767 1505.5391 964.39856
1906.4486 282.40009 1097.9236
4368.8315 790.95361 275.95514
1393.6183 1499.2135 405.91736
3017.3582 1699.6807 229.12761
3497.562 995.1853 178.53903
1181.2617 -29.136189 480.67047
2123.6653 271.74295 1135.9073
4455.9023 892.52435 726.88806
3440.105 196.11948 791.01959
1589.3496 1125.0054 1004.8082
174.28705 1509.7661 299.32162
2166.1843 846.23145 103.36238
98.830437 893.55945 484.27527
2627.8677 7.5068731 758.22382
4342.957 765.49841 744.00793
2349.9133 1537.2384 776.0249
4578.7969 212.12383 376.60321
574.73755 -76.18795 407.90582
1688.0093 1377.8011 99.387047
2478.7529 1166.4784 105.96096
3283.7017 119.70879 396.36688
1595.7151 -26.98418 647.4668
1762.1487 1306.5649 1044.9569
3523.312 32.463078 516.50763
4530.5474 660.7182 296.37573
1230.3809 67.046127 647.69196
1977.0807 369.96188 767.90521
4530.083 1335.8252 622.51562
1066.6094 305.59201 291.56763
2451.4734 453.27032 105.73418
1408.2507 600.46686 757.90735
3739.5413 463.19153 188.91653
271.06714 1587.9175 365.82291
1704.803 1001.1945 99.526619
1579.3997 1503.1665 771.21924
2053.4065 120.69507 773.28186
883.64899 476.8692 100.86219
997.74194 305.59201 266.91843
651.24146 508.47131 679.2962
2152.6755 1576.0399 800.82336
3655.1311 -13.189285 687.01727
1377.2629 426.53214 96.803581
2019.7429 926.88647 764.11877
2740.3647 25.19441 777.63147
2545.699 618.1076 108.2939
1203.7404 1318.1106 191.7019
1389.8994 1329.3824 843.17456
3900.3113 1604.5699 469.01883
3559.6953 1713.6602 495.41855
3083.0151 1278.2014 779.21448
4161.5869 159.00795 741.64069
3231.6099 173.47365 107.446
1305.5642 139.16542 434.47229
2583.6208 1069.8667 771.58698
775.87378 184.91037 533.83325
3734.1208 159.61444 793.83466
1943.3499 470.60974 1151.9751
2192.499 79.298996 103.05653
3659.2217 1444.1206 191.86644
2546.0327 25.24687 106.39453
2025.264 -34.329575 469.75064
500.30475 238.34134 161.02284
2153.2959 422.57211 103.25523
2324.6343 1654.068 423.59064
3483.4736 1431.51 455.91422
3539.051 1431.51 651.16241
2592.1987 863.62024 1178.8512
1365.3644 1505.4613 350.8703
2104.3423 1065.074 766.68646
1209.5444 15.886166 167.0163
2936.4473 710.80542 1149.0759
1324.2402 1194.6414 756.03357
4341.793 850.93567 271.29129
4137.4829 -37.616364 625.12903
1242.7119 -93.620789 330.1434
3041.2642 1124.3123 776.88464
1578.8337 405.17987 760.13208
3903.7671 401.39172 195.98006
4337.1289 1360.2319 269.90262
2208.1892 1149.9635 768.78796
297.09244 1408.4385 552.09094
2841.114 1501.3451 107.446
379.66412 372.06955 599.09576
2373.7007 8.104372 752.79614
1373.4484 1281.3081 96.771858
1559.2393 690.57166 1001.8085
1813.8929 1650.1462 260.78781
2506.8794 1653.5007 561.08484
1421.6713 1242.7119 893.12585
1131.2186 274.70972 553.32758
467.72482 1014.2343 631.26514
3856.0996 1531.7612 172.00174
4213.3921 707.53577 235.27808
3825.8647 1326.6616 790.47223
4458.3833 141.29361 701.61682
3425.6133 1325.1884 175.45345
3021.7229 624.01086 1134.9409
1935.2439 630.81122 763.9895
3537.386 633.41785 780.13995
1234.2366 1563.0852 197.7135
4081.5557 -84.085693 552.2229
1756.6609 744.11481 760.78101
2935.9536 1414.8748 1075.757
3771.073 539.224 190.2688
3250.459 1478.0901 136.38609
1934.4502 1247.3701 1136.3792
3006.3584 1563.1108 832.1604
3680.8904 539.54474 186.40125
3505.9265 62.84549 616.54834
897.15961 1365.2087 556.23529
3211.6653 235.55554 164.15239
3653.6904 1605.4739 507.78687
1458.3066 1674.6626 97.535767
1070.1833 1319.2026 190.30312
234.98282 603.74323 545.16791
3292.0537 596.36572 169.72563
2749.1414 1446.0308 777.92297
2286.7192 1653.0283 464.39441
2464.8975 1187.3878 105.84578
2043.9204 1447.5864 1017.8555
130.25409 940.83179 294.29156
1845.6722 508.9693 1126.546
3307.3491 70.180832 813.84277
3968.4597 -110.88795 351.92883
2598.1033 43.271511 778.33234
3718.3613 1634.3181 467.92767
1776.7615 1331.9166 768.28522
369.5929 1076.9897 598.7973
1245.6936 1591.9821 750.85187
1525.1187 1252.1313 98.032822
4212.4287 259.59045 746.72168
2490.0781 1226.8911 772.58911
1955.0465 425.22675 1149.6301
1093.728 611.23889 98.884018
1547.2346 1563.1421 787.60516
4183.6484 33.633163 717.21204
804.19531 597.26733 714.2901
805.2287 1241.4307 708.31854
835.37598 208.29799 706.01031
1585.6188 1643.5627 616.37683
4201.7207 -31.409231 253.7397
3206.8245 -54.038601 107.446
1877.8713 972.41168 763.25024
3847.5781 -26.920113 472.42953
4161.0933 266.79919 224.0768
2353.1033 1506.598 775.4455
3913.6777 634.74432 196.51787
850.02448 1547.7173 289.64899
921.55493 200.17007 723.37549
3929.2725 180.85596 291.56305
2592.5625 1089.6333 771.92236
3433.2239 801.81915 1033.5283
3831.5896 520.92242 783.94153
2627.6113 1187.5081 1168.8645
3976.2573 1511.8745 752.62323
3667.0508 233.12865 791.01959
1296.1738 -67.471252 513.35785
3350.4944 1640.8136 738.17767
4244.0854 644.76385 242.19914
3190.1245 400.12445 779.5249
1883.3058 -33.413647 443.62704
2587.1091 237.59543 110.67303
529.04291 729.63879 157.7793
2651.8884 1656.3334 475.35944
4563.0938 386.90872 353.08899
3610.2515 210.64523 183.37183
2706.5024 1396.598 1108.365
1919.2478 612.04102 764.06055
1024.0182 978.56244 99.540436
3264.9167 184.59599 452.75461
1322.4736 776.64636 755.99219
195.32532 1272.1418 526.14685
2674.3406 1033.7871 115.68462
1537.2727 1064.5287 984.93726
2026.2345 957.64716 1164.2164
1365.3346 637.04913 96.704407
4037.926 677.50989 784.04492
3454.8491 132.1936 514.51965
1701.1465 817.02057 99.496223
4549.9868 273.08359 349.45245
350.34357 230.07544 170.31445
3013.0405 698.83563 144.91905
2814.9019 -20.952391 701.42261
3925.9731 1431.8286 273.56699
135.88667 904.97949 294.97369
4314.0596 174.78342 263.03375
3174.6763 -75.345528 150.27078
783.40961 1617.3496 545.52441
4570.3677 750.26392 356.0864
700.28674 67.495422 676.33594
631.78253 219.88959 661.45642
4532.4175 1276.843 738.03497
3592.439 341.39548 787.01709
1739.2578 249.70273 768.72601
1729.8302 779.6272 760.06976
531.96613 1645.1957 184.81741
3392.9709 175.38217 181.4807
3629.9561 -105.46992 376.57468
3813.5337 423.78329 192.08977
1638.418 -28.544827 593.34106
4073.1499 1683.4556 604.05945
1074.5825 897.9054 765.37634
2680.0378 179.27765 107.446
4304.4722 90.187363 716.43738
2561.4597 608.15338 1178.3185
1789.4896 347.14792 767.13483
2190.9756 103.30264 945.07507
1158.4397 305.59204 356.54648
3989.8108 1661.6492 164.50014
3277.8093 184.59599 426.22775
1391.5892 -103.77806 578.6944
1260.7001 -47.8396 365.23239
2744.9424 1657.1707 478.46475
4037.2605 1309.9309 781.1123
3909.2563 1620.5057 446.52136
3357.4482 -97.219002 103.19473
3967.7158 777.59741 199.45023
2314.3267 732.61145 766.5564
1812.7275 1305.4855 1067.5697
2238.7788 1649.3728 653.77258
2630.123 1133.9072 113.14435
684.94897 474.12903 685.61414
4455.5225 321.07095 725.28937
1904.0823 254.81979 769.6864
3900.1206 -108.17037 601.20947
2538.147 -11.283587 718.04443
4404.0352 961.54193 294.6358
2922.9783 1695.4983 447.64926
3544.9517 184.59601 513.25092
749.99084 1549.0145 485.12146
160.13972 90.582825 443.22095
2839.1694 171.66974 778.81256
2424.1306 1183.8168 1169.906
1223.9407 1491.5956 761.44922
2703.9287 1263.2896 1160.1476
3671.6731 63.406872 15.758496
2033.0922 220.39085 771.19775
3947.3081 967.78223 783.72998
3661.9275 1383.1964 877.84277
658.78107 215.24722 667.33795
3655.2161 184.59601 441.4812
535.18396 -66.660385 398.99191
44.590126 1047.7365 321.86121
827.19537 1223.3931 101.39378
821.51428 1383.4827 150.21063
1435.4642 441.09882 97.287453
3789.4956 94.760101 325.15253
2125.6392 35.053558 102.42505
2384.4231 1398.603 105.17674
1312.4945 251.11148 231.12863
3703.0159 1502.46 137.71471
2468.1575 685.87939 1179.54
932.96442 1265.4973 732.60992
223.99054 1346.1216 532.76782
2635.5676 1467.6188 777.04346
4220.7197 566.16095 236.8475
2983.502 934.60364 142.05878
2699.1118 1336.6505 776.0614
3453.4377 1431.51 441.55994
945.81799 1596.8806 23.978315
3500.0134 1498.3004 793.85651
2461.1025 -40.151443 319.35498
337.66351 985.96655 588.8877
3011.3525 868.33679 144.75554
821.93811 1219.1287 712.36487
921.73193 944.59985 100.50359
2365.6665 804.1778 1179.54
275.29089 918.98376 171.11597
4078.1069 19.928429 726.58875
4561.3008 963.30774 300.25906
154.29677 1355.6216 487.82498
3863.9583 161.20485 540.36682
4206.8115 1675.9445 306.94498
4274.5264 1498.407 204.01816
120.32467 210.42166 479.3078
341.98676 171.16658 170.59235
3964.1353 1658.0522 708.61633
531.38776 1609.2329 144.80984
3000.1577 521.45679 143.67184
2104.1904 707.93579 102.84698
3539.8464 1722.3848 364.06973
3325.3896 1103.3663 779.49487
3020.9355 -94.945435 459.50189
4599.8901 589.39893 423.65952
4402.4526 1563.4333 540.63556
3287.8491 -112.34332 594.03271
4594.8901 461.84967 402.61469
2718.7502 138.99808 778.00128
3294.9651 1357.7849 786.56189
640.55945 1439.1294 658.09552
2675.176 1284.2805 1160.3336
1653.0876 262.62775 768.60571
3017.0977 1693.24 199.13824
3365.8752 128.05255 792.95001
3351.1926 1730.9209 190.36533
1386.889 1689.7418 138.96333
767.31348 493.0867 104.0688
1051.4816 918.41821 758.60236
3759.7251 563.47986 783.07812
703.3418 1567.4968 675.53979
3245.562 1421.7969 989.51831
1390.2048 21.286108 748.83594
1577.1786 72.424286 820.18396
1689.0854 727.34296 99.395958
4536.5664 293.36847 344.38174
345.57443 893.58038 592.03412
432.93243 -23.262079 277.78772
3546.0908 -94.198349 131.11685
1016.4545 1603.5699 108.31636
3640.0864 758.97058 779.62054
121.83412 290.54382 324.00403
3729.1716 1114.1893 783.39014
1388.6584 103.09841 269.25238
3598.8086 1431.51 334.57776
872.27319 198.15723 712.79437
3102.7119 1400.1898 153.60234
1062.1719 305.59201 474.68896
2266.145 640.95227 104.19342
1960.6713 872.25281 762.84485
2064.8489 -33.7822 524.57977
2907.373 388.95728 776.80725
1622.3677 1009.6882 98.841286
2282.6807 1563.9397 103.90794
1284.9131 1192.9451 811.43103
870.14453 -88.785538 316.37256
2322.9685 157.40614 774.31201
166.98451 85.377861 444.09766
2710.7473 1195.1538 1164.0383
1982.8971 545.62457 1160.7385
940.09167 1563.3606 26.350262
4283.3979 655.64636 756.74744
3712.0171 1415.838 187.73613
106.57115 416.59464 290.4584
3160.9109 -102.71126 580.99829
814.06903 326.2457 709.11945
834.69647 718.18744 101.32315
3598.6196 1114.1133 782.38794
3442.3018 364.879 785.0741
922.90918 23.26565 154.07523
3286.5427 1524.8005 850.77692
2580.4717 524.10126 110.29171
2269.145 -12.26445 709.05133
1677.5203 611.38159 1059.4879
446.28421 1657.3901 411.87271
977.62842 -52.977596 683.22144
3020.676 1210.4585 1117.9746
3775.6211 1610.9807 382.26453
3675.2031 -21.247402 498.03909
970.17584 1439.844 680.67584
3356.9014 1501.4021 529.54651
4385.4902 1623.6816 361.40155
2339.6152 1613.0886 741.66766
2896.0918 927.43311 133.59459
1797.1687 227.01593 100.29456
2798.9995 917.81665 771.87738
3242.8755 1708.6399 378.18509
2842.6296 204.45807 778.44098
1915.1577 1034.9974 764.40271
3793.8477 255.38188 791.23425
2257.2922 788.01355 104.11982
3251.7651 1476.5195 435.5123
3252.5403 240.55981 786.06201
3630.6255 1431.51 543.76331
3439.7112 324.55927 984.28137
2843.2598 6.1389756 757.21082
1808.1693 1067.5416 100.38598
3493.687 264.51221 178.37285
3852.7773 1431.51 336.67944
143.16257 1279.2345 276.88483
3585.8247 683.07147 182.32425
1628.5543 418.15799 1011.4376
3476.0312 731.44934 1019.7095
1100.0616 1089.174 767.58972
2677.4736 972.3194 115.86456
2988.9163 1544.9197 107.446
2883.4258 31.629505 107.446
3368.3921 38.121929 318.86285
1395.9392 1110.1907 96.958847
3267.1772 89.274498 478.05615
1424.0725 736.56909 926.4093
1532.4448 1091.7126 759.88989
266.7377 58.239876 208.55232
750.43408 1538.9659 276.9072
1233.9309 3.6673851 426.9682
1863.8613 27.093544 99.953247
4576.1113 1408.8772 368.50461
1282.1383 -3.5876923 611.29065
1158.6394 1716.104 595.66168
3973.8088 534.94763 199.78085
1940.3923 1226.5751 767.28394
1468.1309 516.46588 758.80347
2828.3083 1382.5901 1110.8923
3465.7922 1489.7764 861.4953
2041.7439 -34.483749 469.94965
1207.7349 1016.4882 97.810493
3590.77 1635.5107 105.09827
2898.3479 1668.1533 210.89751
891.38574 1284.1963 724.92645
935.57941 1310.52 284.80496
1589.8364 -28.147404 607.72504
3304.7598 184.59601 243.20972
2129.3005 6.867702 743.92981
2933.7319 1486.7043 780.71631
3240.0669 1111.6851 778.73615
1340.3182 1387.2748 467.35706
464.95901 178.91229 609.52576
2708.3574 1306.9248 1157.1989
756.34106 772.71259 705.07349
577.38586 1202.2657 658.80023
2568.366 1657.2688 337.75653
1067.1516 168.55928 694.51434
154.94392 987.41028 216.65343
1236.5896 302.11618 754.13898
2529.1335 704.97827 1179.54
1027.0432 -102.79192 214.15401
2847.4387 669.49646 1162.1313
2397.2849 1653.9237 473.97498
711.23083 1467.3606 117.28528
2137.127 415.01999 768.70398
4588.9512 1352.0049 402.26581
1072.2441 850.91962 764.69067
2924.1123 1365.0844 136.30835
3776.8079 -23.417847 377.59299
2759.3506 19.499527 107.446
1953.0049 329.68478 1133.7592
2206.6882 859.58813 103.69911
1240.4536 -43.165092 641.55292
3243.2915 1601.1019 182.59937
3312.6636 1267.8942 170.6095
2780.9585 1185.8948 1160.9347
4302.9106 32.665016 651.64771
3799.7412 60.603741 534.64081
1206.4869 913.25342 97.82225
2223.5967 26.037861 770.28369
1118.9575 1675.7522 114.24173
1945.9651 970.24298 1158.5239
3612.8862 530.1001 965.65399
3166.4668 230.89429 1034.1611
1093.3145 1676.7854 621.56409
972.11713 533.22748 743.53815
2464.6453 522.75519 1174.8007
1668.97 349.90509 99.228752
1115.4407 304.22235 758.92834
2257.5842 1621.5981 722.38745
1648.5854 977.28821 760.99475
3251.4727 3.9943199 433.62408
862.11755 -9.0897522 628.55408
1367.6145 1572.6937 343.91599
1448.668 509.33664 933.96985
2938.8569 1576.2589 810.59351
1377.9292 74.306572 96.809113
3018.7498 64.645889 789.05365
3528.9939 112.51093 519.43225
3554.3643 1615.9482 692.04578
1454.0406 682.9953 97.441879
3681.9958 563.53485 782.46704
822.427 275.74103 230.21545
3201.7217 775.74249 774.98492
2532.1108 1642.521 687.41272
3608.6282 432.87082 784.12994
3302.9282 1659.8171 718.38135
319.29315 705.57074 581.82007
1393.6482 1646.6069 318.25372
1046.3962 1325.8025 181.87872
2515.9014 500.04114 771.47583
4199.6201 1683.1914 491.64911
3680.644 1616.6915 757.51508
1634.5604 218.78659 769.35413
1053.875 1504.733 736.22552
2595.5913 1015.614 771.03516
936.46729 1272.1993 100.36484
1499.9873 139.55075 834.21216
3411.3562 137.66048 130.47285
4477.644 975.79163 322.48654
2563.7483 817.41229 1179.54
128.08247 488.52661 199.57698
4579.0459 1324.4058 359.78448
3223.9702 613.83032 165.34387
2482.9524 1251.467 772.82178
4017.2136 1575.8315 739.29492
2287.2524 1170.9573 1169.0737
2347.3464 344.69656 771.6994
3899.4849 1431.51 428.99701
3495.9917 -97.553398 151.34431
4025.2817 89.651978 150.31682
3905.9468 -54.826115 709.94
2777.1533 486.94562 774.27698
133.86183 741.65967 294.61847
1282.9617 232.68114 141.91487
3434.8022 1270.2551 992.16528
1200.1068 1551.1073 157.16281
2624.3589 291.5921 112.81316
3315.7461 1411.6848 973.79633
890.51355 91.879181 439.75342
750.55426 1636.5728 350.25568
2429.3948 979.54767 1179.479
612.1853 876.05896 672.74609
713.23834 1526.8511 322.11313
3353.9111 1730.1833 468.23514
3498.8218 1288.8512 787.00171
4516.874 377.25891 336.50778
4391.6606 1106.8021 289.86758
3275.0103 1606.5256 384.10687
2845.7168 597.7113 773.59619
1206.6038 109.465 586.56714
1380.853 -48.847786 672.61438
505.15158 -56.842728 452.52783
3816.7539 1471.1548 597.28687
3897.5117 359.59903 789.05615
3027.8074 1582.522 107.446
1302.2117 1505.1876 592.05743
2829.835 1573.9204 816.77844
4134.1992 41.992836 180.84998
2105.1797 304.42932 1154.0227
4030.9087 430.34448 204.08429
2204.1577 -33.009106 649.23578
71.939804 567.52875 364.87646
3855.2881 29.095119 750.84424
2115.5962 62.966625 774.81592
2026.8687 1600.533 101.49236
1207.2961 1706.0302 422.75513
2860.6394 -40.317955 631.04956
3729.041 1034.103 930.92908
4348.1836 166.4969 725.58588
3755.446 1700.8267 257.11176
2381.0645 583.94464 769.07349
1301.3691 904.30646 848.30151
3913.4146 -114.49869 530.13818
3026.8289 1641.2223 689.05817
3369.1428 1227.6033 173.03166
1266.9845 1359.7316 502.93988
732.48859 -64.968994 440.14551
1459.0245 438.53802 97.483322
3833.5627 184.59601 422.22128
3749.1882 785.58606 780.39258
973.79657 1248.0973 740.30237
1332.1409 1053.7229 756.60352
357.92407 4.6996951 270.75525
2271.9128 1276.2722 104.24137
1533.1185 1349.7715 763.10901
3074.5496 916.92499 1127.1396
3684.0269 -103.25566 257.78928
61.608501 771.90106 433.98401
3345.3054 1147.8802 1045.7097
681.19305 883.29865 126.10852
1304.6261 1487.4648 589.74408
1166.6652 111.78523 130.07265
3987.1018 801.9917 200.50221
618.33704 215.12402 142.19443
130.25572 182.32196 477.08667
1204.2432 891.19092 775.00098
3923.9746 1166.2368 851.82709
2186.551 1418.6603 103.53172
3220.9666 -114.47379 287.96643
894.13043 47.182484 183.56432
3577.2456 344.379 181.95633
2189.3923 1091.8062 103.55532
1698.5861 1031.9889 99.474937
3062.832 923.71851 149.74055
3368.2649 1505.0059 862.76239
597.62268 222.87282 147.15097
1380.1371 -4.6022892 469.45679
3250.9958 348.28772 167.96082
4204.4624 353.52457 233.3656
2718.7795 1420.1061 1084.5813
518.37732 424.4238 158.98306
847.8053 -93.248199 317.23743
4198.2432 1052.1497 775.3031
2533.5996 203.33994 107.59876
211.06241 905.29669 171.42624
1263.0181 875.01733 97.28994
850.10864 117.66093 345.91641
1324.1587 939.51343 863.672
1226.853 1108.4756 783.17395
2219.8228 1649.3013 647.28894
983.07764 305.59201 368.05865
2723.76 1198.3425 118.52399
2760.4165 1387.7944 777.3147
1355.2681 227.80939 425.7565
839.71191 426.93292 101.27592
2617.2839 100.78006 107.06767
3095.5271 376.3439 152.90663
2574.7112 1657.3269 309.24026
4152.4517 1616.2861 697.362
1174.8239 1429.9656 98.120407
786.22882 139.49081 336.63715
3882.2278 1633.8311 384.81354
2858.1396 1514.1334 779.86829
1578.9943 -15.829558 197.16751
50.709736 545.10779 377.71381
4290.5103 20.870562 629.88495
971.81775 877.26758 100.03197
3501.6003 94.103088 808.77509
3920.6948 1.7536392 739.82202
258.11603 846.01758 555.74817
3468.5107 -115.23828 675.56183
2305.3901 1593.2766 768.35156
2118.0166 955.88226 1168.938
2482.5537 982.31018 1179.3662
1898.6517 1483.3369 100.78485
2752.1372 820.30469 770.19513
1216.2125 1610.8029 176.12796
1881.6981 839.92236 100.99726
4594.8906 560.4646 374.40594
3659.3882 1091.4702 185.4791
2052.4763 177.29272 1029.474
40.5294 790.81421 424.59668
3376.5972 1483.2944 521.75415
3414.0061 1511.483 843.15381
3630.6494 34.755234 517.22644
2578.1831 1608.4696 757.198
3471.7183 1717.9008 398.16275
956.30872 1142.0183 100.17802
2156.644 74.446854 888.67834
2842.4431 642.19623 773.0116
3774.2217 989.62292 782.61804
1380.6008 23.345877 749.23328
4120.5435 -13.313776 686.88049
377.27747 981.45264 603.8468
1214.1359 1516.703 169.67117
3378.4668 1431.51 321.36743
1874.4146 978.85962 100.93671
2739.0757 603.26636 772.4502
2162.146 1364.7089 1124.818
649.26514 716.32593 134.2794
509.63855 1643.1643 534.13531
1931.7063 1292.0664 768.51013
651.74097 47.893131 660.4043
4327.7783 1140.2356 267.11847
705.96057 956.3866 119.77009
3272.3735 1525.6921 364.06845
3896.4258 117.62891 765.99158
3495.3765 1139.9557 178.44531
193.81375 1431.1055 171.68596
797.66113 1569.5023 143.51331
401.33136 677.13586 612.10327
1487.5803 361.56207 758.33038
2431.7598 357.81992 1164.4933
2004.2676 858.27881 1163.0715
1314.2047 625.69336 756.37109
1151.7 883.09204 754.13898
3999.2944 1258.6068 201.16385
125.73514 963.20074 498.43097
1619.7916 879.45337 759.49103
3201.3647 591.06531 163.15497
2108.7695 1301.728 102.88507
2997.7615 -88.048538 283.32239
4547.123 1056.5062 462.93329
1725.9072 1391.3169 996.83789
4282.4873 968.44128 253.63316
3546.4934 945.16766 779.76666
1131.4867 1703.8297 502.0972
3894.2734 52.549324 484.2041
1410.0121 -26.542774 682.78833
2396.4573 741.12012 767.28046
1205.0564 144.24023 663.12659
4490.6836 1420.8741 697.28217
2074.0295 1650.9004 469.99518
1207.9873 885.12994 754.63617
1881.8148 1502.2729 772.30292
2434.0786 502.11078 105.58955
132.52644 1039.1118 303.43628
2725.5193 1321.7598 1154.3982
1840.8501 -29.722809 235.68845
2261.3157 897.25537 1176.1035
707.25055 674.75684 119.43995
1078.2235 792.37976 99.030014
2472.6191 118.19073 980.34229
1292.4172 96.951538 765.0354
615.03656 1033.8816 143.03909
1697.8961 1445.4077 955.97156
1487.0437 48.765049 97.783264
1890.8983 102.58401 906.30902
2281.6492 193.68074 104.32232
2198.6091 632.83954 1173.068
2539.0593 1506.3765 106.32896
368.53757 395.50507 169.70941
1743.979 671.85785 99.852318
3178.1641 1065.0974 1099.483
2448.0239 1500.3779 105.4694
4173.5356 1415.8118 226.74179
3395.0483 60.996841 418.00714
3749.4749 150.31148 802.97955
1219.6072 1316.2532 756.75781
3461.8115 1481.8799 872.01196
3970.3806 -111.54123 349.41681
3848.3042 1056.2479 890.01672
1201.8621 -74.707191 463.46951
1622.2034 -28.478935 588.06372
3542.9529 918.74182 180.48566
1564.5707 52.873096 789.98157
4453.1055 1287.9487 725.97186
2474.5129 1182.049 771.87585
1238.7156 914.11859 801.94427
1876.0498 159.15079 100.77682
3239.2832 563.39716 1086.2422
2452.3362 -15.245672 208.4984
1634.0125 859.92212 1039.3208
1760.3062 1649.6404 279.78714
121.63769 1199.2064 284.96826
3149.6743 770.02631 774.53003
1839.7585 653.74609 1132.2773
4527.0713 1145.7742 734.47156
430.95941 1594.9985 551.27966
1705.8362 186.63335 968.966
3165.9014 843.1311 159.72093
2669.6506 1544.2004 778.33722
120.06776 671.87054 334.87067
4016.6182 87.686607 149.29683
1911.3217 135.49602 772.07013
2594.7935 643.39166 111.11449
3921.5364 -80.641876 400.55603
1196.3982 1076.2964 97.917252
830.92249 1401.8116 705.74182
2074.9089 1648.8538 591.73492
744.88904 1618.9668 472.29373
1370.1941 950.00653 96.744804
1012.6531 1642.6754 689.65143
131.89366 155.84915 319.2753
3137.4917 1161.7283 156.97011
3700.4768 -84.698227 671.53735
3526.8066 1065.4618 179.79321
3519.0481 411.41559 784.36731
1339.7278 81.186066 110.91498
3414.314 1401.7715 946.06982
3492.2456 394.48294 784.83453
3930.5862 315.59482 197.43541
1655.1895 97.455109 871.18359
65.279846 636.67242 465.65375
1234.9373 57.252529 427.79196
2424.2346 77.445885 105.24463
2348.3875 1138.7441 104.87715
1369.6163 106.61482 324.85901
1119.9167 1310.5199 467.49689
3554.9233 115.27767 522.87366
1960.0364 849.08936 762.55127
541.52191 917.65765 654.57855
3725.542 406.53668 785.99408
1443.4336 1719.0861 522.96143
1398.4705 1633.9949 695.86835
865.08545 253.2359 519.46631
1260.6389 1317.9836 279.41608
3508.2288 1112.4482 781.45435
4355.625 72.774376 704.36462
4594.8901 890.63593 417.23132
1415.4768 745.08221 757.32288
2086.5962 1579.583 785.62451
102.37592 1360.7482 291.05795
3244.5825 1674.662 389.1933
2644.9695 1107.3423 113.99731
650.66101 1645.0111 613.80792
4494.4971 1321.6852 722.96301
789.39062 1568.8348 554.42163
2351.04 1469.411 774.70386
1340.9231 863.9743 874.97876
988.32654 65.114914 686.87549
3340.9875 350.10541 171.82419
2173.3716 957.83362 103.42213
590.44287 579.7334 665.70947
611.58795 1160.9802 667.90594
3620.8623 -14.842863 517.30225
759.13245 21.256195 400.89914
3927.9678 263.46762 801.62915
146.59935 1364.3973 468.73569
2814.3105 1655.9807 611.30139
2387.207 101.4791 775.82404
3115.1968 653.67749 775.62421
3918.0771 609.75116 196.75659
4349.395 897.66443 273.58224
1538.4456 30.305983 762.49561
626.03375 1670.2942 565.45129
2697.8491 1658.4912 285.13666
2663.1821 742.66394 1175.2979
988.69092 1501.03 109.77024
3665.2068 828.86707 779.5238
2771.0955 357.62009 121.49133
478.6012 -49.501751 421.52097
2638.9673 895.4126 769.98315
2197.4639 631.39484 1173.0383
1956.6912 456.53067 1153.4502
1524.0745 -79.649879 286.55695
1309.4656 139.32088 313.33328
3242.1404 1575.9688 373.44598
3652.2356 1431.51 483.40707
2630.9395 1542.3447 777.94836
535.38074 1438.828 157.06396
4200.958 -75.86779 461.19611
4126.8521 608.54602 784.68506
2589.2754 1657.4662 338.25156
1376.7932 833.36523 96.799667
1018.7032 137.76115 733.64917
1461.9028 1371.451 97.507256
1647.7734 913.37115 1046.2244
3768.4473 1335.6628 190.15619
4364.7456 1479.3654 235.88979
1026.7174 1550.243 733.26831
2635.7322 1552.5743 778.17969
1881.6108 1362.7722 100.99657
1834.9885 763.97247 761.32605
3816.7344 74.735809 113.62344
3282.1216 -73.675758 692.01306
907.43127 667.63428 100.63826
2008.0128 -35.226952 249.72606
1242.6281 42.244652 753.44171
3680.0415 1431.51 626.44629
3212.1284 -111.72881 531.65887
2686.1355 321.94809 116.36245
857.24841 1408.6205 710.63153
356.38342 908.36377 170.1136
676.73718 1671.2947 142.06857
367.34552 498.61969 169.74905
2852.1072 601.23187 1160.6664
3778.7612 105.33414 245.21094
3953.1479 1433.1985 198.65973
1943.4468 1085.6937 765.31702
1035.5436 111.14948 732.82605
2386.8594 1538.3953 907.6095
2705.1941 1205.6748 1163.6714
2871.8093 267.82013 1123.1256
3042.6206 -43.081753 107.446
3331.8364 136.79288 444.97287
2369.6028 54.511105 854.18231
3802.0435 184.59599 557.73975
343.60791 1295.0782 585.24231
3272.6157 1543.9614 365.90765
990.15234 -109.91183 590.75574
982.19482 603.66589 746.75916
3757.8818 4.1861916 421.89789
4141.0693 -73.900681 530.89777
1414.7081 1404.4504 759.56763
2847.6843 1358.3599 1122.2471
4261.9492 1664.8196 330.2558
2972.0864 1479.6433 781.84192
4485.6162 792.97614 290.70209
3568.5073 638.47314 181.58159
342.93188 939.15613 591.04309
3519.8381 1721.8108 264.0882
3297.3843 160.23424 791.71558
3145.314 -103.81921 559.75446
4545.7085 1214.2408 504.64844
3979.1221 483.65204 786.42078
721.71436 1379.6615 684.43866
514.37396 368.11029 639.68121
3958.1162 1626.7942 731.12164
1179.6425 924.36981 754.17322
2475.6216 -36.64917 587.34106
4227.459 1165.6759 756.67255
2417.6519 857.39612 767.27649
153.06192 146.53456 267.76672
1837.9274 767.01208 761.31799
3794.5994 83.038452 768.04175
981.18701 1436.3242 99.943756
2199.8271 141.14407 773.83142
3015.0986 82.734451 107.446
2117.7021 818.37335 1168.9222
114.69958 1453.3369 461.44757
3884.7715 -56.224052 714.67206
1581.7823 1392.153 769.53308
2967.5156 715.4856 773.36633
2544.7451 1602.6821 160.85449
4130.877 398.55463 217.60513
2030.0586 401.66812 102.23068
1376.7837 747.28345 756.90472
4009.1694 1572.6274 149.73474
2661.6816 663.29333 770.92419
2186.9597 1646.1792 233.61253
401.17029 36.318394 549.49536
3970.5378 1169.7389 199.60338
2871.6221 1530.9521 107.446
466.70184 -45.883194 426.73193
1619.8865 15.326851 151.80783
479.89523 604.00854 635.00885
3435.627 184.59598 367.41553
3662.1006 454.17328 185.59541
1856.4812 1649.9474 401.79944
767.37061 1501.682 113.36501
2241.4915 655.59412 103.98846
3627.1743 184.59599 617.43762
3523.7808 1722.55 332.94586
4425.3154 461.98181 729.8457
836.38324 -100.19922 350.3894
1115.2274 1714.9551 169.67606
3676.7681 1049.6498 186.22444
4035.6372 1179.1443 788.27228
926.77368 1614.4163 474.48157
2336.4824 1615.9187 185.31819
4601.8252 638.99207 387.9964
1125.6552 1237.3049 98.583389
3620.949 328.17142 183.8306
539.75623 -51.968822 264.10147
3622.3855 933.02625 971.4032
4523.1411 674.90015 695.80591
4564.333 930.43768 300.64203
1138.0319 -88.445602 686.03552
2482.2424 -22.615789 219.75806
806.97754 1107.1508 712.34644
820.18323 491.38574 714.70758
2897.8662 193.31313 779.13708
2871.9121 829.41687 771.51794
3450.2495 678.56946 176.50998
1616.6814 626.98682 98.794022
91.783081 1103.324 479.83966
4019.4668 158.54291 186.98668
4179.0669 542.46338 779.02063
140.55515 381.97205 283.17053
4304.04 1488.9656 725.04089
2295.3892 260.30734 1140.5681
129.24014 1183.0963 290.0152
2392.0266 40.710964 777.04529
3670.3564 421.25806 185.94948
3464.4099 -7.7478275 138.48187
2343.3926 514.74884 104.83563
3889.5894 1685.6454 328.92078
1333.8765 722.94452 870.22614
3850.061 -33.288811 157.424
4181.9556 1062.6351 228.545
3567.1558 1704.6272 693.45642
766.3667 237.95384 328.34073
1170.517 1718.3781 307.89868
3949.8779 1720.7494 266.07025
2694.0986 723.75256 116.81962
1212.876 1727.2205 681.90973
1818.15 1367.5754 1046.3146
1915.6035 250.44695 1085.7178
3559.9473 68.683952 103.81562
1455.4258 570.26544 97.453407
1263.6171 1358.8302 754.13898
1244.5217 287.73019 438.91037
1012.9169 1187.1957 746.93152
3575.2678 936.11743 181.87152
1730.7421 165.23059 99.61026
591.08264 966.40442 148.65321
4490.8242 490.09448 327.26257
1989.9404 1374.9968 770.51196
1818.5232 1563.3723 99.572945
3548.8496 -17.56934 107.38624
3646.0869 -35.542328 509.72443
120.00966 179.88063 318.80862
775.64868 1435.9169 533.97943
882.98157 212.18762 613.67737
922.06757 568.30774 736.25305
1268.2579 1612.2095 308.83575
1608.3795 312.00537 98.725029
1031.4456 454.47641 750.03064
3745.272 -85.438271 650.80566
2451.6125 514.58588 1174.4636
4142.8291 1627.8749 675.55597
2387.5864 1616.0029 185.06248
4578.4263 1405.0912 413.55594
4216.5918 1652.2406 561.0661
1202.7443 256.17178 559.85999
3360.2429 1122.6127 780.08551
3165.209 215.97745 1026.271
3139.0923 -107.43359 351.47305
873.8302 -113.12732 135.11278
582.20093 -56.117355 218.50851
1568.5404 369.56128 970.71143
2099.3491 1556.0593 850.87427
1156.842 -44.568489 496.7106
4002.2131 1349.6215 201.32222
890.33405 1036.3682 100.79924
2512.7649 120.70546 776.26221
3771.6929 43.120697 394.15552
3208.7527 -42.827747 697.58679
2350.3057 67.824074 884.00684
4601.918 730.10577 383.0983
1143.6532 65.019623 12.436426
2638.6836 -37.187981 665.51819
1717.6096 1050.6786 1076.7401
1330.7996 111.13445 463.33096
3759.5303 1439.1744 200.91241
3364.1228 89.957573 794.1698
3598.0737 17.139366 623.57043
592.02557 918.63336 667.62689
722.35016 1411.3979 115.57571
2380.0356 515.05872 769.91724
1463.3525 -23.490543 664.19666
1874.71 563.70026 1141.9785
776.30566 -22.813288 442.35852
2690.6431 1216.4158 1163.7581
1201.7067 1548.0677 664.28589
1072.4342 34.524544 104.03411
1828.0216 701.23706 1128.0045
2387.2627 1028.2378 769.08752
862.76959 295.71979 718.4624
4013.9263 741.961 201.95782
115.8811 1315.5065 354.72729
1275.0706 1358.0227 166.01373
839.14124 1168.7462 101.2813
3121.6455 434.7287 778.40411
3578.7383 1725.9294 72.553589
1263.2665 39.915234 362.03528
3244.1743 332.30615 1048.6412
3241.8037 829.06091 775.24963
1358.8624 1651.0601 161.01979
3898.7446 1578.1208 748.95093
2854.3171 1597.457 774.17151
3932.4741 -74.747368 332.57184
152.85785 540.39697 240.57166
2298.8159 465.98132 104.46503
2107.9409 1000.9668 1168.8734
3000.8496 1069.0708 1135.4396
379.56592 1222.8961 599.43146
1116.9355 1122.485 98.665497
850.91956 32.089893 289.59436
1392.3718 158.16472 788.87433
1917.496 375.52386 767.40967
1141.1129 1375.908 98.437828
3329.8535 1381.7391 789.46851
3696.6472 1551.0527 139.1162
4480.8135 1476.3348 606.43866
1058.7092 1349.6498 99.213768
2990.4824 828.02075 142.73457
3424.0789 -99.58429 360.75348
4485.0781 406.03583 723.2168
3563.0623 383.65369 785.4585
2405.9404 1654.3314 454.72858
1689.6946 956.92163 99.401016
2157.7292 776.79822 1170.9237
4240.8623 1226.5964 752.58667
3545.8857 399.69962 784.84595
3905.0444 164.1281 457.11496
1858.3225 622.40076 763.31677
1859.4969 1236.0242 100.81271
123.7928 1102.3403 325.47083
2318.7241 1653.4258 458.97574
2100.8535 921.65234 764.87317
272.47968 821.61749 561.86951
4511.6548 1367.6853 681.97797
1251.1265 -86.78418 248.72441
747.573 1692.1005 298.71881
4018.1165 122.24796 156.35832
4495.043 149.00357 556.66394
2384.384 354.92374 771.94666
3426.5947 1383.1082 789.78394
2846.4231 1354.6548 128.78564
817.48346 1159.7012 713.11206
2430.4602 54.756641 856.55823
1279.9049 177.28831 613.43054
1355.438 1534.0132 523.29077
617.23608 897.21039 674.02863
3499.0391 115.80289 793.91754
1107.2091 1325.4235 98.75708
2751.6533 1219.0012 775.1333
3333.5422 137.70135 344.29715
3368.1252 1502.46 289.74695
4558.9492 954.21167 448.22513
2599.177 418.8071 773.32416
1873.619 1142.2905 765.31335
2435.585 998.60376 769.20813
3795.5757 1542.5493 617.57849
4541.936 940.2077 736.28455
3865.9089 521.63702 880.99292
2645.5249 1479.5789 107.33447
1389.4435 54.120419 764.83051
2789.1973 588.37506 773.14105
913.56927 1707.5249 164.11838
1600.2714 224.19003 98.657623
2644.7278 1241.4457 774.33167
1883.0001 1400.3318 770.31427
4266.5127 680.27893 248.8768
4139.7251 1258.9742 765.87268
3426.1172 1431.51 336.54913
210.48576 1508.2546 463.0675
2496.1145 1034.8438 106.1053
4083.3276 433.83655 793.59082
1763.0728 1646.0096 583.61621
3871.6885 -28.623854 528.86847
1216.5936 1717.4116 59.491386
3314.9917 184.59599 387.39496
1129.2272 850.54431 98.549751
1889.2195 273.07599 101.05981
3941.7412 445.81711 198.04074
3677.8779 957.26312 953.08698
1958.3115 857.31305 101.6342
3038.6597 1467.9266 1005.4572
55.828815 911.09985 393.98401
1259.1445 501.7706 755.29059
2949.2563 1577.1235 808.37122
2156.4097 585.97437 103.28112
2829.9146 1675.1682 373.27588
2603.03 1201.4528 111.58775
4220.5747 262.52594 236.81647
3039.6682 1711.8169 354.77347
1687.0786 551.81097 762.46173
