# .PCD v0.7 - Point Cloud Data file format
VERSION 0.7
FIELDS x y z
SIZE 4 4 4
TYPE F F F
COUNT 1 1 1
WIDTH 1524
HEIGHT 1
VIEWPOINT 0 0 0 1 0 0 0
POINTS 1524
DATA ascii
3.5268869 1.2319967 0.18042675
0.36271656 1.2480519 0.18063617
0.29723951 1.3719666 0.18302791
3.6219535 1.4191165 0.18732606
0.36066467 1.5720284 0.18015103
3.5735948 1.6036768 0.18381651
3.6564026 1.6321803 0.18982615
0.37747979 1.7596354 0.18489958
0.54036909 1.8159431 0.18556471
0.52196181 1.8299978 0.18046187
2.605155 1.8600621 0.18704972
2.0680337 0.2049832 0.1924777
3.7883296 0.25990307 0.19890265
1.2309308 0.29887289 0.19122626
3.7340574 0.44035858 0.19546179
3.775341 0.45489019 0.19845788
3.7427008 0.5725528 0.19608906
0.15959021 0.72551191 0.19110659
0.14062087 0.7972061 0.19187734
0.047333866 0.84369951 0.19553973
0.099571541 0.91978526 0.19354068
0.034316503 0.94618315 0.19618484
3.6920514 0.9966836 0.19241327
3.7129068 1.0031562 0.19392681
0.14993906 1.0536515 0.19111057
3.7770658 1.2353131 0.19858304
0.066114292 1.2678486 0.19420941
3.6711173 1.2643692 0.19089404
3.6999068 1.5180321 0.19298336
2.2583206 1.8626952 0.19057178
0.78382003 0.14161654 0.20364292
0.52637315 0.21890551 0.20027113
0.76252955 0.32563812 0.202279
3.8492837 0.37937868 0.20382413
3.8383751 0.63711733 0.20303248
3.7992842 0.77260268 0.20019552
0.016427575 0.90095872 0.20152797
0.014837003 0.97555304 0.20332599
3.8414421 1.1244955 0.20325504
3.829586 1.6222372 0.20239463
0.53950429 1.7364907 0.20957407
0.7763474 1.9090934 0.2039237
0.78156245 1.9256468 0.20047358
1.3756785 0.19234467 0.21643384
2.6417661 0.19189106 0.2134117
2.8541622 0.19018005 0.21772406
4.042284 0.46165901 0.21783081
4.1036983 0.51237363 0.2179364
3.9347906 0.56821144 0.21002965
4.0581441 0.63001096 0.2189818
3.9454892 0.88764411 0.2108061
3.9942656 0.92043322 0.21434595
3.3055778 0.98510373 0.21978112
3.9907794 1.0317416 0.21409295
4.0482121 1.4010277 0.218261
4.0079517 1.4165884 0.21533917
3.9442496 1.4382563 0.21071613
4.1140699 1.5630778 0.21952008
4.0871801 1.671585 0.21557066
3.6336613 0.1327513 0.22890763
3.6604753 0.13991739 0.22980829
4.1309118 0.31184518 0.22204
3.6400564 0.377424 0.22014768
4.0955319 0.48898369 0.22169517
4.1131454 0.64303172 0.22297347
0.065588117 0.69547421 0.22921665
4.1164708 0.70343322 0.22321478
4.1161299 0.90174693 0.22319004
4.1572366 0.9280225 0.22611138
4.096559 1.1107739 0.22176972
4.1296988 1.306154 0.22190653
4.1255631 1.3871746 0.22127509
4.1254625 1.4585172 0.22386736
0.53882873 1.6750363 0.22832941
0.77714342 1.6909699 0.2254369
3.3048868 1.7228761 0.22506373
1.1227176 0.15009755 0.23160523
2.7297592 0.1816484 0.23054349
0.53266883 0.19428156 0.23995903
1.2545377 0.23447876 0.2399784
4.1958127 0.39867327 0.23335025
4.1930504 0.69761199 0.23157999
0.13391343 0.74026185 0.23202413
0.12543744 0.78751045 0.23395139
2.7334104 0.93274409 0.23597361
2.3346043 1.1990619 0.23278874
3.3038213 1.4118223 0.23321044
4.2020397 1.5627556 0.23295251
0.21187618 1.6714485 0.23203439
4.2187018 1.694157 0.23495428
4.1540518 1.773499 0.23260063
3.6985073 1.8442867 0.23902847
1.2233794 1.9437 0.23217639
1.2376328 0.12763792 0.24843597
1.1308138 0.14572884 0.24234036
3.9005086 0.30616871 0.24332359
2.1037264 0.3156065 0.24621907
3.6773212 0.377424 0.24651916
4.0847521 0.48649549 0.2485332
4.3369274 0.6464417 0.24553362
4.3579187 0.64935499 0.24645084
4.3818178 0.73688179 0.24723952
4.2720432 0.7593115 0.24256565
0.097592555 0.9373529 0.24100515
2.7598362 0.93447053 0.24683526
4.3360987 0.94157976 0.24473232
0.091116913 0.96684897 0.24564019
4.3708544 0.96649814 0.24606296
1.341197 1.0043521 0.24387482
4.2496572 1.0130798 0.24022341
4.3693447 1.0899276 0.24600221
4.3991852 1.1176493 0.24737069
0.0975729 1.1470354 0.24813823
4.3368759 1.163843 0.24496683
4.272049 1.1974516 0.24236885
4.3646116 1.1948034 0.24625453
4.2840328 1.2278079 0.24295145
4.3038621 1.2307407 0.24850023
2.9384563 1.2848517 0.24239679
4.3075671 1.3779008 0.24906595
1.3411913 1.7293291 0.24648429
2.2194304 1.7526547 0.24301998
3.9009213 1.7922179 0.24346256
2.431603 1.8958182 0.24989033
2.466207 1.8937941 0.24237154
2.7303531 1.8945837 0.24360058
1.1287853 1.9154378 0.24173583
2.1472154 0.17743033 0.25289693
2.8710763 0.17256978 0.25768253
2.9601524 0.17172745 0.25778103
0.95596069 0.26457027 0.2550661
1.7427415 0.31542671 0.25045463
0.7308073 0.33844912 0.25171036
4.3114843 0.5881452 0.25146744
4.4548397 0.7223686 0.25298375
0.072058827 0.91582173 0.25439847
2.7888217 0.93534499 0.25245821
4.3682275 0.94764656 0.25832841
4.3754349 1.5856575 0.25821611
4.384645 1.6165144 0.25765872
0.6770376 1.7277192 0.25259787
0.84572685 1.8033299 0.25591585
1.024619 1.8033298 0.25552264
2.4691167 1.8922532 0.25748408
3.2400126 0.16102257 0.26835907
1.5864518 0.17675276 0.26090446
1.2635136 0.2201212 0.26758796
3.3577089 0.22179219 0.26161748
0.60791993 0.2374316 0.26273793
3.3578448 0.25023559 0.2611987
0.17684346 0.46216595 0.26133668
1.7158076 0.70349628 0.26206601
2.2704833 0.76055884 0.2622211
2.6991611 0.88414729 0.26449919
4.4109917 0.99483937 0.26485822
4.5364614 1.4363877 0.26953584
4.3597431 1.4578102 0.26007926
4.5839629 1.4521773 0.26240885
4.5753341 1.4682183 0.26667762
4.4483304 1.5837359 0.26652905
0.52087551 1.6909699 0.26216581
1.3684945 1.6909699 0.26074564
0.31493261 1.7496933 0.26932812
3.7665005 1.8255423 0.26267079
1.2619841 1.8392098 0.26288331
0.53994656 1.8447585 0.26816562
4.0872345 1.8646781 0.26428807
0.71869272 0.27394417 0.27512208
0.78866619 0.28506035 0.27028167
3.4331923 0.32407776 0.27664772
3.5538549 0.377424 0.27812958
4.0224633 0.377424 0.27969694
4.1050639 0.377424 0.27348366
0.12174813 0.76085258 0.27925396
4.4555163 0.79823411 0.27450728
0.062212601 0.80574751 0.27443427
4.4777408 1.1245426 0.27595586
1.8904409 1.2101028 0.27491641
4.4425864 1.2514957 0.27174067
1.7157636 1.3131303 0.27991942
1.8794272 1.7541832 0.27901164
3.9065673 1.9443011 0.27652022
1.4284062 0.1692495 0.28198376
4.5008998 0.71626097 0.28381673
2.9358301 0.74817669 0.28964207
2.75509 0.89874506 0.28449646
0.064827092 1.0766133 0.28253326
4.5177226 1.1424923 0.28298065
0.57751358 1.6909698 0.28218365
4.1488547 1.8425835 0.28394186
2.3346176 1.8938614 0.28105128
1.3589386 1.9056524 0.2834779
3.589083 1.9087837 0.28295085
3.4643531 0.15676382 0.29064256
1.6153823 0.16698572 0.29344261
1.7623587 0.32780305 0.29019901
0.65690887 0.34092528 0.29899043
1.6836824 0.35497773 0.29019898
2.2145689 0.35586995 0.29019901
2.7694829 0.37396398 0.29019898
2.1731486 0.38023564 0.29019901
2.506783 0.38727999 0.29019901
2.6321683 0.39965105 0.29019901
2.1094658 0.40197083 0.29019901
2.3005524 0.41384006 0.29019901
2.4991782 0.44317257 0.29019901
2.8124452 0.51926219 0.29019901
2.1671572 0.54594934 0.29019901
2.3170218 0.56089509 0.29019901
4.4554653 0.56009072 0.299041
2.3542359 0.58003396 0.29019904
1.6847126 0.59408945 0.29019901
1.7025967 0.61493301 0.29019901
2.5028551 0.7086097 0.29019901
2.6554604 0.70582891 0.29019901
2.1981652 0.7110166 0.29019901
2.6615193 0.71302718 0.29019901
2.8798246 0.72854495 0.29019901
1.9015652 0.73111486 0.29019901
2.8569086 0.7365455 0.29019901
2.2653329 0.74982142 0.29019901
4.551321 0.74606252 0.29115391
2.0458572 0.7642051 0.29019901
2.6049242 0.76525384 0.29019901
2.0321512 0.79249865 0.29019901
2.5856471 0.79461074 0.29019901
1.7172036 0.81333321 0.29286507
2.0664992 0.83241928 0.29019901
4.5890303 0.83271396 0.29558283
2.0859318 0.84564316 0.29019901
2.1869895 0.84174633 0.29019898
1.9267634 0.85827529 0.29019901
0.097076744 0.86998117 0.29962641
2.4339895 0.86191666 0.29019901
1.7371426 0.88689244 0.29019901
2.4087048 0.88479882 0.29019904
2.6899843 0.88937473 0.29019901
2.8502271 0.8953566 0.29019901
1.8397897 0.93116844 0.29019901
2.0483184 0.93397629 0.29019901
2.5754142 0.94452071 0.29019901
2.9897597 0.94379592 0.29019904
2.578934 0.95528221 0.29019901
2.6379175 0.96777964 0.29019901
4.6346312 0.97805607 0.29942283
2.4543362 1.0135406 0.29019901
2.9136584 1.0352963 0.29019901
2.294714 1.0484664 0.29019901
2.3226004 1.0490378 0.29019901
1.9694446 1.053124 0.29019901
2.0671339 1.0607378 0.29019901
1.770068 1.1003263 0.29019901
1.9820693 1.1197875 0.29019901
2.0985858 1.11023 0.29019901
1.8903599 1.1264532 0.29019901
1.9446119 1.1318685 0.29019901
2.7994654 1.1332099 0.29023117
1.7267673 1.1517501 0.29019901
2.1943622 1.1579685 0.29019901
2.7422318 1.1546055 0.29019901
2.2866757 1.1810268 0.29019901
4.5779657 1.1861973 0.29305142
1.9418373 1.2176782 0.29019901
2.7847219 1.2296699 0.29019901
2.0297542 1.2490039 0.29019898
2.9749966 1.2528013 0.29019901
2.7788901 1.2870018 0.29019901
2.1887393 1.294325 0.29019901
2.2288399 1.3045361 0.29019901
2.0333219 1.310428 0.29019901
2.3800473 1.3228352 0.29019898
4.6071858 1.3274248 0.29990995
2.8260567 1.3581146 0.29019901
1.8636777 1.3874731 0.29019901
1.69934 1.4096454 0.29019901
4.5336647 1.4082072 0.29525793
2.9760237 1.4166512 0.29019901
2.5706935 1.4250191 0.29019901
2.5790095 1.4352183 0.29019901
4.0880527 1.4607825 0.29816577
2.1274364 1.4701388 0.29019898
2.2647851 1.4762087 0.29019904
4.629343 1.498318 0.29153344
2.6840558 1.5041922 0.29019901
2.8376374 1.5224397 0.29019898
2.7146988 1.533201 0.29019901
2.3499429 1.5492153 0.29019901
4.5776548 1.5489157 0.29870152
2.2004805 1.5891852 0.29019901
2.5864918 1.5803777 0.29019901
4.5416002 1.5969815 0.29397002
2.6844394 1.6211994 0.29019901
2.8876526 1.6263151 0.29019901
2.2951999 1.6308812 0.29019901
2.3318067 1.6328118 0.29019901
2.4711242 1.7295243 0.29019901
0.59893537 1.7861171 0.29053056
3.6616583 0.20035964 0.30075645
1.2725592 0.26850611 0.30621567
1.2041556 0.34046981 0.30364931
0.20085832 0.40170825 0.3025699
0.15655512 0.53582609 0.30567759
2.9347303 0.74507165 0.30943689
4.635704 0.76591581 0.30392697
4.0879898 0.96104014 0.30085823
4.5142064 0.97068536 0.30323166
4.6535439 0.97154111 0.30235174
4.6908884 0.97978139 0.30995482
4.6398849 0.98540187 0.30012149
2.2469187 1.1947894 0.30217057
3.0268133 1.7475268 0.30434039
0.70958084 1.7530818 0.30236438
1.0998898 1.7844748 0.30273825
1.4292817 0.16174629 0.31184894
1.0166023 0.22681019 0.31516773
3.83462 0.24823989 0.31548381
2.5535367 0.31281495 0.3119514
3.5081716 0.377424 0.31270665
4.6529679 0.66216528 0.31339788
0.087996989 0.90444803 0.31188256
2.8041067 0.94474179 0.31046957
4.0873852 1.040493 0.31582981
3.3023844 1.1059884 0.31470072
1.9022154 1.2014383 0.31143263
4.2982755 1.49831 0.31977081
2.8200045 1.648881 0.31488985
1.2738947 1.7495315 0.31891465
1.5451252 0.15736739 0.32968828
0.70704573 0.16954623 0.3234764
3.6514294 0.24917962 0.32757029
4.087038 0.27483517 0.32442519
2.7385316 0.31224814 0.32529727
0.24295314 0.36247855 0.323479
2.0590472 0.86773628 0.32045814
0.54475224 1.107398 0.32974583
2.9178128 1.1283175 0.32141876
4.7081332 1.1262211 0.32575706
4.7066684 1.2176712 0.32940039
2.9337494 1.4061854 0.32708198
1.7177033 1.4401196 0.32192841
0.70684159 1.8343549 0.32674783
0.95289093 1.8708472 0.32082602
1.976388 1.9089928 0.32545274
2.2744632 1.9054166 0.32075325
2.6102853 1.9007541 0.32097623
2.7220941 1.9001164 0.32468894
3.1154273 1.911804 0.32143414
1.8899124 0.1553074 0.33856246
4.0867844 0.20956127 0.33069485
4.255105 0.25319549 0.33912763
0.29964614 0.32883024 0.33795488
1.1722964 0.377424 0.33432204
1.3325349 0.41642478 0.33853614
0.12886588 0.47045058 0.33379996
4.6380224 0.64075851 0.33434629
4.5541744 0.65186644 0.33187649
1.7194781 0.72802663 0.33526742
0.54515582 0.75985545 0.33412164
4.7025585 0.80341077 0.33068749
4.7100501 0.80459929 0.3358478
2.9332132 0.83563548 0.33672559
3.3028586 0.85955983 0.33786955
4.7167969 0.90614676 0.33330926
4.5234919 0.93902636 0.3357946
2.75509 0.98255861 0.33842993
4.5633979 1.4338889 0.33659089
0.80168164 1.6909699 0.33021516
2.9333141 1.7459197 0.33491594
2.1740291 1.7564986 0.33353335
3.3028445 1.8363682 0.33718675
1.3324556 1.8808141 0.33895338
2.2661173 1.9089782 0.33425415
2.3245912 1.9087423 0.33592236
2.7109823 1.9026258 0.334207
3.9160829 1.9381647 0.33510619
0.54585612 0.24054024 0.34171134
4.6498747 0.57769442 0.34061837
0.12758809 0.60398149 0.34120354
4.5142879 0.6612792 0.3482973
4.7002344 0.73542851 0.34148592
1.9429806 0.87547302 0.34185991
2.62795 0.89016521 0.34496221
2.8339114 1.389833 0.34713718
4.4931135 1.49831 0.34422064
1.7188482 1.5621668 0.34816909
4.5828104 1.6208951 0.34309137
4.5476341 1.6572531 0.34659374
1.3311517 1.6985325 0.3458159
2.9675984 1.7556927 0.34385008
1.2762737 1.8859092 0.34153894
0.59318525 1.8911344 0.34528464
3.5184197 0.12064444 0.3506262
1.1599845 0.1462032 0.35504666
1.9559406 0.15220934 0.35255331
2.1348712 0.15247375 0.35706317
3.0512228 0.32392475 0.35244271
0.54722488 0.42924851 0.35052601
2.5483055 0.51333523 0.35852876
2.7416866 0.5263117 0.35260054
2.6235936 0.53119957 0.35622075
2.5147672 0.59256411 0.35955691
4.6364861 0.6024543 0.35027283
2.7855897 0.61065888 0.3512547
2.5484908 0.62478542 0.35852307
2.5610065 0.67635363 0.35813943
2.7220323 0.69171947 0.35320306
2.650862 0.74594647 0.35538483
2.5546825 0.77717483 0.35834342
4.085741 1.1160809 0.35047281
0.024120042 1.2938914 0.35428506
2.6918554 1.296072 0.35412818
2.5607586 1.3255821 0.35814703
0.11366347 1.3397124 0.35478923
2.2604511 1.3662553 0.35246018
2.7624938 1.3624473 0.35196269
2.6310387 1.4357529 0.35599256
2.5509205 1.5053077 0.35844862
2.7423804 1.6146699 0.3525793
2.9323668 1.7091777 0.35195383
3.5364451 1.8192199 0.35810107
2.2396746 1.9144142 0.35444063
0.74567598 0.14638197 0.36208493
1.3267859 0.19837451 0.36879361
1.2122692 0.34054875 0.3652657
2.9316087 0.52194035 0.36560053
0.54977036 0.56823087 0.36340436
2.377449 0.60343283 0.36593807
4.5167608 0.65984446 0.36175174
4.0838656 0.88443613 0.36022064
2.9374859 1.1218548 0.36150968
2.9316833 1.194949 0.36425984
2.3578539 1.2971983 0.36734378
4.6946998 1.3671064 0.36536282
2.4218163 1.4984614 0.3627553
4.5694165 1.5063976 0.36627778
2.3850446 1.5154381 0.36539319
2.931756 1.5968103 0.36294776
1.6827711 1.755914 0.36538404
4.3537846 1.7853036 0.3691622
3.6516824 1.8936157 0.36843055
3.2077131 1.9288509 0.36862278
3.4033659 1.9598776 0.36793894
1.9094813 0.14710805 0.37063569
2.4643371 0.15217604 0.37376562
0.95071155 0.2025114 0.37909079
0.87550926 0.26506197 0.37322277
1.6561226 0.31306231 0.3757858
2.3073864 0.62211514 0.37096417
0.040788434 0.64677054 0.37871009
4.5231361 0.68972003 0.37476853
2.3257151 0.79439884 0.37281084
2.286792 0.82972765 0.3736515
2.7536812 0.95471513 0.37126946
2.6168387 1.1739272 0.37750453
2.3668718 1.1826375 0.37758428
4.5285268 1.2836088 0.37755373
1.3248882 1.3455353 0.37878138
2.4564183 1.6687599 0.37412032
2.3509281 1.6739919 0.37709153
4.240077 1.8391536 0.37896532
1.6306524 1.9046745 0.37785977
1.7729173 1.9230657 0.37308866
1.3465673 0.13786636 0.38593471
2.4446197 0.14962204 0.38236871
2.7021775 0.15342672 0.38361758
1.1276848 0.25661728 0.385212
2.4989877 0.30979863 0.38297737
2.4618468 0.38175762 0.38195291
4.5913291 0.6390174 0.3803767
4.5818009 0.65268093 0.38095811
2.5495934 0.82796037 0.3802554
2.4305799 0.88730067 0.3829962
4.61239 1.3533318 0.38310134
4.5133796 1.49831 0.38850576
2.2872725 1.6708875 0.38032395
2.585252 1.6927054 0.38209641
3.6816514 1.6909699 0.38394308
3.018631 1.748221 0.38275716
2.2252843 1.7586973 0.38531381
3.351819 1.784986 0.38351887
1.0263915 1.8888586 0.38466957
2.7981181 1.914634 0.38765299
0.86873794 0.16788 0.39655381
0.43936229 0.21210924 0.39349812
3.3533702 0.23470488 0.39825195
4.0773358 0.29742986 0.39416146
0.85294795 0.377424 0.39743656
1.722286 0.69765228 0.39983612
3.3105557 0.74531907 0.3909508
2.8048759 0.97323668 0.39616799
4.550375 1.0626783 0.39479107
2.8254209 1.0944511 0.39616799
4.4858675 1.49831 0.39543134
4.6008101 1.6519349 0.39386329
2.3006434 1.7591158 0.39516526
0.41845089 1.8444153 0.39508671
0.59517968 1.8824723 0.39716831
1.3218042 1.8814603 0.39501315
0.52315605 1.9016187 0.39714736
3.7503858 1.9123561 0.39929003
1.362888 1.9313364 0.39513147
1.6180313 0.16133937 0.40200365
1.0677626 0.265062 0.40721676
4.4958134 0.33212101 0.40964296
2.9293828 0.55377299 0.4056462
4.5419602 0.87539047 0.40053967
1.3187677 1.0343205 0.40554869
2.224524 1.1769456 0.40076929
4.0753708 1.3372629 0.40437555
1.3188678 1.3708746 0.40523124
1.8000635 1.7594936 0.40406251
2.7699161 1.7593756 0.40575045
1.1030073 1.7879957 0.40694234
1.3186145 1.8373756 0.40603459
0.82129371 0.16331539 0.41508919
4.0741334 0.25609475 0.41080853
1.8377581 0.30835462 0.41698194
2.8487446 0.30956316 0.41670734
2.9969642 0.31182837 0.41759723
3.068608 0.32924742 0.41810358
0.17708258 0.39782038 0.41409558
3.2347643 0.86991614 0.41924363
2.75509 0.91852736 0.41205597
2.9108825 0.91621578 0.41021961
4.7601948 0.96422327 0.41613168
2.9288983 1.0158696 0.41436344
0.034757286 1.4131042 0.41135716
4.6892829 1.5147374 0.41575557
0.3313033 1.7176249 0.41289431
0.38697195 1.7687373 0.41381162
2.7413774 1.7600183 0.41896635
1.1362195 1.7895229 0.41090184
0.88030565 1.89995 0.41140667
2.8038139 1.9208888 0.41325936
3.8414946 1.9258742 0.41303724
2.411623 0.13860229 0.42286444
0.59816861 0.15239741 0.42556614
3.6467333 0.1672329 0.42268783
1.0292183 0.26682678 0.42638719
0.61275071 0.33490309 0.42553735
0.14349084 0.43369201 0.42517096
3.3162041 0.51686054 0.42610353
2.6547706 0.83760929 0.42661765
0.099196613 0.85824394 0.42947555
2.9116831 0.95267814 0.42843443
4.070745 1.0946907 0.42425281
1.6295588 1.2057664 0.42701116
0.023117511 1.3493624 0.42875004
0.083084524 1.5592062 0.42785245
3.7928877 1.6909699 0.42138898
3.4746399 1.7520159 0.42145127
4.3448749 1.8061428 0.42049357
0.36075434 1.8125411 0.42925861
4.2460585 1.8469715 0.42154527
3.3165317 1.9302417 0.42814374
2.4299564 0.13659103 0.43611825
2.8722579 0.14412574 0.43377033
4.2721825 0.22784536 0.43994841
4.671834 0.49552709 0.43717569
4.0671582 0.74155593 0.43369663
0.024767807 0.81141216 0.43440551
2.9907277 0.88003623 0.43638039
2.0280013 0.90661395 0.43624613
2.9117539 0.94175386 0.43004295
4.7638555 0.94470727 0.43945515
0.023852218 1.0821131 0.43621787
1.7237902 1.16017 0.43442392
0.10694864 1.2795777 0.43486246
0.15392344 1.648986 0.4395031
3.4043107 1.6909699 0.43731982
3.2791164 1.7516899 0.43783444
4.3694849 1.8010895 0.43930399
1.5821662 1.9368691 0.43672904
1.6186668 0.12214928 0.44801587
3.2349072 0.37157962 0.44897345
0.16388471 0.40889585 0.44030365
2.8515596 0.59195787 0.44969875
3.2146268 0.61920112 0.44956523
1.6503754 0.73243397 0.44605416
1.6486647 0.91863286 0.44493568
3.2324038 0.93956274 0.44794258
2.8504579 1.2855785 0.44329605
3.2268257 1.2834513 0.44672483
1.6462121 1.3234184 0.44328767
1.6472938 1.5490236 0.44398496
3.2331631 1.6777557 0.4482553
0.19193345 1.6886834 0.44308239
1.7892363 1.7612765 0.44605035
1.0598792 1.8094785 0.4466517
2.9073987 1.9256586 0.44427806
1.7404597 1.9398305 0.44528607
3.8244727 1.931628 0.44086835
1.5887609 0.12466311 0.4585169
2.1764908 0.13102028 0.45087573
3.8957658 0.14611675 0.45908609
3.4863024 0.19186711 0.45707279
3.4849648 0.24469292 0.45307267
3.0062907 0.31571746 0.45139444
1.7246391 0.34366465 0.45394704
3.3278627 0.38960016 0.45555246
2.9264832 0.59855199 0.45782042
2.6900015 0.73704582 0.45177361
3.2572546 0.78891546 0.4581762
4.7588282 0.84654617 0.45192978
3.1107552 0.87727702 0.4524402
2.2037241 0.90802556 0.45068842
2.1366489 0.91038114 0.45348138
3.1711764 0.98846728 0.4596824
0.57225096 1.084682 0.45337614
1.7244999 1.0870769 0.45074877
2.75509 1.0846357 0.45785296
3.1933374 1.3090727 0.45452237
0.10646953 1.5969805 0.45787275
4.5943122 1.6834702 0.45148417
0.6180073 1.6909699 0.45356303
1.1678622 1.6909699 0.45639646
3.7171643 1.8192199 0.45582604
0.97822165 1.8945384 0.45580384
1.1259086 1.929955 0.45503551
2.1567717 1.9390271 0.45973104
3.2278306 1.9459579 0.45446482
0.88548493 0.25656539 0.46309286
2.4263127 0.30651301 0.46034464
2.8986387 0.30889705 0.46245873
1.7249517 0.33639151 0.46113476
3.7666345 0.377424 0.46621358
4.7490997 0.75603735 0.46307251
2.9262266 0.9107101 0.46243364
2.75509 0.98609245 0.46805242
2.9261677 0.99432784 0.46349236
3.1289129 0.99972194 0.46952307
1.300586 1.0021144 0.46319413
0.5755204 1.0368632 0.46397126
4.7678385 1.1283065 0.46050429
3.1328077 1.1405706 0.46861628
3.0920253 1.1894753 0.46331996
2.8271642 1.2598147 0.4653917
0.063273706 1.2845365 0.46824282
3.1269565 1.2924229 0.46997866
0.058644556 1.4230443 0.46845782
3.164433 1.4940683 0.46125257
3.3310139 1.515047 0.4628402
1.6722218 1.5658987 0.46045566
3.273057 1.6735464 0.46195477
3.3419788 1.6909699 0.46577081
3.8473225 1.6909699 0.46541995
0.6362673 1.725945 0.46077579
3.1504679 1.7526515 0.46450421
3.3717964 1.8338412 0.46494406
0.61011589 1.8753462 0.467462
0.91924655 1.9117601 0.46895275
2.5768762 1.9350095 0.4684099
1.9769726 1.9416754 0.4665828
4.2582126 0.21637677 0.47452196
0.91863525 0.265062 0.47381726
2.925355 0.29462194 0.47811556
2.4287238 0.30595225 0.47354788
3.1183095 0.80709779 0.47199208
3.0850687 0.92446685 0.47973192
1.6966367 0.95654148 0.47671998
2.9135547 0.9911381 0.47101074
3.0987027 1.2999836 0.47655743
1.7255118 1.3876706 0.47401628
4.7273712 1.427258 0.47290194
2.925343 1.4447267 0.47833359
1.1254393 1.6909699 0.47148663
1.6928806 1.738205 0.47409323
3.0927258 1.7716203 0.47794899
0.61196023 1.90891 0.47313488
0.78484374 1.9250139 0.47004217
3.1677356 1.9428184 0.47079292
3.272481 1.952244 0.47580034
4.285161 0.22452714 0.48908436
0.93974024 0.265062 0.48674068
2.7146196 0.30637026 0.48541051
2.6518261 0.35355735 0.48868859
2.7415257 0.35840487 0.48438537
1.7258956 0.43433377 0.48284593
3.0683703 0.68627656 0.48362011
4.7436562 0.71062815 0.48629817
3.0418222 0.880032 0.48980168
3.0534868 0.88201064 0.48250163
2.2527332 0.93687594 0.48549449
2.2103477 0.94290191 0.48526698
0.051862702 0.95767593 0.48816502
2.4435623 1.0089804 0.4865188
2.1121149 1.0211588 0.48473969
2.5271769 1.0284612 0.48696762
2.1378763 1.0746346 0.48487794
2.1909633 1.1064204 0.48516291
2.5084677 1.109689 0.48686719
2.3721416 1.1289303 0.48613542
2.6438265 1.1463329 0.48759377
2.6846323 1.1535516 0.48781282
1.7074019 1.245105 0.48372656
1.2933494 1.3658824 0.48192868
3.3176427 1.4311711 0.48076525
3.0504358 1.5433797 0.48779595
0.58465731 1.7234485 0.48705095
2.2846055 1.7629665 0.48584515
1.681271 1.9168745 0.48828125
1.1847641 0.1243327 0.49398142
1.3792772 0.12164347 0.49900025
2.7956822 0.30685943 0.4992981
3.3459547 0.3164812 0.49739179
3.0396197 0.32129645 0.49031445
0.83997715 0.377424 0.49427167
2.8183365 0.39313859 0.49012774
0.093438655 0.58718133 0.4972325
0.088269852 0.61805385 0.49992281
4.7242627 0.6250937 0.49869069
1.726368 0.66541034 0.49635756
3.2451487 0.88017797 0.49973255
1.2886844 1.3323013 0.49232623
0.58682847 1.5286145 0.49152449
0.12334325 1.6177697 0.49319419
3.261332 1.7457767 0.49109915
2.1227582 1.763289 0.49343565
2.306076 1.9443853 0.49928024
2.4325356 1.9417124 0.49459136
1.4932083 0.12261743 0.5039115
0.62287557 0.19655231 0.50441772
3.988199 0.2203726 0.50982481
3.349108 0.2998116 0.50461209
2.8613248 0.49262676 0.50644696
2.6895602 0.53233826 0.50606477
2.9633734 0.8106702 0.50806785
0.59243429 0.87623906 0.503075
2.4749916 0.93202585 0.50958067
0.079599306 1.0337495 0.50649631
3.3471274 1.1795924 0.50010395
0.035153251 1.223026 0.50984019
2.8261366 1.2542626 0.50013435
1.7391629 1.3627611 0.50470454
4.7303152 1.4219577 0.50981647
2.8613498 1.6281925 0.50659359
2.9715104 1.7204551 0.50617325
2.9822848 1.7305565 0.50366449
4.4517159 1.7792926 0.50378263
1.2837526 1.951786 0.5091691
1.1646843 0.12424542 0.51340008
3.8517096 0.12654392 0.51459873
0.74619001 0.13620959 0.51032329
0.56011993 0.14719518 0.51157707
4.3979135 0.26450497 0.5195452
4.4325209 0.2782039 0.51839197
2.6504672 0.35454351 0.51734424
1.7272592 0.37144813 0.51419878
1.7271209 0.66876841 0.51102197
4.7645268 0.84400332 0.5196768
4.0287232 0.89552391 0.5193665
2.9265621 1.0397991 0.51663911
1.2796427 1.1206783 0.51247895
2.9541736 1.1442945 0.5102101
2.9155011 1.161823 0.51529616
1.7450007 1.2087202 0.51840538
1.7515373 1.2193216 0.51300186
2.8422391 1.2591058 0.51802742
0.050769851 1.5094637 0.51804543
3.332361 1.6012846 0.51916707
1.2387356 1.7912092 0.51868021
3.8454037 1.886476 0.51496005
2.7949753 1.9395837 0.51529568
2.6577435 1.9412785 0.51200205
0.60071474 0.21623585 0.5201363
4.2567878 0.21137682 0.52108401
4.3381743 0.24106269 0.52446097
0.86210608 0.2654708 0.52099478
3.9778988 0.27546364 0.52767241
4.4180703 0.271974 0.52425289
3.3598084 0.3149268 0.52062047
0.60182667 0.82973331 0.52242726
0.019806404 1.0425018 0.52267689
2.4547079 1.0849085 0.52383697
2.9159803 1.0849898 0.52619869
3.0221248 1.1811447 0.52820444
2.7246935 1.203957 0.52287406
1.7758625 1.3268045 0.52895755
2.1783118 1.7645725 0.52366298
2.6209071 1.7639625 0.52208376
1.101383 1.8054944 0.52172619
1.2360655 1.8473666 0.52330548
0.95623142 0.16069855 0.53356421
0.47493801 0.18996054 0.53943014
0.38781738 0.23763627 0.53133303
0.6385932 0.24033813 0.5316323
2.5897276 0.30383962 0.53236222
0.8299703 0.377424 0.53594512
1.2671151 0.377424 0.53702617
1.2754297 0.377424 0.53275865
3.6935358 0.377424 0.53662694
0.052554592 0.59060675 0.53980827
1.7282863 0.68781137 0.53781921
1.7796143 0.80874157 0.53161836
4.7577643 0.80239695 0.5369153
3.1726174 0.88575613 0.53133392
4.76823 0.90424269 0.53648543
2.5267177 1.0096203 0.53021884
2.9161925 1.0278906 0.53101724
1.7280331 1.0631264 0.53199381
1.2661935 1.1133803 0.53757024
1.778371 1.1670374 0.53138703
1.7017735 1.2032657 0.53337646
2.8508601 1.2611507 0.53135937
1.783181 1.4254265 0.53378588
0.48098654 1.8817964 0.53494233
2.6138926 1.9451752 0.53131229
3.3387976 1.9630374 0.53434902
3.5615616 0.12093882 0.54332995
3.7983844 0.14041959 0.54055965
0.72145772 0.34098175 0.5494836
3.0664973 0.34004039 0.54042596
1.8030305 0.39132237 0.54708898
1.7285132 0.63821757 0.5430392
3.3785281 0.69656885 0.54862434
3.2770908 0.88831633 0.54787225
2.7285252 0.98022127 0.54810393
1.7288138 1.075137 0.54994839
2.643306 1.1017451 0.54055142
1.2604818 1.1693788 0.54548705
0.61153263 1.2017813 0.54169905
2.7877917 1.2306683 0.54006833
0.087001346 1.5527475 0.54423654
0.64581335 1.6909699 0.54629475
1.3442336 1.6909699 0.54955494
1.8056293 1.7129793 0.5485971
0.24549919 1.7327671 0.54119033
2.8632984 1.7619183 0.54123849
0.79422343 1.7711403 0.54966998
1.263356 1.7808162 0.54150331
0.87284595 1.9082876 0.5483079
0.59863269 1.9346764 0.54239607
1.38113 1.950085 0.54078853
4.0237708 0.10877763 0.55549228
3.0304585 0.12385324 0.55919522
1.2542406 0.2692354 0.55413771
1.9597251 0.30253685 0.5539735
4.0071688 0.31673315 0.55387312
0.095006458 0.57694083 0.55616677
1.8444663 0.85916919 0.55350554
1.9322462 1.1964521 0.55391335
3.3446763 1.5672671 0.55937809
3.3439355 1.6236811 0.55446893
0.18263699 1.6710397 0.55558813
3.3833504 1.6786444 0.55583793
0.29472008 1.7683443 0.5562523
1.0740527 1.7979056 0.55206597
4.363987 1.8182348 0.55468881
0.99828047 1.9235196 0.55745578
1.3754574 0.1159758 0.56755006
2.5836215 0.11858452 0.56707478
0.65715909 0.1973929 0.56373149
0.81893635 0.19472814 0.56186008
1.0514495 0.20006183 0.56210208
1.0443326 0.24479508 0.56535012
1.7142575 0.30859551 0.56457955
1.2037104 0.32919824 0.56023002
0.11536935 0.4867571 0.56727272
1.8304849 0.56075227 0.56527686
1.735001 0.86332583 0.56300575
2.9486108 0.89316916 0.56503934
0.042848274 1.4729295 0.56365418
0.81468809 1.7487671 0.56046599
2.081737 1.766366 0.56589597
3.4338005 1.923578 0.5665772
3.3388453 0.10332465 0.57354999
1.7908106 0.11109079 0.57031888
1.945155 0.11151309 0.57523465
3.7374036 0.11941643 0.57737792
0.85161471 0.22774071 0.57654071
2.8118048 0.30513746 0.57203519
0.036292713 0.64406848 0.5790807
0.072219796 0.72577667 0.57689917
2.8726432 0.72722483 0.57222438
4.7175465 0.7298274 0.57344037
3.2108383 0.89245129 0.57111317
4.7102618 0.92812347 0.57715714
3.3446059 1.1640617 0.57762682
0.63749468 1.3365781 0.57697231
2.8734102 1.5226064 0.57668275
1.8419831 1.5321567 0.57263291
1.146788 1.7265515 0.57803988
2.7320826 1.7268863 0.5730738
1.241513 1.7487957 0.57177913
2.2146654 1.7667537 0.57502484
3.6499801 1.8222078 0.57197702
1.1996028 1.8419116 0.5782541
3.3983135 1.861686 0.57822245
1.0052302 1.9034662 0.57068151
2.0867081 1.9560418 0.5747782
0.87855554 0.20611629 0.58844906
0.99163222 0.32850564 0.58896363
3.0579996 0.33694428 0.58341348
0.76111817 0.377424 0.58068442
0.64698672 0.38064685 0.58986855
1.8529186 0.57696486 0.58012968
1.7484035 0.86420178 0.58740616
1.8715893 0.86143953 0.58821154
0.0064653428 1.1547275 0.58931464
3.2866817 1.1739626 0.58384746
3.3509078 1.3651536 0.58819455
0.87892818 1.7538234 0.58904737
2.4663401 1.7672658 0.58708578
2.7969563 1.7637923 0.58655435
4.2047515 1.8755192 0.58907598
1.1447079 1.9438298 0.58165228
1.5364701 1.9433851 0.58256632
1.8576639 0.10911772 0.59799576
0.68387634 0.20703202 0.59339356
0.89461172 0.21551277 0.59194279
3.9194503 0.26739502 0.59776175
2.7109356 0.47561514 0.59023798
3.3533847 0.58079177 0.59035921
4.6693902 0.6374768 0.59176481
0.088402808 0.95490903 0.5977664
3.0467026 0.97205746 0.59208232
3.3493567 1.0269463 0.59513152
3.1107311 1.0554109 0.59272742
3.2315199 1.0506192 0.59394431
1.8792783 1.0831795 0.59975398
3.2080572 1.0922858 0.59370792
4.660985 1.3837318 0.59802413
1.8791893 1.4235586 0.59737891
2.711261 1.4337705 0.59128183
0.65207881 1.6566271 0.59678686
3.5663977 1.7433037 0.59728122
1.6725097 1.927707 0.59628654
0.72088188 1.9436661 0.59847414
1.2628696 1.9588649 0.5906561
1.8004979 1.9590586 0.5919584
1.8264197 1.9591321 0.59438294
1.6824887 0.13999104 0.60322148
0.53697419 0.17432532 0.60488683
2.6656084 0.30266804 0.60803872
0.23445533 0.45223168 0.6088208
0.11369565 0.58003819 0.60336429
3.3568499 0.68301016 0.60591727
1.8835938 0.76062858 0.60107017
0.0029219161 1.0049587 0.60325193
3.3538713 1.1557585 0.60608274
1.8819351 1.2841252 0.60017323
2.7149022 1.3623878 0.60297048
3.4252291 1.3996345 0.60157096
3.3599143 1.5610037 0.60749137
2.2331462 1.7681694 0.6083619
4.1634626 1.8900299 0.60371447
1.490803 1.9572772 0.60868144
1.3698378 0.11132404 0.61919898
2.6389742 0.11522687 0.61878645
0.69978791 0.19183981 0.61105907
3.4415112 0.30402082 0.61550295
0.3650651 0.41446638 0.61197889
0.12273633 0.64743179 0.61803651
2.8799765 0.80644864 0.61817688
0.12017111 1.397992 0.61429864
0.67498773 1.4972575 0.61887187
0.18869001 1.6157258 0.6129964
0.54352039 1.6909699 0.61544186
3.0540552 1.7328365 0.61208618
1.1688361 1.7498175 0.6124422
2.3826423 1.7684653 0.61533165
0.44124815 1.8338175 0.61099756
2.1199336 1.958979 0.61082011
1.2718958 0.10809817 0.62971985
1.5397485 0.10925045 0.62187344
3.2133591 0.11054428 0.62627339
4.2981877 0.22822252 0.62016243
3.701056 0.32507366 0.62541443
0.29735693 0.33456826 0.62852705
0.85120684 0.34053007 0.62546718
4.0443621 0.377424 0.62552798
0.28791046 0.38521126 0.62198585
2.8811233 0.55574113 0.62150443
4.666533 0.58750397 0.62646532
0.116034 0.59365696 0.62663674
2.8451443 0.82332277 0.62325823
3.3614826 0.90118605 0.62877584
3.3648906 1.4527336 0.62806857
0.1187285 1.4899192 0.62388647
0.19351529 1.6142629 0.62323606
0.29180941 1.6873975 0.6250217
0.63201034 1.6909699 0.62495494
0.92750502 1.7285348 0.62297034
2.7250981 1.7344986 0.62885106
2.8966651 1.7636485 0.62125236
3.9332931 1.7827866 0.62875915
2.4366443 1.9570146 0.62595302
3.7770483 0.10869677 0.63427711
3.1063108 0.11453615 0.63910711
3.3717637 0.377424 0.63948554
3.3697889 0.40685719 0.63387775
0.28924954 0.48704094 0.63072205
0.35239664 0.4853071 0.63109881
2.7252276 0.53680986 0.63611424
3.4667907 0.80181694 0.63713372
1.9319419 1.019222 0.63533098
1.1837361 1.0661223 0.63546747
0.089512102 1.1234245 0.63245988
0.093078144 1.1553603 0.63801903
0.040047545 1.2137368 0.6302141
0.16850939 1.5341146 0.63692385
0.2885462 1.5396422 0.63368082
3.4584994 1.5828743 0.63003922
2.778547 1.7121947 0.63463879
3.0470204 1.9519298 0.63843232
3.1136744 1.9538336 0.63617349
2.2114768 1.9602767 0.63175511
2.0259154 0.29871464 0.64397484
0.3826437 0.32528585 0.64381105
1.6107934 0.88270026 0.64788699
3.9136364 0.95156336 0.642851
2.8536177 1.2459621 0.64926159
0.70861024 1.589426 0.64298463
1.1194594 1.7406511 0.64344519
1.8982625 1.7698207 0.64724785
0.83497763 1.9438994 0.64218515
1.8982084 0.10459481 0.65473557
1.8597722 0.2986213 0.65699172
2.3455703 0.29804105 0.65983558
0.49419981 0.32109016 0.65264344
1.1885682 0.377424 0.65461576
1.9717586 0.68466175 0.65982294
1.8992281 0.86270648 0.6515919
3.5001345 0.8861776 0.65532362
2.6863704 0.89453125 0.65891504
1.6140611 1.183897 0.65765709
0.076886073 1.1991147 0.6530953
0.10011011 1.2728633 0.65684986
3.3727183 1.3281679 0.65834212
0.73018122 1.380585 0.6547063
4.6638074 1.3826141 0.65866578
3.3753734 1.5281669 0.65751469
0.21624786 1.5412428 0.65940225
1.1465601 1.5470893 0.65955073
1.9616756 1.5624611 0.65185481
0.37307093 1.6063868 0.65536523
0.36288479 1.6950409 0.65616024
0.8244313 1.6909699 0.65842891
0.34555382 1.7204435 0.65540493
3.3017547 1.7280936 0.6525833
2.736017 1.7319456 0.65414321
1.9696666 1.7663352 0.65697163
3.4948056 1.9423338 0.65298641
1.4335781 1.9592433 0.65749007
3.660109 1.9595884 0.65544778
1.7396231 0.1057051 0.66686833
2.1327062 0.10573125 0.66997349
0.78130335 0.2282654 0.66723788
1.9217656 0.29762635 0.66960227
0.75100982 0.34596753 0.66602445
3.2548084 0.34070766 0.66688633
0.74638027 0.6319595 0.66350877
1.144393 0.81840616 0.6606586
2.8613575 0.82101655 0.6653229
3.5232887 0.97070616 0.66547859
1.5749696 1.1797978 0.66176885
0.15527563 1.3867235 0.66760468
3.3761792 1.4139175 0.66527724
0.18224698 1.4744769 0.66572046
0.74161035 1.4786562 0.66091681
0.25236562 1.551258 0.66191077
3.870151 1.7173846 0.66968799
3.5455391 0.089247227 0.67580897
1.8420037 0.10762016 0.6759333
2.2238936 0.10592867 0.67152166
3.2470284 0.34244323 0.67858666
3.4422293 0.377424 0.67319375
0.36551046 0.44690132 0.6748805
2.0002201 0.45476377 0.6776365
3.382442 0.45575529 0.67583036
3.5426986 0.70378655 0.6739915
0.11759272 0.87087506 0.67526805
2.6965079 0.88251615 0.67940074
2.0628409 0.97272265 0.67436701
3.3763309 0.97966421 0.67299044
2.0609112 1.1518145 0.6790446
1.1178389 1.7365919 0.6742332
1.7512773 1.7626812 0.67580444
3.5979528 1.7998469 0.67106867
3.7637899 1.8800218 0.67532337
0.77397096 1.8932164 0.67834461
1.7829531 1.960011 0.67879605
2.0937562 1.9610832 0.67652011
3.8731511 0.094227284 0.68885225
0.38882115 0.48660183 0.68928677
3.5617125 0.76247597 0.6819368
2.0104151 0.84271318 0.68688631
0.18622294 1.3565121 0.68823874
4.5858145 1.676239 0.68551171
0.96140707 1.6909699 0.68879902
1.0057327 1.6909699 0.68601412
3.3358521 1.7219856 0.68661803
0.82811856 1.745353 0.68581194
2.1098142 1.958771 0.68643546
1.6745858 1.9602654 0.68350607
1.2724844 0.1166705 0.6907742
3.6668172 0.28730085 0.69913054
3.3882599 0.46854776 0.69467723
0.30953962 0.51157832 0.69606417
1.0728229 0.52769971 0.69073838
2.0234118 0.60016274 0.69397199
3.6834495 0.62176323 0.6999855
2.8909006 0.63838458 0.69037592
3.6832857 0.68099511 0.6999771
4.6626358 0.76043898 0.69956768
2.7327919 0.78329611 0.69959509
3.7716603 0.79883492 0.69476378
3.7754226 0.87300152 0.69428086
3.7626667 0.98119754 0.6959182
4.6615906 1.0914638 0.6939832
2.0244403 1.2871815 0.69589984
3.7534668 1.2907786 0.69709909
3.6336112 1.3375028 0.6968379
2.0197396 1.4135907 0.69188076
2.8918223 1.5101891 0.69873136
0.28011337 1.5524833 0.69925523
0.4063372 1.7095582 0.69067013
2.804203 1.7665696 0.69631237
0.83698612 1.8997462 0.69012296
2.3668985 1.9560335 0.69528377
2.5119939 0.11739057 0.70961756
0.86222053 0.2236581 0.70713931
2.7161171 0.33657038 0.70815253
3.7258162 0.37952095 0.70064843
1.0101727 0.65029579 0.70712709
1.0346748 0.68720543 0.70250082
4.6585374 0.88670677 0.70810044
1.0392051 0.99684191 0.70164543
4.6647267 1.1309894 0.7035628
2.0289416 1.1719636 0.70580602
2.0287979 1.2549677 0.70590478
3.6957769 1.2726154 0.7006191
3.3874133 1.403747 0.70100248
4.641613 1.4772007 0.70296413
1.0085188 1.5231942 0.70743936
0.38289192 1.6128576 0.70364726
0.83224607 1.6339242 0.70078373
2.6291962 1.7685443 0.7016688
2.8126616 1.7667586 0.70699412
2.3817723 1.7712754 0.70689714
2.0982263 0.11554407 0.71053427
2.5953867 0.12009598 0.7173121
3.9627194 0.13808987 0.71980548
0.92681086 0.16569559 0.71453363
0.60189283 0.20177941 0.71608269
0.924142 0.21769835 0.7145592
1.8798444 0.29713345 0.71373576
2.3359647 0.29649639 0.7124362
3.3823862 0.35222358 0.71478105
0.88719028 0.44701782 0.71157688
0.92393208 0.45445356 0.71456122
4.6298614 0.55215806 0.71164554
0.94778603 0.73678464 0.7143321
0.89169425 0.74521679 0.71237731
3.3908298 0.83111221 0.71629131
1.7174518 0.87865984 0.71750265
0.91586703 0.93238384 0.71463871
1.6260853 1.1800044 0.71469408
2.7179537 1.2186358 0.71084511
2.7444906 1.3054557 0.71086293
3.3919692 1.4440589 0.71345562
0.94815874 1.5313286 0.71432853
0.30849525 1.5793355 0.71279377
0.42979723 1.7274535 0.71277785
3.2316649 1.7209648 0.7172547
1.7386518 1.7627773 0.71639252
0.98373163 1.9350203 0.71211952
3.563206 0.095470741 0.72054887
2.788516 0.12468128 0.72860563
4.2388439 0.22749208 0.72268665
2.5696852 0.29865599 0.72366047
3.3952672 0.59819937 0.72260892
0.28034452 0.69371378 0.72503889
2.0256472 0.84129107 0.72059947
1.6848683 0.88270533 0.72803718
0.42411077 1.6786882 0.72413528
4.0954585 1.8855952 0.72573352
1.8436407 1.9496262 0.7227422
2.7377286 1.9446788 0.72651738
3.2245085 1.9534744 0.72799248
1.226959 0.12519039 0.73099089
3.8819461 0.1210058 0.73534459
3.9734631 0.15054879 0.7377966
2.0208907 0.54864812 0.73589313
0.21561277 0.98743248 0.73009682
4.6536441 1.2429683 0.73161471
0.2863642 1.3179417 0.73538268
2.7559047 1.4408855 0.7340374
3.60987 1.6909699 0.73346245
0.42120641 1.7079389 0.73405254
1.1702065 1.9445662 0.73449188
2.6156793 1.9428447 0.73806238
2.6620274 1.9422779 0.73865062
2.9546762 1.9435802 0.7332412
3.6465271 0.10183994 0.74774969
2.0429707 0.12324155 0.74172193
2.5110607 0.12608112 0.74480879
0.53067458 0.25528887 0.7418288
2.1776428 0.29433855 0.74701887
2.5531721 0.29780018 0.74991643
2.0187807 0.35118008 0.74664402
3.4028416 0.46899331 0.74046338
3.4016593 0.56117922 0.74097526
2.7438755 0.8352598 0.74885285
1.572367 0.89496464 0.74508411
0.27371803 1.1851988 0.7476216
0.38822284 1.501792 0.74678648
0.40613666 1.6415086 0.74644268
1.414099 1.9400032 0.74061185
3.4938931 0.10901088 0.75432926
0.51038921 0.31210664 0.75725472
2.7447937 0.38124254 0.75019902
0.44218233 0.39716431 0.75647175
2.0180016 1.5162914 0.75092721
0.40393203 1.5872833 0.75212103
0.48639131 1.7423877 0.75290209
2.4962821 1.7712755 0.75309944
2.3012514 0.12829801 0.76319665
2.858989 0.13356034 0.76581335
0.67970443 0.21193445 0.76884508
2.0137751 0.30487007 0.76803577
3.4115243 0.48396504 0.76840037
2.0155859 0.68457782 0.76416671
2.7636952 0.71295363 0.76066184
2.0168216 1.0598673 0.76184618
3.4077544 1.1688466 0.76669919
3.3783331 1.7090909 0.76732254
2.1954632 1.93924 0.7665965
2.4639382 1.9390076 0.76038903
2.9716566 0.30397394 0.77084869
0.50648761 0.43205965 0.7789495
2.0568461 0.56137532 0.77274692
0.38457707 0.78075904 0.77322102
2.8483241 0.83696824 0.77375448
2.7554288 0.84955519 0.77299714
1.9025404 1.1993606 0.77195227
2.7681179 1.3627995 0.77492303
3.1800723 0.12906836 0.78501236
2.1537311 0.13672327 0.78879368
0.65112245 0.2632587 0.78791463
2.9967937 0.31396765 0.78138411
0.56139588 0.34068143 0.78089958
0.49248952 0.48980024 0.78053695
2.1528785 0.53277457 0.78305316
1.9666913 0.54498649 0.78374428
1.9402851 0.69808722 0.78536558
0.37245238 1.1166736 0.78807306
3.4134159 1.2821865 0.78363919
2.7726429 1.5422854 0.78737217
2.0064311 1.5520728 0.78922486
2.7715156 1.5953584 0.78414732
3.1648211 1.7093439 0.784953
2.4650655 1.7724917 0.78728658
0.66033065 1.8066037 0.78959763
1.6531521 1.9330282 0.78006881
2.3388243 1.9323897 0.78600794
2.7992401 0.11243276 0.79680616
2.4309661 0.13892558 0.79076689
4.0787358 0.1993749 0.79824263
0.50276917 0.68650943 0.79493612
0.38526511 0.94686371 0.7925061
3.4025097 0.94463015 0.79752988
4.6412458 1.2551236 0.79084134
0.46465021 1.3207971 0.79158723
2.7742021 1.3816735 0.79433101
0.53095287 1.4276984 0.79701376
1.2790833 1.9158193 0.79925704
1.4515655 1.9210639 0.79697227
0.67715335 0.29664034 0.80205792
4.6401539 0.74675512 0.80730814
2.1444342 0.78148264 0.80179065
0.47574824 0.85256618 0.80732608
1.7586339 0.88257825 0.80635798
0.41427022 1.1202295 0.80123687
0.43647099 1.1498492 0.80679822
3.4212136 1.391921 0.80694324
1.9926629 1.7485297 0.8021636
2.6767943 1.7708387 0.80913204
1.1867957 1.9096489 0.8087694
1.6092348 0.15302032 0.81924129
0.62012535 0.5500505 0.81074822
0.64853239 0.55499429 0.81680512
3.4243407 0.63828266 0.81569517
3.4229724 0.79748189 0.81211758
1.8427293 1.1920211 0.81297469
2.0045693 1.1940881 0.81560904
0.57757264 1.3248994 0.81969368
2.7807617 1.4195213 0.81483197
3.1316838 1.7043554 0.81080675
4.4360194 1.7361574 0.81641042
4.265254 0.26646942 0.82033563
3.0197697 0.32332379 0.82759476
2.7722697 0.40359515 0.82302487
0.66741741 0.4478392 0.82166326
0.67879844 0.57521319 0.82466686
2.0500665 0.59263015 0.82278907
1.9831533 0.65997881 0.82998466
1.608753 0.89840072 0.82329804
3.4260597 1.2180467 0.82129073
1.9855726 1.2815634 0.82388037
0.66144747 1.502475 0.82027513
0.66883934 1.5224907 0.82006651
0.68069947 1.5367348 0.82128036
3.3807688 1.7003918 0.82963389
3.440697 1.937125 0.82750469
2.2398751 0.15571994 0.83757359
3.0436137 0.15902898 0.83680308
1.1717027 0.17465606 0.83295554
0.97865003 0.2178016 0.83667815
0.82744431 0.33223757 0.83917761
1.957478 0.33661216 0.83963764
2.0261409 0.57771522 0.83440125
0.73042172 0.59648275 0.83668363
2.0843773 0.66213059 0.83773232
0.67049515 0.67104077 0.83149576
0.66951591 0.72193861 0.83711487
0.61441183 0.8355394 0.83722919
4.689075 1.0632238 0.83010304
0.54850411 1.1009881 0.83702922
2.7832577 1.6246421 0.83826649
4.3743062 1.7527808 0.83690202
3.602706 0.14595249 0.84902191
4.1024542 0.22493434 0.84031236
2.5316148 0.29520115 0.84118795
4.3714142 0.31809914 0.842466
0.83349198 0.36634511 0.8441695
4.5611677 0.47456783 0.84961146
0.79584765 0.57443833 0.84578884
2.1652148 0.60506403 0.84978342
2.7899351 0.64687389 0.84473336
1.6841949 0.89329797 0.84714252
1.5684661 0.9042688 0.84612316
0.57904339 0.94492233 0.84374678
3.4151502 1.0562553 0.84234202
0.57040095 1.1789982 0.8404938
4.6529417 1.3291466 0.84756303
1.9656636 1.3613136 0.84965217
0.7551952 1.3801914 0.84933269
1.9593191 1.6387395 0.84304667
4.4424529 1.724824 0.8424623
1.9133842 1.7413321 0.84928799
4.1896448 1.81411 0.84696555
1.0758255 1.8598151 0.84443533
1.0761698 1.8712103 0.84025121
2.0152509 0.16453655 0.85682553
4.0631704 0.21842441 0.85023057
1.1390212 0.23031579 0.8556453
1.9061148 0.29543918 0.85668838
1.8894172 0.35467294 0.85780984
0.83275723 0.57992953 0.85206681
2.16468 0.64450705 0.85032976
0.80552781 0.69728696 0.85830116
1.9518323 0.77538985 0.85227656
2.1402626 0.80028439 0.85533035
4.6625361 0.80945659 0.85131693
1.9831771 0.90948343 0.85085416
4.6778202 0.9470998 0.85099494
3.4184532 1.0217221 0.85350144
0.62647831 1.0935498 0.85401672
4.6741376 1.1286162 0.8588407
3.4376235 1.3476572 0.85583174
3.2361295 1.7029915 0.85418701
1.9003775 1.7164075 0.85387212
1.9049711 1.7328033 0.85190111
3.2969844 1.9195442 0.85531008
1.9523284 0.17622738 0.86624795
3.8970723 0.1890699 0.86728203
1.2166148 0.22442231 0.86023986
1.8459264 0.29959089 0.86976212
1.0080943 0.32902944 0.86463511
0.97297734 0.33958545 0.86121559
3.441607 0.48234406 0.86274338
1.9315795 0.78416532 0.86911952
0.70900762 0.89346707 0.86702937
0.66950989 1.0381949 0.86234093
0.6573109 1.0453107 0.86014128
0.67175931 1.0557888 0.8623935
0.70755398 1.1074609 0.86760426
0.78832006 1.276428 0.86128676
2.7982082 1.536166 0.86896849
2.7971373 1.5416667 0.86542183
1.7577081 1.8951253 0.86170971
2.0541368 1.8960353 0.86470139
3.7666044 1.8975656 0.86719859
2.206841 0.1845862 0.8780452
2.7680249 0.18862827 0.8792063
2.1885986 0.29075268 0.87391144
1.6799273 0.38189453 0.87169808
1.6255512 0.4457497 0.87491804
1.6533331 0.46471161 0.87615573
1.56633 0.49020267 0.8775202
1.6505189 0.51651078 0.87903231
0.90158886 0.75358051 0.87696964
0.73516244 0.84981328 0.87057376
0.72494543 1.0481845 0.87154633
0.96088499 1.4458725 0.87371302
1.0320748 1.4997058 0.87838751
1.0347254 1.5108957 0.87776971
1.8229053 1.5534446 0.8771441
1.6874777 1.5834544 0.87716323
1.5620153 1.6141316 0.87587166
1.6355939 1.6340859 0.8742286
1.6831183 1.6319373 0.87417829
1.1145041 1.7408756 0.87542319
3.4682438 0.15370326 0.88044399
3.0046878 0.19685641 0.88801682
1.7513025 0.20700628 0.88372099
1.5078373 0.23799169 0.88417619
1.1889659 0.32189664 0.88120204
2.7975559 0.37224126 0.88367248
1.1215429 0.48000976 0.88118619
1.676837 0.50551301 0.88049012
1.6142436 0.57474869 0.88128972
1.5516953 0.60264897 0.88258594
1.8224752 0.63627851 0.88586777
1.6960258 0.6925841 0.88676953
4.64675 0.82193232 0.88853645
1.557683 0.90907121 0.88879263
0.86887723 0.9679116 0.88982594
3.448328 1.2214561 0.88766778
1.5113195 1.2541996 0.88993025
1.6206493 1.3558605 0.88766754
2.8006587 1.3569887 0.88130695
1.0494993 1.3757193 0.88954902
1.6276468 1.3716497 0.88717705
1.0359752 1.4171588 0.88509244
1.5505967 1.4801002 0.88214707
1.1901417 1.6203784 0.88575828
3.3468795 1.6941882 0.88475877
1.2924308 1.7793891 0.88429773
1.8119234 1.8668621 0.88298005
3.0646722 1.8827161 0.88465911
3.9177442 0.2090341 0.89434183
1.5739341 0.24849795 0.89150822
1.2769413 0.51029706 0.89847744
1.1555102 0.55344743 0.89049661
1.7126929 0.81426734 0.89239037
0.95140576 0.86872065 0.89679009
1.6483108 0.91206455 0.89343536
1.6163669 0.95755714 0.8982352
1.7067242 1.0688173 0.89628726
0.9515627 1.0775876 0.89860499
1.4931643 1.0754328 0.89368856
1.6027544 1.0875626 0.89420551
1.759613 1.1559753 0.89540976
1.7911181 1.1525962 0.89602852
1.4989457 1.1682746 0.89182693
1.8104053 1.1875228 0.89568615
1.2297719 1.4877422 0.8994742
3.4512417 1.4993221 0.89650917
1.5933629 1.8187878 0.89289689
1.6538824 1.819326 0.89569938
4.0310817 1.8260794 0.89713073
2.1071928 1.858904 0.89471525
2.5435877 1.8689103 0.89369035
3.1738114 0.19160032 0.90369964
3.0584764 0.21339473 0.90819848
1.5233591 0.36184227 0.90466124
1.4498059 0.38007364 0.90150183
1.6523995 0.668136 0.90695214
2.8092794 0.69548601 0.90906769
2.9153435 0.72272593 0.90929568
1.828236 0.92940652 0.90655178
3.4334426 0.96282148 0.90083635
1.7846577 1.0090981 0.9051612
1.679427 1.0199906 0.90180331
1.7287951 1.0846827 0.90337867
1.7697231 1.1003761 0.90468466
1.8976154 1.1237296 0.90876567
1.0445001 1.209337 0.90508527
1.0535694 1.2479866 0.90025079
1.084967 1.2447362 0.90438938
2.915298 1.2947741 0.9038707
1.1452297 1.344344 0.90132046
1.2057132 1.4209824 0.90150225
1.2729357 1.4716769 0.90439552
1.3932613 1.5330154 0.90898925
1.5090573 1.7014048 0.90438789
1.4575468 1.7254564 0.90038985
1.7056444 1.7479405 0.90115964
2.0540807 0.12680203 0.91218412
1.9822669 0.1459012 0.91488379
3.3864584 0.18322179 0.91839701
3.1843109 0.21272825 0.917584
3.995033 0.24866703 0.9155823
2.7452343 0.29547229 0.9169395
4.3184052 0.35986346 0.91291076
4.3363152 0.38226092 0.91643298
1.824975 0.47240728 0.91369128
1.4340894 0.52550942 0.91164148
3.4587069 0.63332307 0.91872406
3.4581494 0.64865583 0.91705406
4.5468488 0.654805 0.91999751
1.8833382 0.73917687 0.9194513
3.4562538 0.74322283 0.91134989
1.2129339 0.93925518 0.91813362
1.1962819 1.2137132 0.91587824
3.4578977 1.3080621 0.91623998
1.2841027 1.3477954 0.91272283
1.5858054 1.3428617 0.91133678
1.2917699 1.3576146 0.91271043
1.6213853 1.4997734 0.91288173
2.0369887 1.8146523 0.9193334
2.8217366 1.8338118 0.91970056
2.9654059 1.835361 0.91866964
2.0550537 1.9862835 0.91248822
2.8010039 0.24424461 0.92707121
2.2256787 0.25799307 0.92373812
2.815341 0.46837574 0.92603499
4.559536 0.58480746 0.92665577
1.605371 0.77630436 0.92701989
1.5679671 0.79140818 0.92766023
1.5712689 0.9776243 0.92097759
1.2518342 0.99102306 0.92121822
1.3209342 1.026711 0.92563379
1.3916833 1.0733441 0.92798293
1.2788991 1.1367826 0.92190313
1.4988713 1.1477263 0.92261434
1.4308975 1.2050701 0.92748415
2.8718612 1.2612456 0.92128605
2.8517911 1.2730912 0.92987412
2.8206708 1.3332535 0.92666692
2.823699 1.4074434 0.92926317
4.1168408 1.7706645 0.92568767
