# .PCD v0.7 - Point Cloud Data file format
VERSION 0.7
FIELDS x y z
SIZE 4 4 4
TYPE F F F
COUNT 1 1 1
WIDTH 1441
HEIGHT 1
VIEWPOINT 0 0 0 1 0 0 0
POINTS 1441
DATA ascii
1.3690689 -4.7253761 -0.22160661
-0.25021377 -4.6941142 -0.22216134
0.69747454 -4.6902661 -0.22027835
0.83603895 -4.6839843 -0.22717094
1.4352888 -4.2479639 -0.22757173
-0.33468843 -3.2226381 -0.22773331
1.0776787 -2.6434984 -0.22163329
1.7343531 -2.3659 -0.22611916
-0.41688001 -2.3128622 -0.22360054
-0.28269181 -2.2724502 -0.2258117
-0.2834166 -2.2187798 -0.22850257
1.4563813 -2.1116002 -0.22660321
0.076755255 -1.9903085 -0.22818454
0.20276269 -1.9888921 -0.22763366
-0.28611943 -1.9508152 -0.225786
-0.0085652731 -1.5092423 -0.22127277
0.81199121 -1.4509948 -0.2261894
1.0349801 -1.4512882 -0.22610788
0.44382727 -4.7374763 -0.21874437
0.45896104 -4.7249918 -0.21158344
0.81892169 -4.7211485 -0.2181803
1.7600435 -4.6915417 -0.21005224
1.9632211 -3.0874257 -0.21123974
0.86480141 -2.8135908 -0.21435368
-0.39123678 -2.6456165 -0.21358161
-0.27725628 -2.3797779 -0.21665274
1.6071978 -2.1652203 -0.21718627
1.4569217 -2.0772109 -0.21288048
1.3129622 -1.9609895 -0.21661417
0.2719911 -1.567631 -0.21372442
-0.11887495 -1.4232029 -0.21758255
-0.142749 -0.6223309 -0.21315621
-0.142749 -0.58862662 -0.21532334
1.4850905 -0.11331604 -0.21589383
0.54602122 -4.7838292 -0.20778
0.50362766 -4.7796645 -0.20876512
-0.59112453 -3.686358 -0.20181604
0.85266542 -2.4028969 -0.20723198
0.94467902 -2.3344231 -0.20987031
0.85340428 -2.2356753 -0.20928022
1.4622966 -2.2017584 -0.20374092
0.85063964 -2.0304897 -0.20223397
0.14405651 -1.9387578 -0.20790343
0.11660907 -1.9210081 -0.2001214
-0.035149373 -1.8468213 -0.20501146
1.7804008 -1.6405884 -0.20015684
0.76580799 -1.6160672 -0.20394681
-0.15907298 -0.12577167 -0.20765765
0.6554563 -4.8050241 -0.19544671
-0.1128835 -4.443747 -0.19045687
1.4536133 -3.7727721 -0.19777563
0.22887468 -2.8140283 -0.19461468
-0.26947364 -2.508801 -0.19119141
1.4130491 -2.5094395 -0.19176522
-0.13010278 -1.9223845 -0.19022062
0.1109067 -1.5882019 -0.19592865
1.5420182 -1.4085873 -0.19093303
1.4662499 -1.0115781 -0.19114187
-0.064724192 0.027421247 -0.19895813
1.43853 -4.1515112 -0.18116786
1.7898169 -3.557348 -0.18281554
1.7536331 -3.5299759 -0.18819329
1.8117065 -3.1400776 -0.18087354
1.6035662 -2.3712869 -0.1862901
1.6061606 -2.1191583 -0.18603717
-0.08944954 -2.0096455 -0.18867794
0.95614713 -1.9739511 -0.18263569
0.65237623 -1.5335325 -0.18949722
-0.18980367 -2.7447345 -0.1754757
1.0392036 -2.6499333 -0.17295453
0.95996279 -2.5420499 -0.17075655
0.9415189 -2.1497476 -0.17307714
0.36901957 -1.9810461 -0.17981279
0.96012568 -1.8626598 -0.17723499
-0.45764509 -1.5316571 -0.17760698
-0.085970134 -1.4890565 -0.17756502
0.42004693 -1.4041107 -0.1740337
0.90446335 -1.4029682 -0.17276497
1.5651419 -0.24890324 -0.17697588
-0.16810098 -0.13882671 -0.17350677
1.4531087 -0.060092065 -0.17308921
1.4465286 -0.049173426 -0.17168897
1.0029699 0.11347944 -0.17131425
0.75399399 -4.8080821 -0.16448238
0.26081708 -4.3363299 -0.16293731
1.4397743 -4.1428175 -0.16070256
-0.55610019 -3.7183166 -0.16314954
1.8082371 -3.1403153 -0.16841826
1.8130822 -3.1326041 -0.16701978
1.2123035 -2.5932412 -0.1697852
0.98401374 -2.5897658 -0.16867401
-0.14479282 -2.2694471 -0.16161767
0.36453381 -1.8695893 -0.16861236
0.7166729 -1.5799757 -0.16510336
0.33774775 -1.5416417 -0.16882914
-0.19140238 -1.2517431 -0.16792397
0.55567145 0.12901428 -0.16552849
0.48964822 0.13541988 -0.1623227
0.45283961 -4.9211226 -0.15903784
1.8797865 -4.6996069 -0.15580373
-0.11556243 -4.3646469 -0.15205146
-0.11743768 -3.9893284 -0.15509143
-0.58982295 -3.6742556 -0.15607136
-0.63450426 -3.2845864 -0.15547419
-0.65186757 -3.1194525 -0.15290737
1.705184 -3.0827012 -0.15258163
1.721873 -2.8973477 -0.15230808
1.7250279 -2.828536 -0.15668231
0.44593239 -2.8134756 -0.15800655
0.076540366 -2.7825112 -0.15038072
-0.14291632 -2.4793086 -0.1555284
1.4374732 -2.4587283 -0.1538589
1.4671824 -2.3428574 -0.15116724
1.41643 -1.961585 -0.1581279
0.32036597 -1.5769382 -0.15855286
0.31925181 0.15619104 -0.15162486
0.53615707 -5.0393252 -0.14141025
0.81933594 -4.8117194 -0.14011633
1.37134 -4.7422924 -0.14424953
-0.062652312 -4.7269135 -0.14919136
-0.11839728 -3.8734784 -0.14951944
1.8898106 -3.6440578 -0.14176773
1.7122462 -3.0606019 -0.14388716
0.88464928 -2.8134518 -0.14274094
0.15805517 -2.6507521 -0.14000714
-0.027335025 -2.6043885 -0.14802147
0.91237223 -1.9126685 -0.14936048
-0.093904853 -1.8989494 -0.14866644
0.49283323 -1.417182 -0.14330693
1.0717821 -1.3756123 -0.14212531
-0.142749 -0.83387887 -0.14197128
1.372046 0.11504677 -0.14891814
0.82809675 -5.0718889 -0.13483173
0.50626451 -5.0657744 -0.13598981
-0.11593322 -4.5418048 -0.13648604
1.7198533 -3.1874366 -0.13870804
-0.62395918 -3.1243367 -0.13469854
-0.61580718 -3.1209474 -0.13804916
1.7788751 -3.1208656 -0.13883741
1.590502 -2.627789 -0.13481025
1.6006037 -2.4571435 -0.1385466
0.39268795 -2.1466703 -0.13374999
1.7740326 -2.123539 -0.13326521
-0.14000948 -2.0564432 -0.13729867
1.4258699 -2.0008903 -0.13046187
0.40620756 -1.9119906 -0.13735214
-0.280976 -1.7476398 -0.1314075
-0.022332333 -1.3540335 -0.13135685
1.3160501 -1.3589171 -0.13668352
1.4662499 -0.97423983 -0.13668454
-0.142749 -0.63938594 -0.13476104
-0.126118 -0.0025448017 -0.13323009
0.84960407 -5.1096058 -0.12131607
0.46343315 -5.0958338 -0.12821697
0.69863999 -5.0808363 -0.12953088
0.88237214 -4.9194226 -0.12380376
0.11000828 -4.8134289 -0.12866217
0.86077332 -4.6778784 -0.12312047
0.67019266 -4.3363299 -0.12979534
1.7524083 -3.3990111 -0.12912422
-0.43658024 -3.1153138 -0.12413741
-0.38516062 -3.1191814 -0.1267028
1.7852031 -3.1116092 -0.12047521
1.5990082 -2.53266 -0.12085477
0.50674438 -2.465668 -0.12088333
-0.45685476 -2.259541 -0.12068254
1.7840533 -2.0152655 -0.12268759
0.66742885 0.19350483 -0.1278757
0.39710826 0.20786954 -0.12153341
0.45831898 0.20022942 -0.12547848
0.89174426 -5.0066524 -0.11003702
0.031686883 -4.8211417 -0.11983327
1.3504906 -4.8152161 -0.11235177
-0.037629236 -4.8085737 -0.11371116
0.58845109 -4.3363299 -0.1118428
0.80969733 -4.3363299 -0.11477172
1.1352679 -4.3363299 -0.11320781
-0.019759722 -2.7603395 -0.11833582
1.5408955 -2.7544003 -0.11544234
1.7908968 -1.8002073 -0.11259512
-0.42329258 -1.77424 -0.11094207
1.7427342 -1.7132831 -0.11303699
0.82072753 -1.6677418 -0.11983182
1.7546501 -1.6328586 -0.11712117
-0.46209741 -1.4418793 -0.11948661
1.6338518 -1.4368526 -0.11670222
1.2938778 0.16795699 -0.11999956
1.2880796 0.17108095 -0.11894157
0.74689925 0.21143971 -0.11706929
-0.12393761 -4.7949681 -0.10454011
-0.28723693 -4.6649041 -0.10442699
0.5803175 -4.3363299 -0.10330406
0.9268412 -2.8134508 -0.10687909
-0.11641078 -2.6118207 -0.10204491
1.440643 -2.0667822 -0.10383242
-0.34447017 -1.8818679 -0.10225601
0.3574416 -1.3409183 -0.10384674
-0.142749 -0.74552697 -0.10639292
1.5887964 -0.29290387 -0.10327144
0.016829832 0.17071031 -0.10620138
1.279249 0.1898542 -0.10121637
0.11933822 0.21847479 -0.1020997
-0.084954999 -4.7775993 -0.093508475
1.7570596 -4.6614609 -0.092575118
1.7675489 -4.6625571 -0.097163089
0.60611749 -4.3363299 -0.095696233
1.2763277 -4.3363299 -0.093243435
1.4432181 -4.1815538 -0.09818925
-0.53305489 -3.602438 -0.099984713
-0.45268044 -3.0433655 -0.091722667
0.39740276 -2.8134179 -0.094327316
1.8153963 -2.2162585 -0.093557447
1.8101337 -2.1061182 -0.095888719
1.6568177 -2.0593557 -0.091625854
1.7639587 -2.0401378 -0.097121693
1.7901328 -2.0167236 -0.099793866
-0.29345429 -1.9951487 -0.093756437
-0.34622264 -1.9532378 -0.09813536
0.51668096 -1.759052 -0.093847126
0.81379294 -1.6801885 -0.09977065
0.74086154 -1.3281384 -0.091408275
-0.27128851 -1.2527831 -0.098174766
-0.14274901 -1.0922837 -0.095136419
1.4662499 -1.0397439 -0.094371915
0.2923995 0.25644314 -0.094481848
0.42953694 -5.0239944 -0.087712452
1.40872 -4.4563131 -0.080053911
1.4433582 -4.3310275 -0.081816539
-0.64013118 -3.2737823 -0.085148364
1.9319272 -3.0591741 -0.081061006
1.9352968 -2.9849761 -0.087063529
-0.067353636 -2.7663441 -0.088459775
-0.27303562 -2.5283048 -0.081349909
0.8088727 -2.4887681 -0.085831784
-0.44853413 -2.3645658 -0.080016039
-0.43776599 -2.2980514 -0.082837619
-0.33980536 -2.2424121 -0.083395496
1.7538941 -2.1702318 -0.089272022
0.80690926 -1.8898547 -0.080388792
0.45778996 -1.7641115 -0.084016681
1.4019061 -1.326489 -0.088217214
-0.1908233 -0.01985883 -0.083647653
1.1814383 0.24253848 -0.08201433
0.79953831 -4.8213015 -0.075924717
-0.30108806 -4.6575179 -0.074719325
-0.12886392 -4.6576228 -0.072683893
1.5612859 -4.657701 -0.074556589
1.4452658 -4.0779619 -0.072862327
-0.51622277 -3.395308 -0.072982475
1.9654553 -3.2243288 -0.077779077
1.8736844 -2.9139616 -0.073486008
0.81350315 -2.8217747 -0.070573844
1.2949716 -2.7696812 -0.078188755
0.52298689 -2.7179389 -0.076689072
0.80606323 -2.6996391 -0.07804352
-0.49526542 -2.6119306 -0.079724252
-0.54155135 -2.6038854 -0.07813096
1.7682438 -2.5812411 -0.072158322
1.7717839 -2.4618778 -0.075697973
0.52534664 -1.8416909 -0.070268415
0.85465908 -1.8019423 -0.070556991
0.68283921 -1.5544988 -0.0780444
0.1802111 0.26526687 -0.07344681
0.46970594 0.28725368 -0.075634941
0.91917682 0.28248641 -0.075248227
0.72652471 -4.7551513 -0.06282714
0.56983364 -4.7319956 -0.066767305
0.62457883 -4.7114916 -0.067476571
-0.56601465 -4.6593213 -0.066840418
-0.084954992 -4.5396004 -0.069035038
1.4453527 -4.175972 -0.062212806
-0.60513628 -3.5511506 -0.063006289
-0.53452623 -3.4668853 -0.068349451
1.856148 -3.2521935 -0.068395868
-0.28868708 -2.6969247 -0.062133599
-0.41570467 -2.64452 -0.069092482
1.5956588 -2.6245749 -0.064554423
1.6147385 -2.6217146 -0.065072171
0.52890545 -2.214726 -0.060585372
0.12887956 -1.3058569 -0.068618484
1.4518278 -1.3096871 -0.060574539
0.70590281 -0.45652044 -0.061067
0.9903267 -0.4526794 -0.061067
0.66025788 -0.41396281 -0.061067
0.4516069 -0.37933987 -0.061067
1.1263683 -0.35736036 -0.061067
0.29032984 -0.34201437 -0.061067
0.73587489 -0.30635601 -0.061067
0.26806304 -0.29120415 -0.061067
0.67727107 -0.28360969 -0.061067
0.90376747 -0.2859962 -0.061067
0.92369628 -0.28378457 -0.061067
0.69937795 -0.27530921 -0.061067
0.51300335 -0.25331596 -0.061067
1.1766932 -4.9934683 -0.057289746
1.1242026 -4.9058127 -0.054825108
-0.11304903 -4.8962049 -0.057072654
0.58532971 -4.7914476 -0.055053812
-0.58968234 -3.191637 -0.057678588
0.19777513 -2.6422925 -0.059570391
1.4442992 -2.5042534 -0.058682125
-0.33150402 -0.43343672 -0.057903606
0.88266492 -0.2097491 -0.057641793
0.46240631 -0.17773572 -0.053385574
0.42108083 -0.15462855 -0.05031345
1.04125 -5.0481768 -0.04560237
0.14826243 -4.3363299 -0.046155661
0.41456825 -2.8132911 -0.047597028
0.99278909 -2.645169 -0.049289845
0.46616668 -1.8546489 -0.04115672
-0.14274901 -0.97083461 -0.040372729
0.14580692 -0.21817838 -0.040539742
0.65911138 -0.14202246 -0.048637457
0.40704629 -0.13885361 -0.048216153
0.25755399 -0.12040615 -0.045763545
1.3543804 0.21248591 -0.0471045
0.58993083 0.33643711 -0.046676856
0.73042822 0.33942518 -0.043995105
0.80933952 0.33018368 -0.048733316
1.5823361 -4.8930616 -0.030789973
0.77100509 -4.8802691 -0.032496177
0.75839102 -4.8634501 -0.035563838
1.8224757 -4.7895517 -0.039196916
1.4471462 -4.1516619 -0.033813663
-0.12480304 -3.8774085 -0.039627872
1.9293938 -3.4264307 -0.036768321
-0.59477168 -3.0576124 -0.033640176
0.06157764 -2.6764843 -0.038505763
0.74877191 -1.9415441 -0.033174388
0.68629789 -1.5986063 -0.031876259
0.58898604 -1.5812709 -0.030856298
0.79217279 -1.49992 -0.03953702
0.41028982 -1.4557116 -0.031929512
-0.49500775 -1.3135337 -0.033718657
-0.142749 -0.61009777 -0.03802263
0.6900087 -0.025341362 -0.033124566
1.2291331 -5.0643816 -0.025102045
0.20483032 -4.9605927 -0.024036359
0.52852345 -4.8993111 -0.029769059
-0.43416089 -4.8371787 -0.025763232
0.8867932 -4.8294001 -0.021673225
1.0396957 -4.8286519 -0.026683144
0.39606017 -4.3363295 -0.020801991
-0.59030908 -3.3824441 -0.021524759
-0.35192633 -2.7259681 -0.024165234
0.3221243 -2.6868007 -0.020946177
0.98143965 -2.6827075 -0.027913202
0.46643323 -1.5558231 -0.028361326
1.1301901 -1.2683687 -0.023098769
-0.33195296 -0.31496143 -0.021226157
1.2101457 -0.059537612 -0.022997273
0.88727045 0.0035019815 -0.029289812
-0.02009818 -5.035243 -0.013450202
0.53975618 -4.9827456 -0.012898892
-0.065439597 -4.8297453 -0.019359551
1.4950323 -4.6440072 -0.018166795
1.4477341 -4.5959635 -0.010592099
1.4473813 -4.5605068 -0.016036507
-0.12490453 -4.0689597 -0.019977339
1.1841547 -2.6595006 -0.016200347
-0.12083474 -2.6242678 -0.016369788
0.6278007 -2.4983065 -0.017326999
0.60059631 -2.3475099 -0.017326999
0.70068276 -2.2140567 -0.017326999
0.72861254 -2.1257963 -0.017326999
0.71148872 -1.9276602 -0.017326999
0.59748697 -1.8358927 -0.017326999
0.62784684 -1.7703958 -0.017326999
0.55197632 -1.7491794 -0.019302838
0.63133371 -1.631611 -0.017326999
0.65265894 -1.6160043 -0.017326999
0.67898029 -1.6116445 -0.017326999
-0.21483272 -1.489746 -0.018252186
0.72329694 -1.4708179 -0.017326999
-0.2668581 -1.3842726 -0.019667791
-0.14274898 -0.84382594 -0.01777038
0.66220438 -0.55488551 -0.016878426
-0.28981075 -0.3297227 -0.01127803
1.2178417 -0.0015457943 -0.012428879
0.60901558 0.38855496 -0.016741183
1.3857679 -5.035614 -0.0055613574
0.79942268 -5.0177293 -0.0057751033
-0.1871509 -4.9668016 -0.0091290558
1.0160435 -4.8314128 -0.0081888512
1.9023643 -3.513155 -0.0083280522
-0.5855419 -3.2015173 -0.0039566522
1.8986721 -3.0691617 -0.0087573025
0.37862551 -2.8132675 -0.0072213854
0.47935587 -2.8132381 -0.0090761967
0.91475779 -2.8132572 -0.0062194886
0.74716419 -1.7471646 -0.0074705109
0.65285814 -1.5285645 -0.0026522409
1.8190641 -1.3151956 -0.007159648
1.4662499 -0.58853364 -0.0029343292
1.6478026 -0.2371345 -0.0076322891
0.64137197 0.15728104 -0.0088447081
0.75346661 0.18849105 -0.0046953037
0.83668035 -5.0634375 0.00099092931
0.99647534 -4.8328867 0.0016834438
1.40872 -4.7131209 0.007592693
1.0441961 -4.2304587 0
0.35271031 -4.1946611 0
0.73134124 -4.1994281 0
0.99345422 -4.174119 0
0.51077628 -4.1410933 0
0.83048838 -3.9931974 0
0.55817592 -3.9374216 0
1.0251195 -3.8935544 0
0.64061242 -3.860424 0
0.30975226 -3.8277538 0
0.85127372 -3.7319679 0
0.68347013 -3.6068826 0
0.16132745 -2.6674128 0.0051139407
0.67252374 -2.4130974 0.005382
0.5630039 -1.5392454 0.0016400889
1.791423 -1.353999 0.0046197427
1.6746111 -1.2444206 0.00044917874
-0.142749 -0.9739455 0.0078548677
1.5936644 -0.46085533 0.0028566942
-0.32998601 -0.42237213 0.0051405355
0.076660857 0.05605258 0.0034059938
1.0406154 0.21519828 0.00073539652
0.33236068 0.24425161 0.0029445803
0.24987386 0.35574841 0.00015949272
0.89246225 0.41534379 0.0092330314
0.8817277 -5.0921507 0.018936088
0.22296181 -5.0851064 0.01816684
-0.49309617 -4.6339717 0.017870629
0.72429276 -4.3363299 0.012857199
0.82236785 -4.3363299 0.010872446
0.9699319 -3.5202563 0.019211004
0.69451994 -2.8268669 0.015276145
0.12092286 -2.7926145 0.017911017
0.080310315 -2.6713953 0.018684475
0.71131098 -2.5197947 0.015536012
0.68390179 -1.7441168 0.010428686
1.2874669 -1.5822136 0.01890767
1.0181098 -1.5612764 0.010493686
0.32146096 -1.245142 0.016607467
-0.34344134 -0.39031041 0.015362509
0.84232438 0.31683218 0.010957313
0.62894315 0.3478438 0.016490834
0.68040979 0.37180442 0.019676426
-0.1266845 -4.3367467 0.025923476
1.0455099 -4.3363299 0.022788547
0.66478115 -4.2560806 0.028551213
-0.1286643 -3.851553 0.023972854
1.0735651 -3.5785768 0.025616564
0.59781379 -3.5203664 0.020964531
0.61686575 -2.8520989 0.029689375
1.0972562 -2.8084118 0.022930797
0.67821944 -2.6415105 0.02332703
0.64856529 -2.6135488 0.02220292
0.090910695 -0.07615573 0.024289574
-0.081805244 0.23577067 0.029260106
1.0213066 0.36308163 0.022640647
0.62677896 0.4310222 0.027429735
-0.12720515 -4.2590952 0.033599637
0.56990266 -2.8735228 0.035122156
-0.018639896 -2.7956285 0.03735923
1.2035836 -2.7958441 0.031977221
1.5221334 -2.7850208 0.034575976
0.83742762 -1.6121292 0.030929796
-0.4026055 -0.44368073 0.038082927
1.4394494 0.17609394 0.035744581
0.14009595 0.31155163 0.030191034
0.47437614 -5.1230688 0.042196464
1.0735008 -4.8394194 0.045447238
-0.076640241 -2.7109666 0.044494867
0.279311 -2.7125268 0.049378544
-0.13032086 -2.5607109 0.04738038
0.68854064 -1.7375276 0.049126089
-0.1103396 -1.6493367 0.045882307
1.4662499 -0.94319141 0.04684573
-0.354864 -0.4432357 0.04085245
0.011520887 0.23933494 0.048745856
0.89560938 -5.1292887 0.051175337
-0.34588888 -5.0262904 0.05425242
-0.084954999 -4.4663954 0.054552183
-0.53708869 -3.7659523 0.053101644
-0.1292101 -2.7925377 0.050277703
0.12574393 -1.6807489 0.058505915
0.02632034 -1.6778572 0.057343818
0.072341882 -1.6698226 0.054114986
1.5164357 -1.2686788 0.052739546
0.50748408 -1.2397457 0.052860223
1.4662499 -0.74464715 0.051501088
0.66121244 -0.57378608 0.053753927
1.5259684 -4.6245427 0.060197853
0.50424391 -4.3363299 0.069529295
0.25021219 -4.1090031 0.061498974
1.0833088 -3.8459797 0.061711431
0.24650037 -3.7101035 0.064432465
0.9567216 -3.4673223 0.060279917
1.875568 -3.2466359 0.068287097
-0.35586247 -2.7479453 0.067205161
0.19031651 -1.9692103 0.065424867
1.3860543 -1.2609985 0.063256904
-0.31985641 -0.063295126 0.061362658
-0.012406908 0.21392523 0.061771788
1.1880629 -5.0694628 0.075120665
-0.42477217 -5.0166578 0.077050671
-0.17179702 -4.9964852 0.075056821
1.8479626 -4.8772507 0.07862892
1.8636545 -4.6130486 0.072461426
0.66438675 -4.2738237 0.079979554
-0.13140139 -3.9485898 0.079846293
1.6287713 -1.5836322 0.074033245
0.92839277 -1.2367257 0.07513693
-0.15063448 -1.2087345 0.079126962
1.0992215 -0.5410046 0.077892929
1.8001672 -0.45593464 0.077046081
1.7192512 -0.24729639 0.074060708
0.39275199 -5.1552706 0.081187658
1.3797076 -5.0697556 0.083703279
1.4379187 -5.0477133 0.080258466
1.7639827 -4.6165752 0.087690555
-0.13024145 -4.6057053 0.080593526
-0.13067286 -4.5680213 0.08702834
1.454618 -4.0612698 0.085499689
0.2429838 -3.9996326 0.085707575
1.9212865 -3.6910119 0.087017253
1.8945031 -3.4421191 0.088434249
0.55455607 -3.4382288 0.084803678
0.93298399 -1.6916163 0.086244866
-0.29841706 -1.4487996 0.085280947
-0.15682413 -1.2087266 0.085119233
1.2474321 -0.049728733 0.085847795
0.84556198 -5.1794248 0.097012997
-0.13312505 -5.0479536 0.093474254
1.1698134 -4.9479456 0.091399357
-0.084954999 -4.8406839 0.091244437
0.032385129 -4.8468733 0.095383786
1.1840701 -4.8463449 0.091844037
1.3082218 -4.8469062 0.095602885
0.47183406 -4.280354 0.098908104
-0.59319532 -3.6502986 0.095027722
1.8559952 -2.9892788 0.092932671
-0.26608455 -2.7716293 0.097451828
-0.10135613 -2.6037121 0.090501629
0.40167069 -2.5897496 0.097030714
0.83815831 -1.7980089 0.094326749
0.068485811 -1.2436349 0.09853559
0.7159884 -0.58417296 0.092569992
0.38649341 -5.1708083 0.10015111
1.5824027 -5.072278 0.10125624
1.692584 -4.9942956 0.10619416
-0.043306973 -4.9340882 0.1096599
-0.18426958 -4.9248853 0.103916
1.8362801 -4.9033494 0.10284208
0.42238241 -4.8478847 0.10215871
1.0942485 -4.2263618 0.10223729
-0.13262738 -4.0012112 0.10572965
1.0961019 -3.9780393 0.10910269
0.23546469 -3.7191319 0.10626945
-0.59143275 -3.6347954 0.10591471
0.97769833 -3.4083009 0.1060798
0.13538235 -1.9600363 0.10020855
0.65196073 -1.7281609 0.10396874
0.22959423 -1.6944265 0.1015721
0.85007679 -1.6954013 0.10688765
-0.2871896 -1.3885772 0.10245648
-0.142749 -1.1910204 0.10232023
-0.3600052 -1.1825589 0.10742064
1.6347665 -0.076657377 0.10289831
1.2362943 -5.1017065 0.11364684
1.5009358 -4.9119263 0.11059061
1.644452 -4.8893204 0.11356721
0.28892189 -4.8492031 0.11098881
1.8916881 -4.584713 0.1126499
1.0980998 -4.093905 0.11650397
-0.13367878 -3.9212189 0.11622442
-0.43689218 -2.7903321 0.11827499
0.082343951 -1.2397146 0.11768188
0.73899418 -5.1896663 0.12769741
-0.41508389 -5.0286074 0.12211109
0.29914308 -4.8513241 0.12519789
1.0088644 -4.8510122 0.1231101
1.6940056 -4.6090193 0.12064707
1.4565282 -4.5993223 0.12272058
-0.49967301 -4.5746508 0.12609334
0.94695991 -4.3363299 0.12053899
0.23012432 -3.8313317 0.12950327
0.23528364 -3.5316834 0.12190638
-0.18703185 -2.8025627 0.12289074
1.0401778 -2.6978021 0.12479285
-0.11905599 -2.597609 0.12705812
0.72595453 -1.6981868 0.12207925
1.1429446 -1.6986655 0.12469025
-0.30056822 -1.4772712 0.12710859
-0.29763693 -1.4586955 0.12223982
1.1793501 -0.29556721 0.1239369
0.20908025 -5.1742687 0.13558803
1.5556431 -4.8839464 0.13628793
0.73275036 -4.3363299 0.13559824
1.1022161 -4.1917663 0.13175228
-0.54288739 -3.1409743 0.13977379
0.96580082 -2.6492743 0.13864374
0.61811095 -1.7135797 0.13898924
0.84359074 -1.6959739 0.1347058
0.63930535 -1.4135799 0.13684548
-0.28401098 -1.3305638 0.13297443
1.4662499 -1.0605763 0.13672104
1.4662499 -0.95879447 0.13697174
0.72599751 -0.596385 0.13820708
1.6889399 -0.5360254 0.13821544
1.7093264 -0.53614962 0.13912463
1.4043746 0.0066910964 0.13532974
1.3083864 0.088034652 0.13379507
0.23693612 -4.8535929 0.14039725
1.6926527 -4.6008558 0.14442229
1.8557665 -4.5634179 0.14121638
-0.13434933 -4.5577431 0.14273198
0.22867538 -4.1525578 0.14386505
-0.53552264 -3.8470454 0.14038149
0.60528594 -3.3640428 0.14201885
-0.25915858 -2.8136168 0.141317
1.0674098 -2.8137994 0.14925683
-0.10563646 -1.6998358 0.14043665
0.30641365 -1.6933203 0.14436823
1.3841604 -1.6931795 0.14487109
-0.30464724 -1.5131871 0.14633876
1.317111 -1.2420936 0.14818878
1.8260524 -1.2406133 0.14593814
-0.35590205 -0.53683656 0.14096904
1.4831638 -0.51876342 0.14895813
-0.12503202 -5.0465369 0.15972014
0.20431578 -5.0279369 0.15661898
-0.31593448 -4.9981117 0.15821706
-0.089923672 -4.9507937 0.15119286
1.3740513 -4.85639 0.15913552
1.6988902 -4.5973711 0.15167011
1.1072654 -4.1708312 0.15045677
0.22203118 -3.7312112 0.15722689
-0.20856357 -2.813374 0.15024139
1.649058 -2.7838731 0.15427905
1.6175625 -1.448902 0.15324947
0.76468933 -1.3860153 0.15913828
0.043229885 -1.2383106 0.15190351
-0.28039497 -1.1648867 0.15899086
0.4767046 -0.60051626 0.15364572
-0.0037474521 0.013720043 0.15889415
1.1640491 -5.1285524 0.16319868
0.043905806 -5.0902176 0.1623655
1.6694069 -4.8917689 0.16535991
-0.53026891 -4.8562579 0.16881977
-0.084954999 -4.6252151 0.16522422
1.1660703 -4.3363299 0.16171896
1.1099145 -3.9353433 0.16027069
0.46954578 -3.3331239 0.16663995
0.79264295 -3.3388643 0.16059694
0.89811456 -3.3305638 0.1666526
-0.093020111 -2.8140986 0.16290826
-0.040333614 -1.6878386 0.16395171
-0.20335603 -1.677433 0.16949615
0.88181448 -1.4352114 0.16966179
0.012930917 0.00044636987 0.16853949
0.17303011 -5.1102905 0.17969941
-0.25656787 -5.0134821 0.17885606
-0.13666929 -4.0225286 0.17640945
1.114584 -3.7261133 0.17756808
1.1640558 -2.8162565 0.17949414
1.7986645 -2.8094645 0.17356339
0.29870892 -2.7367754 0.17431852
1.4273081 -1.6818405 0.17499685
1.4826955 -1.6780889 0.17133978
0.6113888 -1.3193126 0.17393471
1.5189017 -0.53522241 0.17675889
-0.077234916 -5.0600872 0.18691951
1.1718152 -4.9742007 0.18015814
1.5501057 -4.8908587 0.18485525
1.6963868 -4.8898306 0.18505481
0.43315941 -4.8595958 0.18061012
1.4611822 -3.893054 0.18201493
1.1169782 -3.8396854 0.18643753
1.8458674 -2.895803 0.18336046
0.069960587 -2.7111256 0.18768269
0.8408137 -1.7080764 0.18729077
0.61129969 -1.2206933 0.1859369
-0.26815122 -1.1428485 0.18255499
1.4662499 -1.0920018 0.18036449
0.19212124 -5.1883125 0.19046533
1.40872 -4.6903381 0.19853634
-0.33267727 -4.5846443 0.19396421
1.4612231 -4.4198809 0.19341031
0.61250198 -4.3363295 0.19133084
-0.13813399 -4.1835794 0.19906181
1.9286664 -3.9221148 0.19315457
1.9129014 -3.6738079 0.19540679
0.3009015 -3.3102376 0.19297168
-0.55101341 -3.2675121 0.19352783
0.86551452 -2.816879 0.19856431
0.67263937 -1.6764663 0.19446063
1.7931101 -1.2214218 0.19504791
-0.37732911 -0.62128538 0.19777347
0.51834458 -5.0688033 0.20833197
-0.27242699 -5.0106282 0.20628709
-0.27781588 -5.0093246 0.20818833
-0.084954992 -4.7703428 0.20331036
0.81005102 -3.2828023 0.20393743
0.83963728 -3.2776971 0.20784649
-0.5249052 -2.9461744 0.20556903
-0.48406899 -2.8178737 0.20542136
-0.086169131 -2.6216352 0.20305419
1.0504785 -1.6711709 0.20580727
1.5750184 -1.6713403 0.20544429
0.26569119 -1.217978 0.20945165
0.42171007 -1.2183747 0.20432682
-0.29414576 -0.61076713 0.20266545
1.1667062 -0.38543582 0.20228988
0.0083153136 -0.10334843 0.20414418
1.1415621 -5.1483049 0.21376826
1.3892353 -5.0648527 0.21267685
1.2441874 -4.9439683 0.21249264
1.3504399 -4.9492407 0.21555319
1.9335277 -3.8942385 0.21354276
0.23961978 -3.3484592 0.2160702
0.95017701 -3.2726979 0.21174188
-0.54426473 -3.1860652 0.21184012
0.35724276 -2.7394814 0.21134804
1.059382 -2.7169709 0.21700323
0.20641631 -1.8869966 0.21328965
-0.14322039 -1.2459733 0.21636112
-0.23722088 -0.95192993 0.21061555
-0.24002863 -0.91100854 0.21139592
1.5746198 -0.8960799 0.21445057
0.65355819 -0.6175229 0.21720013
-0.066524051 -0.16835347 0.21628703
1.3484769 -0.16243136 0.21976325
0.11040571 -5.1216917 0.22890589
0.79715306 -4.8666816 0.22808033
-0.14017743 -4.1017671 0.22981066
0.043445565 -1.9118752 0.22922935
1.6130648 -1.451611 0.22622246
0.26845339 -1.3560927 0.22912073
1.729721 -0.67234254 0.22181194
0.2025913 -0.52879006 0.22114688
-0.0058297273 -0.17490178 0.22816822
-0.053846911 -5.0728207 0.23700389
0.90751648 -5.05584 0.23422968
1.4634928 -4.9337873 0.2372081
1.8084004 -4.9333653 0.2398158
0.39743501 -4.8578091 0.234969
-0.52928698 -4.8243051 0.23975404
1.1166523 -4.8151622 0.234969
-0.029449802 -4.7942228 0.234969
0.18259209 -4.7992377 0.234969
0.74135703 -4.7821684 0.23496902
-0.015719779 -4.772306 0.234969
0.65571105 -4.7701035 0.23496899
0.72366899 -4.7676244 0.23496902
1.3650421 -4.760015 0.234969
0.71753609 -4.7567396 0.23496899
0.83068085 -4.7513442 0.23496899
1.404554 -4.7552958 0.234969
0.15113261 -4.740376 0.23496902
0.81329733 -4.742177 0.23496902
1.8847067 -4.7336779 0.23108599
0.2985926 -4.6867547 0.23496899
0.62472963 -4.6892018 0.234969
1.0668747 -4.6517434 0.234969
0.80639416 -4.6402588 0.23496902
0.9674449 -4.6200428 0.234969
0.35074094 -4.5202794 0.23496899
-0.45450366 -4.5113473 0.23723011
0.24729738 -4.4799767 0.234969
0.28868616 -4.4740067 0.23496902
1.8969135 -4.4607148 0.23506418
1.9018873 -4.4635553 0.2335248
1.9134868 -4.4593019 0.23749463
0.22201905 -4.4172387 0.23496899
0.86552215 -4.3998041 0.234969
0.4129917 -4.3662186 0.23496899
0.44929707 -4.3518181 0.23496899
0.048788238 -4.3495827 0.234969
1.2122806 -4.337513 0.234969
1.1294829 -4.167573 0.23276034
-0.14065009 -3.9606779 0.23658293
-0.58138841 -3.6613703 0.23911503
-0.53212047 -3.0504682 0.23177275
0.10865641 -1.8938791 0.23932573
0.83405185 -1.7007436 0.23308554
0.29680139 -1.6572497 0.23563738
1.622508 -1.5093856 0.2324089
0.01813253 -1.2294482 0.23032874
1.6798359 -1.2138066 0.23133536
1.8197801 -1.1241312 0.23999739
-0.5015434 -0.98526895 0.23124254
-0.49348086 -0.98622555 0.23012842
1.6821432 -0.98062038 0.23396452
-0.3160615 -0.76623183 0.23234636
-0.32531059 -0.71083963 0.23044886
0.60524839 -0.62221229 0.23472464
0.76536602 -0.62353516 0.2396684
1.7023382 -0.37661693 0.23039016
1.4646262 -4.5761089 0.2454091
1.4915061 -4.5796919 0.2422802
-0.31943426 -4.5466671 0.24319327
-0.3595252 -4.526979 0.24848944
-0.50030756 -2.8288424 0.24588236
-1.1972152e-05 -2.7227149 0.2463747
0.39939383 -2.6478393 0.24010919
-0.19100589 -1.6731741 0.24138537
0.20779552 -1.6544523 0.24163154
0.23844321 -1.6522462 0.24635881
0.6100657 -1.6526814 0.24542606
1.0993878 -1.3255377 0.24724427
0.072638839 -1.2226787 0.2445305
1.2040812 -1.2188321 0.24275142
0.812567 -1.1413401 0.24700412
0.65531349 -1.1391435 0.24319638
1.9333907 -4.4761276 0.25436613
1.1372924 -4.2267122 0.25458798
-0.56098944 -3.4028635 0.25463623
0.24400857 -3.3731863 0.2515339
1.8618343 -3.13027 0.25998902
-0.10714277 -2.6893501 0.25168377
0.14315946 -1.6503128 0.25050175
1.610394 -1.4488649 0.25832468
0.23786779 -1.2877262 0.25531012
0.40764314 -0.63405418 0.25397992
0.46245816 -0.63208866 0.25942835
1.3323953 -0.23333484 0.25390512
1.1875136 -4.9607992 0.26128367
-0.60885346 -4.5180869 0.2684086
-0.32556376 -4.5115027 0.26388225
1.4765545 -4.4967055 0.26874092
-0.50210631 -4.4459238 0.26289168
1.466148 -4.3578863 0.2679005
-0.14797516 -3.9043415 0.26847067
0.26786202 -3.2244542 0.26982921
1.869512 -3.2230458 0.26591337
1.1549065 -2.7511735 0.26502395
0.32977992 -2.7058249 0.26529992
-0.041017532 -1.8739359 0.26970348
0.042995978 -1.8547176 0.26946828
0.14692239 -1.6760194 0.26917833
-0.034408584 -1.4457246 0.26717979
-0.35334018 -1.1607702 0.26824236
0.83142817 -0.63056302 0.26041722
1.5312809 -0.33021525 0.26310316
0.45538348 -5.0334029 0.27536523
0.56267428 -5.0353913 0.2717191
-0.38118359 -4.9334273 0.27969006
-0.23338784 -4.464396 0.27293012
1.6441404 -4.4397902 0.2774795
-0.35685527 -4.3868675 0.27936789
-0.61018115 -4.3750038 0.27332601
1.0968747 -4.3007102 0.27376914
-0.17959987 -4.2574902 0.27012324
1.8703315 -4.0916438 0.27922082
-0.3397724 -4.0787387 0.27847409
1.8141607 -4.0636778 0.27775532
-0.20011589 -3.9686179 0.27119032
1.1405443 -3.9296479 0.27373651
0.19852538 -1.8989379 0.27690041
0.12653321 -1.7569289 0.27761924
0.16810924 -1.7048597 0.27218711
-0.078412265 -1.6403968 0.27174923
-0.05031696 -1.6370904 0.27883404
1.162742 -1.2112416 0.27094376
-0.21309562 -1.2056671 0.2799657
0.82364285 -1.0630265 0.27703878
0.17472127 -0.48156053 0.27890563
1.1994805 -0.31768227 0.27642894
0.57544613 -5.026372 0.2882548
0.13697846 -5.0087142 0.28727621
1.9082904 -4.3212781 0.28661069
-0.49884593 -4.249547 0.28677097
-0.40801689 -4.2245188 0.28203428
1.7876859 -4.2135625 0.28496289
1.8253886 -4.2145314 0.28692901
1.7992439 -4.1909623 0.28556544
0.1897904 -4.0174894 0.28665608
-0.59973198 -3.9270334 0.28906205
0.3096852 -1.6454771 0.28777307
0.54422313 -1.6471747 0.28842375
1.4765249 -1.236475 0.28706118
0.32469949 -1.2068639 0.28740603
-0.61023712 -4.1695175 0.29534346
-0.6078887 -3.9848788 0.29084849
-0.5756582 -3.7158546 0.29412618
-0.55531228 -3.4611082 0.29074469
0.89599323 -3.1633694 0.29693064
-0.27030361 -2.8177342 0.29809138
0.078781359 -1.6358027 0.29321748
0.26784277 -1.6393273 0.29982397
-0.27638608 -1.6278495 0.29744339
0.60992146 -1.2047012 0.29851878
1.6569697 -0.46356115 0.2944335
1.4369651 -0.37961265 0.29955941
0.17048508 -5.1543293 0.30893505
0.18616764 -3.6395864 0.30839461
0.74872935 -3.1474226 0.30935651
-0.51675916 -3.1350274 0.30844623
1.5468895 -2.8138905 0.30602372
1.0443455 -2.7588453 0.3080616
0.16693933 -2.7329514 0.30347106
0.95522279 -2.726213 0.30531633
-0.13744988 -2.5595345 0.30188546
1.1735816 -1.6195123 0.30389237
1.5818671 -1.1336511 0.30004698
0.035836812 -0.56019938 0.3099542
1.1031461 -5.2137737 0.31193203
1.2941129 -5.0958376 0.31540996
1.3353336 -5.0882549 0.31554514
-0.18530503 -5.0572114 0.31319615
1.0916775 -5.0575619 0.31422749
1.8687325 -3.4799118 0.31298584
0.48600584 -3.1425171 0.31349283
-0.40692025 -2.8400049 0.31793368
0.29582575 -1.8555855 0.31138512
0.60831535 -1.6075054 0.31316608
-0.24240652 -1.2636616 0.31525326
0.67307019 -0.64421362 0.3169446
1.3176744 -5.0914869 0.32004616
1.0901098 -4.9873452 0.32887802
1.455766 -4.9470181 0.32587466
-0.029957647 -2.727968 0.32720411
0.23068313 -1.6283548 0.3270964
-0.25003028 -1.5970762 0.3212474
0.77258533 -1.5923804 0.32652888
1.1242898 -1.5891874 0.32732862
1.6026002 -1.4626034 0.32716519
1.5442756 -1.3797448 0.32475486
1.0685062 -1.202003 0.32291356
0.81792819 -0.93661588 0.32446405
1.7862446 -0.79211724 0.32587987
0.3979919 -0.65665996 0.32143432
1.4549131 -0.58870763 0.32942095
-0.12613904 -0.43502921 0.32097667
0.017296894 -0.43364364 0.32323593
1.679854 -5.0403595 0.33961913
-0.42649853 -5.0012937 0.33447459
-0.60442239 -4.4455013 0.33131707
1.1565411 -4.0079956 0.3329961
0.44917959 -2.8202953 0.33740091
0.75219071 -2.8221571 0.33375645
-0.26648337 -2.8180971 0.33905008
0.0025113323 -1.6267561 0.33341938
0.5033139 -1.5636587 0.33896321
1.6031076 -1.5650486 0.33839774
0.051113356 -1.1564337 0.33262751
1.5834574 -1.1111506 0.33401984
0.40021938 -0.91873264 0.3374792
0.67318362 -0.89378476 0.33867025
1.6588435 -0.7446022 0.33370262
-0.36621919 -5.0605059 0.34776121
0.85272211 -4.9826918 0.34636986
0.9896304 -4.9571557 0.34602004
1.2955887 -4.9547758 0.34621465
1.8394613 -3.3498893 0.34500688
-0.48070285 -2.951658 0.34945554
0.31002736 -2.7252648 0.34912753
0.44221368 -1.5522568 0.34365872
1.4539239 -1.5485772 0.34517467
1.6258214 -1.5252657 0.34863439
-0.15775308 -1.2695822 0.3434304
0.076019414 -1.0917028 0.34605387
-0.14040099 -0.73718685 0.34764305
0.0034436267 -0.66673666 0.34343687
1.6960645 -0.66013557 0.34467119
0.79230887 -0.65305942 0.34018102
-0.044699535 -0.49630114 0.34336475
0.35950112 -5.1023579 0.35607302
0.81997657 -5.055212 0.35607296
0.86478561 -5.0590005 0.35607299
0.24103633 -5.0169678 0.35820657
1.9214895 -4.3830929 0.35554129
-0.1896262 -3.75722 0.35753495
-0.27129471 -3.7267478 0.35449138
0.506585 -3.10783 0.35175705
0.99205303 -2.6914792 0.35923475
1.4596145 -2.5668368 0.35743725
1.3126756 -1.5173392 0.35667387
1.2326022 -0.66302633 0.3529875
-0.23133503 -0.57166004 0.3541159
-0.39632249 -5.0418839 0.36804152
-0.49417412 -4.7378464 0.36554226
0.5837515 -4.3735723 0.36909971
1.161831 -2.8198934 0.36514819
0.32336697 -1.4716921 0.36588791
-0.18579005 -1.2250172 0.3606708
1.2122252 -0.98319733 0.36987489
1.6929274 -0.9026888 0.36485755
-0.37753552 -0.84069836 0.36645037
-0.064954467 -0.75111562 0.36413118
1.3707073 -0.73845476 0.36368364
0.27486587 -5.1704206 0.37350261
0.51588142 -4.9850221 0.37451366
0.16578144 -3.92486 0.37456429
0.17356177 -3.5998201 0.37463766
1.150444 -3.5800917 0.37007383
0.48258913 -2.8216338 0.37003019
0.56236213 -1.3978546 0.37713903
0.043754645 -1.0085231 0.37687331
0.20984447 -0.87475008 0.37823156
1.2027464 -0.81060195 0.37860101
1.2235417 -0.81165355 0.37775502
0.13089883 -0.80493712 0.37706795
0.38752404 -0.80963826 0.37914369
1.2318022 -0.77864951 0.37639049
1.1258222 -0.64122599 0.37520435
0.19982943 -5.019753 0.38906384
1.3991625 -4.9468036 0.38797748
1.8378916 -4.5710874 0.38155234
0.42938077 -4.3570566 0.38755724
1.1584071 -3.6457639 0.38738862
0.17159911 -1.286675 0.38310611
0.4122459 -1.281491 0.38319388
0.65938479 -1.2467303 0.38317347
1.2119248 -1.2408361 0.38319719
-0.042680725 -1.2325526 0.38321707
0.99211341 -1.2137624 0.38332441
-0.21319044 -1.2041566 0.38325807
1.3765919 -1.2000751 0.38327873
1.4614191 -1.1978321 0.38326639
-0.070027672 -1.185825 0.38335937
0.33818659 -1.1710961 0.38334233
-0.044253223 -1.1513671 0.3834779
0.93758154 -1.1538012 0.38338479
-0.10795137 -1.1065434 0.38360336
0.65735781 -1.103019 0.38334581
0.41037077 -1.0925138 0.38338104
1.0596862 -1.0636799 0.38351631
1.5735842 -1.0646815 0.3889921
0.017411865 -1.0597652 0.38363671
0.54810536 -1.0555677 0.38340455
0.099937804 -1.0420833 0.38360107
-0.049169574 -1.0040466 0.383726
0.47366852 -1.0079669 0.38346508
0.6825583 -0.97543383 0.38350365
0.49087673 -0.9577654 0.38352549
1.5667701 -0.95122397 0.38139886
0.18397212 -0.93719614 0.38365015
0.6513238 -0.93160868 0.38355789
0.30997881 -0.92384374 0.38360047
0.90250957 -0.88628244 0.38362205
1.0066153 -0.87333423 0.38365245
1.0879735 -0.83470273 0.38372272
1.2542521 -0.79149443 0.38180846
0.73590833 -0.78752083 0.38104501
0.85492885 -0.77480644 0.38799983
-0.38465154 -5.0467567 0.39168599
1.7171731 -5.0181465 0.39359537
1.3619505 -4.9542708 0.39588594
1.7415345 -4.935813 0.39918435
1.554883 -4.9196072 0.39194775
1.8659265 -4.4242063 0.39022297
0.50888532 -4.3730268 0.39028966
1.8699169 -4.0039353 0.39986333
0.89708966 -3.10783 0.39283177
1.0691783 -2.815305 0.39479339
0.14322335 -2.7744527 0.3903304
-0.068748124 -2.6712215 0.39758182
-0.085807472 -1.6018831 0.39969388
1.5101671 -1.0262382 0.39874336
0.13950813 -0.84227806 0.39189598
0.47357422 -0.80793452 0.39499587
0.7336145 -0.79283571 0.39209291
0.18997416 -5.0416985 0.40774387
1.5412396 -4.9239817 0.40330625
-0.30250844 -3.7515197 0.40444171
1.4754317 -3.7178016 0.40293312
1.3846391 -3.7022173 0.40504497
0.23495741 -3.2985137 0.40779769
0.77289605 -2.8245664 0.40936086
0.29128656 -2.7764421 0.40096039
-0.061926357 -1.6113577 0.4065612
0.0026441016 -1.6126481 0.40099254
0.17960072 -5.0498424 0.41454953
0.48627269 -4.3731656 0.41271278
1.1790553 -3.9361157 0.41639853
-0.47751999 -3.4001975 0.41803029
1.6032563 -3.1379728 0.41971707
1.3519456 -2.7792256 0.41610017
0.04017283 -1.8310518 0.41927099
0.14603887 -1.8157061 0.41820586
-0.046292473 -1.5248266 0.41564924
0.18069479 -0.89023548 0.41486818
0.43879876 -0.85826361 0.41200387
0.74733657 -4.3933091 0.42630577
1.1824977 -4.0316505 0.42915058
1.3235239 -3.6767375 0.42447129
0.20869486 -3.4894207 0.42459893
1.6229633 -3.1966729 0.42429587
-0.2423369 -3.1685984 0.42992887
-0.44586498 -2.9835329 0.42012668
1.6323363 -2.8582673 0.42474863
-0.30004284 -2.8320303 0.42002395
1.5676413 -2.8270772 0.42023128
0.12987977 -5.1937256 0.43013495
-0.40892342 -4.859755 0.43087214
0.31541216 -4.3436999 0.430264
1.8311236 -4.2438068 0.43968415
1.1837361 -3.9760439 0.43373802
1.331881 -3.6622066 0.43004137
0.19881177 -3.5058494 0.43329266
0.65099853 -2.825959 0.43108463
0.53928292 -5.0754724 0.44727123
0.88130605 -5.0672374 0.44177336
-0.1973068 -5.0589485 0.44406062
1.6632671 -3.0962069 0.44373232
1.5342537 -2.9812877 0.44510168
-0.35587883 -2.9011476 0.4439393
1.6890877 -2.83814 0.44774219
0.026542334 -1.5549364 0.44270939
0.21091861 -1.5449104 0.44117633
-0.35318929 -5.0551515 0.45083857
1.583469 -4.993217 0.45252013
1.702666 -4.8998771 0.45327803
-0.48723269 -4.2088022 0.45708033
1.8183281 -3.9712167 0.45178241
1.647838 -3.7715068 0.45029941
-0.47732219 -3.7574048 0.45313349
-0.30607456 -3.5627317 0.45985633
1.6276654 -3.5049071 0.45386297
-0.21230967 -3.1845605 0.45730779
1.6866963 -2.9812429 0.45382273
-0.42273653 -2.977967 0.45212951
-0.36000234 -2.9790988 0.45101073
-0.18529688 -2.8777652 0.45221695
-0.37454197 -2.855895 0.45564198
0.1246555 -1.6030988 0.45754069
0.097889513 -1.5600147 0.45105028
1.1764898 -5.1794748 0.46798289
-0.089995645 -5.0931005 0.46663678
1.1461271 -5.0267158 0.46418023
1.4719516 -4.9692187 0.4607453
1.7726784 -4.4510207 0.46154094
0.12728499 -4.3427715 0.46487883
-0.48585653 -4.0567188 0.46079504
1.6548482 -3.7286098 0.46127605
1.1690727 -3.550343 0.46325189
1.6490073 -3.4505103 0.46020097
-0.28684354 -3.3967891 0.46317565
-0.35068542 -3.31213 0.4648487
1.7204465 -2.9938359 0.46353793
1.4459964 -2.9536841 0.46676272
0.33426613 -2.7536654 0.46544158
1.5315734 -1.2266829 0.46063533
0.141343 -5.1790762 0.47245631
1.3201934 -5.1532578 0.4722122
-0.057742894 -5.09338 0.4735606
0.90009934 -5.0602775 0.47144857
1.4110048 -5.0668964 0.47255915
0.067580879 -4.9956875 0.47883976
0.61019182 -4.4100924 0.47529951
0.14086299 -3.7642622 0.4726966
-0.23891225 -3.747051 0.47851571
1.5886583 -3.5243399 0.47849938
1.6039968 -3.3027709 0.47187352
0.66676426 -3.0968993 0.47723526
1.3881532 -2.7698722 0.4742153
-0.20314208 -5.0883055 0.48389971
0.50034368 -5.0802746 0.48169178
1.5615041 -5.0608811 0.48244116
0.090218849 -5.0219479 0.48061347
-0.024802892 -4.9808512 0.48048246
1.5421021 -4.924901 0.4883967
1.7797163 -4.1338444 0.48481423
0.13075975 -4.1256642 0.4839766
-0.31126711 -3.7471027 0.48157752
-0.016971402 -3.653501 0.48322883
-0.27043134 -3.2589891 0.48506841
1.417402 -3.0863552 0.48435056
-0.053608377 -2.8973656 0.48316768
1.304482 -2.7562222 0.48195654
0.6236763 -5.0924978 0.49850827
1.0888014 -5.052352 0.49256092
1.1086463 -5.0451097 0.49667242
0.064426228 -5.0194368 0.49810308
1.2610503 -5.0043178 0.49997741
-0.059088584 -4.9952869 0.4933047
-0.38759452 -4.5220709 0.49611035
1.7564335 -4.2290449 0.49702775
1.2004558 -4.0301256 0.49567491
0.10485749 -5.1332088 0.50970197
0.47864223 -5.1363792 0.50230265
0.19276227 -5.0316844 0.50996411
1.573808 -4.5896907 0.50496107
1.6958942 -4.4588389 0.50265497
-0.3950251 -4.4463844 0.50172842
1.669548 -3.693625 0.50034136
-0.41890538 -3.6449993 0.50075442
-0.39696187 -3.4375544 0.50372177
1.1608551 -2.8200912 0.50694722
0.76158637 -2.80093 0.50535053
0.31850666 -2.7872548 0.50835681
1.483855 -1.4851978 0.50503093
0.028739104 -5.1451488 0.51154906
0.32429639 -5.0991755 0.51561379
1.1734768 -4.8623676 0.51428396
1.4018769 -4.7143641 0.5163036
1.4613876 -4.6444764 0.5129534
-0.11043543 -4.6186934 0.51666033
0.7228663 -4.4164696 0.51471269
1.5649269 -4.4156427 0.514521
1.5884248 -4.3957353 0.51351422
1.1958859 -4.3522205 0.5118618
-0.3317422 -4.0071778 0.5186246
1.6994675 -3.941385 0.5168708
1.5490501 -3.6187479 0.51735711
0.77936482 -3.0797231 0.51636708
-0.031849615 -3.0250063 0.51087677
1.3714479 -2.7787642 0.51305491
0.84978318 -5.0863719 0.524423
0.72239006 -5.0776711 0.52864075
0.33230639 -5.0062137 0.52315414
-0.0077600023 -4.8170443 0.52604729
1.0287784 -4.7220368 0.52806205
-0.096163005 -4.5617299 0.52560043
1.1050508 -4.4875412 0.5247215
0.27673465 -4.4138699 0.52993262
0.42642289 -4.3837819 0.52108514
-0.26945582 -3.9790883 0.52994925
-0.21402299 -3.6256313 0.52482975
-0.23442209 -3.1784952 0.52979642
-0.015888907 -2.8000381 0.52941728
1.2645606 -2.8013706 0.52117914
0.65106165 -5.0457067 0.53148568
0.88312238 -4.9816189 0.53001106
0.55498046 -4.9086752 0.53035176
0.87093467 -4.9038744 0.53290313
0.49193206 -4.798111 0.53831625
0.96968555 -4.7324615 0.53394496
0.39895529 -4.6868324 0.5384413
0.83117419 -4.6830101 0.53991431
0.16805132 -4.6569138 0.5342505
1.1541733 -4.6414323 0.53595626
0.93434078 -4.6348796 0.53776127
0.99974519 -4.5828152 0.53224891
0.59087116 -4.5619125 0.53885245
0.40306532 -4.5568233 0.53939378
1.1125638 -4.4240885 0.53783286
-0.29830879 -3.8564835 0.53315657
-0.33845842 -3.7047443 0.53347069
1.6607802 -3.6615915 0.53861392
0.13443466 -3.648833 0.53206098
1.2183976 -2.7658744 0.53945297
0.030124495 -4.7643485 0.54884338
0.64371461 -4.6058588 0.54103076
0.85493201 -4.5692806 0.54252118
0.45957237 -4.5394788 0.54234976
0.71260023 -4.5001469 0.54138941
-0.081701577 -4.4950576 0.54078114
0.71510887 -4.4641204 0.54194045
1.1970308 -4.3591704 0.54610038
1.602193 -3.7955375 0.54728389
-0.20925376 -3.3900728 0.54519892
1.4838636 -3.152679 0.54504573
0.73105943 -3.0316479 0.54627103
1.1148099 -2.8138332 0.54747808
1.0446281 -2.8061337 0.54641026
1.1931857 -2.806412 0.54472685
1.2247201 -4.8778219 0.55641335
0.018617155 -4.6726446 0.55671668
0.19523503 -4.4151421 0.55435205
1.5411541 -3.950475 0.55337232
0.11910886 -3.9173093 0.55023569
-0.1933542 -3.4906788 0.55166292
-0.20686224 -3.2673318 0.55151498
0.44863564 -2.8658762 0.55337775
0.25889263 -2.816947 0.55447161
1.1822274 -4.6486678 0.56090933
1.3786922 -4.4014778 0.56381333
1.2202518 -4.0975971 0.56900787
0.11578476 -3.8910298 0.56203395
-0.2172855 -3.859807 0.56392002
-0.25242528 -3.7430506 0.56431729
-0.03190643 -3.6583624 0.56184262
0.24130248 -3.0715804 0.56601191
0.95985872 -2.9920535 0.56754386
0.09498731 -2.8099039 0.56147879
1.2963278 -4.5359659 0.57953262
1.4492649 -4.0813179 0.57349968
1.5006205 -3.882081 0.57690579
-0.21633811 -3.8009951 0.57036912
1.1278324 -3.4363582 0.57312322
0.093098089 -4.3670616 0.58194774
1.1465017 -3.490736 0.58294928
1.4857664 -3.4109883 0.58445424
1.4998519 -3.2257843 0.58194536
1.3651736 -3.0805974 0.58742201
0.14458643 -4.4581547 0.59403902
1.2169926 -4.3698635 0.5971024
0.10261384 -4.018641 0.59811789
1.453879 -3.871191 0.59615898
-0.17245382 -3.7187254 0.59772295
1.4682088 -3.4369428 0.59736633
-0.16648282 -3.1818852 0.59422708
1.3149145 -2.9307168 0.59433722
1.193898 -2.7788582 0.59590441
-0.084031664 -1.5132974 0.59369963
1.1816076 -4.3703952 0.60577571
1.438822 -3.804162 0.6087783
0.14352903 -3.461724 0.60124522
1.2735304 -4.3620572 0.61268902
1.2448578 -4.317677 0.61309052
1.3734002 -3.9992332 0.613011
-0.11464703 -3.5104399 0.61684167
-0.13626906 -3.417124 0.61623454
1.1960005 -4.375546 0.62636614
1.2367158 -4.1420851 0.62807453
-0.0074203666 -4.081284 0.62007648
1.4591475 -3.1629863 0.62397432
0.0058316379 -2.8597991 0.62814194
1.1210897 -2.8508463 0.62995028
1.2589487 -4.2071676 0.63531709
0.10774342 -3.7121096 0.63116753
-0.091119163 -3.6410885 0.63896954
1.4538037 -3.5867834 0.63294792
-0.091415539 -3.5554771 0.6304459
1.2334646 -3.9551482 0.64714074
1.373131 -3.7290301 0.6416412
1.4668303 -3.4858742 0.64348137
1.4098756 -3.4004474 0.64835447
-0.011189181 -3.7921462 0.65020412
0.17249297 -3.4787574 0.66727704
1.1476068 -2.8388488 0.66858578
1.4148599 -2.8209145 0.66350234
1.4219408 -2.8033156 0.66669524
0.15566242 -3.4745317 0.67074621
1.3680418 -3.3502312 0.67892087
0.081513666 -3.76087 0.6890974
1.3326402 -3.5507188 0.6828407
-0.08052513 -3.3967354 0.68026358
0.0013207635 -3.5083447 0.69318151
1.3796108 -3.2308953 0.69277275
-0.019437721 -1.9221183 0.69923365
1.2674501 -3.5900872 0.70059997
1.2245911 -3.5381937 0.71814919
1.2223701 -3.5090578 0.71715164
1.2795103 -3.4503632 0.71217585
0.031887669 -3.3874669 0.71639073
-0.0099223163 -3.0324864 0.71226305
-0.017344335 -3.0153904 0.71921128
1.3476646 -3.1623335 0.72000504
1.1472583 -2.8385649 0.72009242
-0.034743849 -1.9445205 0.72313023
1.146224 -3.410583 0.73509318
0.06187766 -3.3264832 0.73154181
1.3197919 -3.2305632 0.73030663
1.3200921 -2.92677 0.73693049
1.1546184 -3.440798 0.74453843
1.0874012 -3.1738853 0.74048704
1.2894993 -2.2327909 0.74665701
0.65087587 -1.8192469 0.7445814
0.80562621 -3.3554404 0.7563448
0.87321532 -3.3214023 0.75149691
0.89963508 -3.3234534 0.7511512
0.91206974 -3.3254681 0.75331032
0.69069868 -3.2888527 0.75153148
1.2260035 -3.1978498 0.75315624
0.04828668 -2.7284725 0.75702906
0.041766293 -2.7001126 0.75474054
0.017600415 -2.0426149 0.75262833
0.027570404 -2.0239189 0.755247
0.29352218 -1.8852242 0.75757366
0.61035478 -1.8349383 0.75689757
0.64079261 -1.8350035 0.75745332
0.52280939 -3.2817218 0.76808167
0.87460113 -3.1432383 0.76373553
0.92292905 -3.1006174 0.76870501
1.2553581 -2.4396966 0.76068264
0.12089348 -2.3165193 0.76866084
1.1831628 -2.2317615 0.76700354
0.082662389 -2.1972895 0.76060361
0.58337402 -1.9907806 0.76599246
1.155879 -1.9978447 0.7607336
1.1643776 -1.9928756 0.76992375
0.27555361 -1.9806616 0.76620817
0.54870152 -1.9718943 0.76682347
0.83065867 -1.8624021 0.7618106
0.49596542 -3.3586535 0.77821314
0.47636297 -3.3383136 0.77297306
0.19500336 -3.2152734 0.77675915
0.953022 -3.0469546 0.77448392
0.086670503 -3.0315843 0.77031291
1.0185435 -2.9561288 0.77829802
1.2533851 -2.9228067 0.77645218
1.1751326 -2.6079705 0.77715874
0.1421386 -2.4420252 0.77482092
1.2941962 -2.3562016 0.77932286
0.20426896 -2.3236127 0.77664387
0.23174009 -2.280901 0.77723688
0.31031683 -2.201139 0.77943134
1.2747601 -2.2030768 0.77511096
0.76998824 -2.0697541 0.77690321
0.33188897 -2.031837 0.77187908
0.6378299 -2.0330386 0.77125376
1.1301221 -2.0164979 0.77769405
0.89480758 -1.931986 0.77055776
0.66482139 -3.2803416 0.78063142
0.32360345 -3.2545338 0.78342766
0.92224216 -3.2519021 0.78831232
0.1366355 -3.0547569 0.78086716
0.69633418 -3.0301156 0.78411722
0.45813966 -2.9431992 0.78724593
0.40491629 -2.9011064 0.78839618
0.26367545 -2.8616784 0.78008604
1.080698 -2.788038 0.7825622
0.04070691 -2.5863454 0.7854417
0.24889186 -2.5620582 0.78702217
0.29530004 -2.440918 0.78896904
1.2927556 -2.4239874 0.78165662
0.052929234 -2.3606915 0.78782433
0.091243707 -2.2618403 0.78708231
0.29234827 -2.2479708 0.78055775
0.11152982 -2.1662576 0.78280336
0.90742159 -1.9947121 0.78732097
0.99850357 -1.9934237 0.78320032
0.72121435 -1.9276435 0.78121674
0.78181303 -3.3152671 0.79044658
0.64467543 -3.2795541 0.79512298
0.42842561 -3.1663289 0.79446954
0.34527975 -3.1199558 0.79317153
0.9790653 -3.0998354 0.79429996
0.99190235 -3.0425327 0.79789269
0.1817528 -2.9960384 0.79604012
0.47946671 -2.913574 0.79006785
1.1721785 -2.8550234 0.79660988
0.48496449 -2.8422666 0.79482573
0.90267831 -2.7995188 0.79529238
0.33326945 -2.6821632 0.79402488
0.29210028 -2.6120934 0.79089701
0.93751001 -2.6133742 0.79918867
0.30475983 -2.4880919 0.79127622
0.10112178 -2.426825 0.79795617
1.2450603 -2.3342848 0.79009742
0.87224478 -2.3037586 0.79422295
0.83875972 -2.2855313 0.79528332
1.1314862 -2.2117999 0.79963183
0.27501035 -2.0906973 0.79475695
0.57906938 -2.0259457 0.79831779
0.92481428 -3.0425248 0.80151123
1.0113343 -2.9807577 0.80186248
1.0378845 -2.9190979 0.80456269
0.62473339 -2.7625275 0.80378282
0.50389528 -2.7205024 0.80104852
0.52955151 -2.6568236 0.80443311
