# .PCD v0.7 - Point Cloud Data file format
VERSION 0.7
FIELDS x y z
SIZE 4 4 4
TYPE F F F
COUNT 1 1 1
WIDTH 1609
HEIGHT 1
VIEWPOINT 0 0 0 1 0 0 0
POINTS 1609
DATA ascii
303.42142 101.77899 36.335838
26.606712 99.041779 42.439091
242.96295 -6.7794442 53.864899
228.998 13.402461 24.577246
-21.336853 5.2095356 14.14829
201.42197 2.1603112 42.012756
106.39183 150.27817 69.675369
256.84875 -7.0141854 23.695292
160.17877 116.46268 24.406849
156.90594 150.53416 45.676003
48.049133 16.126534 51.979145
-11.850617 6.4132919 83.617607
93.888428 123.11604 69.664833
201.45804 10.696568 85.370056
-67.033981 91.130402 46.083195
240.09909 -0.61097866 59.490414
-11.314277 131.47 76.362762
16.2377 123.19526 103.76276
234.9359 28.6945 26.334579
102.84019 53.351303 68.358086
75.479721 134.48312 120.91563
251.2341 147.57056 14.731207
-50.464279 20.183903 84.17691
273.30029 145.75766 44.514908
105.48921 100.28215 55.549656
259.94769 2.4695971 67.899475
77.379578 58.711174 44.551895
-9.5623827 44.700378 115.72243
273.85898 103.63651 78.28138
266.99658 6.0211911 27.585409
181.22406 30.833374 23.640724
-1.7375991 24.838299 63.923515
48.583225 84.932129 127.50578
300.54227 36.022072 23.508106
253.76045 0.70592451 6.6014547
230.7327 142.03427 62.827789
125.12161 123.9043 25.671659
261.50446 148.05652 58.532665
281.34985 32.861889 74.426254
176.15979 65.365532 23.825085
219.15179 35.88279 88.244957
63.368614 4.5681825 81.898537
95.909225 26.371025 60.997875
8.0084715 6.7821445 0.16288808
41.280495 18.092623 47.015514
77.623581 40.816284 27.412071
265.43796 28.6945 22.471386
96.352722 118.39201 59.096375
23.712917 79.392426 95.225998
-64.961807 33.27227 58.295261
167.44334 13.437199 72.553131
-54.858189 139.14439 31.354265
-5.6587844 15.09525 50.858208
-51.636642 62.020798 37.514664
232.82652 136.75887 63.248314
25.99164 131.94798 91.482468
144.5524 130.77724 24.980034
244.13737 28.481436 14.131442
266.99118 149.96082 66.102859
296.18671 54.978607 72.813133
-48.775948 21.452301 97.33493
92.422966 114.3722 75.949471
135.189 142.59192 87.326218
241.10837 134.8364 55.90836
-18.923674 69.874886 113.15977
-18.567923 134.18887 21.338013
175.3392 53.241547 104.81514
26.376099 135.19644 36.14328
20.906105 75.989059 67.730843
148.08185 82.522629 24.847206
255.41714 145.55687 25.731039
-1.8021841 143.75587 52.270798
33.047424 118.39574 31.66077
61.03709 48.87701 42.550053
109.16206 100.26216 39.944809
27.226929 152.01965 64.942589
106.89194 93.938675 26.346626
-16.856369 137.51611 37.393742
151.58955 147.90199 56.35685
92.700706 88.725403 29.150795
120.75771 150.32387 47.023361
-53.63578 41.155746 103.095
300.72128 25.376919 30.580441
-53.705997 24.643747 70.160614
77.855499 13.122053 98.641815
65.817169 7.7193685 74.191368
136.02789 56.197163 121.97371
87.175995 21.598053 124.64532
97.775398 150.06821 70.950386
101.16155 50.67556 44.769058
29.464375 57.148811 71.440475
234.63889 19.39307 11.438301
218.81224 17.370262 25.878126
217.32391 44.569992 88.311432
236.09642 160.0499 32.033276
150.6557 2.4841974 56.460442
143.37567 84.478607 25.018526
32.343365 134.71512 63.303108
113.78329 8.6021023 85.639191
31.314144 69.995773 61.799343
-51.648331 32.130505 103.09499
21.249146 37.599003 91.91803
296.46213 51.358078 71.963242
-12.70223 132.82076 46.384418
132.81519 141.76999 41.897018
148.9422 136.57298 81.831909
239.81311 156.49854 17.091318
148.36757 138.39696 74.938721
129.79025 151.1445 26.483011
57.527107 45.441078 30.759399
27.13039 98.612503 81.880844
83.98362 134.15523 121.66453
96.764679 98.669327 57.671528
268.42853 57.138046 79.42186
207.82677 23.198483 23.012503
278.19647 86.520744 77.061188
-5.0773344 15.969553 1.3036389
26.740871 8e-06 32.613594
183.22397 116.86676 23.567926
80.745468 32.223038 127.881
214.82751 28.6945 33.312614
145.39415 74.377769 24.945045
23.827007 120.9689 54.770473
281.09897 2.9072864 42.840206
-67.554199 63.557674 51.583408
16.636208 116.91982 86.675179
-0.84733438 21.631001 4.7444215
231.42781 4.3717413 51.162266
304.65445 65.058548 36.094852
9.0159531 131.96899 4.1540837
301.16318 49.879688 60.882095
202.25128 135.53589 90.639908
10.050492 139.3607 8.020545
119.12674 105.6144 25.901258
190.62912 15.238225 79.297546
234.32935 28.226868 9.3957329
169.02438 142.88579 84.438606
29.238863 123.39633 59.157146
100.8335 119.09147 64.903221
68.222618 149.0746 80.510796
165.97937 142.96593 27.528645
262.99701 3.086772 43.555855
236.76492 10.519642 40.465286
252.86565 122.22964 29.643822
181.4772 48.248821 55.654079
180.53165 32.67247 23.66593
90.728836 108.28133 83.215126
79.4879 3.1221581 41.3643
108.26537 128.99725 47.983681
124.38007 34.64502 36.349064
160.38966 43.094841 24.399162
263.95065 4.0026922 13.234816
104.29347 49.084961 28.974102
131.0686 24.507847 123.09685
6.1871109 151.91238 61.364517
276.06171 144.12958 36.434219
148.37811 95.158447 87.646637
-63.260662 28.496391 52.751766
139.78372 2.3270998 66.855652
259.93719 20.44558 79.085396
105.26134 134.41699 26.406002
189.21999 39.200409 55.67889
100.93153 98.612503 80.511719
163.12163 134.94063 77.172714
144.10219 94.434021 24.996059
-49.375652 28.713507 79.407555
178.35434 146.08688 30.349586
153.81795 151.19125 59.61256
197.28679 139.646 87.420258
-30.04563 7.7351408 37.177372
119.43451 9.3888836 55.736675
-25.399616 3.4335425 32.46513
141.09204 63.632942 25.101652
105.71254 51.684551 26.389555
18.358965 33.017582 79.031158
39.1222 131.78098 29.133999
260.77853 122.17615 32.024193
20.548025 6.0791588 53.011459
215.47424 8.3292427 52.149719
252.31674 124.765 27.436539
70.444733 130.95599 125.83888
185.35106 151.56943 28.865538
-52.261368 27.822353 84.1007
53.774441 68.250107 127.881
16.722004 74.809303 31.8097
37.111969 108.51845 31.511101
97.311157 45.472305 54.985603
275.09601 114.67584 77.708817
88.933968 141.96756 27.000359
-35.332985 144.95265 82.504868
15.736055 7.9999991e-06 3.1672864
69.626747 135.3372 118.06435
1.6076542 39.245533 119.36896
213.82559 114.5984 88.851868
113.6649 3.0347643 64.059845
27.953024 28.408102 66.756844
-23.26997 134.44528 17.703329
3.3937197 16.31657 51.407341
270.21429 145.58405 75.862862
64.815231 122.43285 127.88099
231.27539 140.55827 55.960297
-14.945396 21.631001 44.151817
181.33362 7.4299488 79.643745
43.870693 75.727997 31.262238
20.313877 50.653393 70.357491
300.06204 22.642925 31.300667
-1.4494621 150.69011 52.315357
-11.267274 6.2663827 17.406849
186.12837 17.6026 90.438683
15.550259 20.328972 91.493004
-19.616589 154.47681 54.611538
109.56287 119.11735 26.249413
162.55988 113.52003 70.049179
246.41608 5.2848892 54.975388
153.55017 121.89751 36.220467
226.28226 24.068031 86.458588
67.141449 70.452507 127.88099
300.85193 102.72891 60.919346
142.14456 138.18813 85.97274
0.90435356 147.88274 27.340847
189.44775 2.034286 51.348526
110.24022 125.8255 126.6711
14.984193 11.785208 8.475812
294.03442 140.48334 25.21006
296.0545 133.61047 59.93679
95.822296 32.398228 61.371227
225.37582 153.16875 69.632111
111.25082 68.128098 26.187944
240.9054 153.18719 35.500885
-53.040268 142.25052 38.094681
106.15839 19.493299 31.444309
207.33891 17.264431 32.913376
-45.373604 117.76141 55.74099
0.50066161 1.0714207 66.319206
150.0833 14.653471 73.700958
169.15213 140.83821 45.647614
268.32281 67.155479 79.236008
259.57916 -2.9507754 31.972237
226.52486 12.01561 60.658173
167.43204 146.59062 62.947079
178.401 69.61264 23.7435
31.67313 147.20589 47.840317
241.11273 140.29535 56.32103
119.71431 140.0041 68.080505
155.54709 138.31868 68.911522
52.018986 80.090256 127.85152
104.52453 139.29501 26.432825
164.14621 139.646 76.584274
272.99185 142.74005 78.019127
90.695709 108.39262 83.35717
65.153885 9.6550131 60.292725
78.179214 150.53546 34.094032
13.803543 146.51245 48.931259
211.43867 29.486731 89.329117
206.98726 27.397318 30.465128
79.876022 5.5574899 48.265297
48.39674 19.6992 32.200661
217.5907 134.81616 54.300243
125.2925 141.88501 61.991608
10.051339 128.263 40.335129
-24.242302 7.5197701 91.230759
272.22424 19.217714 46.686546
208.11517 117.10478 89.686409
53.039284 134.13173 43.413147
-60.391994 50.64603 69.028336
201.39494 84.872391 92.048195
-27.688728 144.13838 94.09127
51.954288 134.98486 39.151005
230.40059 21.844044 62.656551
-17.255899 12.211033 40.086197
81.84726 14.541855 76.155807
11.102773 150.60629 0.9573667
17.867138 4.5947113 36.566261
-40.683289 41.010525 105.1635
116.174 71.896156 43.556175
77.962494 83.830299 36.004383
62.472233 101.4408 127.881
6.3018942 5.9679356 43.899963
302.69839 33.916862 57.420544
106.71774 107.39999 127.10551
26.709024 134.04149 90.114189
255.72272 133.48628 47.677338
117.52161 10.028225 32.6618
115.59285 46.590519 26.029884
241.74524 132.21951 55.101265
209.37222 28.6945 29.883568
193.05431 6.5480175 43.732025
264.74527 6.8716574 25.508558
-7.9130988 21.631001 50.330276
65.257317 104.16418 127.881
32.654518 28.959887 31.675236
254.79855 28.6945 21.404186
215.75804 152.62848 48.076336
241.33879 147.35526 3.6839099
31.439144 102.09113 51.377235
75.32579 122.10535 27.495718
209.78979 152.60419 70.272797
-54.228554 59.407642 58.371433
104.97339 18.943909 55.72361
183.18123 108.10773 23.569481
142.10869 32.721546 25.067015
20.575396 2.701561 52.99157
1.8679079 8.4740849 61.28339
26.800587 44.596649 66.484695
152.80569 1.9616826 74.051598
28.128317 42.148048 35.689037
-0.40528297 7.5359797 38.073929
109.65988 3.1516335 53.025021
28.860027 134.47816 65.9217
112.92246 76.465324 126.34015
83.440414 84.188393 27.200321
262.78757 107.44677 81.085106
95.764343 32.325775 88.866516
24.526178 13.085157 40.306831
246.6142 150.24683 29.701757
159.80603 44.540565 24.420406
66.568344 94.57914 43.72094
-23.538038 153.60001 32.789825
155.21436 132.8351 33.505108
-7.5112247 138.12209 48.345882
-12.92663 9.5095463 94.986023
36.577106 117.32179 126.29785
30.680002 146.11383 17.814228
18.775755 5.4674621 47.383186
231.8942 53.013134 86.333313
63.283985 71.118019 30.547426
97.768463 49.282196 82.305702
17.907417 128.263 53.397614
-23.652925 128.263 30.959257
66.278984 9.2202539 76.526642
-44.326378 55.266991 35.480061
281.11237 52.271515 76.423721
33.484978 136.18538 45.401394
237.49908 23.943995 6.0978856
213.28558 20.636726 29.740139
51.21777 36.967197 127.77089
90.567596 128.44241 83.906593
-10.161268 5.2224183 9.8783245
246.52576 147.37666 50.748226
306.1897 48.387486 28.338856
-53.527657 106.87506 56.171246
222.73982 145.66095 48.975758
97.592224 75.180244 127.881
132.55794 150.75464 60.184456
249.93237 15.743288 4.0663581
-21.801643 18.789381 50.482937
304.41373 89.619568 61.026554
18.027287 57.565983 123.52044
192.52728 0.31673443 69.049614
-4.2150531 132.05405 73.203972
-65.457596 112.48904 53.743622
308.87003 53.247284 38.377811
218.40773 32.18911 88.334846
262.87741 -6.3802962 20.259041
43.351677 130.24057 41.69376
-59.058376 54.356525 77.77034
189.04808 11.662767 37.914314
29.654623 138.43315 110.75726
194.11508 67.470009 23.327
4.2107315 74.59935 54.469505
226.25226 124.765 52.035923
170.33701 142.87698 30.947781
2.3824918 59.258263 119.70497
115.52617 140.72162 66.177322
-5.4515438 147.31955 11.122584
228.80499 11.548254 29.01577
141.76407 143.20465 26.595486
126.84837 52.804668 25.610195
170.01292 113.17152 107.24489
248.0751 136.16104 60.046989
96.77829 118.85615 82.862968
93.658691 147.90199 49.846737
174.57185 151.17282 54.115036
240.20882 124.765 51.785587
108.39879 24.472752 47.392899
73.069984 136.04971 86.462616
57.577694 121.45099 42.320709
307.56168 78.123283 56.512821
149.16797 93.5914 26.990917
231.63098 163.52589 18.653746
128.09538 59.661797 26.769444
121.05034 143.41011 29.245579
176.41168 13.544683 53.3475
148.15602 71.069702 24.844505
70.232605 53.020966 127.881
27.724678 61.403835 37.479637
123.36626 110.5145 25.734138
153.12628 97.40477 115.95165
226.4048 14.661651 14.483848
300.56403 73.815331 65.173798
66.859673 9.4378099 40.859692
103.10753 58.092644 26.484385
64.223648 97.714699 127.881
79.055084 15.247846 78.845062
262.47208 128.40958 77.209351
104.60189 122.74 26.430004
98.559296 36.312729 49.633064
-7.5043626 57.673164 116.62212
228.28424 16.512669 50.440392
83.317406 149.69418 72.613716
8.4795456 147.20364 31.933868
19.742895 41.448277 123.92694
99.936241 109.6125 43.727875
267.435 28.6945 46.695461
48.738167 108.55322 41.734695
-53.012733 111.97176 66.388504
307.78705 105.17777 36.006775
76.706245 11.478737 46.453007
-66.138985 116.90343 33.242859
55.331886 93.746048 43.415825
82.972214 10.773212 41.041634
-37.400322 24.894701 83.259399
5.6460319 5.8849072 31.92753
64.992523 139.46031 49.278397
117.918 15.200759 74.653404
16.058455 151.77209 10.787118
-28.371731 145.95879 79.20356
145.6609 7.3185072 55.179211
248.17677 5.8760262 75.976578
101.8532 3.2510042 59.713089
20.352472 22.504448 70.186523
40.404316 101.0582 126.68291
-9.2066469 89.490402 116.12196
108.14964 29.183756 39.762379
259.00107 136.82561 34.378468
-19.223406 8e-06 19.34989
78.999138 143.6311 56.144741
4.1459637 146.03294 33.112312
223.31551 152.30135 10.536628
30.168022 125.83737 31.766792
160.41913 122.05846 24.3981
126.67457 52.847858 124.64459
311.21899 74.481201 44.407471
24.252989 3.5251858 40.887394
106.99033 25.644276 50.431206
29.330847 72.920822 72.872833
-52.793007 99.279549 54.469501
235.77628 14.721352 16.453064
248.06456 25.304102 11.020927
171.50708 152.16222 72.12162
163.45261 140.69304 65.331314
50.436508 29.587309 41.847286
-26.042385 132.05406 94.040207
115.52419 57.645634 126.01925
-19.86364 21.233582 31.626539
231.49777 115.74095 86.479607
91.324615 5.5574899 55.512413
163.6825 81.199509 61.952755
144.96033 141.76532 61.965546
67.304878 142.55241 43.665062
240.57399 127.69699 64.488121
234.55403 13.937835 30.404512
243.02222 13.807224 83.386688
188.52026 112.22636 23.375116
113.99596 5.1895447 80.726112
-20.034264 5.4564214 12.095753
2.1701608 6.3562584 5.5950594
224.08475 33.713284 25.76421
15.504962 128.99385 59.405819
17.295338 131.96899 6.2021608
116.14957 33.407795 26.009619
235.43054 160.84412 20.628632
37.297291 37.07962 126.37032
89.719124 93.550903 89.00219
255.48926 -1.0176089 47.743546
113.61607 55.432079 126.25458
47.952671 133.61229 31.111938
-42.604118 90.75267 105.75301
227.20786 158.82039 54.675327
248.20105 3.7605977 22.765793
-32.099499 135.89462 103.77544
214.84541 157.36111 26.646629
161.56213 115.91949 75.327942
268.91638 2.9342566 46.34174
239.48563 25.900135 6.4562321
258.7562 93.302101 81.730392
78.651955 136.67926 84.163063
138.00887 140.9319 64.044395
47.0089 2.2283511 51.875618
-34.395729 143.38063 32.716145
163.39043 87.368301 88.087921
180.30042 141.35016 41.396019
140.79068 39.647041 25.11393
-40.947487 53.860321 54.469501
185.3837 57.607788 53.252239
-24.537159 82.370323 31.809698
233.08688 9.2488022 54.104416
-5.7313738 148.09526 38.066441
23.627678 132.98244 55.656689
40.343159 109.44889 31.392124
92.413788 39.589878 75.988861
69.100517 6.4020195 85.043762
-23.993423 128.263 41.346985
-12.774968 151.04318 57.402149
127.9305 136.67415 80.268227
32.054249 141.3687 47.428925
138.80185 78.827156 25.185022
34.618942 33.747383 126.10085
18.323666 67.962563 102.85279
70.356255 49.403851 30.287016
247.56625 76.627068 83.851875
202.92752 -0.011796869 65.315918
21.44487 135.23395 118.00092
62.034378 116.46632 127.881
-48.082527 132.6277 98.646133
-60.772789 104.96683 91.408722
-23.619045 18.036995 18.777672
-20.206524 22.059523 52.321613
35.19968 151.57822 42.070099
34.172058 19.370483 51.596664
128.67937 25.870636 25.553499
24.354242 39.29528 31.809702
-57.383919 26.210875 66.025314
25.051264 95.136581 94.0345
264.7164 1.5419183 32.349823
107.05409 9.9114866 27.894867
171.70465 151.5072 58.064705
86.664497 46.623772 127.881
2.3546758 17.827511 89.100281
129.66202 144.7187 54.192818
237.99799 152.73262 37.871059
31.446667 72.83036 61.1922
54.875053 34.317749 127.881
144.18054 33.529343 24.993271
193.65199 2.1571336 54.391846
219.08765 22.112249 55.82132
160.72751 143.01712 25.712187
-41.204086 128.57977 103.095
75.187363 99.796532 27.500757
249.65842 25.948107 63.475834
132.00906 150.12465 37.036968
213.12207 131.07339 49.591461
22.840109 40.708332 84.629211
27.382347 121.78262 38.998264
165.54422 7.0287952 59.296921
137.46487 2.6588519 28.810169
275.06293 124.765 33.599861
-1.5120001 117.00706 54.469498
165.33342 73.184235 89.779869
249.58661 124.68314 17.828184
5.0472174 151.0867 17.896282
76.925186 86.983292 30.80718
124.06306 104.0659 36.328747
-11.544248 106.9169 115.09098
230.04141 9.1837645 62.471359
-8.7765961 61.298988 54.469501
297.55276 139.29919 53.094933
225.63312 28.6945 33.000542
23.365459 126.35783 91.473938
58.861874 125.36808 127.881
303.52121 64.508186 60.871185
255.96683 142.07657 43.049557
18.326185 73.029846 79.176605
245.85794 154.48557 6.8141308
136.4895 2.4361892 23.991711
151.48657 66.775734 44.041031
299.87805 96.5914 65.172142
-59.565529 75.249496 64.579201
1.3108968 3.936672 26.816868
-34.698437 84.858795 32.8004
263.83154 7.7917438 56.825027
85.784927 3.0890303 38.527573
101.24819 143.60509 27.806469
276.54813 5.1600709 33.049637
284.24933 6.8862538 19.020256
243.78407 7.7111974 78.509659
30.098503 129.76575 67.996284
32.675911 29.937218 45.250603
287.78745 133.20953 70.000458
-31.645893 22.494501 28.592684
68.496536 140.75722 36.423019
-4.5024958 25.1959 29.773941
66.935089 4.4401045 40.16246
272.92798 0.19615869 47.781128
180.68256 32.839012 101.56535
97.885101 53.879215 89.840897
192.95854 58.046654 38.435074
36.168125 25.662865 126.21722
75.435806 81.533554 43.845947
-58.292389 54.560738 81.914246
129.00009 41.864525 25.533607
276.30713 1.2497954 35.49099
256.12677 -11.665246 31.517677
-27.544914 132.52028 42.552685
26.001709 144.00407 53.828938
104.11873 60.781624 69.929962
133.94177 141.70552 61.962616
-7.421371 137.77486 107.55751
283.96732 143.03812 71.229523
30.438345 153.60001 17.912266
152.31844 19.493298 29.187744
186.77159 9.8888216 82.622833
72.894974 77.482239 127.881
112.85793 12.608726 65.963646
166.45749 46.700569 81.706009
266.66962 124.765 48.078564
133.98181 93.5914 25.537857
77.740547 76.571007 43.707226
-23.443466 99.162903 111.51411
191.35341 124.28905 23.327
242.36215 3.4052081 16.079662
42.20393 16.761066 65.837288
136.59224 139.78819 67.615692
21.080931 89.410385 124.24397
172.52068 43.156876 106.02538
-4.8656712 142.30949 99.383492
104.6158 51.626362 26.401548
24.793739 71.134369 50.483078
32.071167 13.833109 47.409447
34.63073 19.226582 52.125732
77.803383 24.639626 35.207054
108.33961 134.56229 54.264801
234.28043 138.49371 62.060085
128.23787 10.548625 25.569571
-17.068573 139.3674 103.79174
23.111231 106.6976 84.64164
-32.89806 8.1336365 85.547516
165.87108 25.325884 83.870148
14.939449 23.032408 94.203087
242.02742 1.0541694 38.513279
15.793644 130.19427 90.413246
102.43308 52.171738 66.822006
201.28137 118.50389 89.685501
269.58453 6.19841 18.627686
61.159985 113.47888 42.558197
95.708107 106.89243 127.881
70.768005 94.409714 27.661633
102.89298 24.514252 71.774391
80.628586 75.551788 37.569809
159.90047 147.90199 60.278534
88.535858 142.14232 44.047165
97.528503 135.01871 117.47368
59.118141 16.368036 77.015999
61.078697 118.52776 30.628628
-52.193035 40.736229 103.095
105.90417 22.022125 26.38258
241.87518 -5.5464034 51.944462
12.649117 2.0523362 27.36656
-11.179482 2.1806502 18.141342
-18.804211 9.3483114 36.795803
5.947031 143.8777 58.318306
-52.738167 60.146397 103.095
150.66212 61.027802 44.279697
-56.94038 138.71153 59.811317
-31.95396 20.470535 105.14558
241.92174 103.90028 85.28672
-66.067497 50.784729 48.640049
144.13649 19.493299 30.817945
11.397715 5.4602299 22.839298
11.084737 25.1959 26.735205
20.093185 93.424812 71.338058
129.1185 142.8148 35.493973
27.374012 147.43614 46.340591
78.034897 3.8915868 73.126244
-1.7921619 149.29147 25.486235
23.532389 4.4988756 38.541027
-39.240021 70.887924 54.469501
54.112171 28.58506 42.090961
152.89197 29.969036 36.867355
258.81824 144.35788 59.917698
230.77158 15.777394 25.105698
228.77713 167.26398 38.003658
150.25616 142.71776 33.9986
43.460293 99.658394 41.3848
88.747833 76.179749 27.007118
99.360382 93.265755 56.365528
92.768517 110.02275 74.467499
193.93726 37.543671 95.014221
229.42804 28.799536 26.216927
192.89693 143.65027 42.195873
9.7955933 9.4649181 7.9550977
310.11163 61.817528 37.305504
148.98285 111.03351 37.582909
264.7197 4.5216413 53.331947
142.1078 3.4944139 33.640621
47.584953 25.85375 31.125479
220.89435 2.9406502 73.358963
238.07166 4.1706395 36.992363
240.69031 154.314 61.51133
146.33371 93.556366 38.045868
171.17487 137.46353 101.26346
239.06656 155.78329 38.209812
29.418261 134.62558 86.50798
242.55637 9.8652639 80.942047
112.42699 150.33473 28.823069
-2.8028026 21.631001 2.2437003
142.37175 5.5574899 51.909691
190.97375 35.821808 23.327
7.9220238 146.23315 31.806561
57.320271 39.469173 127.881
183.74039 45.425934 100.44644
138.34122 124.59675 37.24379
16.388805 135.29663 47.253578
120.1221 120.33285 125.45231
-61.588326 125.40211 41.092316
28.943434 117.07281 56.66745
255.08647 124.765 49.848408
88.746796 14.553167 75.561813
174.52199 129.89684 104.25426
148.12466 150.61154 49.066162
209.9503 13.725381 43.191525
-7.1183977 146.75879 29.686499
92.880875 34.541988 127.881
304.29489 54.896149 56.590401
272.39972 16.57744 46.332386
71.844933 115.34383 27.622431
97.901558 120.10509 127.881
2.1208367 17.669209 61.288147
192.65372 11.532857 61.806301
39.361843 147.70251 27.935709
27.292896 11.750786 28.682768
249.25778 64.984116 83.903564
203.00249 107.00082 90.862396
-66.529129 69.141006 35.607761
-56.168858 85.229431 103.095
-6.9830761 152.44406 56.35157
203.97961 152.33316 46.799221
132.79575 136.14488 108.74593
190.58952 95.774216 31.025667
145.14529 100.09285 118.84881
144.77397 67.083984 118.97607
92.41069 98.864159 76.002106
140.88832 104.14803 25.109076
157.94176 2.1045918 60.597713
231.98015 124.765 18.935425
99.298294 21.351061 40.214664
80.372299 143.81282 31.761623
187.94676 13.4372 83.144753
67.623489 128.94354 43.034332
151.16553 102.89436 24.734955
-61.301441 61.550415 100.26593
106.76561 80.553497 127.09961
3.6706419 131.96899 52.965328
100.33604 54.298782 82.130951
41.952232 117.70502 41.290161
-17.01936 14.753628 40.588875
139.24675 3.1956427 41.487305
0.40203381 61.385815 31.8097
116.174 63.629303 44.630245
146.75485 15.299251 77.338531
28.742361 96.103058 32.96505
101.2281 61.055695 26.552799
135.62341 126.75671 25.300735
-65.167137 46.6017 43.97266
117.9391 13.514081 68.437149
115.78236 15.490733 75.964645
175.1456 135.03224 90.465767
260.87897 9.6964331 78.914192
-1.073086 5.131362 7.6088743
-0.50243723 33.635284 54.469498
138.16077 5.5574899 48.317429
246.81174 4.3616037 60.499199
-5.131011 128.263 33.025238
-17.81937 140.80943 48.976406
-31.588715 126.32967 67.3498
137.06178 44.691345 121.61981
-46.587242 110.06314 32.091007
180.30121 10.788282 31.280102
10.325097 83.806511 31.8097
11.635294 146.23543 28.623085
299.89557 16.572182 33.520634
92.114899 35.322884 77.270668
261.88864 8.5468197 58.33456
35.052017 124.4696 31.586952
31.838871 10.137138 37.365585
99.346573 10.581445 60.697586
-17.033854 132.81345 90.146606
-2.8038526 130.02945 66.404434
184.84396 152.35664 60.453247
265.28415 129.8634 40.830708
19.776951 61.010139 72.739746
239.40442 28.6945 45.150311
149.75391 105.5428 80.800583
199.78577 2.0065594 26.858572
14.799192 148.84256 8.3741093
-59.882626 44.770355 83.310539
235.80817 41.467731 85.986107
238.51593 10.179823 55.499069
20.435471 71.080566 69.818367
150.62724 111.44805 76.991333
145.47731 1.8569827 74.277855
219.33557 15.665855 50.812649
261.55591 123.51167 29.200771
-1.8795493 136.70024 6.2591262
-5.6834497 7.1310577 28.622227
18.847408 91.128754 76.864426
75.229355 84.621864 43.849548
97.984818 132.19118 45.124416
223.59021 124.91029 59.145039
192.06319 146.5163 76.043419
110.34036 100.81222 26.2211
171.96542 100.69127 23.977779
256.61066 124.765 24.599014
265.42844 5.8471909 24.201426
125.36255 150.08994 31.729065
235.68604 162.09532 56.997562
91.192642 59.786972 85.397606
175.73441 20.288998 103.37261
57.754578 55.713078 42.521736
15.696054 26.936281 90.846123
-1.4396663 50.756672 31.8097
308.38132 83.916969 54.632652
129.64948 88.725403 36.402016
-52.689781 122.66484 96.428894
67.535934 6.0797791 82.580635
232.42947 164.53154 13.763677
18.254791 70.610794 110.28102
78.79216 4.0225205 78.706703
232.26401 13.752633 32.430645
88.415207 105.61211 127.881
63.575268 138.35066 71.228157
229.02927 9.9098148 58.486664
101.44173 114.31409 62.209499
230.59973 10.395617 29.478395
152.9472 147.90199 60.588253
271.23627 28.6945 35.442665
75.028915 149.65962 67.966072
137.19069 94.299721 121.57497
-31.340628 44.977383 108.50945
44.561508 134.02478 41.166298
235.7489 20.353872 13.284395
69.317719 94.771095 27.714428
123.92815 150.15062 35.978046
158.55583 119.59565 24.465929
214.74736 134.0408 88.368263
171.0681 60.700783 107.03256
53.089394 82.997513 44.075825
-50.653042 89.378532 54.469498
156.02921 136.63728 104.33308
-53.368713 65.86834 54.469505
94.925766 88.725403 38.910782
-21.644737 142.39612 14.633434
-53.18145 118.05353 29.983891
-36.292267 114.98835 106.3694
39.361343 134.60683 27.924385
112.53014 139.92998 97.949158
282.67401 3.3780239 36.567505
1.4763763 34.26207 54.469498
19.583998 1.5351032 28.530809
112.34306 140.20155 26.148209
-42.971058 102.9966 35.102844
160.80237 47.263481 24.384138
135.05774 142.42068 88.040306
189.46225 39.886078 27.570496
90.674599 53.556343 83.447723
94.238251 30.893602 68.164558
126.54642 88.725403 36.109734
140.54857 92.863266 120.42418
23.929916 26.224529 91.370392
95.551399 36.459545 88.296585
21.895267 71.737534 95.225998
229.37209 14.001375 58.323975
-1.9186463 145.07104 57.895653
14.632339 18.895973 80.662849
242.75084 149.25703 64.581139
116.65009 2.8315802 76.293884
206.91075 17.392355 29.932625
149.78195 27.198441 24.793892
246.02292 5.0953135 60.698803
105.3107 138.22382 76.212578
9.8779907 153.60001 51.479473
-10.384958 25.1959 41.879616
-57.692417 110.46429 102.55902
23.766575 135.24417 16.799196
101.9988 112.58026 59.742252
197.70813 5.2310553 76.221916
24.7931 106.01184 50.484596
140.72017 118.35117 25.116442
165.98038 124.24467 90.42318
138.43428 19.493299 30.31284
69.236778 141.01971 92.954758
146.10626 3.5649343 30.713163
274.26205 28.6945 32.66473
47.724632 74.063591 127.41939
97.915482 119.83307 95.99292
251.97226 148.65584 74.056923
180.18201 105.59612 90.259338
87.844276 17.027807 89.064392
148.07578 59.6618 33.621704
91.762466 119.58057 50.586777
44.03862 136.64276 67.534515
185.12617 64.684151 23.498678
-5.0002928 25.1959 32.269745
138.41562 2.5530143 61.441628
-10.695325 134.02914 10.32991
88.843086 128.16292 127.65501
49.585068 72.089783 42.632507
232.69942 151.28447 52.370064
307.49454 42.33395 50.579914
105.11156 59.793381 43.790703
38.659554 48.154591 31.454117
102.37775 49.480133 37.475471
225.64056 23.30924 53.117897
173.70621 144.40259 94.243843
222.47653 24.017712 58.570812
223.92659 28.6945 26.342731
191.47752 6.5556707 78.036362
29.605509 129.39021 69.957207
31.452097 135.62013 38.72916
25.241657 7.3528037 24.062347
19.378616 36.429741 74.507103
153.60995 23.065399 25.735508
250.0383 124.60398 55.042171
174.65332 142.35858 86.039215
153.28307 50.618866 24.657864
59.959583 138.31558 70.209984
-28.237326 21.248295 97.105576
96.049698 134.04776 67.882072
77.127502 111.83543 31.820801
101.40855 31.802584 31.441603
110.49016 3.1435905 52.638481
255.26727 2.9353871 48.800575
76.357117 141.58499 56.824467
155.67805 146.84154 45.066135
123.59412 29.16177 36.298695
157.30391 88.992455 42.568027
142.13367 67.622765 42.819599
-17.913898 74.26062 31.8097
248.33749 0.096551418 4.4434776
29.355919 31.873896 31.796698
16.2377 118.23837 105.51045
-60.550983 97.745605 73.908768
-56.706322 86.463951 54.469501
292.95856 79.617592 73.988007
274.3895 1.2859671 55.246738
78.199585 81.454849 37.192276
26.203007 2.4923258 36.743324
158.7325 141.26163 42.588371
103.33744 82.794899 26.476015
176.98154 47.222363 56.251526
168.00441 40.597111 108.28203
235.06392 14.119725 26.637907
115.68704 150.95018 28.538036
67.61599 101.76343 42.986168
225.00989 148.12923 58.049488
67.142456 84.143738 30.405352
-54.010193 126.37965 90.579025
77.467873 49.399536 33.526096
-15.040121 128.263 55.742722
-5.7786837 129.85748 66.856033
-55.896442 114.0467 34.029278
50.225445 91.675095 31.028255
33.768002 60.066616 126.01524
163.09637 40.03167 69.009453
29.763508 32.153999 54.779781
212.27776 13.202135 88.72361
161.34073 133.75075 76.518013
-60.027786 67.164589 77.042259
233.73067 21.07303 14.419991
268.1427 44.057163 79.666641
72.400955 65.633286 27.602188
77.846222 86.539284 127.881
227.62625 124.765 34.358665
238.28145 9.2757988 26.719929
27.523504 23.879435 83.028069
152.37308 52.028164 116.32779
50.406345 102.20182 127.68923
189.45834 118.96992 27.510057
183.17545 43.595867 100.666
103.89354 21.605873 68.818527
36.111511 25.1959 35.654568
66.867165 129.8101 30.415487
54.439018 150.37621 55.32682
119.17461 19.493298 30.702541
101.84054 22.049757 40.641552
134.60374 128.94391 25.337852
69.755287 12.308689 88.900101
230.48204 28.6945 41.78017
242.46407 7.0878968 7.6868205
106.14913 19.295547 45.680717
125.60376 138.56465 72.445427
128.22079 93.5914 31.909952
67.834915 14.149487 83.531746
262.92542 131.88892 77.892166
237.67188 9.3440361 25.306747
25.063969 129.40875 54.385525
31.583012 131.96899 35.376915
-0.95216477 150.55849 29.545256
198.36914 104.48262 93.242439
101.14487 31.693995 127.79294
-11.09927 5.6109223 77.542397
57.746662 77.55423 30.751316
-20.60313 0.043855064 12.992138
101.60805 146.54161 44.828709
18.512032 2.953352 47.574791
-20.004322 138.69052 30.042072
29.974892 134.45425 90.533447
231.79364 124.765 33.526066
-17.398726 21.631001 39.08799
92.648392 35.274071 48.253677
79.000946 61.058067 41.207314
164.76141 70.739395 84.709686
78.703941 133.75999 44.036381
73.300812 70.093155 30.178593
17.621271 21.631001 52.55291
28.87421 98.333778 125.52289
65.162209 142.38452 60.141556
-15.786532 132.56813 15.844304
261.05579 36.964863 80.550743
218.07346 162.54425 31.951317
165.73236 110.54607 24.204681
-2.3890026 24.931824 63.934288
-33.428783 145.33795 72.886177
146.8606 59.661804 38.61544
-46.71751 37.416527 56.800915
175.4726 150.96033 21.799747
-16.56418 148.54242 17.069674
141.47737 87.524422 43.195816
170.20673 94.586914 107.44313
236.98602 10.660049 26.234251
152.26785 34.653152 24.694817
-17.037817 5.3800135 37.008141
172.25713 82.481232 23.967157
152.51903 49.293045 24.696468
29.270519 76.56572 31.799841
17.871765 3.0645354 46.176125
33.556671 92.791016 51.525536
141.51466 108.83374 120.09337
232.59637 154.82524 59.139458
251.95253 8.7113276 78.851685
-27.605789 153.01096 51.819004
48.907879 140.22824 102.31348
214.19548 28.6945 28.866636
6.5378909 147.30153 58.24366
163.81085 5.5574899 58.094131
302.12476 80.417572 61.951828
229.70872 10.987684 26.912519
145.84851 140.12044 67.553642
221.383 21.542675 36.47002
200.25366 20.75449 23.327
80.984268 55.684593 127.881
47.64674 66.907784 43.227432
65.141594 145.57903 70.775177
-66.86174 72.822945 39.183819
17.112478 93.494217 84.561646
126.92323 59.6618 31.500875
-18.304932 128.02721 111.2662
0.76617384 147.09204 42.092331
154.72137 147.90199 59.75013
-3.1719358 6.4902658 23.960648
-11.277344 25.1959 40.813889
-21.194767 144.89853 13.924398
120.5728 147.90199 51.965752
32.687462 90.337593 55.507683
-11.982895 138.70068 13.607497
78.556763 67.320511 27.378099
112.53319 141.86551 89.259689
115.42129 86.425919 47.088909
102.4318 112.39101 127.63419
184.96771 94.389236 23.504448
-14.66732 74.543686 114.4687
130.8613 57.406235 25.467358
15.829153 25.196857 90.255592
174.35431 15.185878 67.004227
85.188889 62.501198 29.951962
245.52884 28.6945 38.966904
97.895317 19.373877 54.260342
247.04236 150.51479 30.466106
114.85287 2.9970384 64.85379
-28.646793 9.0997477 93.693619
-41.968513 122.02481 63.704983
-60.08474 21.507786 60.832253
134.56894 88.725403 34.064667
-4.4181213 2.2812748 37.034695
241.2543 28.6945 31.143589
288.93597 128.18417 70.206764
23.025963 0.85375923 42.818874
96.342606 5.5574903 50.999649
-3.3229525 58.107925 117.92724
208.21008 27.589863 20.810108
108.23082 2.4372787 25.670033
300.66745 117.90704 36.569664
4.8300014 4.9361596 79.814453
78.264572 144.65559 56.692669
121.95005 9.1914415 54.969193
129.12558 133.98309 27.251265
268.10861 19.098993 52.479065
-4.8066745 134.82553 90.942307
23.142815 83.783218 102.63603
294.30383 51.317024 71.581619
237.1067 146.58028 77.729004
96.135475 34.401672 41.486282
53.752087 83.892448 44.179131
-27.895908 0.673751 45.578056
-47.317936 145.99042 37.994511
29.768576 12.668631 15.81496
28.719128 93.490814 33.0681
-25.659548 11.91644 30.822443
162.45372 27.850258 76.914261
6.1046524 18.977806 79.032501
29.098095 92.563324 125.54542
86.83268 71.237282 46.833595
46.941719 71.507286 43.117535
163.23134 130.35706 78.780975
298.28656 50.578758 64.971863
262.36591 133.96141 58.088486
-29.447121 15.575571 103.05692
104.58945 106.27151 49.925713
190.46687 29.487022 23.327
-7.854825 2.5924613 69.179626
243.53162 129.21271 8.4077053
99.609344 6.6487808 33.216164
-53.163704 140.53464 61.025291
163.0744 10.465864 24.543905
-61.674316 64.427574 103.095
13.74316 150.08011 73.485352
217.11029 -0.74458736 66.884911
222.69604 12.588749 41.153782
120.63374 150.32349 47.095913
149.74046 19.559618 39.164249
29.550982 132.93893 50.096802
149.32658 100.71251 37.560265
307.54462 108.73473 40.139709
178.09698 111.71564 23.75457
16.49157 45.890823 87.316536
90.121719 112.59786 85.818886
55.254852 92.944466 43.236618
-1.3720665 20.79314 61.222542
175.35905 46.673386 57.344086
-60.047447 75.321861 64.579201
234.54393 8.9364882 45.95557
105.62437 130.81021 62.427906
168.50125 58.574261 30.318077
93.448944 21.334414 71.549324
107.13922 137.51888 106.87705
91.120163 88.725403 27.039488
68.178955 10.290635 84.626183
236.69003 13.360825 63.866585
210.81982 152.96759 69.687263
138.15982 59.661797 26.549721
92.758636 15.931944 107.95528
295.1167 90.41552 72.388466
-20.21846 8e-06 22.737652
52.328983 38.752579 41.972748
28.173649 135.10138 13.301712
219.30072 134.24052 87.315041
207.52219 139.76898 34.189484
-11.30024 3.3997571 12.966436
20.534492 25.1959 30.979275
-15.372284 18.884159 99.657623
66.291672 135.85591 116.3709
144.84415 38.377663 24.965057
-27.943266 66.734276 54.469498
3.6046722 17.065937 5.5950599
223.29565 34.176933 29.239271
199.89401 117.57663 23.327
38.553352 147.65738 32.059902
235.47641 92.94603 85.489975
34.850807 133.75999 44.340202
-5.3781233 71.77803 117.32498
239.61407 104.41023 85.578987
277.12762 131.21808 29.01771
112.65551 127.50526 26.115381
299.76016 121.55042 33.737938
-33.28009 27.428558 66.293289
196.72313 57.245716 55.624786
248.89392 152.21449 5.7388811
136.48517 117.15876 37.124828
14.335595 60.389221 122.64573
193.49188 10.486627 48.008213
105.95962 125.0614 47.782784
92.428787 29.618618 51.238365
95.173264 53.319336 47.851864
-60.684196 105.34395 91.546013
136.55673 41.453415 37.129414
301.64993 18.618481 36.499546
208.68141 132.60718 40.63118
237.70886 32.332539 18.388809
108.47665 150.24438 39.430618
147.22116 146.46126 31.482967
271.79065 125.93505 75.357956
235.33542 152.84607 70.408989
272.62866 41.030369 78.554039
54.672379 137.97826 66.889816
207.67662 15.803239 35.264484
123.62068 150.3428 46.258118
96.649994 139.29224 73.422852
260.06815 112.90086 81.252029
135.35974 19.493301 30.841734
2.1847448 143.03955 5.5950603
58.335152 132.63954 30.729649
21.601864 143.09634 13.647054
109.18201 113.38898 26.239017
94.778915 45.615746 65.845436
32.39793 17.879496 118.31264
122.59608 25.923965 36.234737
21.196404 138.15746 56.704102
167.88699 101.03971 92.021484
233.84975 10.049898 9.6495523
61.45549 71.010254 30.614754
208.70142 141.80183 87.193581
133.59366 122.06104 122.80824
109.69069 100.62984 26.244747
-18.298464 15.579304 20.508671
170.13318 72.876038 24.044476
-66.876053 100.59551 56.956715
268.60513 83.344887 79.247002
79.302261 147.90199 49.984352
275.63354 128.70757 39.412998
159.11894 6.8301525 31.049847
251.67616 124.765 22.486341
102.3392 47.829311 34.568031
238.61935 -0.23623428 45.291187
307.26025 42.603088 42.357006
146.76917 113.67769 69.318031
76.704498 149.36929 79.058372
-51.465267 28.727512 81.067528
25.381643 148.4451 24.493214
183.46509 11.851206 39.249458
120.58037 116.63912 125.39581
181.6449 18.238537 55.738598
278.51111 149.2675 60.883087
236.5975 152.31847 31.157944
150.48811 3.1281524 42.21867
12.466093 149.60199 21.432611
191.91411 7.5433059 77.088226
295.58618 44.370979 69.903114
157.14035 16.396105 76.914368
20.121626 100.56402 71.211609
-47.087837 68.921066 104.48122
123.5991 150.53297 56.864567
26.055073 37.233273 69.900192
104.41619 104.82643 52.057117
-1.7111356 147.43158 29.709766
301.12134 87.36525 65.1707
189.4865 151.27362 50.125374
-17.606329 134.60718 54.256996
52.962837 48.116386 42.014771
309.07397 100.47762 45.600887
70.331253 3.2765493 48.749409
16.738235 10.132041 48.863503
110.36263 17.287392 85.601852
18.925747 44.360931 95.225998
232.40703 30.718269 12.038366
206.27367 2.7658288 73.088219
19.289951 49.474831 54.469498
304.21219 122.18828 54.204384
102.45585 52.603298 67.942818
14.478694 151.34236 30.036484
-54.041203 10.85884 53.360909
32.759743 15.477072 26.469585
17.125105 121.10713 31.8097
136.38678 2.770057 55.158787
98.606842 105.2783 37.817619
3.4293795 141.39862 51.411846
64.943001 13.851985 64.127876
148.95088 51.767174 37.585014
38.540432 39.917145 31.458504
-56.627987 109.45009 27.530281
259.25122 57.906826 81.679596
303.34299 119.32111 27.565983
244.56187 6.0220098 53.654381
304.60724 72.808548 60.843498
-2.834434 70.164551 118.10703
253.18607 148.89536 4.561614
144.13818 31.365295 24.990757
117.42775 52.870564 25.963089
-3.0636134 7.3001614 26.584167
26.877571 128.263 32.735508
5.7598705 130.2395 64.654823
-8.3731489 2.1628532 2.5104611
-57.249527 42.139206 67.235985
35.467808 80.96463 45.166637
187.33041 23.162516 97.462723
104.72738 125.61511 30.838764
110.567 116.09897 26.18972
-29.907141 150.71619 37.475052
125.8848 3.9779782 78.329155
18.230474 74.684486 31.8097
255.18819 141.21913 52.361572
272.12271 4.909122 46.891434
229.91107 14.162855 3.9861119
105.42577 133.07629 26.400013
220.52501 135.64925 86.42733
-44.736328 5.9522371 44.689503
-20.17532 27.387398 55.969021
207.25204 9.008688 32.308704
301.09219 135.57939 35.764095
120.43974 132.12418 25.853464
172.48775 6.5701065 79.052963
37.734066 144.10873 36.221188
86.268677 67.560471 28.148169
152.07474 19.493299 31.02137
28.184546 78.257477 80.79863
43.341118 129.90892 31.281738
258.16876 -12.926685 30.339478
30.64267 142.09634 98.00235
98.835327 60.305653 70.542366
149.21265 135.99228 24.806049
100.28979 48.779121 70.664925
-50.961777 20.706057 92.123589
162.85962 112.5704 77.399872
30.534252 38.366562 49.379299
228.88437 56.70694 86.817039
177.43341 90.923752 103.88144
30.602997 109.49906 125.69682
309.81995 59.969421 37.3055
54.353447 137.74454 70.643623
147.49757 107.52988 118.04265
65.080856 121.0506 42.8181
173.5881 65.066574 23.918701
49.303337 23.987137 126.68569
3.0231233 121.1722 119.86024
265.96924 85.365494 79.776291
-61.514641 70.91243 74.492905
29.52116 67.71814 71.800636
130.66441 108.97632 25.481255
12.950142 42.87693 31.8097
18.067165 145.61908 58.574844
123.91022 141.98349 90.074234
-16.977255 146.54932 17.720573
25.504313 49.867134 47.330971
107.89362 141.40222 64.615265
24.778009 26.560986 86.532486
127.99926 150.83218 67.886475
148.9556 101.72612 84.329521
67.122726 101.7922 42.953465
41.9067 136.2666 59.45208
90.310493 26.997768 127.881
23.353281 19.626513 94.22757
24.435184 130.23163 94.787514
250.66785 11.20005 4.2294831
307.7135 100.68559 54.119034
164.52573 103.298 110.19841
131.39357 102.71663 123.56219
102.68785 114.2262 26.499672
147.42867 99.955727 24.870987
28.91943 84.944809 125.52744
212.20433 154.88387 33.720459
116.69694 82.274643 25.989697
192.45117 47.316257 55.654583
256.40274 28.6945 55.852459
3.0060084 17.014938 5.5950599
-10.735966 146.60471 88.397903
286.76099 138.25294 69.541275
-18.8603 137.65163 22.237896
252.21593 28.6945 34.533035
230.88731 152.50526 13.047581
114.74073 133.76001 35.277302
8.8824415 11.644094 102.44472
-0.19841087 102.19851 118.85057
96.557953 109.28529 40.616333
148.30573 15.134386 74.14872
222.51266 59.896629 87.621887
185.10394 54.319996 55.635658
213.36746 143.59172 83.044868
271.12354 1.373523 38.269287
-59.405075 89.938049 78.990303
18.325674 16.889759 45.846325
172.04276 125.4761 59.32489
2.6308248 17.435701 7.1029606
49.922966 54.656242 41.813244
-8.7505646 147.60934 49.309334
49.664032 84.52729 127.61453
124.56516 123.44044 36.360928
175.2467 142.81432 84.616837
33.240715 128.263 27.205275
273.77496 153.39803 51.730087
115.33647 91.034439 26.039223
168.56841 10.600045 31.238735
140.23148 143.22092 29.714062
-7.7072811 149.6734 17.989277
-9.7023306 134.18127 55.274925
141.18684 147.90199 47.861805
170.8073 66.325279 24.01993
-41.482258 4.0197082 51.825333
234.9882 94.717514 85.621773
64.467697 137.13284 78.580338
122.8548 139.09813 70.866074
116.10531 112.74876 26.011246
249.30162 -3.7363477 37.786789
157.19359 25.385151 24.515505
292.80579 11.976419 57.757481
256.15607 125.59142 61.290359
147.83054 11.424809 56.14727
21.225641 109.90159 66.312866
101.89171 134.50089 82.637909
257.1543 130.75714 12.691936
103.87923 118.30552 127.45565
-7.3386707 11.073679 50.193092
194.97264 67.865326 23.327
25.564152 5.9579177 48.528328
220.72302 148.65602 55.326351
-4.7303958 147.55545 51.225792
11.16157 144.65508 0.97246343
-30.930187 128.47 76.500641
94.893883 59.931965 73.07254
143.79915 2.6259749 56.224228
-11.472638 67.511086 31.8097
137.00706 52.074673 25.250351
248.60687 147.02521 17.177069
239.57047 62.684662 84.827187
237.02472 10.719498 28.310017
21.911594 135.38365 16.690355
98.72197 123.52731 37.902649
172.05235 14.591246 62.00906
65.799294 53.970551 127.881
170.16315 116.11163 78.653076
19.866703 152.63609 12.017649
20.323406 104.11243 105.10351
162.5659 59.707603 49.858391
-47.746742 7.1602931 53.733131
68.203217 16.075016 110.49347
279.3515 85.33728 76.836609
198.04294 0.67307198 58.78595
-57.816269 109.45111 27.529356
125.4424 75.328308 124.79648
117.96345 116.45087 35.937851
178.22586 7.1069164 79.453011
198.78763 151.65585 48.801403
263.35345 124.765 47.585743
11.485751 49.542374 121.97076
65.318024 6.1607518 57.403252
241.47598 122.97758 83.982147
258.62097 140.67397 47.711079
161.37442 5.5574899 65.005234
265.12231 140.07455 24.372618
231.13382 124.765 60.299824
27.776281 125.15178 37.25071
151.25946 142.54312 60.822739
228.12906 9.0675077 80.932251
78.895576 93.148758 43.785664
-23.956474 19.94698 47.999081
140.46368 145.22635 83.388077
167.94472 23.177025 62.396255
153.30043 82.700119 115.87016
32.134426 131.96899 24.679256
299.72061 47.255417 61.487003
237.52353 138.909 9.2789602
234.60568 8.7509766 18.058144
279.6561 98.368118 76.695305
130.10593 45.756969 25.501572
-46.660057 37.258907 56.285896
27.71209 115.96124 125.40598
224.92204 143.134 57.206192
142.03783 35.510799 25.067215
305.99457 117.4556 38.066307
-13.951925 135.25412 56.635963
95.363281 137.44165 80.000229
59.917023 90.993462 43.026886
24.285175 8.5774231 50.074345
103.03925 133.14996 29.174255
293.43686 131.16597 64.013283
130.45842 13.849315 25.488739
196.84425 34.656364 50.596378
28.24246 21.631001 29.465425
215.66318 15.549052 44.80648
303.94458 84.697258 61.848198
17.468288 35.348698 110.4175
211.89746 28.593201 47.120491
16.364576 54.611828 95.225998
147.59839 114.86214 24.864811
68.287926 15.04409 84.972824
90.308952 39.22414 52.429768
-54.109798 99.819206 60.634537
57.617012 24.398678 42.391022
161.1199 13.734859 84.97348
97.364868 19.771841 51.053162
165.06709 79.100082 89.50029
65.003265 85.741341 127.881
134.50493 72.487854 122.49582
107.92962 12.048208 26.308847
300.25635 23.411129 32.317146
57.339577 138.66351 64.513069
-6.0400457 92.529091 117.08067
129.59668 13.85117 25.520107
299.87381 104.70625 65.676804
77.59993 139.70015 92.241043
310.68481 83.127594 51.334614
155.13535 97.731773 114.94574
4.0176411 5.3600636 51.402626
155.78476 94.205704 114.62814
73.240707 113.09998 127.881
63.913525 17.066708 45.476219
280.63611 53.701859 76.496201
258.91589 127.20004 78.454933
287.75342 24.632536 71.377792
79.870895 24.775211 127.38957
241.43143 5.8910155 64.625336
279.59521 53.864532 76.749855
84.188332 131.45654 27.173103
100.91881 30.505583 40.753403
-29.072561 129.94804 83.882286
237.50092 52.801441 85.63459
93.298752 80.839348 127.881
277.67422 115.32915 77.053932
204.36432 60.810387 90.517273
156.45511 105.68471 114.25188
49.080223 101.47847 41.757374
110.52772 5.3127055 32.818707
278.25293 137.42406 77.212067
-52.852234 109.63904 55.674286
189.69408 46.63662 23.332386
121.03598 134.23611 36.102287
32.194534 8.769187 35.501202
26.227196 71.123322 44.123009
152.94717 27.527836 36.848419
13.154379 8e-06 52.733852
28.379068 18.796757 71.192207
140.31261 3.5155525 32.405045
15.439224 67.344788 95.225998
275.93616 132.31706 22.162312
25.463493 131.68689 92.691147
23.773443 104.06814 84.089157
251.1218 2.2500067 21.131702
29.801487 81.177185 70.221352
61.117706 19.437246 43.229729
113.26088 28.253922 37.650154
84.348663 142.21414 91.494949
110.96585 131.82245 39.586727
16.651619 44.915115 86.60643
156.07828 151.28711 60.266556
145.97876 55.860451 118.56317
-3.9391797 6.711761 1.0114105
-22.562756 36.381668 31.8097
32.724182 151.35713 25.904438
-12.171484 150.07281 16.775969
251.98813 107.88342 83.320961
-1.8484199 151.40674 40.43409
1.7209504 6.2277422 24.428663
145.4003 17.90675 28.491249
237.93002 143.56555 56.405945
147.4003 35.851044 24.878666
113.0022 113.82286 126.33031
155.05067 103.16463 24.593525
227.32047 151.81927 14.929659
73.173721 74.737732 27.574059
24.951359 40.82526 49.783405
159.41811 60.30867 36.849838
102.83611 102.25072 61.726311
164.32207 13.373446 24.256006
205.49716 142.66879 85.332169
-17.503519 146.92303 9.0478773
-29.478804 11.517683 38.395767
21.748642 74.336205 63.99313
163.14861 96.319275 68.850937
74.29158 42.834534 30.142113
24.241508 44.56929 102.26083
87.438225 144.65044 56.098877
93.769005 28.245377 48.804741
0.035340309 62.209816 54.469498
122.8937 146.08112 32.368553
20.650229 43.370514 110.20943
204.16748 2.0645065 25.988632
227.21251 148.08978 14.981022
39.31834 95.511139 126.57365
25.438614 133.71817 93.683914
-16.168367 80.419044 31.8097
51.456554 70.52301 42.703945
98.549034 92.777237 26.650326
12.955327 27.826439 54.887108
171.60672 17.820719 90.514252
105.52296 144.98593 44.932243
-14.400627 128.263 28.29253
-10.19788 141.51027 3.5136099
103.59878 141.36575 55.009617
102.89944 96.188728 26.491961
137.25882 98.636703 25.239643
202.2576 83.144051 91.633232
92.591347 34.97205 26.867203
45.790459 68.558685 42.93808
14.876138 4.5597901 50.128384
200.43864 138.94783 23.327
274.26944 28.6945 32.528488
115.64059 71.627907 126.00489
26.820049 7.7938442 33.816086
77.61795 135.12358 118.3139
138.60565 151.04028 75.449745
305.15787 83.52124 56.53331
23.498156 103.14762 86.219063
250.14621 151.27829 60.036682
129.48515 143.78551 54.160633
129.38129 65.957695 124.25204
24.906948 39.012482 49.980312
134.54999 102.93006 122.48065
98.411552 18.850403 81.010033
241.35423 28.6945 20.503145
166.56668 50.200916 80.021103
47.689651 55.86285 127.41587
-20.66527 24.768314 51.792824
126.04332 2.8520203 59.293396
246.32825 22.480639 64.008705
228.16362 162.93211 42.928841
43.304855 150.44797 64.97419
-20.964443 5.1678033 73.604248
-1.9616339 16.364979 57.890221
-54.384781 55.270668 62.742828
248.67776 149.95563 63.632751
84.775742 138.90437 91.477348
139.17285 16.702976 84.175568
126.4456 3.2144399 41.548904
25.748398 18.948021 72.936539
230.26768 140.29279 10.078202
-10.806298 128.263 30.743511
163.73468 139.55571 56.324173
300.33109 85.101295 64.703568
-31.510895 6.430295 29.449295
148.62872 73.690262 117.655
111.91545 143.99536 86.995514
69.185226 78.878387 43.380665
9.9765873 146.019 28.629272
218.75691 3.930232 74.58036
229.3627 16.029366 58.113121
-2.0826104 149.70801 16.844362
17.499704 72.987877 82.843582
152.5446 138.44511 70.710548
-12.999506 128.263 33.950119
65.212456 13.027898 59.227783
-14.876476 128.263 35.840694
