# .PCD v0.7 - Point Cloud Data file format
VERSION 0.7
FIELDS x y z
SIZE 4 4 4
TYPE F F F
COUNT 1 1 1
WIDTH 1614
HEIGHT 1
VIEWPOINT 0 0 0 1 0 0 0
POINTS 1614
DATA ascii
1841.3796 650.06677 888.44373
2698.8232 1414.8124 212.05798
1746.8889 1181.415 423.01984
3252.8142 1775.934 527.57825
4630.2598 794.83936 495.86371
4407.001 584.18378 295.11752
1495.7482 1905.2059 478.76001
125.38445 1126.1011 279.0274
347.01303 1179.2004 211.42229
2394.7009 1176.6064 686.91132
2526.3948 922.18658 1384.5571
500.78552 286.04642 314.33423
2446.1982 1907.4988 775.56403
2302.5684 828.88812 218.86066
1023.3859 1796.3313 867.70245
2702.3123 126.81483 553.23767
3208.7002 964.48547 1368.512
1106.6094 187.98654 243.13675
2709.0825 1109.9058 1415.4174
1620.5962 366.92191 908.22455
4012.4714 1253.5048 234.1489
3456.6245 869.34985 1054.7175
172.33531 988.54858 612.9328
485.72464 1727.4833 744.24561
1752.6436 472.65051 1199.6544
2630.6763 916.87604 343.09442
3230.3186 527.14764 466.04205
1148.8621 1976.9719 250.6658
3805.2102 1300.0598 276.68713
1920.188 657.724 809.08533
3299.1726 1199.6426 1374.9736
2100.6541 1583.5676 212.95624
2620.4529 1448.9559 1366.4452
4426.9668 1638.6741 919.52112
2566.7993 1675.8557 1188.0679
3461.0903 1640.9707 119.13266
1740.105 1054.1023 757.29431
4554.8037 1057.3909 998.52844
2487.9578 1564.689 1334.2313
4258.7861 1809.9844 418.70862
2689.8574 1167.8813 1392.5813
850.30902 1822.2693 295.79456
4362.7046 966.88599 1060.9614
2003.3645 243.20377 712.99756
3361.7366 1248.5829 619.90881
4054.9653 262.93079 541.89728
2569.6169 770.79102 1404.2695
1053.5021 589.48804 330.51517
4383.0176 627.44128 1051.6001
3431.8306 293.46313 1106.4686
3237.8767 619.69135 1366.985
1411.7319 1104.9928 1065.0029
2014.6223 1888.6749 303.23154
4487.2686 494.88388 801.81213
4536.1157 1602.3016 276.957
3931.8264 1429.0708 1078.512
2097.6279 1140.12 489.17651
3534.2642 582.83588 864.9021
1160.9884 874.33447 963.93488
3540.5039 1517.7192 873.50745
137.02966 1180.0354 501.38342
1416.236 377.39062 254.44485
3392.6201 572.72046 1338.5424
1399.4829 506.5412 362.18909
3481.8384 1858.5336 709.94287
1390.3918 1575.8716 402.57541
2678.2351 1135.9702 1415.3469
2097.7881 1162.421 1358.3212
4021.144 812.49664 1121.0684
1765.6472 231.7816 957.27515
1942.7214 1096.4697 479.86252
4018.0332 174.65346 743.81042
3153.1008 1215.0657 1391.515
3449.001 813.51367 1335.1683
1475.439 544.06012 1074.5273
3262.4248 1036.5675 770.11426
3502.4148 303.12241 1121.4366
1265.3608 1373.2397 973.10022
3152.3279 433.88248 628.97662
710.15125 1461.1494 196.01349
1521.3552 1631.6019 1082.9662
4575.917 1261.5156 837.83771
1740.3884 1185.052 442.87219
3471.1873 1564.1366 774.77124
4315.478 1308.3582 1058.8387
325.25653 1106.3306 894.59766
339.88098 529.74988 618.15936
1640.5297 358.84387 622.79297
3318.2915 340.63507 671.40247
229.62407 995.38922 760.16895
3134.9312 1025.1794 206.08755
1392.6433 1696.5692 467.46631
4009.6211 571.36517 1105.4183
1717.3186 222.17299 631.52234
1673.1702 145.35863 948.10602
3211.4229 1639.1361 459.88971
3744.4136 574.19788 345.81601
525.38385 1761.5474 709.04126
1366.0801 1810.644 339.74759
3724.3213 1640.0089 1054.8804
2500.7124 1728.3149 212.12111
1744.9954 1990.8575 1003.195
1665.0283 1818.922 998.25043
2016.2128 418.21188 373.76773
3199.4854 381.60968 500.14746
1203.6466 571.20184 293.16238
3285.5337 353.51605 555.22003
1609.9437 1561.3336 860.32739
204.68655 1597.3733 208.89186
2623.7585 755.3103 1408.2469
675.41162 617.2157 193.22696
2681.9067 1380.7042 212.05801
3274.2354 160.12517 866.19611
1282.14 369.01364 610.51794
4622.5161 659.41992 377.96753
3805.2937 523.11053 655.66229
2424.7996 151.49948 611.04102
2342.9512 749.57349 1367.5797
436.92682 366.41095 191.04938
205.73274 1226.5736 667.36975
4640.3823 1027.8547 268.84576
4399.832 1496.3925 911.33447
1078.016 212.71191 316.61542
3058.0122 883.19879 326.0751
735.95557 269.14761 512.70276
185.49283 667.51562 420.51437
1167.9828 1788.5897 319.73111
1811.8832 875.0127 371.54767
1467.543 813.01807 1088.427
4545.7593 1313.3467 959.23267
1771.3264 703.25104 984.34265
1711.1951 1190.6375 759.08142
3248.0127 522.38422 1335.9779
474.70474 215.44115 685.91577
3536.5498 222.85699 198.27969
3991.1372 745.61432 1131.2432
2589.655 1761.3577 212.058
4354.0044 966.73926 208.29037
728.453 1112.4341 197.48151
3274.6646 1116.1532 789.78186
4648.4907 1030.7789 306.89987
882.6698 1217.3063 325.64789
1352.9269 230.22879 412.99841
2748.4229 1459.2518 1394.5819
1589.8574 811.54443 420.81711
461.76288 1746.6725 697.33679
3458.4724 1178.8319 757.54517
1072.8821 1475.3901 211.86513
3737.5959 1874.9414 837.70447
4582.2549 1284.423 674.9306
3922.3257 825.26794 1076.6055
569.61426 260.90375 720.89856
3896.2583 926.91211 209.90863
574.38635 547.86237 335.8479
1689.9536 148.41144 397.36084
4050.0869 216.05394 520.25024
2060.9834 1310.7428 212.51805
3370.6235 1812.1055 982.66925
4533.4746 1369.1833 995.57825
1053.2373 578.55304 966.78125
1372.0414 138.28871 619.078
2591.0869 1720.9866 1058.6794
1413.7314 1629.9753 271.47125
4232.6797 1093.1697 1067.5585
3119.5757 1623.1049 1314.1716
3838.9719 533.56836 583.80634
2580.0427 380.56018 1215.9584
4303.5879 765.30658 247.84218
2545.6328 1377.1936 1168.3202
2640.1379 1129.6089 341.80383
1684.3812 777.59766 698.33569
1225.05 1730.3472 371.35571
1303.1099 923.30243 1003.2124
4000.1165 1473.1852 244.83633
550.57001 1170.5093 190.30244
1788.9626 845.64709 561.0556
1637.5618 330.68954 1115.358
949.20776 1485.6636 678.57611
816.07098 1825.783 733.31232
3996.844 1523.6062 516.63147
513.87506 420.54446 414.43347
4541.6338 1443.738 649.84802
3891.9832 1480.2595 461.08093
546.97162 194.80762 409.39038
3178.6423 212.08662 967.24707
3837.0674 1689.8218 1108.5405
302.26111 1234.2068 826.37073
4643.1943 1064.7637 483.47879
356.61343 489.52454 662.98486
4501.8467 952.89679 243.15565
2288.3179 1681.7308 532.20453
301.97208 1165.8324 820.83673
3932.896 1896.8049 357.96356
3515.2979 1885.363 129.02011
3287.675 238.47095 619.99512
1207.6897 210.06985 666.14014
4535.7656 1380.062 796.9541
3538.3818 452.60751 1270.953
4628.3652 799.44775 515.24475
1310.7722 553.25409 313.26706
1595.6509 302.3425 965.1178
2054.0286 1513.9084 1320.576
126.94096 906.38977 519.17767
2137.5432 1728.7792 1135.7441
4223.6943 1683.9331 1023.9275
3218.4053 379.03723 1267.5192
3414.7874 447.0434 749.65894
3005.7476 984.2915 341.77957
1352.0149 174.28287 780.91138
3445.7102 1782.1719 400.31738
220.83037 1462.7002 222.69482
1198.7788 1034.384 259.21582
2229.6323 990.84155 1363.184
4384.3516 1594.6073 940.58301
3305.4937 291.80847 1049.0564
1650.6169 340.59454 1125.434
1002.6658 903.17169 325.53207
4493.3335 599.1142 858.31555
1736.8708 850.12708 402.45319
3345.2876 1042.7368 596.59949
984.96185 279.13397 336.26468
2927.2793 1901.0979 634.26465
3382.6609 1019.7875 1348.9998
2305.8872 1075.2671 1368.2588
2250.5005 681.11548 1377.115
2307.3513 789.62567 326.20737
89.708855 1277.837 519.34052
2072.5713 1330.0637 361.77649
1004.3709 1178.3073 313.67664
2374.9197 576.19006 310.94626
2689.7854 225.01627 356.06403
2373.5007 819.99329 1370.7987
4450.4663 1476.012 319.30536
2884.7585 132.72284 579.69427
4065.771 1380.6333 325.99228
525.38684 463.98813 474.23361
4384.3267 1050.9678 208.95198
3671.1694 1626.0632 1210.4387
3990.3774 713.79816 217.37027
1550.022 762.8866 947.46948
1586.8706 1697.9532 1094.0479
4540.9741 863.8562 254.39099
1305.0032 1288.925 947.17535
4036.6948 1841.4729 456.55566
3004.7449 1796.9993 465.86005
4580.8921 759.95337 718.77246
3533.7388 463.56067 1266.5347
4398.7197 1676.7693 945.18378
1649.306 392.88254 902.78778
3205.3247 337.84921 509.50058
327.25089 467.48755 626.07855
3860.885 1475.39 354.68478
2171.8208 1313.3389 212.418
3718.939 543.26971 629.46185
2104.6997 1394.4364 361.34433
1988.6554 1207.6472 212.58333
176.81834 980.55756 601.42627
3352.0486 1713.9344 701.22864
2119.5728 1880.01 280.24347
455.32959 1259.9114 198.63533
1086.3259 120.42234 704.70911
168.69293 1529.87 239.39978
1910.3447 1801.4684 605.46729
696.2951 1475.39 293.32596
2091.0664 942.62323 1358.2147
3888.5684 1251.385 1073.7346
1328.0636 488.83701 219.95003
2459.6069 1661.4888 1265.075
885.68933 1840.598 364.94016
4562.3623 1414.1543 659.61719
1087.8292 241.93413 140.72588
552.23389 1862.0823 289.57098
3152.9233 142.91222 789.74902
3446.5322 1777.23 305.40356
3145.957 1374.8235 346.7774
118.56459 1245.0391 232.14703
4038.585 510.93423 1083.3903
785.93842 1878.4812 676.53302
3183.5168 571.06592 668.92151
2070.3999 1054.9419 487.21225
1460.3036 1699.0615 1035.1228
2127.5542 1490.593 1346.079
192.15317 1067.9055 597.75793
1805.594 1344.4238 213.10278
1677.0793 603.64795 701.79987
1523.8884 1252.6239 248.2121
1381.9429 569.86176 945.87177
1092.6348 568.26752 540.21533
317.04349 1418.8323 762.61835
628.41016 1596.3688 641.48022
3824.9092 139.17101 253.30107
1155.733 289.34177 937.75
929.62585 1888.2725 691.43622
3404.9497 760.30566 1338.9089
1665.4285 288.66339 1081.0547
2459.2793 508.3606 461.06134
3986.9248 1737.5227 649.81506
1396.7686 1522.8804 376.99506
82.491798 1080.1658 502.79626
3439.4487 1307.9907 730.40216
806.06708 1475.39 407.73535
3251.7009 598.62964 483.05801
1656.0032 1255.4169 641.74646
3507.9409 876.79999 1049.6926
3943.8721 1833.8378 942.05182
1062.9349 1912.2848 672.93903
3211.5767 283.53738 717.52356
2572.4575 1741.8501 212.058
4195.3892 1340.6769 1063.8263
3944.9863 1812.598 260.74603
2274.7168 1681.3599 525.38428
216.81055 786.42212 681.14136
3577.6567 369.6098 1012.2228
986.47101 859.08502 325.55603
991.98657 1739.4946 111.94034
151.11655 795.3681 573.3562
3361.3135 799.22913 619.31885
3907.8096 503.29126 1140.849
3868.9668 1143.8171 1191.8845
139.38113 879.78473 502.46375
3681.1809 1478.0892 1243.2485
197.77711 1200.2969 226.01601
1644.9375 1532.3162 668.04358
1355.4565 1761.5977 401.36996
3578.8794 1422.2773 186.24628
116.12996 789.69733 298.93488
1707.8118 1902.1477 433.08502
1455.0996 1613.3478 940.05273
3335.7993 1591.0459 686.87146
3889.3315 718.45441 227.84258
4533.2969 1480.2942 888.03766
4027.0764 1842.9493 887.22253
930.67462 694.25946 176.46104
2913.6001 1470.6421 429.84637
4497.1084 467.95392 827.99609
1702.8931 1897.2245 761.41663
515.19745 426.28964 421.30307
3297.6047 1527.7504 550.78943
4050.5332 477.31705 1073.0536
2211.7688 1040.5079 495.54257
2510.8308 663.7724 212.11197
2110.2812 474.04529 355.59308
4440.042 319.8067 786.34155
778.79572 627.72778 976.05786
3675.0044 1262.3762 330.16187
3458.8359 1275.1835 758.03571
3410.3574 836.99274 689.10645
224.08287 577.29675 381.14386
4518.5781 797.21313 1038.5496
2095.1343 883.82703 1357.9204
2514.2937 765.48938 1379.9427
1588.5742 1249.8344 532.73199
1922.7832 1239.9554 1298.3779
639.63159 1821.6742 777.26721
3236.1267 1108.2422 1385.6462
2518.333 1796.7952 212.21967
2434.145 1777.5197 619.92432
1221.947 1783.2986 671.73566
120.0568 1463.1316 533.27124
2108.7498 597.38971 1330.6482
1984.2704 496.88156 1296.626
3103.3306 1515.6721 1344.1001
2569.7446 450.90121 212.05878
1531.0548 1235.3176 295.711
1480.8771 797.34186 397.56268
511.38055 468.37848 401.47516
3623.9578 1316.7009 370.52145
4415.5308 1246.8381 1055.1589
935.66479 591.26514 347.43613
1509.4471 1335.9271 1103.8999
1851.4626 152.7191 282.24298
277.72803 1084.72 757.52136
2534.813 839.10864 1383.1359
4570.7817 440.29276 550.89954
3024.0947 1083.0725 404.80945
3149.0781 1794.908 566.61786
1208.7345 1255.2657 937.26428
3126.7268 1051.2194 1400.4927
2083.1919 481.0256 357.90631
2597.688 1752.2643 938.56128
2482.0771 1534.2913 827.06995
4633.9692 1003.0071 541.72839
2660.3989 1785.6812 516.89642
1343.0795 355.08331 458.26416
4273.7798 1515.3984 232.58975
1910.7068 1885.5122 286.81174
4643.6108 876.86279 461.63556
1507.0977 351.51419 936.36188
2169.6748 1059.5864 1356.7881
1184.0693 1062.9425 934.2608
979.92053 1795.0898 334.38959
4057.8503 698.85699 163.7847
3409.0308 139.431 744.39941
3315.2871 448.9064 668.74774
3445.2788 268.33191 195.48248
2163.5752 1810.1743 460.95004
3076.9077 966.71576 341.76562
4466.1973 1678.2949 823.83191
977.77875 1891.0093 79.203636
4268.5093 1435.8811 347.00903
2781.1245 621.73041 1399.1445
4038.073 1535.3064 501.9483
1989.397 1100.6152 1328.3646
858.16449 1828.5959 538.43494
1917.9175 1677.2107 1224.9647
3208.2778 1893.89 555.13745
3698.958 1478.4849 595.76892
4626.7632 923.46716 552.61401
3094.0068 1204.8665 1398.8035
2788.1411 1766.5388 724.11243
3053.8152 1302.6366 1400.0078
2368.4729 1557.8391 1366.3884
2141.9219 178.58911 886.24933
4166.647 236.29027 958.4646
2762.4897 1006.6969 1417.1479
4391.5386 1215.8784 222.40645
2431.53 1485.0078 291.24176
3922.4663 630.86676 1077.2747
2197.2346 1161.1699 304.43643
4485.3877 414.00098 815.16235
2279.0657 227.68365 465.05383
404.37119 1765.4332 432.59006
4634.3765 834.11426 568.85107
3398.5349 343.36951 997.77405
676.20642 168.27808 301.14859
1047.1764 223.1685 431.22714
3358.3262 257.01257 1006.869
1942.8781 1154.0659 366.96625
3441.5566 1200.8167 1034.5249
270.35239 1597.2115 696.68115
2372.3047 679.02783 311.36182
3967.8945 1493.6827 378.83115
3841.082 386.01846 1135.5345
2976.7354 1346.2023 1383.5791
2177.7983 1499.8744 1358.7073
3847.74 274.33176 757.30579
1726.1707 1180.0325 335.80054
4582.6372 860.20447 857.1322
3938.8875 1311.2771 244.49979
1664.8387 671.23309 967.05908
1760.717 216.70708 924.98785
2310.5256 844.76184 548.52856
4640.8306 799.40155 498.39233
687.09515 1737.3224 264.46536
1109.4392 340.53433 374.77332
1131.6101 651.03784 957.77881
896.00446 128.94116 321.51862
1416.8719 1776.8325 962.58588
2871.9893 1578.8715 212.058
145.60101 803.91907 314.65012
1432.134 1349.0188 231.47421
956.92932 279.32852 763.75476
2858.7305 219.49532 275.19989
1904.7677 534.57513 213.3633
2739.5703 1774.2515 604.79205
1823.8043 1737.0547 1112.8503
3521.9331 1806.3329 993.71387
4290.0405 1328.2478 279.49991
2810.4546 160.09166 313.70935
3352.5325 384.11844 490.00513
4189.9102 732.11743 241.92455
3037.2588 220.9586 308.1412
3727.2339 418.25455 249.81706
4295.2891 1683.8174 945.13989
2329.0544 137.9229 818.66455
1038.2393 1590.9525 944.69092
2014.5059 1331.7722 212.56001
4044.937 552.76453 255.04507
1065.3972 1660.2637 747.7793
1428.5082 581.89514 230.71049
4509.8979 1319.3574 1040.6515
602.32068 819.9696 948.36945
1487.7285 1035.9982 261.57333
205.43109 1637.2405 297.78082
370.73187 1631.7026 194.91054
85.491798 1220.3176 435.51605
4617.3926 1189.3745 507.75195
1979.1353 1904.6416 720.90759
3515.6528 487.52716 1277.9607
2340.2678 1822.1619 282.53201
1044.886 180.43175 51.361626
2996.436 1044.8422 1391.4563
237.80115 1327.5947 669.69586
1987.4133 1775.6317 768.04169
4120.5127 454.59647 1052.54
2552.0806 282.43167 960.14655
2783.6602 960.39978 341.7774
4476.481 546.3606 1017.8051
3057.6753 1357.8456 230.28699
3701.4656 665.64874 1253.115
1073.1333 1500.1698 684.42914
938.34802 1714.1389 282.4657
2304.9514 391.64493 509.28476
278.16589 1598.759 648.45337
1147.9792 408.69525 441.81207
3244.4846 1404.158 470.48389
2968.2554 270.23187 929.16089
1168.7548 1848.4736 126.08544
82.195404 682.33392 402.33801
3245.8442 1816.5339 546.15881
1270.9907 489.24252 619.93756
2368.0081 848.22009 268.89078
2911.5396 1548.3375 1340.7258
2569.6943 685.28723 1401.8258
4165.3057 969.33942 1071.5258
4465.4287 385.24045 777.07526
3318.2031 1327.7052 859.16064
3067.3887 1765.1396 340.75458
1265.2471 247.48563 919.1936
2206.5295 461.80371 1315.1001
2370.8354 707.45435 311.59528
920.41718 299.82205 83.277023
534.23926 316.31534 781.80054
2615.0369 1888.2139 863.37946
4303.1748 276.04453 790.42615
4545.3647 1554.3823 280.2807
1023.5843 1795.3848 471.99066
1310.2114 1203.3926 945.6925
2317.1592 1447.1167 433.88568
3427.7769 1825.0706 226.69391
1329.6985 315.33096 519.77148
1817.3992 861.46906 1257.5818
4471.002 1492.7368 908.68451
4554.8887 968.18781 995.76617
4177.6113 791.43756 231.2542
4054.4993 181.74142 780.88806
4066.5374 803.25452 1096.2739
2324.2705 1468.8408 212.28038
3770.2124 840.14258 1062.3286
504.60898 1698.3668 366.29907
2706.2534 1814.9344 303.05255
4020.8296 866.78461 1099.0214
2985.3699 1802.7084 995.38269
2169.2922 1676.6516 314.4386
3104.1968 1246.0068 1396.1353
2837.7148 272.42828 1086.2985
839.29736 1259.6917 279.53357
1663.6099 800.68652 616.29089
1709.2023 1262.6451 1204.7401
2918.9019 446.85022 212.05801
1623.4761 1613.5043 1135.7743
3408.1953 1562.5096 1315.4408
3122.5737 1670.6545 1241.5442
3398.9805 1395.045 1028.3008
3842.4434 597.96338 325.42487
4526.5391 565.35046 773.68549
3404.5229 1298.9492 1357.2556
4198.8862 1827.3326 244.55998
756.5719 978.13318 199.73695
1671.6185 1202.4675 408.59747
2606.9541 1176.2957 1409.9204
2838.1982 425.00647 1339.205
2710.145 1042.931 1417.4994
2212.4668 1874.8475 858.72308
4586.3799 1003.975 254.39101
3835.6299 157.14717 210.03975
4098.0518 321.36923 410.0387
501.6474 466.78076 350.91449
3941.5698 1313.0859 223.61456
3579.5354 1133.5836 998.40936
3039.9673 1190.8308 402.995
448.48755 974.89099 202.95883
2927.6704 842.18909 427.10474
3514.8181 1612.2123 836.51941
1418.684 1297.3145 306.40863
3721.6882 1268.0148 1056.2708
2181.6743 713.60168 212.40909
84.167168 1395.9705 245.89426
2390.0869 652.677 1384.5852
1648.4456 1782.7372 994.32141
2064.4724 1909.953 630.66815
416.22791 1824.1627 442.23581
3238.3906 602.0744 466.41132
1132.9409 312.03601 519.27002
3136.7686 632.90063 1380.6979
149.01715 773.91467 408.47876
1475.6807 455.03387 1064.2664
4093.3569 1488.2761 265.14755
3129.7834 226.95816 381.50214
4140.0693 247.22995 966.27191
3413.3267 1395.5027 692.82117
2723.4727 170.31096 902.784
919.69092 295.60223 651.12366
3660.9246 120.57815 746.07581
589.63287 166.2028 377.24573
268.44418 580.42676 218.68814
2847.3479 1510.4396 446.15778
667.56653 1899.4231 662.09003
1646.5521 1186.8602 850.31171
3401.2974 1675.8156 695.78125
1621.0648 307.15662 216.75317
4241.5996 1655.0713 1033.0487
2472.0583 1724.0668 1158.6072
68.186996 1045.8153 357.06183
1584.5166 820.19751 343.89877
3219.9277 413.47986 1312.5378
502.20035 1160.9182 919.68909
3257.479 232.93823 593.04132
3057.1277 401.57089 350.79855
3797.5413 312.3801 1087.7312
3029.8694 260.29361 778.22736
1083.7783 1395.3328 207.84381
2439.7595 1142.1775 382.93402
4040.543 1874.3844 317.51672
4007.001 674.39819 1096.481
475.2724 1774.6323 687.7865
2583.822 1756.8815 738.09521
3238.229 461.03183 484.02612
3212.0645 1478.0509 440.32904
2084.2927 866.53589 1343.4265
1521.3024 328.00845 1058.0957
2635.438 364.74814 1181.4568
997.69287 1475.3899 460.0835
2618.4524 1492.9747 1021.7635
339.75916 730.67175 867.34314
369.79407 1735.9197 428.85352
1748.9253 207.50133 374.65668
3085.2898 310.80341 547.76794
652.72229 1475.39 396.38474
3299.6272 1037.0604 1358.4851
1713.429 1805.3477 717.87604
4139.8677 1410.249 310.88242
1342.1652 519.07251 276.69507
531.22253 1583.9807 498.34262
1421.9753 1473.5647 258.44324
3193.4917 1537.0504 336.86676
1806.3334 1968.3766 1025.1964
2451.0098 555.78943 1350.9758
2662.8215 644.93506 1404.4351
2324.397 772.63806 431.07251
3314.0828 198.36885 249.53299
3099.5645 1454.8384 1379.5062
2831.6885 1708.6406 1183.4305
3008.3274 949.86011 1410.6166
3842.8508 287.93674 1045.8167
3893.6785 1412.9248 1162.0403
3511.0444 458.8562 1282.9485
3760.9666 1726.3087 1058.3429
321.39044 456.52728 306.4194
1291.4001 139.96797 720.48199
3773.7607 1524.7417 231.68491
2606.5728 438.23279 1328.6296
4134.7471 239.60495 944.70355
2532.9072 1415.387 1366.531
926.12872 236.63025 422.64825
284.51575 662.98834 660.55481
2064.3042 561.64972 1324.2048
3577.5454 1475.3901 511.77438
3001.2886 1895.1362 771.30951
561.52875 1750.0029 550.79468
3409.0425 992.81702 979.78333
2416.2271 1740.4678 1126.6892
4520.4062 1518.6373 874.14709
1046.0884 764.74335 211.39023
2391.4141 1642.8496 1295.127
173.98793 532.16608 429.52359
3594.8254 609.49664 189.12761
3063.2581 502.09912 261.82278
595.31592 599.80939 186.80237
902.19012 1438.9137 170.67799
3480.1792 1476.5431 1303.1775
873.00922 1785.5153 259.53094
3428.7749 154.10643 847.15753
2866.7498 1198.197 245.94801
3470.0239 1827.5732 305.16577
3085.7473 1767.0735 915.91809
1632.0966 1662.7871 866.89612
3493.1958 241.69171 356.60864
1924.2527 1043.4965 262.6174
4476.7271 390.60718 902.40704
1458.698 730.77161 1078.1399
2728.814 245.96777 505.36139
965.72058 1767.6099 151.17644
1891.7107 143.14148 370.18188
1207.7512 721.40717 937.38159
2695.4436 1611.7609 1294.2473
1612.916 447.12576 850.19409
4310.7217 1783.83 852.01221
3576.9663 657.57556 1293.6677
2600.2249 1759.4653 712.3172
3080.0037 999.53491 214.94116
1671.5686 220.21069 312.17505
4497.0039 467.84128 262.63913
1103.9663 117.41 653.66351
2969.3833 476.04651 1374.6886
1108.2772 322.7226 643.83777
3997.7429 1431.2494 1096.8857
4628.8232 1384.0565 350.92163
3413.6233 170.85194 897.8205
515.76776 1230.4967 192.75824
267.41644 674.08008 226.54961
2893.3306 276.92267 313.70786
2722.0935 851.35803 471.11353
179.49521 947.32178 618.66986
4074.0747 1560.476 1061.1311
2453.1965 1755.4027 927.12341
3239.4553 1886.0536 821.84436
242.98184 1129.3402 616.8725
1860.5029 296.12958 214.54369
1824.7708 1882.0737 224.11345
3451.2229 257.94751 911.38531
3288.1399 1588.9949 1331.5349
4529.4492 1655.2037 432.0936
835.83502 1623.8992 756.19397
765.88184 131.90465 279.77744
795.52405 1732.4636 388.01239
3871.2703 1715.1309 1078.5944
3469.6208 222.85699 319.57043
2982.9727 133.1001 650.13806
3073.9944 1179.4324 421.1236
2041.4988 263.80991 846.05969
2523.6938 633.1825 905.19531
294.43475 552.93884 211.17828
1349.9264 393.93896 248.58154
219.30682 1352.9042 222.28065
2756.2349 1415.2256 212.058
4145.9355 900.88953 1070.9009
4565.2344 1190.4976 919.83063
4084.9607 1816.7585 407.14709
172.51279 1089.5586 613.2334
2823.2092 1903.0391 589.27454
1789.196 724.61133 1237.6187
3661.7053 1457.6685 204.82849
944.73944 217.89948 387.1416
1357.4221 1148.1864 1031.1935
4649.9058 921.8963 375.51495
2815.136 794.61194 1409.083
1562.671 1621.9357 1104.3733
3346.5637 1781.2208 836.40851
2212.8716 269.01855 862.36139
85.491798 1128.3708 477.55472
3447.0483 1479.1779 527.03217
3719.7322 565.42761 1231.052
1639.0706 519.52222 1154.2794
2688.1133 124.18822 643.43591
2345.3647 798.00775 527.10376
1041.728 526.28906 477.73148
3412.0063 1721.7578 1137.3733
1104.833 1055.4059 206.72061
492.50525 1060.4077 197.50143
1670.8611 272.93536 578.513
1041.5594 1475.39 204.63109
1048.5365 1912.4987 318.47443
944.07581 1807.3844 255.11267
2835.5376 1768.6559 723.03314
3318.3088 1369.9226 1363.6644
1481.7268 1274.3362 1092.5687
3493.2842 394.50916 805.74139
3900.1284 678.23425 1074.8977
2052.0073 176.05931 878.00006
1943.1503 1793.9041 696.72919
2467.7583 840.76978 821.21198
1336.1575 376.94711 233.7547
3225.4583 243.40791 541.75092
923.39258 170.44824 255.57208
2818.4207 431.74075 1345.8107
3163.1699 310.79211 189.26183
4230.7358 718.22852 243.86429
3476.187 253.7197 879.67456
3990.5254 1606.4709 1083.1179
379.8847 1403.0808 862.54401
3412.9365 1333.5527 1026.9242
2832.0356 1485.4451 1389.7632
3445.0686 1045.8992 1031.4427
3312.9011 152.85233 853.95502
4106.4663 1853.6621 621.62598
2621.8223 526.86151 1011.377
1644.469 1410.5 1167.3486
64.945679 738.95703 392.11026
506.06934 330.50314 373.88495
3234.1133 811.71545 1381.811
3477.4626 1118.905 1334.6851
2975.1379 158.78641 341.42645
2063.4275 1767.7786 868.06403
135.492 1116.1912 463.45514
3271.2871 1472.377 797.86371
3581.4878 1769.4187 1046.3894
3079.0479 569.10901 454.66898
1587.0367 1743.2115 923.56647
2131.8848 265.24023 768.1875
3434.7163 367.66913 213.65166
2502.8296 1909.8728 735.80066
3843.3213 933.80896 1204.8162
3389.616 510.36304 1316.5383
1016.0603 310.84064 756.96631
1186.7167 596.59277 242.86812
3111.8809 1785.0498 667.35791
678.13416 1581.8324 424.64374
3989.24 274.13287 647.90845
138.95325 1222.7389 395.48663
3116.1318 197.51987 948.60809
4659.4043 980.62659 574.62463
1342.6274 1853.4009 253.31935
2833.094 958.34973 1392.9559
1329.4073 164.2522 296.68613
1971.6954 1891.7771 277.20294
4291.1035 1471.7053 350.14648
4291.5088 1704.7543 945.0097
4621.396 1198.2225 254.39099
1355.0203 362.33374 403.37595
2378.9473 1367.8024 1364.5396
3714.5774 1266.4843 298.87384
878.45093 1475.3901 556.00073
2889.0759 348.06522 1225.6567
3527.5273 548.87134 1015.6218
3799.311 1278.9006 271.53302
1835.3243 1795.8191 736.27966
2827.2893 768.32074 212.058
2268.104 1890.7261 265.35022
784.74121 1826.7574 722.44525
3991.5234 1153.2837 1137.8698
4416.0942 1019.9769 1058.8159
2427.5544 1279.4359 326.30795
575.35187 405.69705 853.14551
2356.9038 1421.6042 313.80939
3425.085 1703.4565 754.24402
2165.8301 212.9015 377.23083
4413.6968 651.3255 301.37344
135.492 1093.2899 474.58038
3235.9104 181.5807 401.47626
3012.7549 846.06525 1406.8156
4499.3564 332.35507 554.07251
703.39062 1805.548 704.61951
205.29338 929.24603 688.06335
3609.7485 1723.4902 796.05896
456.54465 1440.8325 199.09004
2787.3125 320.11816 1177.9543
1905.12 807.49023 1291.7214
2918.0503 183.80243 926.16693
82.491798 1002.1909 504.24844
965.18903 1385.0466 175.8989
3574.9624 1787.6274 347.76291
66.702904 1261.3004 236.7886
3514.7737 1186.8101 1046.5421
2961.345 1870.7144 140.95018
520.52936 468.26453 449.00052
4652.6167 956.85901 340.83289
2782.6047 1743.6871 1120.2935
3412.0757 302.97168 780.45642
301.39944 1642.4675 633.47455
4439.8652 516.61517 309.56128
4459.146 1665.0671 796.62561
330.62592 465.99207 626.75732
3883.6343 715.90979 218.19852
3030.4448 179.93236 291.56323
287.07803 457.8559 272.29489
3600.0854 1662.8912 2.1581101
2947.1995 1366.2761 1400.2086
3817.6592 310.15198 584.40283
1442.7239 659.146 220.14287
3045.5093 1521.8162 239.74301
3457.1948 160.59279 893.35211
4593.874 873.13409 767.69623
115.93468 763.87927 428.78934
635.05652 231.96678 647.07678
45.137798 1042.9874 365.1434
2886.8433 963.66638 341.76321
3689.2605 451.22888 1218.8596
4623.4961 1416.6532 506.34497
2169.7893 1089.1576 1377.2722
712.55176 1475.3899 556.00568
3769.3506 1791.1782 997.55243
228.61441 1609.78 206.73047
1217.2549 1880.2375 607.04889
3334.6145 1567.3683 600.86914
3330.7363 254.74124 867.49988
3636.6597 1112.3345 360.47888
1354.0094 350.53964 408.02194
2858.78 267.73163 212.05801
1740.2686 357.25412 1145.9994
3372.2258 804.91064 634.84888
1099.0262 280.73495 203.67068
1171.1863 155.03421 813.7334
2969.2424 465.36359 413.38907
527.31738 311.76382 685.81738
4601.2959 1498.7626 441.54471
1240.5494 131.06819 668.06848
3261.7378 438.69888 599.86316
3103.9792 312.19632 393.11783
2804.4199 1369.0271 1381.3599
268.97821 1090.333 726.02972
4343.582 276.93695 835.34973
2111.9355 208.03864 289.93317
89.30864 1240.5112 331.95425
4208.8276 874.6637 1067.3136
281.76303 1675.5399 349.84793
4333.9106 537.2782 201.74149
3528.7754 760.03772 1316.926
2536.8828 416.48828 1331.7209
2567.4636 1888.7684 854.13794
1868.3889 805.29016 907.24487
873.87622 437.01593 758.56909
327.15826 1606.7534 198.41679
238.64273 1622.7515 408.7276
3449.5574 1567.7247 743.7251
109.57151 1219.5674 532.73969
2609.3538 225.33156 362.64871
4109.1943 1808.2174 286.09747
1292.2803 500.65485 353.89673
3535.4014 486.92731 223.6217
4540.7778 1447.4937 832.01221
2767.3735 1361.0133 212.058
3403.7759 1275.4602 1043.5952
138.30136 1213.8361 339.40359
3683.1787 160.77216 865.82556
119.25034 694.73254 363.89548
3250.4355 485.07764 1328.3367
1726.5079 1080.3625 780.13721
1071.3376 1493.6208 167.43872
508.495 1654.6599 386.48566
2240.7275 1543.485 1360.8422
106.41092 1175.9253 297.39105
958.76648 117.41 727.84418
2748.3594 1906.3739 695.95642
1639.807 1336.5759 858.52698
3775.4307 1476.0569 550.87231
1375.1799 1808.9482 225.4711
3655.0786 226.74016 245.28989
2639.2522 1187.3069 263.9223
3018.3662 391.60352 225.95175
855.10693 1475.39 525.89832
3450.2844 377.96301 1238.839
2189.0967 1781.7422 672.65533
2559.699 805.65991 1404.5081
1730.3159 1596.4751 214.46217
2100.2747 1537.3274 212.76247
1655.4888 1518.6132 734.1225
3108.4639 265.43201 350.67667
2309.5874 1353.2689 1362.3508
3593.0332 1614.2986 1014.6719
256.83466 1394.6614 699.31317
2040.1083 1536.0795 1318.9794
852.01703 158.62129 698.78259
2734.7588 1560.9084 1378.0709
3412.7048 143.00169 457.40146
2477.2852 1654.1006 771.9942
3896.1929 1409.47 1161.5308
111.08134 932.77063 396.50003
3556.9858 397.70154 896.5116
1704.3467 139.44621 1035.2124
1750.3342 1897.2635 764.91553
1995.9531 1166.8146 271.68451
4347.6675 1435.2734 194.42928
2122.2974 1137.4974 490.80646
2583.1086 262.28528 212.058
1514.7999 1895.8002 352.81503
714.11719 1331.405 196.3316
704.4184 368.14545 869.72168
1514.2958 1702.6342 218.65898
1659.646 540.37628 670.15698
3291.0161 814.15997 1375.2421
3535.2842 1871.6172 884.39124
1037.1912 123.47548 769.00397
2372.7295 859.1792 404.33539
3475.2791 1897.489 655.94678
2092.53 1359.7197 1350.4829
272.1712 982.33862 224.81894
4063.012 497.194 423.26117
3580.2397 453.87396 1007.3715
4194.8545 672.75232 187.07207
130.34784 1280.1052 230.23694
916.77832 67.870354 301.72525
4147.9116 323.83649 1019.9703
977.73743 1475.39 398.58667
3519.0444 557.34473 448.60992
3753.9365 718.13135 295.5517
3896.5806 129.12183 596.48486
4556.5249 655.34729 253.85872
3406.7527 1769.6975 928.60657
3317.7534 1538.7721 870.3186
226.12335 1536.7148 634.92242
2938.1909 1039.6827 258.3309
1860.2269 873.88495 343.20551
1191.9343 974.35742 935.06079
990.49927 1656.0168 552.79352
3591.0205 339.45099 247.92874
4428.4385 555.91193 1043.0936
2310.4978 1402.7474 212.29282
4525.7261 779.99445 254.39101
1170.4966 1827.8491 866.57709
2572.8467 1764.7429 1087.775
2260.782 905.82141 498.98849
2730.4407 125.71091 681.13452
3326.5513 1790.1547 691.0097
4624.8389 880.0415 566.10315
3926.2021 287.10968 1028.3582
2738.5945 1801.0294 993.40051
2572.6699 1168.373 1386.7166
506.57672 1860.2607 535.11835
2116.6196 1015.2231 1350.1842
3480.0244 317.75287 986.49573
2774.0608 510.96942 212.058
2211.3594 860.03735 1378.7034
1682.0007 1812.0026 999.76392
1966.5579 1615.5032 388.62134
2313.1748 565.87628 390.46713
2804.2495 1319.2271 1387.2295
2586.8228 346.36047 1144.8931
2594.1428 123.25967 538.67126
1581.5609 1738.578 217.44418
564.58026 1847.5925 433.89337
3897.2053 571.20398 341.54263
126.98505 1357.6138 232.80524
4301.0205 1744.2716 788.61481
162.01216 1476.9358 357.86545
3689.1084 1698.1533 1137.9412
3974.0535 1386.34 262.55084
2473.1704 1622.3429 511.43237
2128.3433 168.11327 868.15845
1504.0161 855.97382 1112.125
4190.9868 1372.5618 1063.3151
2118.0869 267.56146 213.65479
2538.8418 294.13483 999.49359
1603.9938 739.78107 823.52863
82.491798 877.51398 441.41965
3590.2534 913.27716 245.38196
289.47534 1643.9729 319.328
1234.5515 142.6199 756.2915
3292.6826 243.64409 1023.3574
492.61813 619.04486 931.8924
590.3056 1239.111 186.40047
2380.8384 584.349 308.42276
2851.8501 1373.1033 1379.8918
2582.0625 590.89697 851.26166
3687.6631 1536.3188 1222.8282
3561.8545 144.78577 804.99939
4615.1694 967.13055 546.47253
863.33972 513.51593 161.90118
4426.5317 573.16016 312.62274
2401.3491 1175.8342 291.75644
611.26184 253.7475 731.81915
958.51801 1311.3403 325.56525
1337.7386 1415.3708 1010.0555
4347.7256 754.89923 1057.9933
633.63641 1229.1338 922.37158
4512.8706 712.84137 1036.8015
1642.5975 1657.1381 1133.8247
1507.5945 433.35812 507.58545
2764.5642 1898.3984 818.33167
3679.3494 1816.7192 384.72821
1503.3774 1018.0729 913.83325
4218.6025 1768.875 242.16458
3629.2317 330.02887 1115.0852
3230.7822 1849.3688 337.38019
1010.2811 1809.7006 193.1619
1490.1558 317.53339 1029.2394
543.44507 881.82922 191.18578
196.00987 1575.0789 333.22433
2907.1736 1874.8542 170.25064
1337.6006 361.84442 483.44794
3904.9473 1715.2744 158.24237
972.82153 105.85828 318.4368
3655.8481 1760.7328 1064.7583
3884.4292 733.53308 1177.5634
2720.9172 973.50818 355.80383
1191.0935 969.7052 944.36487
3771.7415 1056.2607 1237.4438
3446.3521 1893.5701 293.47272
2309.3796 585.2287 1372.8145
156.79147 1290.819 227.66553
3555.1169 222.85699 159.78772
2256.5969 1820.6797 335.60748
3505.9607 395.52469 823.80579
2720.5659 272.49838 771.92627
516.64307 261.01846 428.8125
3355.8083 490.28604 686.5929
1052.1887 1904.7548 674.94006
3882.0415 1667.8647 1074.4552
3155.5427 1374.6074 1364.1367
671.68896 1475.39 271.51959
4344.6167 1770.2615 872.95874
1610.2146 686.38214 797.07465
4481.8286 475.79672 802.54468
483.3194 1339.1409 195.91356
4013.9114 584.21271 211.82256
2243.897 208.76556 932.69934
4408.7744 632.46924 254.67416
4587.5391 960.62122 889.65668
2849.5938 1895.9473 822.70264
1920.4082 1623.4918 1257.6244
4112.3418 1784.2358 969.9881
148.17567 1487.0229 342.25345
216.33556 1481.019 316.03915
3306.9211 1540.4967 634.93524
3846.6245 280.72443 278.70593
233.61433 1288.9485 660.44592
1726.3944 725.49646 973.94543
1630.5184 1825.4813 900.93396
2152.1538 1182.1482 1372.6709
453.63986 1701.0364 673.58704
121.97414 1146.9409 562.008
4594 1333.4827 254.14316
3326.8386 274.46002 973.39209
2871.9734 879.45654 1390.4504
3274.5608 1506.8247 353.24756
3781.9363 727.13672 207.09962
3547.2263 1495.1205 1024.5399
2820.7886 1810.9886 977.09509
1033.3884 1841.6998 145.63644
133.45349 1011.1078 403.54602
2639.9106 1838.5753 932.87524
1497.4091 1797.1819 952.18384
2704.3223 1207.7717 1412.5735
615.3833 1019.2715 188.412
2573.3555 853.93066 290.21597
753.81671 691.20312 187.45285
2819.4338 1157.8923 312.42725
2303.4724 728.35596 1382.9792
3441.8564 1299.9478 733.85992
1339.0305 1316.4594 945.8905
2852.0635 262.5351 712.79803
2141.6047 1632.4004 213.00195
3611.1453 1455.0454 1272.0815
2686.4829 1069.7623 1417.1543
3553.6038 557.34497 320.30743
3138.2122 768.66138 322.5719
1073.8383 1675.9683 536.30725
1991.5786 1028.722 482.35849
3827.7166 1747.6312 223.51996
2001.0164 152.6163 201.89279
3261.6543 1859.3585 453.51196
1060.6116 253.74442 493.68756
3550.729 1475.39 527.53314
1995.0948 1672.4575 337.31607
1692.5814 215.04202 918.26892
4287.1001 681.35986 278.80685
845.26685 847.98364 255.37146
1811.0939 953.5462 1260.1315
1045.5983 244.02103 537.59161
3673.0684 728.42432 255.04965
3882.8711 1522.1321 634.90234
4130.4487 1837.0063 846.66016
3071.2126 1769.9895 830.20764
3273.896 1264.1384 792.72083
1249.0413 634.9646 963.59692
3872.3828 390.41797 517.6615
1002.1268 242.6846 252.33588
2595.936 1742.656 985.84747
999.47424 893.17554 955.66174
2033.4331 1602.2748 1307.5846
901.88892 750.25037 325.64917
228.61603 456.18332 343.26596
3908.6321 333.5769 714.30005
4523.1675 882.17017 254.81203
2828.4478 1565.9111 212.058
4252.0986 725.79858 264.84579
3448.75 1401.6938 1324.0044
260.21945 552.19171 609.16785
1702.8916 478.73639 935.75623
1124.6267 311.25055 228.34052
131.67761 959.71155 245.64201
2254.1951 226.14206 460.99646
1839.9294 1696.0052 1187.567
3412.1855 1895.9646 477.63666
1213.6371 1473.2889 944.82117
4147.3472 1823.9526 880.37488
3024.5435 1891.4458 534.1568
283.49249 1297.8999 764.45831
635.3576 1180.256 190.01416
2613.949 369.60266 212.05798
4088.0037 167.16837 267.3938
3114.5623 1895.6091 721.1084
566.00677 500.05487 520.81903
2517.6877 1754.2295 900.64539
3536.658 1526.8052 729.73901
3262.6743 1560.2565 1344.8866
1240.2576 373.05762 269.05038
3021.7727 1389.4243 403.55835
1535.9292 1117.1169 899.81195
3241.0122 1723.2639 506.55237
1723.3346 161.25098 917.83331
534.2218 1869.3348 567.01318
4230.5 1042.2831 1068.5037
3670.2925 1914.4048 740.68207
3097.2334 1239.0743 1397.1995
2419.8428 1663.47 408.05768
3087.791 563.58081 1379.5508
639.07587 676.9812 190.31241
1841.7455 630.04675 790.18115
4588.9053 881.1214 812.46252
3537.1406 247.90721 790.81067
2740.1401 248.03619 1031.9978
3435.21 437.27383 1299.3265
1181.3673 1058.8708 962.07971
267.33487 1665.6119 254.35172
2070.5854 451.46848 1322.55
4612.584 511.57031 289.18399
3059.8792 1655.7926 366.57718
2246.6069 347.41656 212.81389
85.491798 905.80573 409.06531
3328.4888 668.90649 876.39929
927.10071 1368.4252 196.65736
2466.0393 1723.7196 212.1524
3446.9443 1887.7023 303.15884
2526.6951 1901.7543 385.30063
322.81091 1235.5156 843.22375
4393.499 1331.6141 269.81488
4652.374 1137.072 359.60361
707.36481 560.70386 546.21667
135.492 906.59033 488.77673
3706.5366 223.07088 796.97961
3105.5098 804.04248 1376.8979
4050.1868 211.94957 924.15631
2246.8667 134.15283 767.80267
291.92258 1655.6382 201.57378
261.13113 578.0213 557.87659
226.58229 715.19122 633.3161
4555.0146 665.42358 905.0921
2046.9634 1800.699 562.68115
1715.7756 940.48523 1217.6483
4164.064 1838.0081 237.6962
2144.8418 641.49158 212.44235
85.491806 1198.8335 525.27045
4619.9551 1460.1099 355.85275
1512.4977 1893.0729 315.58963
3590.3765 188.31839 394.04608
1019.4512 207.01738 445.77179
2705.8245 1798.5989 1000.2996
575.17688 1521.6731 915.84149
1487.1564 1716.6001 1026.7372
82.491798 1160.9536 439.83853
4588.6123 1164.4854 254.39102
2505.7969 1902.3721 396.13892
3615.9102 307.1488 1085.1055
2357.7075 1804.8386 444.20663
3406.1003 1104.613 1343.6917
374.74908 461.97238 717.07202
4544.3433 1028.5779 254.39102
3747.2314 619.0802 330.17334
645.60443 1736.0078 207.92075
160.9507 1520.484 216.84261
3547.5962 254.96304 11.423174
4218.7012 628.67456 302.67163
473.23483 634.77502 200.25494
2013.6604 1396.9968 377.55643
4039.0298 185.43954 381.7023
3933.9209 146.3304 220.35413
3723.3384 1831.2214 958.67688
4467.4771 435.48196 947.43506
3365.2778 1513.7899 1321.9456
3142.8013 285.14087 640.38055
1200.4794 531.27167 953.37592
1617.7139 1421.803 1154.594
3309.9209 1741.2839 701.84473
2971.8491 222.63779 253.73935
3825.231 1436.0999 1068.2053
3297.7031 577.92859 1354.0701
4588.4287 1527.1204 278.48535
4162.165 1306.8137 225.67676
2574.614 1440.6982 1364.7467
1507.479 1417.2754 505.56995
3458.3706 1446.1694 756.7868
2400.8472 1474.8197 212.21126
4433.0107 1751.8234 532.56433
3004.7466 1754.5747 966.4386
1045.0834 266.33557 599.99054
3338.0347 1337.5552 585.79114
1028.5034 1757.9839 754.64929
3514.2646 533.25049 649.70068
919.53241 139.9006 546.82855
700.81519 160.70786 765.2627
2317.6699 1061.7354 1389.6304
2020.2068 933.58325 1335.4481
48.571098 1188.0193 281.89508
3421.6475 968.28729 1363.1792
854.49866 1735.9407 757.35925
3470.9995 1510.9392 1306.8921
224.25311 459.18076 415.12045
3359.5593 1541.9897 1319.3516
1394.9291 1725.2734 977.88141
413.56476 1742.2192 449.60114
4119.2651 1412.0559 331.98926
696.8689 1146.1678 194.94807
1278.5216 558.9964 384.87103
1623.562 141.24982 711.88049
385.95593 806.60388 211.31578
3339.6494 1136.9481 1372.5105
1541.507 214.72549 910.06604
2229.3748 1773.6963 1045.8206
1358.0688 612.21515 946.87469
2580.6724 227.07903 989.8974
3080.0156 680.61908 448.07263
358.45432 823.97705 214.6929
2539.0132 1082.8292 1386.233
4047.2168 1886.239 545.94897
243.90913 957.57391 755.45685
3604.7849 1359.8262 217.17511
3338.0571 597.0968 588.43134
2620.8027 245.47401 507.57681
1676.2458 1393.2485 718.17432
1185.231 1605.8773 962.3078
4400.9009 1432.5815 287.48154
4630.3613 862.29419 519.91699
4103.8765 1507.9658 348.2049
4545.7373 680.75586 947.37695
2719.1238 1816.9371 287.89163
3567.6025 727.94739 916.28973
135.492 1125.916 519.07404
2466.3337 1031.5283 1402.7467
2150.04 1313.2737 1349.9976
4395.7788 582.34906 320.34296
4236.3511 1381.9114 1060.6495
1114.4636 1288.9678 958.61884
3238.9768 1857.0238 320.51917
359.375 1788.8163 422.18137
4235.1655 648.9212 342.40094
507.92395 346.12845 779.78583
4515.9756 1670.5728 372.23389
1668.2618 1351.2382 1181.6362
582.96619 1714.5144 587.89709
1678.3307 1211.3271 530.19812
3753.3127 1890.1895 360.55911
327.28409 1547.6073 198.40668
3905.6321 556.24347 420.88956
4110.3135 1290.6722 1074.5829
2229.26 1013.0723 212.94469
175.61444 799.03406 450.95572
3089.9644 1111.4045 1381.7506
3506.1738 511.27621 1094.2693
176.53833 1378.5551 279.64069
4045.5273 1216.191 1109.651
4616.8535 880.86017 518.40503
1756.5764 1168.2574 287.86432
1223.1158 1231.9397 938.56079
3849.3306 1115.2429 1069.6006
2703.2686 1757.9995 813.21356
3057.2944 1348.5039 351.49365
1601.7953 818.89276 376.41309
4629.502 810.84229 257.48508
4456.1543 1545.1182 360.21494
772.28308 846.78882 200.99719
2604.4165 1495.9031 212.058
236.44081 1492.3738 721.85724
835.08569 655.23645 172.74055
3787.8076 1809.864 973.46991
236.35777 983.65735 652.04297
2067.012 1865.0627 863.84082
3302.0715 745.08954 1351.1482
2942.2612 1226.6293 1406.6721
3060.5347 135.58893 663.58667
3068.6221 196.48412 946.03772
4557.2793 604.51184 779.85028
4304.6768 282.37967 902.44366
2581.395 1121.3226 363.70187
3587.0261 193.12766 254.5863
3163.1699 481.45721 251.78575
4630.0635 767.53552 485.68759
3422.9932 1784.575 735.94006
3768.9509 278.9306 781.86133
2182.061 1409.8632 212.40875
1146.7224 577.95056 284.50644
777.84186 1475.39 565.15912
795.22144 1694.1317 45.357716
1777.3937 1563.5229 214.1385
3467.6787 466.00928 1297.1957
3177.1172 608.98077 658.73914
2431.5303 517.83148 276.84836
3060.6101 922.57739 365.31735
2630.3647 394.06598 212.058
3405.2983 121.05799 623.49365
3705.8022 1490.9603 1050.0614
1570.0409 1671.4607 530.78601
4049.9763 1329.9796 323.11243
1060.6746 1467.5007 955.86554
502.23495 288.40829 244.88666
1029.6598 332.21216 112.22853
2209.801 1238.5618 1358.8276
3250.5005 695.75513 761.26697
3213.8296 1886.6338 825.70679
3803.115 612.59607 317.68304
1102.9982 976.96259 957.14752
3557.27 424.85657 225.87856
3721.9138 636.87549 1056.9713
1717.063 814.25818 687.79785
2665.5271 1751.4523 944.86725
810.69904 1713.6516 210.78326
4130.7173 918.69531 1073.2031
2976.5645 1765.6514 362.3725
3175.2319 770.40283 1367.446
2617.1365 236.87363 445.63019
2547.5654 679.88525 212.07881
1139.2006 1475.39 565.59991
1047.4954 164.04678 228.82541
976.85547 961.76471 954.15308
1896.6378 656.69788 750.34851
2725.5271 1621.0947 352.21686
466.08423 401.3855 765.79443
1978.4998 230.55513 214.35814
3076.4131 1890.7651 473.16364
1484.2042 916.91101 1105.2477
1973.9226 1430.6495 212.80716
438.25861 1315.439 200.29532
1612.4534 1430.2794 870.77997
2095.8281 251.61681 736.64032
3429.0142 455.43597 1037.0607
1526.8617 322.36575 1061.8224
2203.2441 1909.8856 524.96906
2432.7446 425.82751 1313.2625
1751.2849 1191.9751 540.31604
3741.8369 195.2171 948.87823
3743.8254 1798.3245 789.69196
910.39008 1438.8645 937.70331
1281.5251 364.06451 965.20715
1982.4172 355.93292 419.13995
725.41577 586.03027 284.22449
4189.3462 1173.8021 204.69762
1475.8766 521.72864 219.46541
903.50647 299.68381 887.43469
2475.7263 1532.2198 519.40869
1082.0092 676.75281 176.73788
463.57394 375.32169 709.78699
1738.1527 211.1945 454.62119
3194.5366 476.27853 483.58701
3965.1145 1577.9775 667.77924
4577.1572 1562.3574 496.99997
3680.7451 893.92542 1040.5256
872.74225 1647.1108 636.78259
4590.666 1206.1698 760.44318
2516.8015 1900.3857 825.57416
1667.3198 1213.4185 520.84973
2017.4583 771.14929 212.55731
533.86182 1594.5472 502.91058
406.3111 604.94995 207.64862
334.54187 679.09235 819.00677
93.02726 740.88898 400.05334
734.06805 1523.7368 916.41956
128.3474 969.86523 399.83649
3943.6587 1672.2737 253.00325
1810.6118 586.29254 1236.2703
1525.1592 694.21765 1112.5831
2683.4768 609.60651 1400.0637
3405.6367 487.21304 1319.8857
2268.1074 899.50507 1364.535
3657.1797 1196.1697 1032.0995
2032.1893 993.19092 489.16299
3868.3589 794.20288 1187.7124
2162.4773 1483.0815 212.42642
2167.5474 905.05786 1355.4756
2050.364 265.44757 817.94635
376.75552 598.25629 209.93076
2262.3672 145.45761 302.69824
1778.0411 901.92804 1243.089
3300.6621 684.11786 1368.741
758.43005 1475.39 472.8219
4281.5522 1380.1196 1058.6589
3443.7622 894.12738 1081.1493
3775.3672 383.98621 1158.499
1250.3989 660.34631 965.19043
2873.1475 1297.1786 212.05798
4322.0557 1752.4923 876.70984
3246.8091 1070.1323 1363.8712
3576.8364 557.34436 550.86273
2479.6765 755.60925 1377.3448
2571.1257 753.13202 212.058
2398.1782 1537.5002 1371.4136
3944.9363 258.09045 993.83643
3811.5146 1393.6677 247.46954
1577.7222 153.11664 625.99963
2378.8074 866.4353 475.04712
3935.0383 1312.5908 1154.624
2070.7769 216.73798 237.49313
3597.5359 345.58368 2.2064281
2365.8052 1552.9727 1367.7177
1131.8994 1842.0186 265.88336
832.40717 1341.804 212.09286
341.54968 1259.5737 209.6994
2486.0757 1499.21 551.70685
1278.3845 1026.9686 256.60669
3095.218 1750.916 404.01843
3481.2034 953.05298 789.90198
2878.8696 1766.6268 770.35632
1806.5291 1991.4469 1043.0067
1886.6432 242.19673 742.83295
2332.8049 955.08795 498.24573
3075.312 246.99246 639.84515
3347.0061 1773.8762 910.07379
3317.3823 422.16937 873.79169
4507.8457 507.57037 831.71106
4620.6899 653.85516 291.30276
253.95869 1055.4258 703.07654
2176.6995 1498.2001 1358.5869
632.65851 563.23285 342.64532
2478.4146 158.66374 876.40918
4063.2729 1867.1665 637.427
4083.5845 1355.4724 166.84254
1623.3885 161.65326 525.31989
2680.0908 1066.4554 440.72205
602.10944 1814.104 760.85242
1955.9707 1547.7998 213.37224
1907.2924 881.12579 390.64188
1221.8894 1458.9906 946.48303
4176.8862 1484.8762 219.22133
1168.5211 1974.8114 433.6734
2437.1079 186.83379 913.25323
1420.1174 620.64825 941.25806
3103.8618 1649.4507 330.1879
2749.0452 513.29633 310.74872
2799.1963 518.91559 212.058
1440.6775 142.22018 681.4364
1795.5088 1743.2642 1096.3523
1564.6195 1239.7129 223.12022
3015.6763 1655.0792 224.8786
3165.5579 1247.3293 637.40222
3946.4934 1524.6533 1081.0594
1326.2603 1677.8773 535.57617
2359.5603 211.07753 274.80054
3630.8628 400.70972 614.20312
3162 1075.2643 627.62134
1706.3906 1162.5966 813.14911
4100.0908 1742.6035 1006.9651
1242.3112 952.7157 970.95721
495.05756 230.0265 288.53342
4245.0449 1422.777 184.20543
210.91118 1230.5969 223.18335
4210.5093 1776.2156 944.74628
3383.1711 137.32764 134.2551
1858.5171 747.69763 887.89148
2717.1846 1783.952 1034.5895
4201.6558 259.72595 240.03273
865.98499 728.146 325.68829
1910.6267 1196.7606 1295.4194
1638.9592 1900.8137 713.07098
3082.2927 304.76511 545.1084
4116.4644 270.83432 248.71301
4540.835 1453.8516 854.21924
3529.8809 1428.1885 858.74457
952.45105 1825.402 747.00677
3870.1663 402.43353 1108.5602
2266.3066 871.05933 310.16992
3175.8826 322.34552 425.60388
2113.3313 574.21942 212.47079
1605.7969 1152.6099 868.68091
4035.4041 587.45325 204.70929
3154.5239 822.64294 1391.5266
3701.8396 1895.9576 789.49158
3825.199 348.1218 578.43103
1029.1517 1323.7393 194.6987
2677.3701 1907.525 562.1076
1146.2697 579.82825 246.30809
2973.4502 686.78815 1383.6759
4247.3555 1817.2205 542.54993
4557.459 1092.4136 973.59448
1557.0769 856.12518 890.3252
4383.6943 1758.6357 790.7099
2667.3293 420.39627 1337.2303
3977.7798 1755.392 1010.1083
2956.4114 1766.3606 822.09766
4633.2251 1358.0576 356.64304
152.41412 1079.536 455.46783
2362.4575 1345.8239 312.7699
1802.5863 556.20154 213.67244
2031.5001 264.62732 925.88562
3810.5615 1105.292 238.20406
3845.9731 309.97321 274.0596
3737.7964 311.76755 1101.1646
1499.2987 330.67041 1052.8143
4628.3208 608.08118 616.5365
820.3999 125.36587 723.74152
2823.9858 1467.2073 1361.9458
2644.0625 250.45129 1044.9308
511.77936 822.27002 195.34084
1954.8948 221.39433 511.95975
3377.7478 1814.7251 709.93658
2511.2319 1763.6189 956.78662
2510.1296 847.43298 700.8667
3815.3882 398.4299 552.06378
4355.062 1234.8165 1058.6163
329.34888 1634.7662 621.58228
3836.5889 1614.5074 760.78192
1920.9758 852.52954 320.82629
2255.9351 1566.1068 337.96298
3762.4038 327.96924 1081.2429
573.19385 262.07797 700.74121
1917.6056 1186.6631 314.53152
3822.166 1896.5703 140.73672
4341.3584 851.5166 1060.2422
2592.46 296.75253 1008.2208
4593.9292 1041.4146 715.04663
3455.9617 562.71008 1310.1365
229.26338 707.97327 597.93927
2556.1079 1753.8655 1110.4409
210.15414 1220.399 629.61993
4565.8105 1101.696 930.21692
1826.637 1885.8267 283.86804
1881.1879 970.54321 1285.7831
2808.0876 1890.5579 860.77771
2412.9446 741.80725 665.86731
1269.8995 1593.5131 951.08197
1653.8896 880.90002 847.19598
1121.9944 1430.854 173.33987
1651.0039 167.48804 1001.7264
743.28998 168.5927 687.31647
1272.4158 1525.6318 966.60822
4556.6255 673.82147 646.41058
1321.37 1035.0778 943.97449
4176.2842 1460.4387 325.85858
4561.0205 873.29095 933.62708
4207.4785 608.89038 340.806
2853.9458 1785.4402 528.08728
1046.6899 357.4863 112.53465
3662.5027 154.01616 837.92841
3264.4043 1416.2697 1363.4227
1876.3777 1152.6 387.79044
3094.2725 1702.1366 1185.0149
3158.917 1861.9922 912.37714
2853.0857 230.78412 212.058
2234.6433 1698.8242 1205.0114
3784.9634 573.43665 1201.3955
2763.8926 1155.6128 1391.8734
2289.8804 235.93475 521.61902
2580.6965 522.5285 846.99872
171.44312 695.72656 429.59009
3811.5366 366.16904 195.55867
1649.9384 837.33563 848.75574
