# .PCD v0.7 - Point Cloud Data file format
VERSION 0.7
FIELDS x y z
SIZE 4 4 4
TYPE F F F
COUNT 1 1 1
WIDTH 1622
HEIGHT 1
VIEWPOINT 0 0 0 1 0 0 0
POINTS 1622
DATA ascii
31.127907 7.9357781 8.5988998
74.918541 147.12605 3.3989682
64.76738 153.80852 32.116341
80.400421 149.17197 29.479338
35.946659 16.374739 4.6377697
64.711037 104.73611 4.47019
70.06601 36.285442 27.673986
5.3871689 158.23737 20.539379
18.243315 76.573769 38.632145
15.029718 170.09921 8.1791105
30.3992 168.99403 7.0506973
34.522995 145.56737 5.1489277
14.205406 164.77966 34.841587
7.8182907 37.711807 13.75954
75.654137 19.598215 5.7376089
71.972099 42.036705 9.6554384
4.5113573 144.39067 0.7094093
23.557055 171.56927 31.965298
53.164997 49.215683 30.729862
75.129372 86.42453 4.47019
19.185801 154.94272 12.042549
5.5177035 156.47455 15.958955
76.818329 117.52077 8.1267223
38.041401 33.814274 29.325449
77.059303 38.549377 26.513882
4.6051826 147.75729 20.52891
76.257362 34.083511 7.9680738
70.404709 104.28151 32.388855
22.427525 64.236679 4.47019
70.102936 147.06197 3.3923249
57.361202 103.05714 45.535187
55.446877 136.87097 39.258194
51.961971 115.48675 44.406956
76.360428 158.57466 22.467613
63.365131 115.05338 40.874901
70.073853 18.266203 21.491871
56.074741 43.662312 30.310911
64.148697 34.268536 13.371448
12.838746 150.11165 27.077675
39.81028 176.95891 12.232398
69.801819 34.812263 27.177143
54.256062 174.11707 12.259966
11.182343 163.92084 35.408714
56.441658 150.05457 36.198566
6.9191589 23.463125 16.238853
42.897675 21.806271 4.4056039
7.1894574 32.061737 24.28656
64.921097 152.43745 12.136937
74.141754 27.380333 19.175358
72.375221 28.701937 21.466702
25.9832 170.31702 10.489199
11.243101 36.742886 27.754347
69.263412 20.864292 25.498333
57.212029 20.693474 24.967361
66.77317 161.45602 13.237769
19.79245 107.10062 4.47019
75.193497 145.73358 9.7773895
6.4667044 35.111351 24.65226
12.3848 38.261925 12.091111
25.502089 54.820637 32.976711
74.093498 149.61765 10.478913
52.287239 47.859997 30.061815
55.453957 21.49604 4.4185724
19.9582 40.464191 23.03541
79.736671 158.97366 10.773741
64.691185 133.29359 4.5469956
19.9582 46.199333 10.48135
11.1973 41.916916 12.068263
16.641357 44.165985 27.53343
8.0378647 42.936954 27.827019
14.758415 49.829082 11.122929
70.645454 159.66631 16.624197
10.950279 158.93713 8.7812195
38.337803 1.6302586 17.695414
55.62661 65.715652 39.159962
30.789925 8.9954977 4.9635229
51.171261 1.9769521 9.5387173
53.064297 76.686646 44.562149
61.269676 57.664188 4.47019
15.601111 43.687508 26.032801
64.148697 44.216198 24.082287
75.448853 132.54962 15.452633
20.01421 159.95651 6.5364466
4.8731689 126.35484 24.933792
43.860096 166.94083 7.4701672
19.9582 43.513527 13.997434
53.398056 85.246239 46.715668
61.721066 6.8661098 8.5988998
8.1666651 130.62178 7.1171637
5.0648026 147.27136 32.623363
6.9896431 156.71516 13.636234
30.745974 150.68018 5.8856411
19.958199 45.836647 25.260994
76.451935 42.693047 27.860014
34.383415 159.03679 7.2252302
17.450605 25.7372 27.498039
31.618717 145.36984 37.855904
7.4102812 37.634651 27.874969
19.9582 48.846245 22.678391
64.148697 53.017227 15.496653
19.958202 27.342382 7.7041135
25.9832 163.64674 7.7278166
70.170197 44.365078 16.259182
74.744225 167.27609 6.9073205
21.216421 163.14009 7.4847827
72.713333 132.82066 17.147682
64.716019 146.64725 5.0273876
20.837086 134.31862 4.6241903
73.254517 145.15245 27.500814
58.373184 168.72433 10.334262
28.306011 7.7789083 8.5988998
8.1994295 50.41325 27.4891
19.9582 37.655239 7.2861438
42.619724 102.29758 4.47019
20.082378 6.4371014 6.9433789
47.479073 170.96359 8.7951918
4.1182079 151.22348 2.113246
14.529769 44.223072 22.793447
9.4986124 26.456264 10.265278
18.522854 88.939659 39.584049
76.475189 86.018448 25.914356
13.790186 27.601524 19.670311
79.474304 135.79128 22.174671
36.764435 89.732422 47.280392
20.905968 150.4834 5.3498802
13.288236 42.9356 26.629101
49.863098 79.949577 45.972816
7.3167691 31.715282 2.9324038
8.6739845 142.1758 18.704664
64.148697 49.831009 20.930927
56.705387 31.156429 4.3144565
70.144585 107.77689 4.47019
19.608723 128.96703 37.925301
46.049576 168.97223 7.9186234
69.954636 156.18286 17.079763
51.396076 56.907608 35.306461
12.1348 40.639351 20.617832
9.1010065 36.053997 23.186218
28.979954 38.20697 4.3612127
20.396132 57.228577 33.118347
16.633865 150.51984 32.791847
15.608614 51.370148 7.9013829
6.5278463 113.75911 21.213097
63.611805 9.9357176 7.9540501
75.600777 103.08466 15.726698
72.355812 151.86731 35.654839
78.196106 159.04395 32.318237
27.52882 5.7578902 7.9540501
64.148697 45.442169 26.375908
44.319 76.514816 45.329079
10.013401 142.31232 16.261402
13.071418 14.905123 20.986771
14.653364 69.951736 32.196407
24.137224 123.45468 41.42609
19.9582 31.940767 22.464884
52.715263 42.801292 30.213825
9.3380861 153.98816 6.8426609
73.377411 139.46696 13.615828
19.9582 48.592175 19.296055
61.680099 94.977951 43.906418
78.120354 125.75581 8.394227
16.657291 75.819366 4.47019
74.986053 80.83271 18.108858
50.162022 31.932175 4.3196011
19.958202 34.395847 13.525911
20.723442 173.51843 26.543068
30.265663 105.31084 4.47019
75.645546 142.22992 9.9319992
79.092133 131.20842 15.04421
19.353333 106.21487 40.166256
62.408409 95.828514 43.153851
60.277592 11.481463 21.526272
6.5639257 136.7764 32.951973
8.6490364 65.276649 6.3629942
72.909599 42.69149 11.371492
7.427598 56.376118 12.986286
28.828621 121.59116 4.47019
64.148697 49.84893 13.021429
69.55423 30.796032 3.3781397
8.1723099 152.42192 1.5340635
64.867989 28.619156 28.061777
75.244011 142.48224 4.0082374
20.82839 13.569886 20.994228
51.756851 12.395991 4.8134093
9.2963142 52.996864 14.575315
53.087502 14.976272 4.6995039
19.185801 140.66689 19.025558
43.497734 174.26099 15.772887
72.99379 133.50793 19.084396
11.770315 130.49289 34.121159
64.148697 44.68346 20.410025
27.217892 133.15495 4.5855174
7.880897 31.248062 20.374149
11.745123 37.688881 12.959369
46.735153 113.47995 45.203094
18.414238 161.58299 11.248878
73.83931 146.9783 27.578396
11.405941 63.766197 4.47019
5.3586054 163.50832 16.856022
50.872299 136.10078 4.7096486
72.722519 31.281643 28.786018
9.6833696 146.21388 10.462561
19.9582 39.763062 26.76202
13.759581 29.618231 24.047867
71.147102 27.390055 7.8225183
67.736351 159.22185 21.566885
73.962067 171.39273 21.888744
57.02919 71.193367 4.47019
33.950188 5.8732595 10.174415
49.367657 63.8689 4.47019
8.7598104 37.822548 17.002005
71.605438 35.182095 30.145689
79.215714 162.0372 17.107677
45.154213 122.4998 4.47019
39.315849 87.115479 4.47019
64.819481 150.79398 5.3191495
67.780891 45.410904 23.822367
43.343628 23.72941 26.698565
5.4545498 135.6701 22.637802
62.135281 106.0608 42.961308
79.384132 142.96779 3.2165279
46.830627 171.73323 8.6321239
25.88677 50.641464 30.764786
20.90637 97.691071 42.278164
74.074394 27.352287 19.112597
10.71378 44.110401 26.254112
74.921257 159.70795 16.222322
34.430733 140.74716 4.8848829
14.186474 143.79843 33.663567
76.150002 72.227196 8.4379158
63.491489 95.16964 4.47019
14.482162 161.58299 8.7415094
6.1599569 155.5219 25.762346
49.555023 46.738655 4.4177909
71.449875 33.246208 25.516968
40.778259 47.285324 4.4214158
66.183693 71.567986 37.710258
73.307274 137.80896 2.9542556
19.9582 33.746479 6.4003329
40.924465 176.83217 14.24419
74.274086 69.572838 27.909616
36.566082 107.6693 4.47019
36.04134 1.9788349 17.799082
74.168121 56.801338 4.47019
19.34833 174.37001 25.177946
27.998993 67.492844 39.899563
64.148697 31.605452 8.6543512
42.150082 37.861595 29.905611
56.308769 77.233475 44.152988
19.185801 147.88873 28.540539
8.3343296 106.41722 17.032951
54.986351 82.355888 4.47019
7.6883464 47.02282 2.3392739
72.094818 28.061237 6.5545835
76.099876 35.569557 13.459532
74.58577 136.38934 4.1068048
21.130737 14.15454 22.765049
12.766696 152.4146 1.5312607
75.548927 73.348618 7.445365
10.993277 151.14282 26.619011
4.3748002 140.1893 4.3598528
26.286282 172.72179 12.640076
6.8788614 43.335613 29.00009
73.979683 41.495823 0.23642746
12.828194 12.674142 20.359375
18.93656 168.49379 33.744812
18.936453 99.014511 4.47019
20.443979 122.91795 38.183151
70.717178 156.44507 11.77453
11.980007 50.021858 5.0764475
59.693352 96.489845 4.47019
49.87672 167.11087 9.8488693
57.280079 111.81921 44.421768
64.148697 38.449436 25.520819
21.064297 20.613688 4.4554567
56.084038 36.415165 29.523689
71.199081 94.553848 4.47019
19.9582 42.50671 15.755238
67.490646 45.661922 26.896713
74.668259 145.82133 15.536726
10.807949 133.71922 19.557123
16.029469 49.603207 24.310738
12.522589 51.155079 22.383846
62.582458 85.197136 43.355217
78.375359 147.35632 33.303238
11.642003 31.961382 24.623499
74.505638 147.39413 12.560313
8.5903606 23.109734 5.2671585
48.856888 63.905598 39.258133
13.768006 41.576126 0.24475479
77.51049 159.2933 21.46747
7.326798 38.23156 10.2269
54.489517 128.39148 41.457844
76.366043 77.472176 27.198948
30.446409 48.301403 30.143932
48.877476 85.798195 46.988319
20.331444 126.48038 4.47019
54.778191 134.06734 40.087727
64.148697 25.349247 4.8712525
77.708183 120.83223 28.10537
27.969933 173.68968 27.69853
17.582985 71.575623 37.240623
66.692352 163.49684 34.006214
8.0361376 100.28093 26.923702
56.181351 130.06601 4.47019
12.95134 135.8757 34.205563
64.921097 153.10461 16.150738
75.014343 150.01743 19.393667
12.160099 151.75159 26.346992
47.497845 164.98935 7.4687672
77.759163 151.12122 33.904919
14.814201 7.9970694 17.828339
75.87616 142.96246 0.45213085
19.185801 135.25481 23.953804
43.99757 132.4473 4.5183887
54.234726 158.18323 7.1601253
8.0073614 42.319618 27.910526
34.725475 92.371124 47.429985
32.696144 162.57053 8.4011803
65.181763 70.464523 38.68676
72.944656 129.37357 4.47019
9.3323584 140.15062 26.198343
60.493324 171.27338 34.782696
15.62751 130.49007 4.9226828
75.649529 168.52084 32.351879
6.8094635 136.39923 33.187626
7.9075208 34.362114 7.5248947
8.9133701 140.60399 17.468792
42.169052 105.68515 46.558861
8.2492523 143.01703 28.673801
6.6686721 35.181061 24.177393
41.79348 29.273317 28.234936
61.548321 107.06229 43.211758
75.507706 53.097916 18.626579
63.130627 97.525078 42.346943
12.1348 46.300018 18.012531
13.345768 31.704277 6.9456611
16.154329 11.871534 21.236511
47.360619 18.99477 4.5231342
30.78857 25.065699 26.813475
73.873497 145.01883 14.825713
46.479622 78.211288 4.47019
49.001415 47.260849 30.019642
48.957176 6.2116585 7.2715325
14.468365 144.09656 33.572685
75.804359 96.453468 10.171592
8.9133701 139.61636 15.051216
75.346603 27.83094 21.854218
59.957108 127.6131 40.47311
71.722107 37.986038 11.054485
13.651109 45.586105 26.928986
9.0948648 116.39611 4.47019
77.480888 136.39262 4.1041451
13.182665 37.031826 27.79343
9.4428644 40.216282 27.063669
29.845531 64.420326 4.47019
75.486664 63.382484 18.08218
70.996689 70.365669 30.105549
22.3004 169.67776 9.2136402
73.807678 66.377594 4.47019
69.222809 52.906769 15.444231
15.975636 52.446056 13.452337
7.0832977 23.178944 9.0371828
19.9582 34.799721 26.954449
11.189088 45.508694 21.964348
72.130608 44.367592 7.5357661
75.605896 100.1179 14.465248
9.2918701 52.839615 16.091858
70.723145 135.75464 12.814462
48.377983 109.05608 4.47019
74.517929 16.935383 21.06596
33.286896 114.47507 44.730331
31.423464 83.173447 46.535427
75.453217 75.037399 4.9088531
64.148697 48.939163 7.2711954
26.899235 168.33711 12.995942
12.722732 81.745651 4.47019
71.306252 66.471413 4.47019
53.495461 39.391556 29.854904
43.95417 174.37167 14.451853
12.1348 34.422916 10.808917
31.696527 4.2814541 18.856228
8.9683838 71.866127 27.647747
28.197937 169.97617 12.945728
52.332291 40.930676 30.363619
50.464897 14.873786 4.7040286
45.79958 174.50641 8.9818382
20.068676 57.249905 33.034317
71.018463 13.268463 20.888531
78.04805 137.31516 3.3551769
8.3341255 146.15581 27.604897
36.382092 176.73254 17.50005
8.6743841 52.163914 27.41597
68.366333 159.34319 21.398041
12.54013 141.6116 23.284662
66.91967 149.99274 28.615435
54.257526 164.25143 34.338634
18.383703 10.005363 7.8041215
14.220512 51.201199 20.434778
13.424801 149.85992 4.0268021
73.906799 169.608 33.487793
15.821902 133.74489 11.066596
64.148697 40.09375 20.36607
13.451971 138.14844 7.0589166
8.0159492 142.24316 17.742203
4.867013 67.86895 30.547243
18.986181 62.734993 4.47019
19.360043 113.40924 4.47019
31.683357 8.036994 13.303803
19.977209 66.422653 4.47019
79.613762 138.1734 7.1574302
53.766075 172.22475 11.61536
8.8205509 126.40348 4.47019
4.049654 158.10257 13.568793
66.269638 78.270836 38.171494
38.286652 72.818878 4.47019
75.398621 94.395363 4.47019
70.810677 65.025383 30.100601
18.359797 30.287575 28.61557
6.5961905 24.851143 19.067327
58.863266 41.814838 4.3851385
25.571159 143.72334 5.0180197
9.5150661 150.354 35.721058
5.4248185 154.9563 3.2563105
64.148697 37.017334 5.5234303
53.477169 125.09945 42.305641
68.277344 150.57184 2.863282
25.925949 3.5497513 17.468073
69.459862 24.248926 4.3379617
74.807304 12.988334 7.0246129
19.185801 136.60812 14.312527
42.02319 42.849884 29.590879
55.380619 66.346107 39.500805
8.262291 107.91613 4.47019
18.780537 93.598679 40.04752
9.7874603 38.865608 0.055993561
8.3625031 78.152802 4.47019
13.736035 169.10834 35.280315
56.546249 77.226791 44.095558
66.632912 87.151138 4.47019
15.752396 135.68283 8.4072027
57.518158 5.1586275 8.5988998
67.635803 10.537779 19.097162
53.557747 170.13094 11.7442
75.986938 39.185242 20.520329
73.079849 40.468952 11.76999
46.494698 78.730095 4.47019
42.135868 41.177082 4.380909
64.148697 28.97303 9.4937124
10.451353 48.910789 17.906757
75.939163 85.913429 4.47019
7.2957001 22.24382 11.214673
15.378571 87.637199 4.47019
17.457989 25.102495 14.393126
62.703423 106.91456 42.07872
19.185802 145.37305 23.612495
58.07214 38.726688 4.3646588
30.3992 162.6011 7.4554796
79.966125 134.05685 18.121851
64.105362 32.732529 28.951916
27.753586 54.329369 33.116714
75.973541 67.145966 7.3865175
76.474342 35.248928 0.76953739
50.771042 92.589127 4.47019
57.323845 156.91621 6.8133955
66.409927 24.9683 5.0210476
23.732014 50.222157 30.153578
6.4067307 159.78743 15.455189
46.470791 143.05109 4.7858677
12.117146 98.071396 4.47019
9.9711733 44.083961 18.405365
37.674278 81.53299 46.376713
73.891167 12.366846 15.332747
76.408119 20.939964 11.213747
36.106907 105.99646 46.345093
8.5745945 98.347229 19.419321
14.041801 161.58299 9.5444736
14.964325 168.203 8.8710299
67.13195 149.71243 32.757206
71.748558 135.58055 24.599304
10.788217 153.47391 6.2092609
14.562373 16.88076 23.089708
12.686526 169.608 34.921402
13.937952 26.04512 13.853181
36.910004 85.096802 46.921494
17.336117 101.11935 4.47019
30.706181 149.46848 5.7338448
44.10701 139.57919 4.6930285
13.690075 12.222267 4.8745446
71.466873 130.479 4.492434
11.598999 141.95341 9.7927351
73.147591 39.7491 28.160973
30.177114 68.492928 40.780254
18.409542 88.378708 39.444897
9.9991608 171.03822 17.335943
77.457123 46.880646 23.829048
38.444557 55.913811 35.228577
56.23299 174.51299 12.935466
45.552536 113.31615 45.28133
51.897423 160.03256 34.620556
62.03022 151.28143 32.942429
6.7328377 45.423344 24.918037
68.457207 28.925571 21.088366
10.547935 126.90691 33.676659
54.458378 116.02915 44.031853
5.2005901 162.00122 27.582773
66.326187 118.006 38.060139
26.423941 141.35855 4.9342351
68.272263 161.58298 7.5424442
76.078949 77.592682 9.0555353
46.812862 29.307127 4.3021932
16.260151 161.58299 9.8562202
60.469955 152.52829 5.8677788
8.6520481 149.24811 28.716093
50.805229 75.285439 44.307137
60.295113 31.205217 28.300159
62.054104 111.56709 41.380089
72.909599 37.86541 15.740227
48.559479 126.47867 42.498257
69.081802 40.792419 28.117102
36.898815 57.339035 35.912407
73.285461 25.847027 23.029844
59.118458 174.3186 17.189657
70.600403 25.170923 27.397696
10.0134 141.53873 9.2683992
31.241074 146.71617 5.3889532
64.226471 98.861443 4.47019
7.6277928 47.874779 15.877352
78.451157 139.7431 32.340767
77.535904 115.75002 4.47019
5.7293348 145.02788 18.842484
73.222099 36.203648 19.806898
19.958202 46.672649 6.8741975
69.284805 78.413895 33.178131
64.454765 74.068619 40.372852
28.389681 171.43352 11.393106
70.091026 120.44492 33.376339
57.061798 5.3189402 8.5988998
18.86467 101.88857 39.978626
15.489871 87.798729 34.975342
68.183716 158.96524 21.924053
47.989815 49.116295 31.168545
7.7464237 37.571983 27.866493
23.58392 86.739479 4.47019
79.732101 135.09555 11.563042
75.370224 91.18161 14.863499
68.517342 26.411888 13.861611
62.830704 96.495239 42.731518
7.2918692 100.53555 4.8349576
71.158295 45.244381 8.3993664
19.993582 40.611485 29.932796
30.235115 1.8028402 14.193603
15.457577 104.584 4.47019
55.958237 172.83435 15.759214
57.547916 3.6202476 8.0291605
76.74984 42.236694 11.274024
15.757228 40.652092 26.492649
65.368965 108.14139 4.47019
36.526955 68.665543 4.47019
17.223549 134.56285 34.452248
55.512852 39.706657 4.3711581
19.185801 158.90215 7.0157161
74.272743 32.618038 21.172857
45.364334 3.4007039 5.0104504
74.162857 169.26935 8.1137791
53.255749 52.335106 32.467239
19.68922 147.63034 32.846146
77.230499 48.283916 15.214907
6.9640274 48.556183 15.619203
21.473164 10.949528 13.138464
75.944565 42.363304 17.306173
74.768906 169.39041 30.036304
29.650665 13.447296 22.577209
7.0200791 126.48268 4.47019
47.592651 48.51683 30.856003
16.462154 73.909401 35.588753
44.869438 141.3768 4.7370472
19.9582 33.151287 17.346029
29.305378 4.7208462 13.582146
26.844736 66.730629 39.326138
6.4480848 29.589191 7.0625043
9.3841057 44.539757 18.653408
63.540104 109.65598 41.188995
10.889572 130.89294 11.635359
71.539276 116.11217 31.559992
19.9582 33.729397 21.087349
21.995691 173.51512 15.800877
53.309071 170.71562 34.204521
31.878027 173.23125 14.767949
15.774248 90.666885 35.547775
19.966658 57.273361 33.01667
31.364807 104.40121 46.392296
35.592026 89.572617 4.47019
77.554283 147.75681 24.169662
19.9582 41.59156 26.716568
39.960136 5.4815354 5.0104499
9.9935856 134.81436 23.630632
76.115166 71.636444 9.6016674
62.673958 144.60344 34.396744
8.9589996 115.06725 7.9657707
9.8908386 152.94675 13.486569
39.705956 157.75516 35.496609
10.927893 23.183331 25.929531
69.707222 170.30168 27.566141
19.185801 158.55908 17.575401
12.447714 152.9537 25.809828
48.893692 115.96811 44.55825
61.844276 112.78378 41.047565
25.363241 139.79561 4.8538914
36.683601 38.273834 29.85527
25.1521 93.136818 45.729073
19.185801 133.82251 21.59329
64.338058 70.663551 39.18119
70.339836 87.702721 31.842062
76.206192 44.479538 29.350353
6.2958698 148.04236 12.085181
73.552925 19.019814 4.5220871
5.9604135 156.72005 32.878956
17.988262 131.3974 16.517868
43.913231 46.86356 4.4186192
13.801813 113.73633 4.47019
19.9582 28.042351 14.45475
22.988697 144.86052 35.444012
64.148697 26.536556 6.6677585
12.197215 141.52843 23.252861
75.286713 14.629143 7.3169203
58.766914 170.71127 12.34771
51.689148 61.566757 37.689007
54.970119 2.8317842 13.701488
9.3746977 48.512665 25.170616
13.835217 170.88217 9.810461
71.528992 141.32329 26.64661
65.070366 161.58298 8.2131128
37.87233 174.13058 32.525101
57.4048 57.407524 34.614307
12.914786 145.79161 3.2844386
67.125175 124.69804 36.480007
63.426743 170.97076 31.349859
11.506344 44.795868 1.1524001
13.292111 159.71384 16.16556
43.548161 39.719955 30.541927
50.986008 4.1350684 9.6569004
51.11261 174.94656 12.468904
15.803934 81.837837 35.298218
22.066689 43.253525 29.92223
72.357452 62.297134 28.519455
17.544018 9.9090443 9.3506765
10.515271 59.814171 4.47019
16.086178 27.136341 11.768394
19.9582 36.554085 26.430603
6.593823 29.572689 20.86915
71.075615 32.819088 5.8312855
23.261196 160.94421 31.791288
28.56966 148.3918 5.6073437
8.4135075 102.89819 19.07058
75.63015 26.291237 11.480125
75.771431 91.563721 22.846222
51.292442 90.409126 47.517029
55.97229 7.5187554 7.9540501
62.249691 50.489071 29.865215
14.035533 65.332268 30.831051
64.148697 51.550732 12.926998
41.028412 2.2347031 9.9934435
73.057709 155.2886 35.712669
29.650255 10.207878 21.345774
52.341496 172.77632 11.768878
8.7896538 70.254929 24.422537
78.970833 130.87834 11.391974
77.939186 126.53812 4.7382102
71.397064 141.10429 23.075413
17.696123 105.89754 38.57682
42.639961 176.06915 18.865595
45.336941 152.98196 5.4365625
56.009064 146.89354 5.4203033
77.454674 29.973886 25.866844
4.6002941 141.03647 1.5517448
19.958202 52.171059 6.7303009
22.294888 65.769249 4.47019
32.855526 50.757114 4.4444394
21.904375 22.028938 25.670914
32.411095 23.095963 4.3516903
12.700031 136.1707 23.254425
10.621202 54.212097 28.420652
13.097991 156.29332 23.222656
69.521011 136.2897 9.3497343
66.780434 5.7476082 5.7438879
54.51482 79.659706 45.228661
76.056969 96.31221 4.47019
68.887085 156.91162 24.667669
11.305525 26.216511 12.20063
35.208923 173.27979 10.836921
6.1700549 162.00102 31.802267
44.107353 174.261 11.528105
45.0858 149.95596 5.217927
25.046303 69.246201 40.037655
53.473179 171.12755 13.022874
9.7019863 148.79544 24.003704
14.728143 40.660564 28.134937
60.253658 172.68781 27.843611
19.466793 107.24155 40.20826
77.485474 37.201912 28.743542
78.554863 136.26511 17.305468
78.5299 141.84027 26.844231
14.288472 135.86115 4.688066
22.319969 136.62549 37.404137
10.721819 26.439344 16.439613
34.510647 75.832382 4.47019
4.1595244 133.79268 23.13306
68.365082 29.868759 22.137053
6.6891322 52.350372 13.665154
64.148697 39.637733 13.434599
73.472099 35.552116 12.861408
36.416939 31.143669 4.3143721
76.668259 137.93655 33.945251
6.3307858 158.19211 20.601833
17.099884 5.6245403 14.799914
23.388296 115.2828 4.47019
67.032402 69.311462 36.294994
13.780524 149.85114 27.119305
6.9515929 23.911991 11.391985
68.367867 25.596935 27.571079
73.343422 39.75782 11.57422
14.229269 22.437866 25.409336
73.752884 38.960388 27.000082
70.992378 130.479 4.6852522
9.1254911 154.76167 3.1152937
20.3002 67.760452 4.47019
56.312851 126.51773 41.59137
7.1455927 33.748619 17.105883
20.939335 113.78139 41.212887
9.874897 120.63068 31.78849
5.5472312 161.58224 30.277374
33.07338 27.866802 27.748642
21.119719 75.71698 4.47019
10.0134 141.20322 14.567683
23.803993 7.6091771 8.5988998
46.14122 131.16112 41.638344
28.431578 21.172867 4.4320807
6.5231433 130.6889 8.2355938
66.205109 148.4884 32.630066
74.802963 121.26953 31.743736
13.891859 105.88018 32.790318
8.7809715 64.932037 18.987026
50.136261 175.37642 14.481286
12.954303 129.71907 33.370308
32.199715 15.94665 4.6566672
38.815075 175.51102 13.997782
4.3033829 157.32256 6.818922
17.374611 81.07991 37.736229
15.235585 92.39325 34.684429
20.39784 97.680389 41.797543
70.932053 149.38042 34.080215
64.011734 93.150444 41.584225
18.93644 14.429085 4.7236595
77.67099 29.335768 19.688597
60.858952 151.86034 5.7400222
77.236427 33.925331 26.826042
72.182526 8.8307886 6.3344288
15.675907 66.710876 33.724281
71.943405 72.233948 29.30859
8.2568483 67.788445 11.004788
61.674538 99.757919 44.015907
73.950241 161.94014 34.540726
72.755768 24.535164 26.716721
30.902706 5.1936159 6.7210002
17.26882 35.84296 30.018362
8.8376198 168.23883 33.706451
49.859573 167.15228 9.8439159
41.988823 146.11372 38.265995
15.267378 159.53992 14.187902
9.598196 89.471565 6.7150378
29.690941 88.928429 46.809536
12.264568 23.692513 26.544075
74.976196 135.93195 16.065655
41.601665 165.72597 7.2394257
38.326012 81.706161 46.458061
44.201805 81.847137 4.47019
76.113785 141.52878 0.88175368
12.292295 43.042816 13.726002
36.483379 31.776783 4.3185706
7.6400118 136.85472 18.62524
37.899601 66.698639 4.47019
68.354996 152.02769 32.98299
14.037808 130.84972 10.914921
42.720268 49.164978 31.406479
64.148697 43.406853 17.604256
9.0508261 167.86568 7.0216203
72.293427 46.397324 9.9140148
42.006966 166.12601 34.424175
48.376049 20.127857 25.43874
62.05846 173.57516 16.612391
15.399907 156.2588 22.453533
33.530834 56.110489 34.968956
53.228317 134.9243 4.6595364
72.39122 50.048241 30.289719
64.148697 38.216072 22.086105
39.326721 0.3635861 14.409893
41.035919 162.65332 6.6864586
6.6970954 105.4832 4.7525988
33.504566 175.58745 15.981555
19.958199 42.834541 26.954067
23.505676 8.1987324 19.80344
11.661875 63.540573 29.438534
56.231384 6.580204 5.0104499
70.816849 93.89032 31.682301
21.457247 56.850811 33.157963
16.396181 26.387194 27.781471
6.6687021 42.527443 25.879559
70.138062 160.94388 17.173071
48.656479 176.67525 16.988403
10.970734 90.065918 4.47019
58.657368 94.303238 45.758888
13.083418 134.37381 6.7419705
54.880527 120.99235 42.983936
61.007095 162.20009 7.7447472
10.353139 140.08012 22.333521
73.227974 46.074539 25.376415
77.513725 124.20712 5.9570551
14.886036 161.58299 7.6269851
12.977209 44.173111 27.530396
4.1949701 145.19228 26.777418
16.260695 42.988708 25.153872
17.914433 34.727734 29.696598
23.519321 142.49045 4.9213252
55.759109 7.3500881 13.434849
19.185801 147.19751 28.017052
72.37278 36.88578 23.504196
8.2834415 104.10519 4.47019
24.766134 45.300999 30.254295
56.049362 130.54102 40.716759
71.850784 31.915691 28.312803
5.3261938 136.13354 9.3041306
11.367715 42.736801 0.3652615
78.280655 120.90336 25.446383
13.777081 50.891136 20.862778
4.9020195 148.67816 3.0324738
13.554642 49.044754 17.556293
22.50658 30.400356 28.013653
73.237144 98.856857 28.789673
50.059761 88.951759 4.47019
74.173759 38.864807 30.187082
57.727295 132.8045 39.888348
70.283432 35.365696 4.2000608
71.655289 36.455513 23.339712
58.133591 67.075409 4.47019
15.206043 173.14371 26.092232
35.808826 130.63863 41.63427
68.252975 34.246857 26.953323
64.148697 44.094128 4.9282751
73.222099 35.231804 10.501739
6.179019 132.4296 14.701982
25.937565 144.10974 5.1993899
68.899719 28.969692 23.272511
75.154205 72.930611 22.397076
63.965378 99.592758 41.409939
10.1348 40.874393 15.114981
4.9447069 150.15688 26.900814
64.024361 21.913471 25.858229
17.440929 99.296875 38.453526
19.185801 142.65361 27.906004
18.10878 133.50128 21.873926
75.684937 153.26285 27.298471
78.780853 137.07831 31.486839
14.022815 52.980663 18.929585
7.2502527 41.190392 9.1781101
19.185801 148.41061 19.906712
59.947449 67.331726 4.47019
56.451614 127.47908 41.357704
34.472572 32.906834 29.098116
14.449727 157.15927 24.437389
17.919991 171.59801 8.8824272
42.579712 41.547684 4.3833666
51.945343 150.22728 5.8252425
36.37991 56.632114 35.497967
8.9133701 148.51912 10.064638
41.213394 134.01025 4.5566607
56.047363 150.46497 36.198795
28.833187 28.075939 4.2940283
45.359413 167.10068 7.5196614
77.67292 46.669052 22.910431
30.3992 157.58629 6.3264017
68.010155 30.488882 22.230995
74.093498 144.026 18.094772
31.014496 143.99136 38.077652
50.98859 40.195469 30.238661
73.58873 26.861746 24.531763
76.785286 50.419254 21.122551
75.156982 138.64859 34.894577
19.165314 102.84979 40.211842
15.105122 156.90184 21.953693
7.7520876 40.760353 22.144897
46.239639 150.19981 5.2500305
58.311199 149.8976 5.2567124
73.783981 26.071785 18.607231
77.420692 147.90839 14.010003
71.175102 76.382248 4.47019
59.426346 120.64057 42.139847
7.7740293 134.86087 21.64101
18.23827 14.565357 4.7176437
10.584678 25.560551 23.218258
8.4512405 161.58301 9.2049723
38.290642 45.510918 29.192705
61.494778 84.887062 4.47019
19.185799 150.68852 14.437422
70.442047 26.827702 9.2936115
26.646164 3.3480666 8.5563822
78.601799 151.52199 23.115772
64.921097 146.57808 28.24902
53.520199 159.00624 7.2689362
14.25326 161.58299 8.4038877
74.984482 121.22276 31.653521
44.626461 161.16478 6.439424
29.013304 134.22519 4.629818
4.9059849 154.02695 26.939884
64.148697 47.454639 24.531322
28.812145 169.74374 10.817828
73.422058 159.74585 20.471514
15.163723 134.94263 14.841868
7.8585644 39.548237 15.02143
10.64905 108.1907 5.4912667
12.115392 39.545784 30.849148
78.557243 146.90729 20.82617
17.995077 138.30212 34.083401
12.966787 150.74332 34.364754
66.652855 82.498169 4.47019
9.7842331 26.542191 17.083168
61.140255 9.6566429 4.9343367
75.483192 167.50293 6.9754624
75.909592 139.20753 13.499722
9.4847498 165.75444 34.567917
67.814697 27.796516 13.66292
11.887789 32.227676 15.851874
15.329701 157.63519 20.646204
48.698883 71.687622 43.005466
66.137314 72.389023 37.857967
62.706501 160.12964 6.4554958
11.650061 156.46667 16.035044
77.903931 132.95203 17.840563
35.45871 139.94547 4.7624474
34.638741 137.5549 39.962112
38.144638 30.8978 4.3127413
38.043888 44.754192 4.4046307
50.158707 69.933762 42.024506
72.526886 156.53305 15.393723
32.717751 155.40471 6.4729886
40.027458 109.60302 4.47019
79.070915 128.16434 28.077301
63.380623 13.643925 21.19372
23.324368 96.260078 4.47019
66.071762 157.32962 24.200323
56.910667 9.3390446 10.44844
71.758499 46.68713 18.429268
47.134697 13.31605 23.14389
77.873581 122.1749 9.5613518
27.717804 73.1894 42.451042
15.406563 78.141525 4.47019
13.751747 29.210529 4.9681125
26.237139 54.191582 32.759079
5.645668 131.13556 14.476021
12.335876 49.721764 4.7069116
71.958817 141.87633 26.858021
14.328206 30.678129 3.4738834
41.216904 111.98389 45.602871
37.595963 98.560867 47.193611
15.153358 157.23003 24.338932
73.981377 134.6196 21.343803
12.077424 161.58299 6.7527614
4.4562263 66.165077 32.44014
13.468538 17.52195 23.537331
9.7433681 104.78865 7.345449
68.16127 38.217155 24.852421
70.176056 135.38918 5.3398132
8.5149031 145.84833 0.0058399192
6.5780573 157.04677 5.4644756
6.0191646 141.97609 15.536756
76.780022 40.587543 26.775793
15.95909 51.871975 21.383842
8.4082212 103.69667 14.39202
6.5386233 121.60723 28.635063
5.5042648 150.16451 7.3287416
22.206593 157.60284 6.4005871
77.131897 48.669922 27.152344
6.9784522 49.646904 17.421741
68.507133 146.14561 25.46656
76.740997 69.075439 32.62912
49.338547 60.61161 37.473465
76.592873 50.087486 10.955662
15.307699 157.4315 15.346521
76.070335 152.0777 1.4024734
13.62936 49.353165 4.2530265
40.647141 2.0866055 5.21839
76.135239 132.0601 33.531944
64.217834 7.5965986 8.5988998
58.311199 171.00648 11.415685
13.319665 29.446016 11.884445
22.504738 151.53748 5.6104341
36.332928 4.8707461 8.7142334
40.53194 174.18504 32.845261
55.552616 95.969803 46.514915
61.838692 103.23983 43.021225
12.841992 26.297375 26.7922
4.0453062 142.40572 1.8156209
9.8194437 152.85638 35.643196
9.588707 104.05264 7.6572967
68.89814 165.7473 33.832439
19.0196 16.880079 20.914448
25.7957 162.5256 5.8276472
69.968269 132.95934 17.856936
12.973164 15.3974 22.380981
44.202774 175.83051 9.3555546
12.093409 37.31139 16.147865
19.9582 43.620552 18.435936
63.156494 173.40927 16.186167
73.57608 87.270828 4.47019
64.514206 172.23941 8.809761
46.961506 151.91344 5.4097266
10.570366 27.771214 21.779827
53.832043 69.472237 41.257614
41.46106 174.99924 29.95949
53.824959 57.454445 35.274605
27.305279 144.8967 37.186398
24.87764 41.369572 29.856544
73.930779 42.109482 26.76112
73.711807 39.796143 15.524882
19.9582 42.737289 27.622261
19.9582 37.169636 25.461557
8.4708633 159.43823 21.264301
66.55674 11.35436 19.021873
7.0364552 26.975426 10.166862
69.775375 133.69908 33.752758
57.658867 123.32378 36.848164
58.408497 169.54816 10.586992
3.9317365 145.01567 25.891544
71.938599 81.689049 4.47019
37.740738 107.29911 4.47019
27.217258 71.359261 4.47019
14.656872 47.742836 24.246117
16.112072 38.620972 25.057072
15.061195 75.343513 33.400043
75.855423 24.297972 5.4596033
66.940834 160.43008 32.742382
67.81781 67.147301 34.854034
69.31987 156.98988 15.923159
72.19104 155.22614 35.451443
11.508207 106.86169 4.47019
15.824061 139.06038 3.3172543
27.667025 72.713272 42.240891
55.298786 143.99031 5.0541954
19.9582 33.052094 13.402016
9.4788055 136.07915 16.889524
14.875781 168.68478 11.859337
22.41984 18.444109 4.5464172
41.693733 77.759224 45.652084
33.564468 149.22595 5.6969833
9.1623697 83.83474 4.47019
3.9595494 147.51608 1.6811823
69.925362 30.080145 23.163857
75.347099 37.796501 16.165487
21.194357 52.137268 30.630947
14.649895 140.64178 27.862535
69.571358 98.374672 33.584774
53.827995 46.5159 29.0893
67.760483 126.51192 4.47019
6.5249729 159.79347 15.396775
71.84967 137.79837 24.685709
32.291527 150.67418 5.8807445
75.519516 16.903709 6.0928035
35.576302 171.9138 9.91504
64.921097 144.84966 12.971223
10.049771 152.76482 27.510218
13.915239 166.78082 7.3840399
66.51297 169.11028 13.384941
25.327873 175.65302 23.072479
59.154758 168.26747 12.141414
78.030075 127.89399 6.298862
29.407692 54.641006 4.47019
64.921097 155.76999 20.498562
73.297806 38.030727 12.326473
8.241663 70.913147 10.384095
37.208313 75.434982 44.778809
5.2338505 134.52092 23.238052
21.61438 94.845032 4.47019
68.429787 148.69716 0.99816209
64.148697 28.956707 10.464347
5.1185217 159.55334 10.737434
18.736168 17.194426 19.209381
15.242105 10.889769 19.315212
75.255539 35.205902 29.344276
48.437126 97.697296 47.209343
8.48874 63.243198 6.5041928
79.776665 148.89758 25.100863
70.598953 46.28167 16.967335
79.266853 151.82948 1.5492425
44.745518 149.37711 5.1755629
54.915367 67.503586 40.129139
12.470402 112.93286 31.389442
8.9086037 86.887741 19.984177
70.836563 145.44221 33.940891
74.419708 138.95889 27.14699
5.6135201 146.69421 8.186759
64.921097 158.71219 7.0423722
72.292549 102.1806 4.47019
69.357391 49.198689 17.787596
61.277515 149.20312 33.834511
75.660713 59.496307 23.575001
47.28904 6.9686494 20.525131
68.323997 101.13272 35.778961
64.148697 42.43684 12.838384
74.834412 53.110424 27.682171
14.958439 146.03026 27.452557
31.489212 108.33115 4.47019
66.247086 159.57977 32.286224
36.304276 65.833267 4.47019
52.618908 158.80907 7.3248777
75.965446 69.234146 30.984013
74.952744 40.500275 30.09021
9.5235891 34.70916 26.076191
62.222267 24.522709 4.292047
44.111702 174.261 11.217901
17.70879 56.364601 4.47019
13.207493 157.42813 5.934041
30.378811 122.81841 4.47019
10.8848 45.925018 11.236715
75.353928 130.47716 4.47019
64.148697 30.578445 16.308603
8.9612923 80.852509 15.459013
7.3919096 91.819633 25.394146
79.126122 139.41924 8.969614
62.519001 161.55524 6.2996063
25.429379 172.15158 30.092522
65.70636 58.406708 33.1381
12.344775 157.88148 21.030586
8.4129171 89.079842 23.180527
75.60466 65.660744 13.650662
75.715454 65.542503 12.68133
76.930542 143.44545 27.323742
71.972099 47.343555 12.780293
28.578262 54.377235 4.4684463
6.8764105 30.169024 18.655655
77.161644 167.74957 17.319977
73.010223 33.417938 1.5878018
66.031525 98.390633 39.168488
13.243248 26.223528 12.13298
72.936554 27.694412 19.878164
71.910164 161.58299 11.233973
7.9845095 28.767231 13.976371
53.658558 154.47147 7.0703716
46.680637 101.92506 46.846943
72.03994 32.09581 28.785347
5.7165709 164.46663 20.242004
13.07856 40.602638 23.781931
44.179871 82.550514 46.708763
62.706505 157.57094 6.4805269
24.795908 33.507149 28.956964
53.246712 54.420952 33.642052
10.347908 159.75044 11.903566
52.583084 5.5714645 19.506348
6.7944579 54.846783 17.896112
56.096638 152.2175 6.0938759
73.629478 135.9306 16.057274
44.210789 115.93697 4.47019
52.416252 49.414227 4.4355335
79.456139 136.52734 8.4025745
5.7666206 112.95304 24.023664
76.098412 34.852371 7.0660429
14.431847 150.54919 23.605701
21.737747 78.603127 42.906757
55.348644 82.454544 4.47019
47.896515 58.196899 4.47019
19.185802 137.86978 12.409584
34.767513 142.61957 4.9357138
7.0236754 145.09671 3.3955033
25.824221 3.5666208 5.2484522
74.093498 141.12489 14.074442
53.520195 161.89172 7.976223
76.122406 40.029587 2.8224542
64.921097 138.05069 19.675079
49.642334 146.84087 5.3027973
63.432545 88.871986 42.313747
64.148697 35.351982 14.794318
19.357042 33.271061 26.567047
72.953735 43.283028 27.780209
73.369675 132.97911 9.9414377
28.444786 145.49136 5.2424574
77.546997 106.33343 24.014734
75.184715 148.42174 27.347731
65.188072 73.595551 39.288818
15.456014 72.222618 33.827244
49.061813 90.798386 47.427956
47.100662 153.98322 36.278912
61.61021 32.351212 28.582075
68.904427 150.01053 28.613029
36.628227 146.83768 5.0560207
19.9582 43.189888 14.574869
57.02121 13.913135 22.50429
14.374306 42.663548 0.3575252
21.563101 24.582977 4.2895274
71.716576 55.169876 29.928989
8.303524 100.16682 12.220407
11.301826 74.605743 4.47019
26.860962 112.45483 44.317711
4.8242016 131.72267 29.074032
73.233017 134.50461 23.216248
77.746368 157.58481 23.845181
9.5555105 146.20259 27.609747
72.733383 123.05693 32.46386
68.593658 142.61081 1.0822129
73.393997 40.087372 23.864254
31.125744 173.16608 14.967906
6.9334683 46.888641 2.8956583
73.32457 159.23337 9.4440203
71.229446 121.30118 32.204643
28.042351 168.50696 13.580399
64.148697 47.031002 11.977974
5.5003862 148.55714 17.379375
76.122398 33.249336 21.843134
43.129311 174.37894 30.212315
75.34726 146.94592 15.391698
16.336636 54.640205 6.6067634
10.389502 29.703419 27.955814
72.306709 140.62939 35.282253
70.170197 44.188023 10.244503
15.702888 152.3476 2.2691748
36.716793 53.742996 33.872414
73.307907 159.01003 8.9442902
8.8059931 90.250748 20.185429
51.614914 145.12711 38.009483
41.657532 176.58676 14.552988
25.855568 11.926533 21.870968
68.387367 51.45496 8.3010197
75.668549 89.848206 22.573059
76.576729 30.18565 17.815668
4.672143 128.39313 22.073139
4.6466436 161.05992 19.185726
64.148697 30.774809 8.8596973
52.834423 172.03783 11.532316
18.784882 169.31073 8.073842
67.257591 7.5531883 10.530384
63.87941 64.683891 4.47019
79.096359 125.47445 25.699083
75.967392 21.327284 21.814854
42.121044 9.7564917 21.768826
70.100243 50.054226 30.652622
49.415817 0.80138296 14.303616
29.404207 134.68068 39.944881
59.197678 49.016445 4.4328957
55.931526 160.38332 7.8234477
48.2994 6.4268665 20.254774
32.931099 4.2427359 6.7244306
18.62047 69.326324 38.118904
59.677544 112.57767 4.47019
25.691183 80.594154 4.47019
10.011617 90.039078 5.322299
8.12815 142.72015 0.49085087
53.309265 65.508614 39.485374
61.654819 91.819946 44.425583
75.838875 93.014366 11.359047
7.8134613 169.03156 13.817147
33.794807 157.13211 35.386147
49.578533 104.58411 4.47019
58.870399 18.57827 24.118298
45.608162 12.194828 4.8222899
76.579796 30.46595 23.452291
6.8764105 39.355679 19.302402
49.769409 150.74944 36.873821
7.2155476 113.63734 12.085297
23.625734 55.558208 32.979668
33.333015 173.73119 33.279327
13.885845 135.90067 15.870092
19.958202 52.792152 7.7837987
58.03318 115.99049 43.480148
48.061615 130.86583 4.481637
6.2958698 141.98172 13.385514
6.87641 44.195976 15.252067
73.867462 132.84668 34.646355
9.039711 54.661049 8.8130589
78.846405 157.20282 31.409843
67.62674 81.701881 4.47019
74.421539 147.71124 14.668773
11.454009 39.002449 21.222687
4.0706234 152.30379 2.7257953
54.595478 169.00006 15.205183
72.469788 148.95784 23.977757
59.781193 168.33691 12.944874
55.62706 131.0657 4.4951806
43.357201 117.14407 4.47019
73.101555 28.761856 27.4821
47.95948 168.82239 8.6718035
7.5348964 21.074188 15.959869
64.148697 28.514177 8.6694393
57.403793 131.6315 4.5199013
79.178391 161.37068 24.699968
13.62696 71.043114 30.498425
28.447397 79.631554 44.982269
7.4383063 21.48632 14.523989
62.095207 94.66629 43.483662
10.70795 11.540543 17.075851
16.969299 96.249107 37.829174
53.758698 153.07553 6.1905127
12.940331 136.8499 8.8981705
77.635963 41.780865 2.0250742
74.86319 160.59236 34.217789
48.809074 176.51785 24.334801
14.069477 164.85059 6.9456334
58.781811 100.08872 4.47019
72.12027 147.5378 35.376934
76.640427 164.77612 31.732151
48.386543 139.1002 4.7253089
73.567368 161.91527 5.827661
5.1604805 140.5502 1.3191717
5.5547924 141.48389 8.2852793
29.891886 168.8696 14.529908
68.786247 14.140762 19.278406
75.15419 147.55247 24.202312
23.333231 149.86188 33.959423
64.50267 25.968613 18.36919
9.5107803 50.040722 5.0996733
46.407326 176.69257 16.535027
29.548975 8.6604652 10.86899
8.8873253 76.538651 22.769205
8.8324127 70.849617 24.068918
17.464825 18.173178 24.393137
62.867126 67.77726 38.363701
38.541077 17.101883 24.47068
72.93837 158.63602 8.1074896
4.7710481 137.39415 24.048351
16.175577 28.715691 19.304482
30.142199 10.454851 21.50098
44.070827 154.59166 5.5498543
21.525631 122.70123 37.550621
11.425883 141.22279 1.0185287
77.696327 143.45259 33.55228
63.022057 163.642 7.545373
41.646095 164.17108 6.9440975
49.777061 163.45654 34.532024
15.042135 87.494049 34.169777
17.252605 130.82129 10.441424
6.8546329 101.23226 24.624329
75.386086 18.449213 5.5744114
72.641403 61.927963 4.47019
10.360417 38.757244 28.026814
18.454966 161.12762 15.796793
77.709137 39.918381 29.01289
66.428009 171.25644 8.8710299
28.736164 171.27176 11.331333
59.459141 73.091324 41.688347
79.732101 145.72437 25.005623
14.743887 172.37488 17.751524
70.525406 133.63956 8.2151203
69.365204 124.23561 34.006729
15.859896 30.010405 22.166883
10.357266 48.888245 24.874483
23.48424 58.295994 4.47019
17.445435 24.9683 10.224555
75.66729 96.139557 4.47019
79.719582 158.46516 18.453457
75.223236 36.22142 0.47854319
63.440025 111.10486 4.4701896
9.9389629 110.40373 7.0237684
8.9133701 152.77594 15.333101
32.813278 57.351097 4.47019
74.994942 160.50101 18.525429
10.719758 48.470245 3.3878322
19.9582 43.84948 18.136751
12.745159 28.334179 27.384739
65.045792 168.12654 10.485624
71.442215 78.541824 30.120407
5.1208687 140.23164 4.4891295
8.3750572 136.01234 16.568645
48.128876 174.00259 10.164908
42.608711 174.42035 11.066263
62.372795 167.34807 33.906143
13.121869 156.10464 25.303307
76.061996 159.74117 15.901631
52.857285 31.348269 4.3157287
38.136044 136.39821 4.6163344
36.424328 172.55156 9.3821058
72.701111 23.163342 26.08124
55.004063 63.356728 38.099682
28.919666 74.639656 4.47019
19.185801 159.75069 12.495022
75.476723 96.040039 19.708673
18.933743 81.991478 40.018646
63.589539 115.50077 36.959221
44.846222 45.746185 4.4112091
75.267365 77.046806 23.355957
60.483734 5.5633101 8.5988998
64.921097 151.50139 9.9194498
69.403824 143.48352 33.531799
50.435081 136.51106 40.088264
10.8848 35.26403 17.885067
77.509071 36.193897 2.3989654
80.242065 147.74234 30.279737
71.879959 47.302956 10.134821
43.864098 140.10602 39.711266
15.682819 29.842064 7.9698982
67.452454 167.84679 9.3006334
9.234621 119.36143 4.47019
59.761276 5.0191317 6.6312265
62.44025 17.342827 4.5950336
26.779659 170.25705 34.143372
80.40593 144.64291 29.635197
43.462811 89.459717 4.47019
17.38833 8.3253241 18.737251
13.78586 160.27805 19.100044
11.131784 26.7006 26.268719
76.53511 104.91395 21.666805
7.0005226 155.02782 19.441444
18.904533 96.65657 4.47019
21.362112 62.571938 4.47019
17.372845 69.396111 36.702271
12.826617 130.56203 6.121664
76.428986 158.13318 20.68317
12.753252 52.549801 20.043022
24.00012 138.96219 37.422367
48.786774 161.00368 7.1920257
8.4888287 168.52768 31.395821
17.510193 65.68541 4.47019
72.973137 37.532784 27.861191
79.579559 133.16698 10.853302
59.726227 144.39647 5.0300741
52.219749 149.08249 5.6829319
6.8921957 44.324249 25.543911
70.073082 161.00473 16.67713
12.1348 35.653912 9.2880096
60.372253 167.36993 34.05407
72.322479 45.917419 25.446621
29.394472 94.994598 4.47019
74.193878 29.795534 24.177889
75.193497 150.75716 9.0754681
74.345001 33.33712 25.551722
68.223946 141.4272 2.9539247
59.290154 72.734497 4.47019
33.725353 161.51009 34.5424
14.987173 17.252098 4.6110945
30.710869 53.649906 4.463623
43.011208 53.433582 33.867943
38.5289 30.701962 28.568745
42.160042 170.11792 8.0736036
58.60709 127.99888 40.805901
26.411547 164.98634 34.378113
44.839851 62.322598 38.693893
74.736542 43.966301 16.607054
5.808454 69.400009 32.954315
73.394272 102.3952 28.761427
16.558777 67.7901 4.47019
45.4701 47.353382 4.4218674
3.9633996 158.23093 16.102118
7.9203529 34.289093 10.803778
33.392628 22.250092 4.3870506
31.770504 126.28468 42.184227
33.296921 28.981968 4.3000364
37.210194 165.15195 7.295085
61.30302 147.73938 5.2165308
19.9582 41.10321 15.351202
76.187836 89.662415 4.47019
14.695147 52.073471 30.077839
59.444065 134.93301 4.6526852
62.970081 26.00555 4.2802987
9.4154224 51.802357 7.9362526
50.76902 69.278473 4.47019
8.8301582 30.180542 17.648138
12.620331 71.332726 4.47019
43.638111 176.43257 13.827691
76.531853 91.394714 25.0189
32.189808 12.802769 22.629988
71.152519 47.878464 7.480968
12.475576 14.359546 4.7612724
68.123245 137.62926 22.270826
72.502548 33.408432 18.115078
13.571712 54.472343 12.07759
11.808139 41.891399 26.795973
28.385584 159.77017 7.6413612
47.472984 175.5759 10.722277
71.414421 129.55035 4.47019
26.702412 143.8071 37.249912
60.716785 143.8842 4.9612775
24.566498 6.4977016 7.9540501
79.497704 137.75351 17.267202
54.762589 36.922874 29.596786
67.506401 19.965046 25.108955
27.532492 171.66068 12.924652
70.23439 79.757515 31.492666
26.673565 63.462132 37.685432
74.257889 46.455772 1.9284897
45.297173 37.034592 4.3534379
12.140868 42.100834 15.940627
6.6208916 156.71265 13.448505
61.223495 42.81184 4.3917499
79.406914 141.00104 7.3500848
37.540745 86.792122 4.47019
7.1325283 27.272852 9.1812143
56.090946 14.280841 4.7302036
7.4220085 112.9088 25.994576
16.311909 7.4215789 11.85504
75.398705 133.58969 21.992214
49.52021 17.304508 4.5967255
15.192869 116.26131 35.670071
19.545877 54.640202 5.5170078
58.961449 62.030964 36.640621
9.1284962 27.400185 23.620853
78.901894 133.11163 9.5950451
34.496548 33.252789 4.3283587
78.222061 145.13629 19.360512
78.981804 148.19806 32.769241
37.886391 176.5625 12.519546
77.125984 29.393013 21.536129
64.148697 46.649719 16.587345
70.529602 69.031868 30.296146
64.921097 151.61327 21.65303
61.492386 107.15569 4.47019
50.747059 175.37646 26.405397
59.73085 133.24847 39.138672
58.311195 153.21133 5.3283691
70.836037 139.45552 21.881083
7.092535 35.544277 25.960196
42.848106 43.64835 29.294998
78.983421 131.62756 17.745916
14.705177 83.061615 4.47019
8.3449907 63.270191 13.280476
9.6542358 159.39497 34.656578
20.311832 111.7209 39.774242
13.459433 169.733 31.167948
68.891151 93.682251 4.47019
7.8468451 33.293564 25.53507
77.607346 34.215485 24.426182
36.76421 90.859657 47.336948
25.627865 14.569313 22.813362
68.367676 156.26053 21.922054
75.81189 161.58299 9.0025244
19.113365 65.553749 4.47019
21.021652 144.48856 4.9269772
51.309818 169.05458 14.14145
77.386192 52.104652 11.083826
55.986576 36.552261 29.540121
55.663471 2.0249915 5.364893
79.847031 149.66797 1.2023574
74.243134 134.87122 34.770588
64.148697 25.326544 12.566808
19.658833 10.812743 7.9540501
14.8589 121.37576 34.362228
19.185801 155.12405 7.3570838
50.906078 101.26619 47.045555
21.905218 46.35788 4.4152651
63.310799 6.9704084 8.5988998
9.5160408 131.91885 18.468105
19.185801 139.39287 22.849182
67.532021 108.6842 37.506447
41.932739 38.779778 30.138685
17.127348 149.02658 28.746035
71.972099 37.448795 18.918987
35.654343 69.637451 4.47019
16.588696 80.395721 36.491043
64.921097 152.82104 16.905495
67.907326 51.618568 11.542688
74.488655 38.837029 26.987288
64.148697 46.230614 17.545361
19.9582 27.397888 14.119246
10.455936 160.24734 19.179155
60.373768 138.76808 4.8098207
6.2893157 159.61151 11.033295
54.315689 6.0165844 8.5988998
74.852242 161.41385 13.867796
75.547356 151.38164 26.512297
7.5435195 137.42088 24.412306
9.1483173 80.017784 18.726553
11.15631 36.974281 20.783295
33.523849 83.386177 4.47019
62.030277 46.483166 30.309444
16.05085 160.11903 19.509808
35.419991 17.630749 4.5823236
50.870094 170.47551 13.640575
9.1883698 147.17596 11.129215
71.617302 141.96782 34.790722
64.348183 112.49945 4.47019
52.90184 174.50018 12.358606
36.633205 41.059769 30.448887
69.778854 161.58299 8.3015337
31.347504 20.388487 25.284908
10.374624 84.042076 28.3769
6.5507536 32.662529 23.655453
9.02845 103.74196 27.310783
13.293405 145.14186 24.239067
78.657082 127.43149 28.954643
72.546745 151.96869 35.846863
59.638977 160.9682 31.845247
64.148697 45.471535 20.330881
39.673748 86.334747 47.165291
51.830734 50.085197 4.4399834
76.064041 74.898697 27.343918
54.38464 104.71364 4.47019
56.075134 172.69193 30.03233
21.100113 112.79134 41.394352
10.0134 140.13098 14.847399
14.872518 23.953321 26.877808
75.331253 36.495819 27.720928
17.468199 119.68571 38.273842
71.030403 45.882935 5.439836
46.78952 61.532959 38.175209
15.909669 151.62848 2.6808541
64.921097 139.34344 15.584164
37.081661 58.979168 4.47019
71.911964 157.52029 6.0474882
37.914043 163.29199 6.8404279
19.9582 36.625629 16.024685
5.7409654 141.161 1.0461495
5.0291343 136.54352 4.0843625
50.047855 140.28882 4.8880372
6.4471025 156.23483 23.303394
27.795271 98.32489 46.252235
46.196808 52.074635 32.997719
39.586708 174.99677 9.0002604
34.778557 55.560272 34.754696
71.061035 9.8085556 11.144122
9.3096094 147.67493 35.66769
22.857525 68.99221 39.368366
77.59996 166.92816 15.571751
33.620785 131.6033 4.5180793
9.4508448 103.49775 4.47019
16.737101 78.499146 4.47019
64.148697 50.119648 14.744722
6.2496171 135.75539 12.807162
