# .PCD v0.7 - Point Cloud Data file format
VERSION 0.7
FIELDS x y z
SIZE 4 4 4
TYPE F F F
COUNT 1 1 1
WIDTH 1526
HEIGHT 1
VIEWPOINT 0 0 0 1 0 0 0
POINTS 1526
DATA ascii
175.33054 -808.79279 -60.854149
-179.03807 -325.91312 26.933159
-164.91156 -600.82025 241.78886
19.418219 -40.529346 170.65634
-163.06993 -438.34888 -15.99457
-142.93268 -432.19028 251.8978
28.897465 -284.63437 28.413868
-18.879482 -276.56229 -15.156914
-119.00114 -287.25839 47.336678
-7.0372109 -1068.4814 56.773418
149.45573 -837.74646 249.92902
29.957935 -1034.4623 0.111745
-146.6041 -992.4129 66.385429
99.622482 -567.90094 26.51882
-65.998726 -62.491497 128.99896
77.519287 -519.32349 289.80869
-7.0467834 -661.11963 43.750523
-3.2652364 -785.86194 295.21979
200.54626 -957.65234 43.18581
-9.8664732 -708.99756 -22.38987
-18.884993 -389.23694 140.94214
182.99429 -207.65475 -62.576939
150.14481 -123.04918 118.16322
-134.53799 -965.31165 -9.9825525
75.373077 -379.75842 198.07632
-149.33444 -77.907578 -72.372993
196.40491 -200.6145 111.30396
180.5571 -84.019554 -63.807915
82.663696 -1023.8292 113.94754
-19.331596 -10.612588 -10.827271
50.09111 -448.05298 289.25629
134.67026 -384.39285 152.51295
-161.02634 -829.81067 243.01399
20.751081 -560.91772 -11.766619
-160.60016 -387.78387 -17.533829
-116.9415 -857.2572 243.37646
28.45089 -439.72266 288.25595
-78.150024 -788.06946 59.090782
-63.996986 -58.228409 149.99126
-16.798834 -675.02228 -13.258472
-122.03462 -382.04193 143.67532
-8.9312572 -337.80997 15.002018
45.172417 -480.33661 -23.246201
-168.05464 -327.79782 125.53398
-160.83835 -390.74234 186.14856
45.599926 -583.50122 106.74419
165.14415 -590.6554 224.28299
-100.84367 -44.097515 -3.2029777
-189.76558 -688.29865 4.9964046
107.43614 -60.71756 26.624681
-111.04132 -871.82306 159.42212
184.90921 -804.96552 113.54166
69.940735 -1026.0077 39.434975
56.228333 -860.78259 14.920004
-168.23819 -575.99255 184.15424
-117.10561 -613.77002 128.57082
-34.591698 -612.47327 125.69703
-193.40097 -542.435 135.83192
-177.07397 -942.49744 77.17141
-148.57469 8.2710381 4.5018468
11.693178 -270.17676 72.075554
-24.3554 -137.97247 12.153837
-139.90233 -803.25464 28.564714
135.075 -945.52332 -3.3611581
-184.0121 -570.60248 -22.794657
-94.617081 -1058.8735 2.0684896
-190.47397 -536.00684 24.573219
174.25043 -696.90283 -23.248659
51.678108 -487.29214 59.602093
-30.951962 -384.06732 226.23779
24.327154 -356.10385 190.32016
56.050175 -463.5777 63.840034
-125.97939 -502.5 21.594973
-117.43861 -288.73889 -2.057785
123.56901 -948.8183 -32.320423
125.369 -828.51001 -30.294479
-1.7324203 -48.063835 174.63776
17.418564 -595.65753 88.430466
87.57782 -681.86389 26.200258
-194.90573 -703.15216 75.390373
114.5099 -603.52942 143.41327
-14.380798 -85.597244 10.811913
-134.12958 -30.593891 37.359123
-162.50787 -833.33203 214.47911
17.446203 -781.67871 13.441814
117.44273 -741.50684 284.10193
-198.61658 -128.77675 98.992058
87.396385 -602.16821 293.75415
-26.67318 -330.55222 154.99442
-112.07591 -550.22229 16.776041
-25.528194 -686.35309 304.34729
-102.57608 -480.72797 23.793478
170.4418 -995.05438 24.109318
168.74429 -507.14178 21.784899
-156.41472 -660.81036 264.46347
-162.85289 -913.1615 -64.930534
95.295532 -516.10522 288.55811
-144.11708 -188.69824 138.9879
68.436203 -382.508 204.80862
11.417896 -664.12024 31.92403
141.37959 -698.52466 57.629906
-109.87128 -251.76144 174.12563
-174.52863 -554.24316 122.1211
-131.207 -898.66187 -37.836422
-168.54681 -813.10291 165.97272
169.2744 -706.79395 219.75337
-24.391376 -18.616478 117.15999
38.868908 -1007.3892 148.97267
157.22063 -480.33197 239.05885
168.3831 -805.78796 219.08893
51.602608 -804.88696 278.7746
193.7899 -691.38971 148.73747
-179.90002 -204.5903 -42.892605
193.51904 -762.11853 100.55031
-101.42023 -706.40649 20.75061
-15.424149 -661.93079 53.264603
-195.23552 -676.26434 76.571304
111.79774 -836.47113 -52.89299
-165.22321 -471.98346 64.910339
90.589005 -490.76495 -17.5396
93.518936 -67.454033 97.180359
181.80386 -587.82599 153.01567
-52.142677 -129.2117 57.136093
6.4746776 -885.29626 220.1062
-99.062714 -497.91492 22.057962
22.136856 -726.8783 50.394253
-177.14951 -648.47906 -23.2463
154.79564 -179.47223 122.97116
76.699425 -619.28339 140.78925
100.30336 -854.09979 12.811443
-182.17834 -880.79468 37.626011
-4.5340953 -513.29065 -13.041182
-14.489802 -383.323 -0.32997465
167.78967 -360.99982 -9.8684711
19.440666 -450.70013 38.405853
-168.91304 -840.28375 206.15631
-103.12642 -149.66818 43.650352
181.71245 -94.208527 -6.8841062
-162.36395 -305.84445 63.129215
-193.0191 -997.4079 -8.9660664
-183.67296 -218.9863 1.8917228
170.04555 -826.52826 67.80098
63.789093 -395.80182 -34.131001
-30.774002 -991.62061 140.3244
-148.44868 -44.824688 63.191483
198.53998 -839.5824 112.72056
-124.97487 -379.12332 -23.246201
170.79425 -822.15161 147.03802
-10.723207 -596.33923 3.3395708
-155.95586 -249.74953 124.76138
-163.60773 -457.35248 76.564072
50.09222 -849.01294 262.06305
99.473602 -652.9126 299.92822
166.06969 -545.39099 228.82483
-155.705 -521.25769 26.773756
-143.62904 -169.90324 6.0690703
-8.1100578 -637.85486 -26.630234
-53.150612 -661.8548 294.32709
106.48707 -110.24729 27.132925
36.077496 -214.55447 183.70398
52.590626 -283.63492 -23.511602
-196.90964 -724.36218 14.000179
-191.48004 -530.59534 41.663189
194.00403 -549.6936 69.561447
105.76888 -659.28784 -23.246292
35.583019 -277.46188 51.366577
-77.36203 -477.56311 24.113064
-117.54811 -63.650276 89.382477
156.09267 -919.72522 2.7994316
-43.387711 -345.60114 -17.5396
-133.22961 -734.82196 48.136635
-104.87013 -313.22778 137.65587
128.52612 -752.85376 -35.279934
70.501251 -840.04803 161.83322
61.252075 -579.76959 -25.968729
-146.5589 -260.24249 99.49733
151.59669 -264.94308 101.13401
-96.896446 -792.39484 73.234497
-183.86734 -620.9151 -29.704487
100.431 -268.79587 78.896439
13.594687 -186.8717 116.27867
-138.97092 -774.92114 30.301617
91.589859 -1077.1049 -8.3644876
132.4182 -842.13074 -50.502213
-137.27766 -199.65869 -80.865646
104.66221 -615.05798 159.33871
76.558525 -822.15253 17.328129
-112.95891 -294.94623 69.533714
184.19963 -415.11307 193.54074
-41.411076 -318.7652 188.53429
-188.74554 -463.3465 119.49127
128.7482 -416.75775 257.83224
-180.50848 -99.628128 -28.974998
180.35257 -879.42731 -89.752106
-162.12613 -324.29907 108.00089
80.22258 -527.67078 19.053255
69.202217 -952.36322 153.47975
-24.3554 -196.64215 6.8168912
-182.89954 -842.42072 41.670509
-156.57764 -292.11731 63.698517
-133.00395 -401.15894 -23.246201
-183.00632 -154.49692 -88.917671
-52.199043 -671.18475 303.59155
36.140896 -1083.7551 -5.85851
67.547562 -1010.468 -40.129692
53.655064 -424.98187 281.96997
-170.63252 -888.75671 111.84457
-180.78241 -914.10571 111.45284
-174.3387 -774.06952 177.87448
57.535629 -590.41614 304.10681
200.68622 -993.52008 -17.449831
-178.4315 -760.30841 171.67662
152.53568 -267.47867 107.74197
-174.45558 -550.53748 -17.527719
3.5415397 -27.756626 165.80038
-47.213421 -391.40363 169.96056
-171.05255 -986.14838 39.455109
86.695503 -399.88126 -17.5396
-157.87379 -343.51523 147.05566
117.0992 -279.36285 -26.790577
-156.86229 -796.40546 248.9595
-133.06845 -210.43333 115.77626
-130.97913 -876.1947 -16.89361
116.31937 -509.01471 283.53235
-194.77939 -692.40686 143.74545
-96.703094 -571.33386 292.29742
-33.464375 -701.32159 -15.613068
172.96043 -512.10596 -17.53315
-24.3554 -202.04526 19.376545
39.12117 -315.87482 -10.208618
-52.624531 -778.68671 284.84125
144.946 -160.66289 -43.076111
-22.409319 -61.412964 -9.2378922
-94.292023 -1015.424 80.913513
112.48456 -27.975599 6.7167139
170.01045 -69.679871 10.804041
98.094101 -300.27313 120.40928
-140.72276 -1015.4807 71.45507
138.8304 -806.62073 33.526001
-13.93955 -525.13538 0.2060923
-141.784 -127.68913 -7.2783031
159.55502 -131.88025 -111.07848
195.0275 -693.58978 79.56424
146.38481 -325.01974 23.853884
67.609428 -390.96588 155.01483
-14.745616 -150.11412 88.348694
22.54043 -830.05402 23.820234
-179.7485 -431.96112 4.5591116
-136.01659 -33.904526 43.368729
-85.802727 -623.88287 302.03448
-142.2959 -293.22784 160.7464
-1.8209084 -912.54828 176.10538
-113.23584 -708.48169 -23.204224
20.933647 -692.08368 -18.091412
166.36285 -774.91327 252.41988
-189.98535 -478.06763 91.827301
99.467834 -135.39386 -30.067762
-147.00255 -995.87952 54.387058
-20.736984 -718.36713 52.99128
146.99803 -992.80878 63.740967
-97.895187 -575.78467 91.676376
179.47528 -142.39523 9.4737244
-193.29921 -524.79419 93.872681
4.9336052 -92.09893 107.04474
6.7200103 -243.67142 -28.729195
2.9958427 -346.73444 -33.76321
169.31601 -508.48447 118.00085
-112.99599 -800.65283 94.992737
108.95439 -71.244202 54.077053
-32.978424 -814.29694 120.09705
-24.3554 -128.77791 48.909935
-54.041912 -122.18684 -22.193632
119.89444 -93.511475 99.354942
-174.13858 -551.17535 77.809288
11.074672 -236.91806 91.023911
44.743309 -790.49506 67.022179
201.53775 -917.76276 55.107826
-141.784 -183.34097 -18.572884
-131.57602 -259.54733 160.88939
-42.198658 -117.159 67.830811
144.60403 -174.68561 -70.050247
66.849174 -882.71631 221.25537
10.05595 -516.7915 7.2559423
174.98425 -546.02795 188.38986
83.81752 -310.73465 -23.552277
-5.8451767 -834.15344 155.63516
-143.98106 -174.75742 -70.818054
80.202759 -1034.8085 -21.94627
163.02673 -455.12848 149.70599
36.263344 -405.4985 -23.246201
178.13898 -289.92761 64.622269
-152.561 -154.315 -55.581703
-18.458231 -9.9519367 41.99535
161.92349 -593.51672 261.43375
59.587658 -627.70532 -36.75034
-114.64961 -400.41788 249.32953
112.44991 -114.95462 154.92084
-52.159546 -945.12408 156.09567
185.22408 -943.27039 75.739899
39.431545 -261.92151 -22.716335
-109.37664 -557.72174 296.67279
-158.46039 -409.70331 165.43889
84.001816 -1048.469 103.82665
-64.325233 -55.03117 -9.2697029
-131.20151 -684.14905 292.00073
142.3847 -750.55957 -51.724899
195.77264 -671.32678 133.18349
-185.48311 -523.83936 -11.426611
-192.31886 -872.44745 112.54891
-58.294197 -493.79449 -23.246201
-136.9957 -382.73529 150.7571
-95.35862 -1032.4713 -24.374046
1.6632024 -388.01376 13.985093
-49.845039 -566.43408 32.285797
-20.336502 -371.61731 6.597311
-93.447876 -645.01459 293.45172
-163.11562 -794.65918 247.01675
172.86438 -539.85779 117.72142
159.84592 -502.76788 -17.5396
179.49998 -691.75781 145.25592
200.79274 -936.87421 60.389046
-178.05548 -973.21399 21.569128
99.468803 -858.42566 114.94038
-175.40868 -894.30798 43.586811
167.60945 -331.30157 58.385933
200.9584 -971.45837 8.80163
-150.24385 -385.10016 190.42221
121.6401 -22.271603 12.747852
157.96342 -309.2724 44.684563
62.058449 -548.05548 -26.224796
14.122156 -589.06848 296.29272
183.98343 -818.97083 154.64542
-180.07513 -869.60229 -62.558296
169.80972 -480.332 188.8894
109.89665 -95.588615 78.688171
4.3121886 -869.62439 243.96121
147.51756 -315.47253 139.43114
-8.6217537 -111.169 21.679668
49.659874 -520.31781 51.198074
-133.14594 -437.78302 159.39456
-139.57527 -758.82965 72.340179
-31.943747 -838.66089 23.82774
15.529433 -131.257 109.79565
-174.05818 -435.45667 -23.936234
110.714 -304.63251 121.54741
-178.22894 -382.65216 136.33557
-192.46227 -732.97687 150.83368
60.356747 -71.781624 165.38705
-85.735741 -573.15662 38.564766
126.31921 -538.06921 284.19855
-96.015488 -522.33862 289.1756
-43.390106 -844.80566 19.517292
-32.266235 -572.12286 -17.5396
-54.243507 -525.94739 19.227287
94.276566 -75.938675 140.49127
61.276989 -916.99316 170.9823
-176.59375 -737.00671 169.56197
153.19159 -718.04266 27.959274
92.298149 -286.41916 34.607124
-164.13272 -712.58124 256.491
-70.495964 -879.00336 227.1537
17.710287 -10.973446 73.068626
201.1306 -943.91791 40.345234
20.808247 -512.39008 -1.5352597
188.62228 -669.23499 -29.877544
112.26563 -175.27036 112.3996
-179.63782 -630.67615 122.49953
-16.028996 -395.05252 160.49084
96.421204 -387.8457 152.48257
112.82489 -802.89514 273.87592
-175.42419 -882.07422 -11.128717
-33.914173 -721.47217 52.033043
-17.675425 -130.44879 -9.2379198
91.208778 -530.58728 -17.5396
58.17025 -619.03906 160.43355
-149.64595 -725.80719 50.698681
153.22806 -454.94724 -17.5396
-172.25893 -535.21954 153.69743
5.6643991 -848.49805 -39.013577
125.25832 -194.21666 -16.135759
145.4342 -666.66003 273.46649
103.97121 -1028.5161 60.850208
-195.04691 -722.55756 99.391396
-14.145144 -939.71283 -37.451542
126.71991 -950.91565 147.04306
-95.55629 -68.039215 94.986473
187.99033 -583.92548 -6.3570676
-102.35213 -381.71973 203.17345
-164.61703 -674.5722 264.60236
159.82938 -489.40692 236.7193
-97.058937 -589.18512 300.72339
-192.93295 -517.8175 91.729248
-101.91957 -179.90654 19.241314
170.68558 -802.36896 209.10802
44.776527 -141.41306 60.867783
108.82753 -601.69171 101.80327
104.45334 -876.84113 219.08432
178.21207 -587.82593 12.823376
-162.54001 -363.14517 54.191216
49.453415 -51.514687 -9.2893629
-160.14745 -426.56775 114.7923
-129.24919 -837.05865 267.62491
-152.22221 -486.00912 59.918571
173.26512 -547.49402 -23.246201
35.638313 -422.685 274.65515
65.813522 -1022.08 -19.746155
-127.15895 -354.48505 171.27943
-70.879288 -172.77533 7.0900555
-167.15503 -695.81311 230.40186
-50.93663 -541.69006 -23.246208
158.05701 -510.90631 34.278152
-142.10986 -472.66153 -5.884119
-163.66768 -464.28143 156.94659
-167.44469 -477.33847 204.56163
-19.24579 -678.6095 304.85104
15.701252 -158.89574 119.06712
-163.37923 -666.98511 29.504068
-114.69009 -893.71307 200.26465
-101.10389 -154.74622 6.454864
162.51721 -182.19116 63.814087
99.536842 -872.56085 111.82281
10.117985 -1078.4818 10.247374
85.759987 -407.45273 266.69043
12.253113 -92.123116 72.005898
-106.98669 -710.5578 -23.201725
180.24078 -930.99316 81.959457
175.41605 -954.41956 81.623749
-117.91998 -654.75751 295.86975
6.543417 -616.62323 134.89403
147.12294 -526.30237 -17.5396
6.9989414 -740.82928 46.418518
104.97358 -173.96555 158.65527
-15.759347 -496.5173 -2.0448503
188.81361 -587.64301 46.634289
-176.85446 -399.05569 15.490806
-119.25214 -378.04608 -23.246201
-158.37743 -632.2771 262.27304
-4.4516835 -1030.2676 -24.315525
-127.41537 -303.66504 41.044945
-1.4905813 -419.92981 -29.944788
51.38002 -694.13074 -39.424099
-97.287125 -707.7356 298.31757
-118.81292 -291.05972 10.563514
98.90432 -990.70795 136.92091
-17.016638 -481.742 -15.721746
178.58572 -638.50623 51.151386
-22.69977 -719.7655 302.71033
-162.91983 -413.73019 184.43597
146.11307 -354.77789 27.243309
105.43008 -130.4184 10.710115
-177.72089 -598.73254 167.21959
-90.806664 -435.83926 283.01288
-119.52931 -501.7627 21.66942
188.67511 -552.61353 153.80557
185.09299 -492.42798 153.595
7.3372145 -334.44275 17.963474
55.594944 -567.47717 303.45786
62.312252 -507.29459 -35.491226
-139.24188 -194.76041 -68.428802
-65.600456 -93.497032 133.54401
-33.930061 -771.66357 -6.4886146
-164.37277 -811.27979 217.17337
-129.06273 -560.06006 292.69467
138.48633 -77.297638 -32.517899
158.2729 -413.87659 148.90904
138.3159 -779.12512 -58.278862
-175.38535 -562.93036 71.245956
94.257179 -552.13452 -17.5396
8.8054695 -230.99326 -28.729183
5.5718393 -835.25861 269.98453
168.75743 -709.12848 131.02325
138.92465 -799.20575 86.725929
-30.42252 -969.20032 -25.362116
113.45123 -1024.7295 -45.701168
-145.90703 -587.15344 69.584076
-129.86568 -350.96384 177.07314
-184.67734 -584.2406 3.8406711
154.21976 -784.89545 -100.45318
-179.24535 -179.1507 57.728897
-122.58624 -822.87903 -37.799168
-31.17551 -84.211601 163.41235
-8.6769667 -603.6366 -19.291622
98.227127 -926.33936 155.81172
-58.168018 -809.15613 110.63627
109.41378 -559.91254 49.777004
-140.24658 -537.16626 285.89288
77.08107 -695.82928 -23.23344
-55.028278 -598.72693 135.89525
-151.60077 -752.21863 19.778931
-77.252045 -702.33429 300.63431
-75.500443 -137.42455 -9.2379208
-121.07901 -667.81982 286.92883
100.40343 -82.376602 151.88968
-139.01738 -340.05383 130.79517
15.326547 -843.87567 -32.399055
-79.466209 -923.0708 161.24316
20.521347 -606.4599 -9.2660656
144.64243 -817.41199 125.67205
151.90439 -335.55917 14.089813
189.85449 -532.45654 19.878439
135.07602 -828.33325 27.647057
-9.1137218 -588.85156 17.209625
-24.3554 -150.8815 67.437263
-172.76663 -354.81763 134.52646
157.48943 -405.01398 -1.1792685
111.44537 -1017.3762 90.905624
-139.25441 -971.87927 17.311539
63.671242 -142.8364 -9.2379198
14.05819 -777.99298 286.30716
112.59726 -101.50912 99.780655
-161.35541 -502.03674 234.76733
146.21907 -416.71298 241.9588
-168.56798 -730.35315 221.97672
163.92337 -670.97156 267.10846
-25.683777 -496.11176 -17.5396
-111.09078 -1032.5837 -11.564213
187.60753 -596.4527 162.53291
-90.969093 -816.69043 273.3414
-36.326218 -900.8269 193.16852
-149.76805 -754.01196 22.926603
155.20479 -820.63422 -43.959915
-63.284283 -807.17859 286.70514
-117.33244 -190.34648 156.32176
178.85931 -568.90802 189.006
41.812187 -92.102165 102.34309
123.82973 -153.2979 -29.012232
-196.87996 -899.94501 83.871841
179.16473 -816.78107 -74.087051
-160.89952 -459.76193 -17.5396
1.7155101 -1065.979 -12.654367
167.19955 -489.68347 116.74398
-50.27335 -813.69049 119.01169
24.672565 -1021.8407 160.84528
152.51135 -274.55359 84.059647
39.347553 -594.26465 305.12921
73.533531 -833.03943 23.819078
107.04636 -984.59552 139.43983
126.61624 -609.87256 -23.24621
169.46996 -758.88 228.68069
20.593876 -663.31763 -10.011589
-142.36604 -196.93669 -98.639809
-118.13298 -740.80298 283.91486
-169.38293 -349.93616 35.984425
-176.79474 -714.17291 30.850155
93.828621 -934.60199 -11.358172
-178.7538 -602.30536 12.947202
165.78362 -830.47748 -113.86893
102.62352 -863.54907 156.65443
21.045748 -684.92065 -14.86149
-70.419235 -1063.8322 62.489761
125.52806 -582.49133 -17.5396
-158.81894 -777.73358 253.35194
-178.74741 -200.5271 -49.639214
49.598347 -272.68549 43.21273
-120.04464 -841.22449 268.04889
-41.520153 -1041.1238 7.0522704
-108.07581 -222.8006 78.730927
178.93495 -964.99323 29.99802
19.255938 -661.02399 42.131992
32.394691 -1032.8344 158.77786
187.89774 -571.80603 59.929047
115.16622 -177.54678 156.52605
-90.734596 -577.10791 293.43344
191.00476 -637.57104 12.276663
-53.464069 -599.54736 137.46599
33.110203 -599.73425 295.63489
-187.2782 -484.03561 24.914162
-145.06436 -1001.3489 -18.935772
-11.801786 -113.74536 180.67084
-108.65897 -344.6304 176.38022
95.237556 -458.19955 61.812737
-2.5364161 -417.07721 -29.511597
-139.43161 -878.24536 219.46625
68.6754 -934.87573 156.44284
199.26726 -259.73975 65.789597
148.10146 -796.90527 60.703423
-135.47031 -562.48792 35.830032
-160.9782 -831.77863 211.87833
-90.814888 -239.48184 177.05446
153.28516 -221.8327 130.05649
-124.95805 -317.78851 85.281059
105.59504 -898.12067 -37.507664
165.31648 -983.83929 50.546715
56.329453 -188.44164 65.222763
12.254611 -810.77032 278.18558
99.406235 -657.09033 -23.246288
-109.28323 -524.8811 -23.246201
-192.14581 -666.67767 23.305788
-114.37406 -882.76349 159.435
28.452801 -178.34808 -2.2387357
178.55835 -670.13135 51.205414
-115.17638 -768.8783 288.45074
-77.168098 -197.3019 18.114624
-88.717255 -388.33893 146.24847
97.610687 -871.42499 0.94911456
-142.37421 -779.95526 -27.856598
-130.97934 -777.79382 26.900728
33.542305 -166.317 104.83419
170.52794 -702.26581 54.418922
187.23163 -852.61243 118.08219
-83.814178 -599.00916 -23.246262
195.22937 -571.80603 81.770943
135.42963 -748.92834 286.3967
-31.408035 -253.41231 -30.299473
-123.71442 -224.32367 -20.883778
134.31746 -96.427025 108.96099
-168.59549 -1047.0337 69.381058
-98.883324 -376.52496 -17.5396
-134.23462 -718.55243 279.91714
-1.2293396 -276.7608 118.5974
108.78883 -145.59561 72.439354
-183.64848 -204.74646 -71.038605
-12.749516 -392.35938 229.41467
-45.036125 -775.65613 -3.888427
178.9257 -63.051388 82.770599
-130.9783 -836.88562 36.852009
181.01251 -571.80603 131.68526
89.618752 -632.46051 293.67712
-187.10222 -447.90344 97.778381
20.78233 -377.58185 1.2770514
157.52498 -823.0813 115.44083
144.946 -173.38155 -33.657589
-85.311943 -384.35071 170.07291
8.5298605 -968.52557 152.70851
2.2704201 -340.21622 32.23101
-154.985 -592.7608 116.07726
55.20269 -324.41449 -27.357922
14.749146 -162.29871 129.246
-130.97751 -828.54303 49.601521
86.042076 -384.84814 166.48434
-41.266991 -318.76898 -23.564335
-16.980946 -596.37689 -15.266912
-163.27905 -458.47137 3.1585741
-26.459438 -1081.2482 8.3662701
-176.61649 -104.46708 -38.982895
185.30975 -429.29492 124.22629
170.51675 -698.22729 36.047062
168.35843 -877.85864 -101.87833
20.355568 -915.49469 -24.369614
-20.416149 -385.80753 -3.660532
101.00857 -925.00378 -25.511366
115.46706 -982.73926 -55.876736
-153.02921 -349.29898 159.47862
-90.945351 -465.16376 106.12141
109.66052 -207.60335 71.842941
-69.030449 -925.05005 159.05695
50.799286 -732.82117 291.09872
26.805099 -359.80399 -2.217243
-10.728247 -693.50366 304.75143
137.58516 -813.4903 270.97803
57.064133 -701.58142 21.82201
111.14368 -272.55646 -23.376823
-121.92847 -546.96381 17.105072
55.415962 -38.539993 84.222198
-24.3554 -169.81723 -2.8576074
-168.84343 -460.83499 -19.598301
135.075 -848.11163 76.94471
103.14249 -387.0654 145.2619
74.323601 -157.12633 174.11328
-194.22134 -615.2384 48.369999
45.144867 -934.79504 -25.507603
-82.815033 -498.08313 295.15167
-103.41606 -126.22848 156.84676
-163.88162 -630.29559 -23.246294
-192.96182 -694.04871 37.887192
-70.480484 -167.55542 3.8729677
-2.1774282 -628.17542 7.2559166
82.234329 -968.24548 -41.713322
-182.52258 -984.5766 27.585421
115.82318 -379.75113 198.24863
10.415753 -652.06982 296.12192
22.633564 -19.055622 145.63416
-39.685104 -835.09875 23.826088
7.5070238 -780.06244 -16.13332
-120.77468 -67.918228 129.5986
16.877071 -582.09851 104.05859
-107.47546 -541.49225 296.08786
-51.660789 -457.19067 29.499306
-111.07067 -706.9621 -23.206732
-6.0051832 -24.740566 163.02121
126.65308 -72.24968 90.957512
171.90726 -38.678391 52.034363
84.958344 -895.10461 191.24919
-138.64751 -907.48993 -4.5189505
75.835533 -904.94653 176.17365
-67.587349 -578.6925 97.537415
84.999153 -559.43896 -17.5396
22.810734 -121.63306 8.1646404
61.303917 -589.38684 118.0127
-179.17596 -610.43359 170.86961
-94.17849 -363.53687 -23.302269
-198.29045 -349.03656 -29.416044
179.51694 -763.52246 127.51878
187.10406 -449.60236 91.957703
137.75311 -476.99844 62.141212
180.11038 -790.54926 47.967316
-121.10439 -197.18198 115.24497
144.13594 -995.19214 81.955902
-146.83029 -995.95966 55.522686
-174.48439 -741.8501 -25.561008
112.615 -478.60419 61.745121
146.75227 -482.22031 275.29883
-84.808578 -1034.7678 -24.97135
-171.93408 -795.64264 185.73666
135.07854 -794.11206 -25.534718
-129.8364 -173.05786 153.13898
-74.210266 -241.11111 107.41249
-178.04932 -748.62927 -46.485638
63.752281 -567.95184 26.652763
12.707773 -483.39813 -25.422529
194.08865 -715.04285 145.76323
-87.607582 -227.39372 -19.272224
-185.56201 -435.08032 81.458511
183.14816 -763.03113 -46.908287
154.75078 -585.06079 265.77603
51.803436 -1021.4865 -24.17041
-66.878975 -688.38116 59.834156
-196.01776 -655.85425 134.29829
-16.2582 -822.9801 -17.724888
-21.822849 -477.47406 296.04065
172.78943 -803.51324 141.39423
152.64865 -842.70013 -113.37175
-199.10214 -214.50743 79.700409
73.212677 -41.700897 38.730751
-9.0332432 -334.53799 4.9860163
16.911293 -601.3869 306.07648
-1.4964168 -862.43451 162.58482
103.41315 -801.81415 284.27667
-113.77248 -658.36694 -17.5396
0.23792285 -353.65356 186.57501
-16.256781 -799.7937 18.680136
-14.522422 -615.98993 17.645344
-171.50803 -889.85376 166.85405
-156.51491 -647.4231 264.78445
-88.859131 -69.606804 97.500214
148.6441 -446.33633 -23.246201
-98.529015 -276.87292 118.65585
66.456726 -214.66106 -17.021336
39.33773 -87.90625 173.04221
-187.26541 -849.60339 104.9447
165.32037 -775.5495 253.9621
-34.845253 -1043.6953 104.54861
121.28346 -313.81229 138.1181
-179.66745 -604.76074 123.49687
-167.16864 -490.31445 48.423252
-159.989 -425.15445 82.911911
-102.82064 -116.33671 34.682343
199.24622 -742.92285 66.495956
124.82483 -879.03876 1.7918944
200.12749 -269.67764 20.176243
17.270861 -393.6048 0.95245421
23.904575 -419.78949 -23.246201
158.10403 -474.87427 135.39545
-181.78526 -896.7356 -67.671829
-162.85101 -132.53 -111.28972
-111.10392 -449.39984 -23.246201
50.692223 -702.5769 292.9873
-29.769415 -695.60974 -17.5396
-93.748047 -404.22278 -23.246201
183.35162 -221.21912 -9.7248631
-125.94523 -665.07715 293.8302
-76.740646 -41.813049 35.579464
5.0260043 -1062.9967 31.482965
-137.10663 -1030.7345 -16.48102
-78.748985 -341.71832 -23.414648
-2.4850316 -1045.3265 115.20697
-76.951202 -834.20856 -16.881294
-178.79773 -711.40186 95.854065
-40.363045 -708.58911 20.265978
192.36732 -713.05981 36.896465
9.0385437 -567.91382 16.873463
139.0345 -180.76547 32.497532
21.449533 -121.06914 2.5620952
-145.59343 -676.27966 -17.5396
200.88725 -975.06262 6.5450864
33.8638 -638.65466 305.36075
6.8629189 -273.6037 58.728939
159.09256 -371.7803 153.76974
110.36076 -584.85046 297.91531
92.877769 -609.18024 -23.246227
180.83299 -199.31284 -57.66217
63.206276 -474.20502 -17.5396
132.48151 -947.32019 -25.502758
140.53049 -236.412 -28.86272
-174.64017 -200.64 -8.6187515
123.96043 -682.08685 -23.247841
65.592529 -959.25238 152.63033
-26.013351 -498.50336 -17.5396
180.14906 -571.80603 93.033142
-45.377628 -577.42273 295.02783
162.5184 -364.18405 83.694489
-147.75194 -575.67133 91.421791
20.807194 -532.33136 -1.0518517
-138.76497 -347.39944 -10.95446
-103.78764 -593.48328 -23.246258
-188.82242 -578.51569 145.92523
173.25134 -546.90717 35.204685
-69.859665 -400.08481 128.6196
-144.53333 -356.37967 10.147142
159.0968 -718.81561 38.300327
-105.88617 -467.75555 64.421127
-86.711281 -313.11826 -6.5861902
-11.661718 -869.95642 250.71475
97.698975 -811.46399 274.36581
80.445999 -463.19604 63.696182
-126.10076 -124.68387 117.31271
-145.49568 8.8409138 3.4763653
62.962029 -327.73578 -23.506338
141.15109 -701.55969 1.0151033
-15.941525 -134.04759 181.29744
89.102158 -1044.4407 102.82685
-162.25542 -706.82465 252.35081
-40.448627 -566.02264 -23.246233
99.984703 -405.04395 -17.5396
135.07622 -883.17426 -6.0752935
78.03553 -582.41199 104.6588
-90.00386 -253.00107 178.41464
21.622372 -778.39478 -0.1114974
-145.17137 -466.16373 8.572072
162.54633 -755.8252 266.01685
61.546005 18.585835 -1.5166373
36.246895 -965.51086 -25.410538
41.43927 -649.38049 304.82422
51.609703 -739.67133 290.64377
165.12427 -693.81622 -23.24848
163.58737 -830.8479 235.50253
-122.0894 -688.59784 -32.598866
-146.16846 -1041.0297 65.41423
102.0654 -412.15979 271.79431
-156.3531 -244.13412 131.0381
-41.387951 -999.49786 -42.064236
-129.31581 -657.13861 -17.5396
-28.327198 -999.32617 126.83897
-190.86714 -803.15143 101.83984
94.307434 -167.76274 166.91109
-72.754967 -937.71545 -36.130219
87.823349 -282.87042 41.286709
-106.08786 -208.24167 80.424438
-30.53067 -586.63342 -17.5396
-160.56602 -295.46832 82.324097
164.18616 -468.25873 202.26361
117.35092 -581.59991 57.276527
153.16283 -752.23627 79.205956
181.29497 -167.79089 -52.153133
169.04977 -505.18222 -17.52659
185.41147 -810.78333 -5.9335475
-97.643898 -971.06128 -29.007095
170.6731 -369.90402 3.6388021
159.43813 -366.60284 73.331032
-60.549408 -387.68073 144.53787
74.883263 -1032.2887 6.683918
155.97113 -850.86249 1.408836
41.400837 -113.47473 -9.237916
-146.927 -617.17316 145.43152
197.422 -708.8363 -4.1780429
-179.24483 -652.17419 89.559677
164.22635 -732.57715 241.59583
9.4822121 -980.19202 -25.217865
119.92484 8.6789732 -8.3643904
-188.71667 -817.64478 145.48965
-70.505692 -314.78159 78.856674
138.78693 -889.73682 1.6403668
-105.47837 -153.89134 86.886955
-94.345825 -269.53589 76.802628
-63.46204 -304.50507 133.06195
21.272238 -425.70404 283.05984
-194.79988 -732.64484 132.74438
-15.830637 -525.03168 -2.8220892
201.90681 -926.58978 29.237919
58.603397 -76.270958 -9.2378902
36.778988 -1014.99 88.402199
187.20518 -559.17047 -25.660515
31.2295 -169.39247 73.819466
44.287815 -742.81415 -26.268446
-9.5533762 -171.03093 91.023903
-14.47246 -9.5419254 45.100143
3.9647155 -366.02829 191.05457
162.91505 -882.45715 114.009
-49.458115 -507.17004 298.79352
127.74864 -369.51868 184.54384
-166.00763 -634.07483 236.74695
140.58273 -866.69507 211.11526
-51.897888 -476.65094 -17.5396
-143.5584 -502.9039 -12.528582
58.720642 -696.32275 -17.5396
91.817848 -1040.3041 58.747849
36.066376 -166.317 82.224434
-134.55382 -837.38879 257.47247
26.032995 -714.07098 293.12354
-40.199749 -757.13635 289.13043
-130.9818 -739.28412 -12.902679
-73.174316 -185.89279 15.235556
-104.30734 -320.11322 -15.150019
53.8909 -498.07034 56.943466
170.87631 -898.99335 -84.933899
-176.74664 -560.81665 185.57591
159.07367 -418.52628 53.446331
-107.50387 -304.35019 4.3416996
-185.93808 -858.22522 146.64003
-34.284245 -249.97501 -17.04413
124.66009 -889.18585 189.95007
36.595921 -84.207962 144.25842
-135.93391 -867.13794 159.42561
-76.179031 -557.94086 -17.5396
-108.94894 -403.841 265.008
-154.985 -605.28918 116.41727
-73.462631 -428.33746 168.17538
-48.883492 -825.61597 23.822609
28.452801 -241.15417 42.876465
140.34937 -136.24176 129.48759
-58.837978 -1011.6589 -24.314869
26.805099 -353.85968 -2.18927
49.548637 -398.81482 -23.246201
177.42352 -688.56824 164.88092
-98.267052 -669.25195 299.63809
139.54747 -224.40926 -61.483002
145.29301 -228.79198 28.592354
-18.228928 -304.78809 -19.839224
28.452801 -159.53111 50.333595
-183.84018 -182.043 -17.222141
-99.035187 -567.86804 -17.5396
-74.663849 -354.10535 101.64752
-139.46402 -848.76794 32.701622
-183.73584 -825.36755 -49.884586
178.74173 -754.90002 170.39146
-111.12923 -862.88721 13.388806
20.392248 -586.33978 -7.8831921
187.26904 -687.70862 -31.337688
127.76859 -673.38635 -34.197536
133.54921 -386.85309 221.15707
128.07675 -669.00043 -31.781166
99.550247 -266.71021 84.55024
169.4543 -259.03784 90.411621
43.581161 -164.73288 129.246
-1.6394216 -160.74548 183.04288
-130.22046 -114.74102 146.17369
-170.65816 -516.29462 198.55656
-123.8991 -314.31979 -23.557657
113.11768 -1008.3603 -45.475754
134.76036 -706.28833 55.942776
166.2796 -428.24738 178.70366
89.011185 -948.29718 -40.486401
-185.57921 -634.78003 -31.842461
-197.51837 -833.93756 88.245857
-144.15843 -937.81232 133.29352
147.60442 -320.97556 143.7832
-19.646761 -474.03186 -17.5396
28.452801 -192.77751 45.920021
42.637798 -578.1073 49.536285
-56.4767 -934.60205 -13.209829
71.491425 -490.995 295.05569
79.830978 -387.96692 139.07843
-142.9514 -1042.7662 64.622963
-145.05763 -981.4519 99.688393
103.30939 -84.745544 155.7236
-177.64796 -756.70569 124.5416
-2.1162174 -12.606976 109.64471
54.060349 -50.086361 161.66634
-184.89575 -868.60754 143.84099
-136.899 -850.35925 -90.444458
10.9323 -820.77844 -6.982583
-180.19601 -116.12643 49.845688
-76.290176 -311.30698 86.45166
36.337837 -268.38394 85.299362
4.5671458 -531.14935 -33.195618
143.69106 -575.13452 286.77548
-106.19883 -112.10786 91.905159
-169.72273 -520.6123 158.10721
176.14909 -422.89084 -19.598301
173.83246 -549.71356 68.524719
-85.987541 -453.3111 279.41861
76.405594 -233.01735 -38.1702
-109.57025 -659.09497 -17.5396
28.462173 -190.74971 -13.290936
-182.70137 -218.09085 -36.470379
-124.39949 -385.83472 156.9686
30.181866 -670.68225 -23.238361
-165.19589 -674.75818 240.48041
85.216949 -531.72205 299.05249
175.01787 -361.849 88.40419
-126.51614 -445.93295 -17.5396
-149.32568 -830.29858 259.99002
79.852051 -1026.3568 -24.257719
32.377399 -436.0062 -17.5396
-40.793407 -908.06073 184.75975
-141.47903 -104.38491 -91.531616
22.859516 -639.00519 -23.246286
-100.60065 -198.6183 -7.3699884
-24.3554 -161.65782 18.902233
-120.5379 -965.54254 -25.410122
-135.65201 -371.26013 188.23584
-55.284988 -607.07812 113.74033
-130.98087 -786.8056 -16.605455
165.41431 -482.13556 -14.912617
6.090826 -84.211601 154.21234
130.74335 -861.65814 228.44499
-59.501091 -516.28308 52.450996
48.37619 -596.66821 90.670364
-0.74861026 -787.96741 58.756695
-15.094536 -199.83014 91.023903
-124.37804 -1008.2758 -24.483877
-43.738182 -807.47528 107.42747
-98.356735 -631.40381 300.44501
-117.46002 -307.85602 3.0310335
57.09845 -952.35059 -41.212975
-166.68542 -322.72021 99.198868
170.09526 -967.55347 72.218491
165.53705 -363.09027 18.292465
125.24927 -564.72198 66.826271
145.89413 -193.21136 -50.998867
-195.83807 -671.64124 130.1268
2.2494607 -165.371 104.24016
52.880993 -34.915462 80.196808
-148.86934 -271.60257 104.23283
20.76457 -595.43945 6.5776877
-62.281185 -586.5144 68.167839
-31.941652 -43.066124 -9.3365965
175.44011 -362.5715 39.426399
120.88869 -607.26715 114.15929
-177.75108 -921.98792 113.18369
133.96843 -825.63702 -32.012974
64.589996 -640.50909 303.59344
54.566978 -515.48193 299.53656
10.658208 -411.16153 259.03275
-68.934685 -652.26489 -17.5396
182.76862 -790.10791 26.360775
16.739449 -114.66518 30.740934
9.5338917 -120.78 -12.417929
188.00586 -583.71576 158.98929
74.59391 -184.93651 176.13611
166.87759 -345.93134 15.984312
-146.2151 -416.81027 232.77577
96.269447 -717.69934 297.95993
177.48125 -628.50879 -12.508936
-167.51218 -979.25476 36.753445
25.251579 -1030.7434 162.40468
-37.902431 -1075.0829 24.22514
99.832016 -1007.8726 -34.897667
12.749307 -539.64874 16.419657
-70.459045 -334.75018 -2.5664651
57.142937 -423.52737 -25.672098
-88.665733 -783.29138 43.466301
-170.13104 -514.74438 112.52272
112.39246 -215.82733 102.74284
62.944763 -676.22797 293.5589
-130.97937 -835.1076 11.596475
-81.718498 -781.2674 -0.23598361
-6.1577177 -92.095024 112.69907
-193.79329 -609.50513 127.91451
88.702446 -322.26788 144.80524
-126.75192 -1002.974 -25.820141
-192.65472 -758.61475 113.738
-3.5370655 -12.411362 105.62862
131.66846 -819.35809 264.49493
117.74742 -995.70599 116.66557
168.36157 -930.31787 86.350677
23.569302 -1012.8145 -24.257137
188.93939 -597.19177 -20.344742
98.658432 -562.4491 15.541397
95.731422 -911.72906 172.06273
142.97693 -917.27246 -48.44479
35.862965 -948.98206 155.76799
-130.97717 -827.24701 69.932945
28.452801 -178.4243 75.360062
178.62929 -709.63062 81.370308
62.468155 -848.53149 271.57721
-98.591202 -427.56158 -17.5396
-5.4542508 -445.33502 109.29366
2.2110569 -120.77999 25.370039
158.05701 -517.48132 29.06534
138.03572 -466.51257 267.11353
158.52808 -502.95551 257.46432
152.5229 -575.32227 266.97919
117.77017 -386.59662 215.11768
137.2684 -484.97766 -17.5396
66.258125 -690.42303 -23.234354
181.21719 -151.35054 -55.419498
135.075 -788.4798 66.893501
-20.391037 -630.20819 2.2879858
162.36771 -92.436905 44.109669
81.283005 -785.77057 2.6981897
10.713625 -829.91187 148.04404
-162.45059 -339.19946 12.584453
183.09311 -813.59698 -94.731712
42.900452 -484.05145 -17.5396
-57.177967 -1066.4447 53.134991
106.5749 -161.78708 31.430563
-55.330841 -1080.0742 8.3662701
-23.84362 -949.28271 155.80675
-85.067322 -324.46796 -23.5282
-189.57123 -834.42743 -39.483109
-108.43883 -845.59546 -57.080952
-19.167084 -1043.1511 142.15683
-2.1179686 -772.86804 -22.511805
49.21983 -873.29932 245.68144
143.25069 -921.22687 -13.05153
16.210873 -362.62903 136.68907
100.86349 -488.04272 59.416946
-99.708282 -325.48312 182.67401
199.19598 -211.98598 98.204514
-165.55046 -475.45459 130.52954
173.05365 -329.61639 23.65905
-175.18054 -559.20135 96.798973
30.291233 -11.790183 -7.4235392
-184.92896 -808.9118 -37.501396
-178.36868 -873.04657 -58.009766
165.46933 -474.72552 66.476479
9.9693737 -934.60193 -20.461002
-170.57889 -136.17322 66.253601
-188.06741 -532.82983 5.3309121
170.60208 -519.67383 82.210083
-126.48103 -694.87219 292.79648
76.994896 -895.41565 192.6228
136.47893 -684.30457 280.15436
171.6474 -349.85297 58.398354
173.37251 -548.95758 22.208416
26.550537 -519.38501 -23.246201
149.18959 -359.57266 46.347153
-22.274479 -123.45768 52.797153
-24.3554 -152.59175 37.457943
-193.18573 -537.5824 60.273254
50.364037 -1061.547 56.248825
-180.61151 -568.59772 171.302
-24.949593 -314.62125 138.75789
-24.392151 -750.10114 300.74786
85.810951 -1024.4562 77.938736
-167.60616 -102.14335 110.70739
-67.097305 -717.50317 -23.205589
-35.556534 -907.19812 159.24599
148.07874 -728.00562 39.717461
27.212919 -18.727144 123.53719
159.76692 -203.3667 53.654709
-172.95689 -363.6752 52.818626
86.931435 -897.86743 186.57848
-125.11777 -872.12488 236.91548
-182.59769 -913.08307 86.654594
-139.4368 -375.45248 -17.5396
117.38271 -837.5025 -55.533043
-14.561623 -636.95691 -0.39996266
178.65797 -626.16895 66.460945
-2.3037803 -318.17813 141.57086
135.075 -890.9881 55.847809
137.97253 -326.11951 173.04964
-123.77696 -433.71307 -17.5396
183.78261 -693.92987 170.48001
-56.133274 -598.33325 135.14146
-95.694077 -65.745552 100.17818
-182.30527 -803.59277 -32.974602
159.88165 -599.08063 262.1344
-113.49834 -355.08759 -17.5396
-139.83728 -100.15345 -13.691053
178.67815 -651.0733 67.664497
171.72363 -863.19507 12.747715
-130.53658 -332.69202 21.147354
-180.53555 -854.11353 3.13399
126.93999 -240.60141 157.21484
-183.08058 -903.0434 105.70449
125.65543 -290.44284 53.476318
-176.23975 -570.5282 72.980667
126.32185 -328.68552 175.75974
17.583799 -218.33839 -28.729176
135.45549 -335.58041 122.5066
-186.24429 -463.4671 148.15457
90.611618 -320.67459 183.67233
0.14607137 -14.107157 128.65126
-183.76634 -830.02808 47.112999
153.45056 -182.35461 -6.1084323
7.7564039 -390.09259 14.01847
35.92746 -627.48431 -23.246271
57.34861 -779.43787 -1.4254315
132.15231 -498.24054 -23.246201
-65.14933 -1048.2664 13.488319
152.4635 -392.53473 211.82841
-29.69944 -205.20461 183.91533
63.863037 -206.00372 62.977039
160.85927 -435.34305 139.36201
-192.21402 -756.24133 89.454529
-130.97729 -806.37494 72.462517
-137.66988 -88.566422 -57.947159
188.006 -468.16479 56.941757
-141.784 -144.08249 -34.675278
128.5867 -385.00195 155.01334
43.656483 -622.14343 -17.5396
48.515278 -282.42752 -23.509789
-162.12842 -631.39874 254.59001
-15.854679 -539.05908 -3.0842099
-5.2886229 -1060.7307 98.385757
12.664559 -403.05899 256.13205
20.897093 -602.4325 -13.412305
-178.67813 -631.32538 25.179068
20.142941 -355.36761 -5.1650872
-20.469681 -623.26105 -10.025634
164.36023 -69.381805 10.261873
-54.493069 -779.28687 -1.5239027
65.925751 -93.422844 18.058796
-100.80205 -706.14758 55.973351
-37.962555 -668.65393 -17.5396
122.88998 -628.08069 -23.246227
-182.58694 -413.56863 58.431625
142.97006 -832.38684 65.621323
6.7320671 -676.62921 18.618935
-176.3174 -142.70514 122.09944
4.2356176 -134.62074 140.23682
-64.43412 -122.24623 -32.937305
184.76822 -425.0943 97.19252
160.69067 -205.18558 120.04343
-136.76866 -339.09207 120.45915
133.18167 -765.7478 -35.817936
113.52961 -319.26419 -14.061108
-127.96317 -485.01266 277.53333
-133.10512 -837.27136 -25.987339
155.19357 -241.80717 129.37732
-35.439667 -780.08826 294.91064
139.41188 -142.995 -102.0304
174.82367 -799.78296 13.248943
105.35514 -24.259718 17.957466
-13.59107 -1055.6169 102.73044
-149.5058 -217.40993 136.70911
-88.217239 -773.17889 36.182243
-178.89149 -916.19885 97.000748
-182.46658 -170.81078 -96.7062
178.17087 -693.04901 2.5123584
-40.308887 -983.24738 144.96065
105.01636 -866.77991 0.52628583
-69.852753 -889.4892 209.39734
12.354076 -647.58783 -18.276802
191.1066 -803.66656 129.03764
53.860092 -488.99316 -28.625278
-52.990318 -551.63617 302.63776
125.369 -835.79761 -27.062138
-7.9980145 -7.9217639 49.859974
-91.776047 -416.14389 -23.246201
4.7073555 -696.42664 22.966625
-158.36023 -474.30933 -23.246201
70.793587 -390.76526 158.63756
-180.14655 -680.47729 -17.559238
-153.6368 -464.51306 64.192635
112.63004 -584.77454 289.57767
176.71326 -587.82599 92.054039
-106.98801 -489.51947 282.83807
198.88904 -768.69202 90.684135
-96.782578 -304.02307 4.6975012
56.611721 -952.73499 -41.280746
-129.30664 -423.8717 259.52353
-53.431274 -253.38426 67.117577
135.07814 -806.46692 4.4008541
-26.176655 -673.6554 304.71127
147.69615 -990.13 64.928619
-175.34859 -740.03101 75.62178
-183.59845 -84.77829 -3.4170117
28.452801 -134.38905 -12.805785
181.12686 -755.573 -3.1571362
57.162212 -340.56589 -23.438679
-143.8326 -243.03735 -37.899593
-11.590305 -787.42639 56.987961
-163.83673 -462.8627 12.021339
33.864712 -143.617 70.888908
-41.360558 -1053.1343 77.296402
5.654882 -590.09418 306.5517
-86.600838 -747.06342 297.16751
125.849 -219.91269 -17.201838
-3.958528 -462.03604 7.2559271
146.8877 -1003.3641 38.871456
2.9885359 -337.27914 35.847656
-143.68073 -145.50586 -112.64607
0.79857516 -561.3111 15.65631
68.080345 -355.51086 -23.361448
76.38504 -423.1586 279.659
187.44565 -649.43079 -32.968239
-27.882261 -22.344965 150.33833
-75.973541 -716.28363 299.85757
-132.98798 -221.15843 -43.344757
184.02054 -439.15118 41.823174
16.733072 -84.211601 155.71239
75.024849 -924.96851 158.69997
162.07391 -557.86511 251.06332
127.25603 -447.21017 270.39972
197.74821 -81.918121 84.018585
25.229342 -340.55643 -17.5396
-147.73424 -948.77124 114.47958
-165.56502 -583.37262 197.01859
5.6548014 -376.64761 197.57959
144.65425 -770.88251 43.650146
96.338913 -633.32874 -17.5396
179.49542 -744.97156 81.195541
-168.30594 -877.37891 173.27847
-32.047119 -1026.8467 38.810787
-124.3006 -826.35889 -48.626236
-153.44464 -343.78629 167.05215
-15.094947 -861.10486 14.673037
7.123445 -551.95898 -12.416508
16.930796 -670.16199 305.21808
139.2887 -884.12439 -83.552734
45.995285 -472.65485 294.33121
27.813684 -13.445543 57.839905
94.901688 -122.86147 -22.721924
119.0204 -623.87787 288.22995
-160.55942 -477.32867 223.20882
-199.45235 -310.48196 -37.937096
180.36444 -395.51361 138.33725
-35.549519 -602.24023 295.53638
-71.142227 -573.90955 87.464325
-85.075127 -891.88428 -7.4127522
-27.708214 -748.54138 300.70508
2.4035914 -8.7284107 80.069244
21.737972 -973.62476 150.56033
120.08762 -286.47787 -16.939161
-55.316525 -479.55377 294.707
139.81595 -778.414 77.971283
-197.33313 -928.23193 47.431973
-145.15005 -891.62061 192.63611
151.80956 -824.12256 -27.738571
178.5488 -130.60294 -71.224182
143.04811 -74.702652 -62.607243
-74.650337 -65.671638 117.56912
108.80183 -586.15637 290.38507
13.666358 -372.00314 192.189
195.45462 -696.62085 139.34618
-156.08289 -596.72253 278.32404
-126.86913 -835.42877 -27.653831
-23.198936 -1061.5186 42.175446
141.37764 -150.21439 129.31386
1.7002201 -365.29819 72.025482
-107.62534 -281.89761 43.117798
82.214417 -752.20032 296.9566
-141.39508 -210.75485 151.76236
-73.087051 -884.51654 217.47934
3.8076584 -1033.0549 7.8848333
162.09677 -880.82288 188.16643
184.20988 -423.80267 71.387299
-126.02271 -423.80524 187.16451
-13.443826 -849.06464 -16.426243
154.14357 -153.679 10.417997
99.207413 -858.02808 13.553055
-167.78278 -827.56787 172.79207
-90.540573 -486.18054 59.876286
-37.765068 -593.46857 125.8276
149.08913 -169.79547 123.89911
-167.00061 -446.15051 -23.246201
-50.713802 -163.97353 179.21826
176.59584 -587.82599 76.161339
-122.95385 -850.48376 260.28644
-58.914425 -340.73761 174.78426
159.57455 -862.78015 185.78561
-131.56099 -170.56384 -41.540421
146.68454 -172.30998 -111.89638
153.44083 -448.46692 -23.246201
93.696671 -551.90002 299.70117
-199.11888 -323.35437 -37.686153
58.285149 -57.847553 -9.2539568
-130.97879 -851.87726 17.806622
-90.314003 -610.21179 120.68527
-15.567537 -808.85706 288.7113
180.83299 -103.44095 -47.801208
-167.69109 -1027.9619 -31.900005
-166.76462 -592.15936 249.65846
169.96115 -779.33362 219.97725
171.89383 -711.29187 207.46497
195.68906 -627.50787 89.428284
-188.41995 -835.35327 133.02605
3.3566508 -684.58179 18.746616
-137.45656 -467.85263 278.39655
-50.579025 -516.72772 20.158272
-104.69671 -336.0882 182.40533
67.361565 -746.54089 -16.758316
47.712418 -662.50476 -38.139343
-76.332367 -391.37057 226.78918
-141.37828 -291.00909 126.02578
-129.87398 -766.0451 285.81342
-17.196156 -92.119263 77.592766
-20.369862 -415.64273 2.2617707
190.46425 -645.09717 8.1172972
-5.6633072 -662.69336 58.187904
-106.84245 -448.57135 137.32376
43.145256 -516.54309 290.63611
128.40851 -814.29962 120.10179
-124.95377 -455.28021 273.64233
160.86674 -65.707718 -44.471905
135.18109 -335.43738 115.84734
68.81459 -292.4549 118.3681
-130.98093 -811.98828 -25.237694
122.41631 -321.9751 176.2569
-39.509987 -579.81714 99.690613
28.645752 -830.70312 -38.091007
-102.78188 -272.97293 99.540756
112.67052 -940.23499 -43.993965
4.5575709 -196.3231 -28.729156
-64.352753 -408.29144 268.94485
-124.96929 -448.82507 46.078678
137.02878 -279.06244 69.23233
-115.62747 -482.28284 23.636465
-99.629318 -818.99628 128.50793
-66.502403 -93.082321 52.602036
44.019272 -667.22278 29.45129
193.14456 -559.46259 120.19794
144.00766 -336.53064 8.6570625
155.39267 -863.76459 193.45685
-143.50218 -613.85522 287.18658
201.89175 -928.20386 27.661318
-170.42891 -863.58887 116.86124
151.44029 -771.96716 -90.873291
135.07744 -792.66699 14.873789
-178.45802 -231.76344 14.594211
109.35396 -62.344017 50.686729
-39.241955 -614.29425 -23.246271
-74.29303 -945.2796 -25.498871
114.55069 -1025.0157 31.710005
182.91663 -780.42517 168.70229
153.26768 -575.89545 -23.246199
-95.976105 -818.72571 128.0237
-143.70081 -354.28241 23.14045
1.7353383 -794.58124 293.72507
-95.857971 -938.12695 -12.598418
101.98798 -789.27917 63.04649
-17.301418 -1041.2968 125.833
161.12505 -350.62109 -1.0173414
58.967613 -207.43855 66.075943
-58.618195 -620.25507 -23.246277
-8.5188189 -747.14288 44.420723
75.508698 -843.2688 273.47482
-25.704119 -762.43561 39.581692
-178.63181 -666.0871 37.564201
-179.00186 -838.62744 61.780495
133.70702 -670.39227 291.29404
172.93439 -111.01756 -41.498096
-151.28737 -531.88702 262.31183
98.54538 -973.9082 -36.397385
8.1642046 -619.60803 -31.705626
-61.897057 -486.37427 -17.5396
183.87016 -900.78473 -3.4356654
64.469925 -58.230904 108.32254
-9.1282167 -651.87756 -20.381031
44.976883 -349.91666 -17.5396
-170.30081 -515.81305 105.53725
-68.574333 -779.73645 34.107269
134.50897 -383.66632 146.6487
-65.016579 -268.21246 86.564148
83.148125 -838.44995 -21.939066
-75.493973 -695.55157 58.275963
-35.917202 -588.14514 115.63541
-133.08653 -729.22583 288.6687
163.4512 -300.18127 116.82876
35.951328 -203.41328 -15.032951
-109.41938 -605.00372 144.51736
-143.14357 -478.11075 24.05776
158.5638 -391.26819 -17.529408
156.073 -820.36511 242.24863
104.0724 -234.56898 -41.393715
-61.849907 -281.92065 31.850502
-180.1788 -79.314445 11.155139
63.73436 -774.69574 -26.202539
195.65033 -575.52429 144.49698
-47.352901 -660.91266 40.248257
33.910988 -516.14209 290.90427
-50.333954 -961.62274 -25.461561
70.442596 -86.261368 74.099937
-158.19505 -411.89804 -8.4090881
-171.12085 -681.61707 212.9178
-29.24008 -852.90186 20.57181
-161.56926 -558.42773 253.79176
64.364197 -604.12817 -28.881744
153.68439 -651.9057 -23.246256
-160.7231 -783.58521 243.67441
21.167383 -597.52417 -16.224459
-180.15063 -814.46545 28.311611
-100.40842 -19.875877 -3.599896
137.9216 -474.59323 62.734486
34.064198 -796.74921 87.472961
-17.269653 -190.77478 -28.474224
129.63031 -420.06345 258.21716
-73.056496 -283.91275 116.13793
192.25925 -636.81793 23.480181
-180.12112 -669.03015 171.83018
158.72928 -689.49255 275.741
-16.960453 -692.02441 -14.987409
32.714218 -701.80249 303.41608
19.692047 -429.51605 11.77364
-3.7652912 -84.240982 9.8459835
145.76247 -289.36499 62.846893
-132.28755 -319.74445 173.95364
-7.536283 -931.39319 158.91859
-171.17407 -461.55359 -19.598301
-193.99754 -546.27002 74.757278
-153.26317 -418.56201 215.22699
53.17067 -221.07039 51.182468
2.5980346 -510.92648 291.30292
16.306225 -436.85706 287.63254
-36.287056 -696.75244 -23.225771
-70.486435 -390.66693 155.48779
-61.282364 -668.24036 293.84875
-130.23911 -515.12671 288.67462
-110.73442 -363.96741 137.03848
28.452801 -186.36674 -10.428358
-140.25783 -117.84138 -96.251663
21.49081 -395.1835 156.66315
-129.63304 -571.25397 -17.5396
8.495019 -283.0177 41.009514
-119.472 -768.69257 -36.402542
-158.68382 -261.81601 132.4174
84.61348 -363.09003 -17.5396
-120.83331 -41.31953 54.143692
180.83299 -193.60616 19.799343
162.4113 -448.19043 48.720177
-76.473709 -305.10803 82.551178
-16.593685 -310.05704 19.071632
-114.66914 -282.16855 -11.38303
-54.933868 -851.63098 258.99173
182.77129 -184.92087 35.887039
-113.65338 -279.88141 175.63821
-113.66515 -142.11783 -17.433632
24.66857 -899.63318 195.52156
-72.859779 -226.57809 -19.128035
-18.079866 -436.77463 278.3988
101.94717 -403.76144 265.17328
-93.890823 -486.91992 -17.5396
-51.840729 -283.81134 39.515663
-154.985 -567.95648 60.845802
-195.59644 -634.27917 81.31675
104.28887 -868.36719 159.38058
-73.071861 -352.4805 99.943489
31.449844 -239.3455 185.48064
150.66364 -361.98801 64.978043
12.032895 -1037.5322 155.62804
-155.705 -545.76886 24.562841
-48.539543 -828.8269 23.823055
-186.53445 -444.91687 81.449699
