# .PCD v0.7 - Point Cloud Data file format
VERSION 0.7
FIELDS x y z
SIZE 4 4 4
TYPE F F F
COUNT 1 1 1
WIDTH 1545
HEIGHT 1
VIEWPOINT 0 0 0 1 0 0 0
POINTS 1545
DATA ascii
2.0830836 4.302917 0.15062317
1.3421588 4.3267174 0.15819265
2.4516544 4.3860645 0.15685692
1.188529 4.4029684 0.15060595
1.2726463 4.4116082 0.15949851
0.65908885 4.4235735 0.15768585
1.2295818 4.4279447 0.15689814
2.4951777 4.4781208 0.15732212
1.105039 4.5194855 0.15354329
1.1494877 4.5290232 0.15870982
2.1123049 4.5308962 0.15974554
1.0816227 1.6583167 0.16620287
1.5867102 1.6669395 0.16462372
1.6853898 1.6790143 0.16889985
1.5193295 1.6822791 0.16647968
1.0835804 1.7027644 0.16609481
1.2018281 1.7433581 0.16240945
1.2316573 1.7719156 0.16183622
1.4959495 1.7809138 0.1647785
1.3770764 1.8519921 0.16329284
1.6918852 1.9180027 0.16329862
1.0954218 1.9653438 0.16372143
2.2889571 2.2371783 0.16384247
2.1941328 2.3132312 0.16745496
2.2136843 2.3741159 0.16668986
1.0388536 2.3987596 0.16001317
1.1096215 2.4452286 0.16521885
2.2494855 2.4412344 0.16887105
1.1429362 2.5356874 0.16887343
1.0398345 2.5622571 0.16258334
1.0232764 2.6934807 0.1636811
2.1233625 2.7450147 0.16053969
2.1939199 2.7510328 0.16471641
0.79074955 2.8662572 0.16320275
2.2370677 2.8678443 0.16717863
2.1736295 2.9770412 0.16333023
2.2602313 2.9876277 0.16845407
0.76583689 2.9972379 0.16370729
1.0501901 3.0030646 0.16685817
1.0722883 3.0614226 0.16862108
2.1684613 3.0958943 0.16292736
2.203464 3.2239933 0.1648977
2.2042491 3.2374196 0.16493331
2.2128234 3.2716649 0.16541365
0.95791334 3.3937006 0.16392021
0.9645527 3.4876008 0.16592567
0.92269337 3.6735075 0.16671436
2.3451812 3.7518585 0.16802062
0.93076414 3.8249562 0.1697963
2.2550404 3.8265481 0.164644
0.9211989 3.8639874 0.16991693
2.250046 3.9053364 0.16175474
2.5331559 4.157506 0.16838244
1.6994716 4.2017083 0.16225435
1.0694686 4.3627777 0.16104905
1.3115958 4.3815508 0.16041331
1.2854902 4.469162 0.16614458
2.0388215 4.5238709 0.16515686
1.6809523 1.2793441 0.17864172
1.4650209 1.3012556 0.17786232
1.4228034 1.3350589 0.17841718
1.6996036 1.3779249 0.17726278
0.89712799 1.4451048 0.17237152
1.5043795 1.4963365 0.17165017
1.0910469 1.5234146 0.17272447
1.1322969 1.5792185 0.1707592
1.837613 1.6189001 0.17928204
0.72427845 1.6389809 0.17747802
0.81213903 1.6339848 0.17032781
2.1064243 1.7227112 0.17449772
0.7373752 1.769496 0.17066616
1.8346634 1.8312819 0.17019646
0.63714463 1.8474579 0.17020786
2.3084571 2.0474405 0.17531522
1.3645797 2.3646855 0.17721424
2.1070657 2.365412 0.17178941
2.0130568 2.4059651 0.17630246
2.0586808 2.4387329 0.17469716
1.1511012 2.6084774 0.17106789
2.4143531 2.6266532 0.17932095
1.4032358 2.7055554 0.17697386
2.2160401 2.852478 0.172287
1.2294769 2.9436069 0.17786059
2.4001083 3.0260534 0.17705739
2.1181955 3.1776159 0.17978349
1.1195648 3.3065677 0.17318808
1.0641518 3.3427892 0.17003945
1.0687089 3.4492905 0.17154557
2.250396 3.4517524 0.17663603
2.2241731 3.5028353 0.17849775
2.2765622 3.6337869 0.17859367
2.4122648 3.6940184 0.17058976
1.0281761 3.7489526 0.17411888
1.0846059 4.1457448 0.17523852
2.3525395 4.3148623 0.17852519
2.3699975 4.3180962 0.17878889
0.72085392 4.3387923 0.17795458
0.76139176 4.345149 0.17018417
1.9631283 4.5206566 0.17111838
1.1422358 4.7452655 0.17849106
1.6704745 0.83591676 0.18664177
1.6830063 0.9117893 0.18622389
1.5271912 1.0489515 0.18213515
0.91002679 1.0614132 0.18412304
1.1068228 1.0622607 0.18449622
1.7626014 1.068629 0.18854704
1.2129472 1.0801344 0.18487488
1.3981847 1.1517107 0.18384409
1.6583205 1.1686699 0.18009113
1.0780933 1.1773578 0.18791798
1.1731329 1.2309023 0.18839446
1.7281291 1.2339611 0.18252878
0.93033969 1.2754304 0.18652445
1.1218035 1.3084557 0.18909883
2.5470283 1.6088771 0.1871354
2.5464718 2.0045383 0.18159764
0.80061644 2.0513756 0.1827877
1.0968077 2.0553722 0.18904427
1.892473 2.5453424 0.18519986
1.3712666 2.6563194 0.18719313
1.9876173 2.6510346 0.1829004
1.3181322 2.7925131 0.18456843
1.4135988 2.7942064 0.1813512
1.928633 2.8093066 0.18716688
1.3814882 3.0377884 0.18852699
1.9750247 3.0968482 0.18537767
2.0039184 3.1831236 0.18492453
1.4562876 3.1951356 0.18419416
2.0046806 3.2041626 0.18509379
1.956625 3.2149715 0.18733773
2.1206534 3.272269 0.18058822
2.4619226 3.3333669 0.18783922
1.3349524 3.3474832 0.18722208
2.0903242 3.348928 0.18267894
2.155607 3.3879652 0.18014944
2.0140095 3.3901796 0.18647532
0.70483851 3.5037017 0.18710986
2.0007274 3.5057514 0.18818361
2.1765537 3.5283194 0.18077686
0.69861966 3.5692272 0.18655233
2.0573239 3.592422 0.18650132
2.0466475 3.6129444 0.18724167
0.90868914 3.6260748 0.18091363
1.3227473 3.6283278 0.18966165
1.2333591 3.7015216 0.18516901
1.2469509 3.7157559 0.18620104
2.1911936 3.7191343 0.18332891
1.1438856 3.7810569 0.18136662
1.4775646 3.802855 0.18743655
2.240593 3.8762674 0.18397039
2.1032147 4.1719322 0.18682277
1.7649072 4.4680614 0.18260211
1.5123496 4.4713144 0.18928543
1.8079997 4.5053315 0.18260282
2.431179 4.5298028 0.18904316
1.7711523 4.5356522 0.18863456
0.64056396 4.5494561 0.18205951
1.4076231 4.5632305 0.18763372
1.0185065 4.8548341 0.18756503
0.79615563 1.1488359 0.19257438
2.2026722 1.1445916 0.19933847
1.9885397 1.1923163 0.19684003
1.9047331 1.2909418 0.19140294
1.9957285 1.4163849 0.19357111
0.78666282 1.4282665 0.19643262
2.3168697 1.4275335 0.19661412
2.4211156 1.4308959 0.19167325
0.92372483 2.0252659 0.19322133
0.85371119 2.0586612 0.19700959
0.85882336 2.1588483 0.1964049
2.1261952 2.1649826 0.19993781
1.8605547 2.6737592 0.1903709
1.4000447 2.7084517 0.19033225
1.449448 2.7835431 0.19399624
1.7056487 3.1369548 0.19899362
1.7372186 3.1851504 0.19700979
1.7276028 3.2186697 0.19757
1.826799 3.314796 0.19408216
1.419894 3.4895835 0.19421986
1.4395711 3.4989414 0.19557153
1.9649047 3.5314937 0.19002736
1.8552239 3.5790243 0.19537014
1.3795422 3.6163008 0.19311656
1.8950491 3.6288557 0.19407856
1.3675563 3.7265949 0.19361968
1.9134319 3.7310042 0.19438331
1.9299333 3.795022 0.19478637
1.4203635 3.8019669 0.1978218
1.0853723 4.099062 0.19958362
2.5585201 4.2156758 0.19463144
0.81708282 4.2970552 0.19419114
1.5970145 4.4687028 0.19674666
1.6941478 4.548152 0.19630599
1.4515114 4.5611582 0.19187611
0.66873807 4.5727654 0.19694646
1.7751648 4.5823102 0.19282386
1.4409366 4.6186666 0.19640705
2.0535965 4.8218699 0.19273828
1.5885286 5.038682 0.19246985
1.3310412 0.88528889 0.2053723
1.9684788 0.89764273 0.20496309
1.2776704 0.91067398 0.20561942
1.3340985 0.91349626 0.20465177
1.5562093 0.94657505 0.20623103
1.4137896 0.96624219 0.20336044
1.6859722 0.97543567 0.20595549
1.8200328 0.97567248 0.20973261
1.1634316 0.9901371 0.20512825
1.2779745 0.99325186 0.20377295
1.205943 1.0023841 0.20484634
1.245371 1.0327294 0.20342445
2.1018126 1.2778268 0.20176215
0.89217937 1.575843 0.20514214
2.4448102 2.0633926 0.20592327
2.5188549 2.0636756 0.2078079
0.72176707 2.6209118 0.20758504
2.26614 3.0522356 0.20593847
1.5017762 3.5418959 0.20069689
2.2767141 3.5608821 0.20476784
1.7221446 3.606133 0.20155737
1.1188411 3.8878345 0.20971936
1.8372352 3.8937387 0.2070936
0.74402863 4.3006639 0.20075481
0.72457504 4.4321623 0.20815079
2.3260596 4.6038685 0.20419976
2.5499406 4.6355562 0.20123488
2.1094773 4.7078118 0.20736551
1.3552666 4.834054 0.20871213
2.1079206 0.99248314 0.21396942
1.9834988 1.033725 0.2118298
1.0838236 1.5482637 0.21609505
2.4833016 1.5888062 0.21938619
0.72428763 1.7515957 0.21737558
2.4667861 2.9351649 0.21755035
1.0887976 3.549746 0.2178409
1.7880813 3.6133025 0.21110389
1.2344211 3.6345482 0.21032275
1.8173635 3.6369891 0.21765253
1.4815143 3.7998295 0.21247821
1.0820765 3.886905 0.21216397
2.0535009 3.8860035 0.21675032
2.2094009 4.009717 0.21531828
2.255614 4.1731081 0.21274301
2.5482984 4.64117 0.21661843
1.6665139 4.6801119 0.21142396
1.6732633 4.6942115 0.21222547
0.94936889 4.8459902 0.21662587
1.1041873 4.8885369 0.21921743
2.4796722 1.3309636 0.22599038
2.3932984 1.4142559 0.22430541
0.62502164 1.5189447 0.22115698
2.5217919 1.5839913 0.2271294
0.76860368 1.7835027 0.22018942
2.4951518 1.9036613 0.22576924
1.7196274 2.6369174 0.22656474
0.93029743 2.8251719 0.22958036
2.4699659 2.9442365 0.22340053
2.2662883 3.0213563 0.2254754
2.4933195 3.5326967 0.22508167
1.4458156 3.5826161 0.22082996
1.756063 3.8983233 0.22832972
1.6643114 4.7673759 0.22007328
0.87392515 4.775157 0.22900075
0.79986334 4.9015183 0.22412603
1.7939705 4.9816194 0.22310768
1.9511182 1.0261104 0.23712733
2.2349744 1.0941091 0.23378366
0.9824903 1.3076441 0.23379512
0.86763537 1.3164603 0.2347151
0.76867402 1.7724609 0.23758842
2.2308903 2.1610467 0.23226921
0.93068469 2.7890029 0.23060542
0.70171583 3.3240509 0.23918997
2.5525718 4.2217393 0.23710614
2.4114349 4.4143786 0.23414667
2.5154257 4.6137657 0.2365095
2.1118379 4.6434941 0.23107848
0.84386361 4.9625964 0.23654263
1.4968556 0.96286464 0.24443224
0.84273547 1.0894635 0.24193756
2.4746239 1.4044182 0.24523509
2.5228231 1.7235751 0.2428216
0.79235959 1.9301641 0.24238403
2.3655581 2.0845642 0.24709436
0.70647359 2.802258 0.24578519
1.6998953 2.966229 0.24286941
0.70442986 3.0977447 0.24211973
0.92093813 3.3798587 0.24646482
1.4871826 3.5726132 0.24907649
2.1594915 4.0151672 0.24315271
1.0700841 4.2283297 0.24477997
2.4513769 4.5983868 0.24533129
0.88787985 4.6428142 0.24842392
2.5502312 4.667057 0.24006271
2.3838034 4.919909 0.24582303
1.3907051 4.9556074 0.24545178
1.4408693 5.0116744 0.24532679
1.6085724 5.0494123 0.24259239
1.0985694 1.305087 0.2544198
0.72456419 1.6246237 0.25557202
2.4555492 1.6359388 0.2537443
0.65702343 1.6965299 0.25367892
2.4106975 1.840107 0.2520169
0.62887633 2.0238206 0.25536299
1.3615649 2.2992988 0.25723836
1.3598331 2.3168385 0.25315922
0.70640141 2.4144304 0.2571696
1.4884815 2.8939257 0.25643918
1.0835655 3.2644639 0.25845557
1.6777517 3.56162 0.25909093
1.4409374 3.6301775 0.25140846
1.3597858 3.9022663 0.2522893
0.72896081 4.0108376 0.25047582
2.3943696 4.0120406 0.25383759
2.418998 4.012229 0.25748333
1.0667758 4.5053048 0.25141177
2.1137595 4.5911341 0.25036556
2.3742635 4.7861562 0.25015956
2.401566 4.8615031 0.25952733
1.6178117 5.1017804 0.25621468
1.3386854 0.98391378 0.26982814
1.2683353 1.0181366 0.26737261
0.72072166 1.329435 0.26259589
2.401377 1.3250635 0.26419365
2.4622416 1.3961613 0.26945439
2.4114923 1.6597757 0.26263455
2.5479996 1.8414309 0.2653324
0.69575548 2.2625506 0.26770699
2.2544918 2.4189849 0.26196325
1.466771 2.6024954 0.26930064
1.4995153 3.1636083 0.26701438
1.5019343 3.2192121 0.26298231
1.719411 3.4261866 0.26244667
2.0873389 3.4454195 0.26440123
1.0910234 3.6171699 0.26544961
1.2846028 3.662235 0.26362079
0.89711928 3.7483134 0.26917484
1.9420669 3.8935952 0.26508802
1.0777832 4.1045418 0.26086545
2.4108872 4.4846544 0.26316118
2.5358932 4.5628185 0.26770699
2.3248103 4.6469893 0.26289773
0.89419633 4.6527996 0.26657462
1.4885479 4.96454 0.26636228
1.6520616 5.0898347 0.26603079
1.6288164 5.096837 0.26361418
2.0500059 1.0704651 0.27063805
2.3612564 1.0977135 0.27791369
2.2390833 1.3139079 0.27673143
1.0825504 1.4778136 0.27636462
2.411613 1.61787 0.27482045
0.73997825 1.9185755 0.27631849
2.1833563 2.238215 0.2745477
1.7289472 2.4466274 0.27671713
1.7212454 2.570344 0.27713159
0.79819435 2.6398783 0.2798858
0.73140752 2.9272876 0.27689478
0.75193805 2.9645796 0.27782065
0.72950983 3.2594209 0.27896798
1.716301 3.3585358 0.2784704
0.70757997 3.3692415 0.27634194
1.7164102 3.3668799 0.27933326
0.69666052 3.4483049 0.27722272
1.6770668 3.4711766 0.27637348
1.5127773 3.8760748 0.27997395
1.2249168 3.9019554 0.27485028
0.83779156 4.0943565 0.2766282
1.0652537 4.3752785 0.27980918
2.5246153 4.5563931 0.27076289
2.5421505 4.652966 0.27977395
0.76039296 4.9397354 0.27424064
0.95706248 4.9523892 0.27258539
1.8685604 4.9945083 0.27558088
0.9467876 5.0287232 0.27304819
1.9026625 5.0296936 0.27657077
2.1925154 1.0843731 0.28545922
0.77955157 2.1491716 0.28201848
2.103637 2.1551082 0.28375983
2.4061983 2.154952 0.28221402
0.9317975 2.4942234 0.28466123
0.77137524 2.7728901 0.28652725
0.92545748 2.7927258 0.2856119
2.4805541 2.879097 0.28938287
0.92282832 2.986403 0.28512025
0.79485357 3.0199265 0.28737921
1.6911155 3.0541239 0.28789529
0.90874887 3.1410668 0.28638178
1.0784825 3.202379 0.2858687
0.8691057 3.4383917 0.28913236
0.71789312 3.5013657 0.2885541
1.7329251 3.607744 0.2872366
1.4943252 3.6106434 0.28265783
2.5254555 3.8251433 0.28753364
1.9242961 3.8956101 0.2846922
2.2606332 4.0180559 0.28891766
0.63062775 4.138648 0.28313234
0.82347882 4.2293415 0.28891626
0.66542327 4.4917035 0.28417984
0.6450175 4.5710945 0.28644106
2.112355 4.6435966 0.28757319
2.0059748 4.9851456 0.28164229
2.3016846 1.5210255 0.29362312
0.76827902 1.5998771 0.29934609
0.76841915 1.6384828 0.29282528
0.88733333 2.6956592 0.2913042
0.82604128 2.7236078 0.29524559
2.4479628 2.8191578 0.29330751
2.4242067 2.9181442 0.29437837
2.4301696 2.9998257 0.29813531
0.70126086 3.0252912 0.2950381
0.70085967 3.0639777 0.29228836
0.86478716 3.1359959 0.29151216
2.4433651 3.1325319 0.29571474
1.6801085 3.2324445 0.29978728
2.4474263 3.2819753 0.2961081
2.4412835 3.3370686 0.29626489
2.0940642 3.3844256 0.2919904
0.68820488 3.5008116 0.29918718
1.4598669 3.5817063 0.29599366
1.9314578 3.6022968 0.29009891
1.8686228 3.6672497 0.29660973
1.4951974 3.9182901 0.29068968
0.7233364 4.3334846 0.29498374
0.63236809 4.5992041 0.2956042
2.109246 4.7388716 0.29457095
0.9278692 4.7588043 0.29934257
0.72449815 4.917881 0.29375416
0.92359251 5.0490518 0.29658169
1.1308074 5.0511479 0.29785544
1.1506623 5.0526834 0.29498512
1.1214672 5.0767698 0.29887274
1.0785604 1.5316339 0.30039018
2.4574502 1.6588266 0.30261284
0.76987404 1.9172542 0.30777794
2.2538838 1.9733664 0.30786133
0.70533496 2.5613272 0.30052596
2.4137301 2.7597589 0.30281898
1.4308548 2.8878162 0.30464068
0.89923817 2.9577999 0.30256271
2.3042502 2.999238 0.30147007
2.4869702 3.0327539 0.30904096
2.3240852 3.2077947 0.30713686
1.7128303 3.2997661 0.30470642
0.8994295 3.3361199 0.30241212
2.3404222 3.3534808 0.30957586
1.8710147 3.549082 0.30635139
2.5025887 3.5552819 0.30137935
1.512033 3.7601695 0.30613154
1.4964378 3.7706962 0.3073642
2.5128207 4.4377313 0.3027392
1.4124445 4.9643898 0.30623364
0.77082711 4.9735446 0.30429402
0.99324083 5.0983262 0.30958751
2.292052 1.3877356 0.31799015
0.67131722 1.5361345 0.31643721
2.2522016 2.0443933 0.31568271
2.4660716 2.6175575 0.31058857
2.2939436 2.8651085 0.31712544
1.4390947 2.9912231 0.31813464
2.3024311 3.0506709 0.31428522
1.7797905 3.0900919 0.31892309
1.7405338 3.3445425 0.31950825
2.4075165 3.4952056 0.31062588
1.9232852 3.516217 0.31643739
1.5106655 3.5366392 0.31513834
0.68357456 3.5521619 0.31682587
2.1169219 4.2150898 0.31161714
1.0658048 4.545908 0.31347382
0.76305133 4.6356931 0.31884408
1.0673836 4.9918547 0.31805623
0.80047017 5.004467 0.31886077
2.1345141 5.064599 0.31731468
2.1764021 5.0671391 0.31801349
1.9083952 0.8903985 0.32147673
2.3189514 1.3246615 0.32111922
0.80305302 1.3873372 0.32388476
0.79578704 1.5229393 0.32803482
0.65622079 1.7996322 0.32826731
2.4101894 1.8363364 0.32597655
0.64019024 2.0763929 0.32565549
2.4792373 2.1512091 0.32927707
2.3343058 2.6426473 0.32487711
2.4835567 2.7311449 0.32855156
0.99713993 2.7437029 0.32728177
1.4982607 3.3937769 0.32673571
1.3999653 3.5976386 0.32553032
1.4770498 3.9078043 0.32053071
2.4944663 4.0873013 0.32867223
2.5196807 4.5530729 0.32348427
2.2722735 4.6735435 0.32943773
0.97495413 4.9954309 0.32265025
2.1913242 5.0121951 0.32450694
2.1865854 5.0259466 0.32111752
1.979763 5.0936546 0.32547164
2.1899738 5.1018162 0.32577294
1.0944014 5.1269817 0.32963601
2.4110374 1.6473769 0.33535862
2.2538598 2.0719106 0.33636034
2.5174298 2.158978 0.33607724
0.70283812 2.485579 0.3313559
0.74527466 2.5832224 0.33374023
2.4272285 2.5960202 0.3372466
0.96559048 3.1426182 0.33437902
0.97732031 3.2259097 0.33633563
1.4468173 3.3508112 0.33600911
0.88288474 3.5731931 0.33496588
2.3644819 3.5726304 0.33991891
2.4037116 3.6011956 0.334627
2.1075609 3.6185229 0.33913571
2.5295029 3.8590789 0.33876485
1.1532724 3.9048333 0.33759314
2.5303187 4.0968628 0.33644986
2.1162612 4.1649714 0.33623502
2.5281525 4.3103228 0.33855769
0.76992661 4.5888991 0.33443719
2.1090193 4.7559834 0.33181414
2.1705942 5.0452881 0.33931738
2.2056148 5.0572901 0.33559924
1.5633646 0.8462165 0.34336033
1.9260817 0.89910984 0.34821987
2.4662323 1.6828463 0.34088355
2.3413119 1.9692457 0.34002909
0.63098049 2.0498168 0.34870836
2.266155 2.2332547 0.34263289
2.0928373 2.240804 0.34708387
1.8962431 2.2802474 0.34556863
1.289603 2.2906575 0.34586483
1.4636872 2.5871758 0.34530666
2.2879844 2.6266596 0.34959978
2.2693512 2.826647 0.34080026
2.242754 2.8746946 0.34169179
2.2470257 3.0019331 0.34448636
2.2709572 3.0563927 0.34564328
2.4894149 3.129375 0.34174174
1.0932844 3.1419315 0.34481078
2.097065 3.3204441 0.34409359
0.9430753 3.4026308 0.34568676
0.91185367 3.4291267 0.34230167
1.5055429 3.5500772 0.34367767
1.5140128 3.5635567 0.3415294
2.5142679 3.7221708 0.34969357
2.1167765 4.185708 0.3408806
0.66697812 4.3702345 0.34759229
2.5122647 4.4949837 0.34169278
1.8613392 0.96992922 0.35489297
1.1425923 0.98635018 0.35093653
1.2929031 0.9808377 0.35038012
1.0143687 0.99622494 0.35364166
1.3666873 2.3892329 0.35348845
2.2645967 2.4207602 0.35972649
2.3940063 2.5924726 0.35501519
2.1967373 2.6687753 0.35123876
2.4900107 3.1487226 0.35089469
2.1937115 3.2355692 0.35758865
0.85480583 3.6234195 0.35938591
0.79305136 3.6542006 0.35603404
0.67433113 3.676333 0.35355863
1.5052888 3.7510862 0.35031545
2.3726556 4.0239697 0.35863835
2.1107311 4.0389218 0.35609427
0.67882776 4.229701 0.35792115
2.2514408 4.7707295 0.3512648
2.5333416 4.7869582 0.35068214
1.4357915 4.9660854 0.35877997
1.1992967 5.0092764 0.35109586
0.97484338 5.0327191 0.3578735
2.0993428 5.0686879 0.35337242
0.98999 5.0760698 0.354987
1.1022879 5.0804634 0.35292751
1.1645879 5.1126313 0.3590081
2.1074381 1.0156668 0.36299938
2.1106164 1.3902682 0.36420357
2.2552528 1.4674132 0.36435676
0.73557824 1.5228236 0.36702371
2.4764721 1.7198725 0.36205062
2.1111681 1.967724 0.36847663
0.90932626 1.979516 0.36621532
2.2678862 2.2454636 0.36023158
2.494175 2.3913214 0.36537698
1.3852327 2.4918833 0.3641187
1.0036347 2.6524029 0.36318296
1.4724634 2.9610455 0.36388493
1.5025325 3.0193727 0.36144483
1.1442159 3.0535073 0.36390361
1.4619157 3.1210635 0.36374131
1.7429903 3.1375384 0.36713561
1.6724575 3.2144237 0.36861968
2.2569084 3.4754529 0.36932552
1.299566 3.7221756 0.3670724
2.2745204 4.0283031 0.36426035
2.5343812 4.5127835 0.36855432
1.0697224 4.7409501 0.36917117
2.073261 4.9508271 0.36710787
1.3301485 4.9647493 0.36388445
2.0730951 4.9937863 0.366624
1.9822742 5.0099139 0.36233145
1.8015369 5.0563602 0.36087081
1.1676388 5.0611014 0.36877435
1.1814455 5.1175847 0.36449441
1.6520393 0.88174021 0.3733179
1.2884055 0.9665395 0.37729627
1.2664996 0.97158605 0.37297118
2.3567054 1.0660064 0.37911573
0.99729276 1.3277397 0.37519073
0.76907003 1.6460705 0.37912247
1.0795795 1.725057 0.37567455
0.69238186 2.3619378 0.37395909
2.4491069 2.5701151 0.37182152
0.99227518 3.0275104 0.3704828
1.0550548 3.1679168 0.37339774
0.82143724 3.671701 0.37661007
1.0474596 3.9096503 0.37542012
1.2938201 3.908679 0.37281647
2.362639 4.0260248 0.3705211
2.5235395 4.376658 0.37391248
0.76977342 4.4989314 0.37408939
0.65905362 4.6584058 0.37803105
1.0168505 4.9640131 0.37996536
1.0386227 4.9720383 0.37889025
1.5302676 0.82208514 0.38238013
0.88243306 1.019419 0.389662
0.76990557 1.8152556 0.38156056
2.1109397 1.9906205 0.38196704
2.1352513 2.1426375 0.38871092
2.0915217 2.242312 0.38465139
2.4885793 2.4768109 0.38810137
0.697335 2.481709 0.38892078
0.99285632 3.1987293 0.3830286
2.1038432 3.5170817 0.38368499
1.3812163 3.6228991 0.38891333
1.6665039 3.7285175 0.38113981
0.7487762 4.0826497 0.38243315
0.74259138 4.2463884 0.38316977
2.1113231 4.701931 0.38646108
2.4727416 4.8036714 0.38678554
0.9081583 4.8144131 0.38060752
0.68943191 4.8306699 0.38849124
2.0297532 4.9657497 0.3813732
2.0312135 5.005969 0.3806386
2.1325688 5.0181408 0.38776863
1.365114 5.0659089 0.38484585
1.6705326 0.82383811 0.39930546
1.473062 0.84576243 0.39086378
2.3713346 1.0815996 0.39850283
0.92543608 1.4261312 0.39834589
0.72599769 1.5667491 0.39434546
1.0797368 1.691499 0.39810708
0.72817969 1.9285829 0.39838362
2.409277 1.9278589 0.39160383
1.1387452 2.2539897 0.3973133
0.67795497 2.2944996 0.39654675
2.4883242 2.5191495 0.39053571
2.4392447 2.5614204 0.39787024
0.69702709 2.6647496 0.39224699
1.7371485 2.7790692 0.39973935
1.4620796 2.8721235 0.39935404
1.4711883 2.9530048 0.39993942
1.4440947 2.9677923 0.39917341
2.4898617 2.9800203 0.39500988
0.99350446 3.1709197 0.39910838
1.5562655 3.1859393 0.39646003
0.69051719 3.2253621 0.39534143
1.517477 3.4908438 0.39545152
1.6401565 3.5348125 0.39615223
2.1437924 3.5779486 0.39695621
1.5857756 3.5896907 0.39860982
2.3464515 3.6896403 0.39697564
1.6589594 3.7373834 0.3973282
2.0070782 3.9134727 0.39150986
2.5540123 4.0001521 0.39919406
0.88428217 4.0301919 0.39054149
0.63931084 4.2282486 0.3995533
2.4096684 4.54281 0.39462957
1.8630074 4.9663019 0.391487
1.4355874 0.88384038 0.40759018
1.0644971 1.0094416 0.40884954
0.84747672 1.386106 0.40574303
0.64935577 1.6355331 0.40426418
0.66774857 1.7404189 0.40748537
2.0286753 2.2626972 0.40850732
1.6588409 2.3194203 0.40848184
1.7368398 2.7999868 0.40615562
1.3639487 3.207022 0.40167111
2.4944448 3.2731664 0.40599385
2.5016725 3.4763508 0.40381953
1.5619036 3.5551 0.40772632
2.1497867 3.58938 0.40239909
1.547164 3.7583117 0.40618306
0.66364807 3.7777991 0.4089511
1.0992393 3.9193482 0.40711403
0.91146463 3.9205766 0.40807006
2.2542713 4.1204262 0.40028268
0.66771162 4.4299793 0.40937793
1.0630906 4.4498053 0.40501684
0.77059269 4.6265302 0.40245453
0.84002578 4.6669865 0.40954006
2.3866153 4.6644201 0.40036011
1.859367 4.9666076 0.4018212
0.78212965 5.0273733 0.40609586
2.1358171 0.97972047 0.41763821
0.84099138 1.0533806 0.41358194
0.72999156 1.1950116 0.41169536
0.62898064 1.493206 0.41511858
2.2550588 1.4902565 0.41645959
0.78071761 2.098218 0.41964275
0.82059789 2.0982313 0.41801775
1.7054257 2.8576677 0.41625321
1.9361975 3.0789337 0.41875181
1.6778207 3.1315486 0.41858798
1.4262853 3.1668081 0.41486478
1.6424545 3.4998131 0.4163104
2.2320127 3.6350036 0.41198975
1.7937608 3.9202521 0.41516706
2.2257028 4.0423231 0.41436946
2.1175375 4.1657653 0.41339818
2.512022 4.4387474 0.4126907
0.66419297 4.5312386 0.41643155
2.4562836 4.5317459 0.41119251
1.0635879 4.5884061 0.41235146
2.2297246 5.0949101 0.41427207
1.4935235 0.80733371 0.42664739
2.5348754 1.5538898 0.42137071
2.4646578 1.7733035 0.42916995
2.1898782 2.1368439 0.42146683
1.5767033 2.3496406 0.42596641
2.4999366 2.383007 0.42204684
1.4808466 2.8736436 0.42914698
1.9064224 3.0860598 0.4228825
1.8562264 3.1558275 0.42398214
1.5330927 3.4160368 0.42572573
2.3903344 3.7125313 0.42826039
2.1004825 3.7209094 0.42001384
2.2599797 4.1153135 0.42920688
2.5434625 4.3852863 0.42179155
0.8608197 5.0663147 0.42071927
1.7038519 5.0808764 0.42426801
1.045998 5.0916748 0.42703664
1.0506337 1.0523208 0.43909365
0.64643997 1.9312801 0.43733227
2.458447 2.096513 0.43308794
0.97593242 2.132704 0.43103975
1.8910971 2.3373649 0.43893492
1.9113429 2.3320591 0.43791258
0.86471522 2.5683231 0.43381685
1.4405355 2.8781416 0.43562919
2.2040627 3.0274272 0.43879086
2.1074517 3.3377209 0.43777236
0.97965783 3.4003201 0.43199155
2.2172298 3.5836341 0.43978995
2.5283594 3.873486 0.43925846
0.89170849 3.8881011 0.43287474
0.76494795 4.2574639 0.43566763
2.4561272 4.3489256 0.43603641
1.0623997 4.4276943 0.43736812
0.76994717 4.4407072 0.43815872
0.81955153 4.8065767 0.43955806
1.1742713 4.9643259 0.43071651
1.7273586 0.8315953 0.44382298
0.94225365 1.3405956 0.44460818
0.76979613 1.6991611 0.4451285
0.63633275 1.7914686 0.44247892
2.4094114 1.8192225 0.44711447
2.4932203 1.9452872 0.4439792
0.92699122 1.9728 0.44674349
2.361635 2.0937572 0.44738835
0.75568008 2.5503268 0.44722563
2.4222498 2.5629716 0.44008672
0.98447442 2.6075821 0.44559172
2.2535744 2.608901 0.4495374
1.4647058 2.9063582 0.44413266
2.2205465 3.3544858 0.44725969
1.3081223 3.7592106 0.446291
0.63923115 3.9669456 0.44451809
2.1175473 4.215241 0.4450722
2.4101555 4.373847 0.44120133
2.5118632 4.4288483 0.44177717
0.89915323 4.7917304 0.44327542
2.4922953 4.919405 0.44743133
1.9304914 4.9671383 0.44980001
1.489817 4.9790692 0.44461906
1.666152 5.0019531 0.44539461
1.7706861 5.004909 0.44864324
1.4320427 5.0208955 0.44501868
1.2854936 5.0342951 0.44698721
1.4698327 5.0361509 0.44431823
1.1569583 5.0505691 0.44866705
1.711246 5.0650101 0.44617558
1.3117645 5.128377 0.44563994
2.0069554 5.1391182 0.44397649
1.5538994 5.1651726 0.44262803
1.6952316 0.89772975 0.45509663
1.9308275 0.9764812 0.4569132
0.9814266 0.99829578 0.45723045
2.2077885 0.9972682 0.45056117
2.4914916 1.354866 0.45462745
2.1120582 1.8442073 0.45988482
2.4091864 1.858095 0.45249131
1.7104487 2.5434067 0.45277008
1.7149053 2.7600775 0.45145041
2.1454098 3.6083555 0.45072186
2.5112517 3.7107983 0.45293552
1.3153658 3.9338846 0.45679885
0.64302558 4.1137729 0.45704538
2.5419612 4.119348 0.45678243
2.1211846 4.7949924 0.45413396
1.073015 5.0113716 0.45027763
1.8546969 5.1176071 0.45017308
1.848443 5.158329 0.45078099
2.5207839 1.397307 0.46202308
2.4100623 1.6594564 0.46398914
2.530956 2.2221622 0.46369892
2.4957216 2.5270112 0.46514082
0.69428182 2.9498487 0.46354669
1.5721372 3.0869136 0.46242362
2.5036812 3.5655529 0.46103588
1.1709286 3.6618342 0.4610036
0.66928375 3.7788091 0.46423519
2.254154 4.1624956 0.46489403
2.5431356 4.6593375 0.46017766
2.1886449 4.7973294 0.461631
2.5162239 4.7920446 0.46455431
1.6941814 0.83793247 0.47034228
1.0069857 0.97495598 0.47250459
0.80865532 1.3979379 0.477045
0.76964551 1.6190331 0.47856337
2.5513461 1.992614 0.47776425
2.5209928 2.1306086 0.47949916
2.0772548 2.3618107 0.47406688
1.9548621 2.3795395 0.47152308
1.6619074 2.4300866 0.47166276
1.6066251 2.6818209 0.47853437
1.6964667 2.6845291 0.47997734
1.6714271 2.7451584 0.47831675
1.4148469 3.9385288 0.47219333
0.75230193 4.0971346 0.47088194
2.2183859 5.1157575 0.47557598
1.4934213 0.83910203 0.48796976
1.1259608 0.94185364 0.48788738
2.2144251 1.047565 0.48400456
0.68070108 1.2961193 0.48428112
2.5130723 1.3032125 0.48344463
2.4096179 1.7266604 0.48103565
0.69872165 1.9239514 0.4886041
2.5114312 1.9220831 0.48931003
1.0763702 1.934043 0.48262763
2.1099317 2.1163487 0.48940197
0.64334089 2.1215239 0.48828998
0.75546926 2.5520875 0.48711115
2.3664913 2.5577395 0.4811978
1.484256 2.7100205 0.48430356
1.4259019 2.7522805 0.4861623
1.4422925 2.7596157 0.4885467
1.6921755 2.8342249 0.48174748
1.0063791 2.8443964 0.48901403
2.4903665 3.0399575 0.48637897
2.5008326 3.5127444 0.48608115
0.88738906 3.7998929 0.48592946
1.0481427 4.0614862 0.4808681
2.3960714 4.0629816 0.4875181
0.72522062 4.3739114 0.48736763
1.0980361 5.1466045 0.48390818
2.4792049 1.2357833 0.49917275
2.2940493 1.3602101 0.49868268
0.70284039 1.3757081 0.49366903
2.4279332 1.4062026 0.49606821
0.72722435 1.6036086 0.49112707
0.65260679 1.6724806 0.49641353
0.64982414 2.2185059 0.49284834
2.5283146 2.2189221 0.49832341
1.0026969 2.4018664 0.4987649
0.82362449 2.5529726 0.49661046
0.69173878 2.6701784 0.49687985
1.6239238 3.4223337 0.49782526
0.94937843 3.5235934 0.49265063
0.9456715 3.5693221 0.49595079
1.2338518 3.780417 0.49805266
2.3894644 4.066329 0.49933767
2.4436922 4.0637126 0.4914971
0.68559122 4.1069927 0.49745288
2.4143529 4.1063833 0.49644801
2.3950267 4.8019099 0.49553511
1.5055231 0.90301991 0.50225842
1.2088678 0.91203654 0.50003594
1.1519663 0.92708355 0.5064581
0.62990946 1.4690564 0.50492775
2.4001544 1.5706389 0.50957537
2.4096024 1.6954882 0.50407577
2.4542141 1.7570121 0.5031544
2.2525866 1.9447297 0.500108
2.5513699 1.9805938 0.50320458
2.3636518 2.0735395 0.50884974
1.3791095 2.4735489 0.50843501
1.404842 2.4762976 0.50781095
2.3735085 2.5621328 0.50811255
2.1790571 2.7415459 0.50052583
1.5773566 2.8427675 0.50626057
1.5833331 2.8856332 0.50765884
1.6187003 2.8895926 0.50943434
1.448788 2.9014664 0.50788498
1.5166382 2.9068034 0.509121
2.2228177 3.3973184 0.50341213
1.6923192 3.6442785 0.50851893
1.1868383 3.7824667 0.50311637
2.4773293 3.7978091 0.50005406
2.415755 4.2977757 0.50096923
0.79736483 4.7760878 0.50409031
2.5007985 4.7782826 0.50170964
0.66149861 4.7916355 0.50939345
2.4456866 4.8030238 0.50390148
1.4490594 5.1884489 0.50537276
1.9691648 0.98963457 0.51960081
0.81300819 1.1216296 0.515154
1.0784063 1.7538221 0.51579893
1.9273494 2.4626727 0.51908004
1.6856087 2.8548734 0.51446939
1.503695 2.9349487 0.51371872
2.4894264 3.018055 0.51901472
1.4885944 3.0337653 0.5197019
2.4897194 3.0885503 0.51302421
2.1128297 3.7382522 0.51830232
2.3799527 3.8024688 0.51628214
1.9883788 3.9519997 0.51466894
0.63535076 4.0083628 0.51289052
2.1170702 4.321919 0.5144884
0.72702718 4.3559155 0.51746047
2.1498878 5.1392241 0.51655596
1.7940761 0.93484747 0.52691138
2.2882481 1.3774924 0.52886093
2.5495534 1.4787266 0.5247643
1.0795634 1.6164167 0.52717763
0.63313574 1.6550806 0.52862114
2.5320687 1.7079024 0.52991533
2.4369144 1.8970783 0.52417332
0.92181647 2.0401826 0.52068883
1.3846083 2.4741569 0.52150863
2.4811358 2.5454702 0.52071208
2.3330998 2.5685563 0.52552587
2.1562967 3.5853295 0.52696407
2.2069857 4.0781498 0.52953678
0.92654741 4.1715612 0.52864403
2.3999562 4.2841086 0.52290672
2.2750804 4.611186 0.52862155
0.67864507 4.9124408 0.52653623
0.95706636 1.0094967 0.53276944
0.71973753 1.3944504 0.53632349
0.72544932 1.3958068 0.53947449
0.74489009 1.6405323 0.53632009
2.4597344 1.8865031 0.53222191
0.97486377 2.4644918 0.53904605
0.86866075 2.5635319 0.53804266
1.3962229 2.6092901 0.53763533
2.493885 3.3673239 0.5354504
1.0782962 1.4869273 0.54931104
2.5572946 2.1143794 0.54668212
1.4429044 2.8334279 0.54684287
2.4897664 2.8834372 0.54728305
0.68640816 3.4560616 0.54936397
2.4964066 3.4537773 0.54171681
2.0601883 3.6871669 0.54135454
2.1279159 4.7744741 0.54344034
0.80954015 1.4002197 0.55066079
0.9112606 1.5958369 0.5507623
0.68420094 1.8418813 0.55830479
2.2686892 2.0955029 0.55890715
2.5300872 2.2402401 0.55959445
1.369287 2.4084916 0.5565145
0.7972579 2.5485096 0.55048317
2.458899 2.5457182 0.55854505
1.6037141 2.9689059 0.55878305
2.2027769 3.3709049 0.55679893
0.97448575 3.443274 0.55393338
0.74741465 4.1047373 0.55055153
0.78947508 4.105865 0.55219507
1.3822008 5.1772747 0.55754036
1.1667154 0.95640612 0.56303704
0.77890605 1.4097806 0.56400311
0.69982827 1.4107796 0.56432849
2.5469124 1.5967469 0.56677282
0.82302988 1.6372774 0.56734896
1.0083122 2.8365877 0.56235981
1.738991 3.5965817 0.56754065
1.4196994 3.7961309 0.56897861
2.058301 3.8018887 0.5697161
2.4824286 3.8472235 0.56733215
0.92669433 4.2126937 0.56116199
0.71328688 4.3518615 0.56416446
1.0601726 4.4794869 0.56536728
0.65740395 4.5223031 0.56837386
2.3796167 4.5491576 0.56514591
2.4371147 4.5488577 0.5600462
0.89761752 4.5674834 0.56458408
0.92740232 4.5833178 0.56528693
2.2687571 5.1062651 0.56020546
1.747983 5.155654 0.56854427
1.5612051 5.1795111 0.5603224
2.1431324 0.99547642 0.57545537
1.0335609 1.0096632 0.57799077
0.63958836 1.6517916 0.57128251
2.5015116 1.700671 0.57773238
2.5380557 2.009042 0.57724553
2.1927238 2.0847754 0.57108265
1.4398205 2.775105 0.57332522
0.73930323 3.8559632 0.5736509
0.87432468 4.1247406 0.57520711
0.92709804 4.2059064 0.57809734
1.4994733 0.82836795 0.58924586
1.8396798 0.91941142 0.58720821
2.42553 1.1924692 0.58076239
0.63134801 1.5224543 0.58402604
0.86397314 1.8229415 0.58451188
0.91998911 1.8360745 0.58284771
0.69502079 2.998982 0.58248305
0.69159257 3.3199959 0.58673346
1.7184646 3.5756292 0.58014524
1.7816218 3.722059 0.58054459
0.73239911 4.1553588 0.58725762
2.4760585 4.4436102 0.58620501
2.5390513 4.4709725 0.58838874
0.9279896 4.5985804 0.58135444
0.95164168 1.1813366 0.59680212
1.0789713 1.6339495 0.59445554
0.91430867 1.7055112 0.5981701
2.2751141 1.7076004 0.5976764
2.3996515 2.0249233 0.59309757
0.76420152 2.051228 0.59837598
2.227246 2.6998675 0.59167498
1.0232769 2.7316313 0.59922397
1.2758083 2.7369766 0.59011173
1.0428379 2.746748 0.59232903
1.900854 2.8046677 0.59857613
1.46523 2.812151 0.59539235
1.5514963 3.0189438 0.59914124
0.93075937 3.2231975 0.59860373
1.3076593 3.8226573 0.59647024
1.6596386 3.9790311 0.59848326
2.3543813 4.4033589 0.59034127
2.3927581 4.4641161 0.59019053
0.78195441 4.7198515 0.59820271
1.0569528 4.7367573 0.59770685
1.0336354 1.4511777 0.60974151
2.0008488 2.6419671 0.60952544
1.8701912 2.6698411 0.60669696
2.2268813 2.7199593 0.60746098
1.8511952 2.7406793 0.60060203
1.2883158 2.8064048 0.60614538
1.5923676 2.9933391 0.60928363
2.5109656 3.7656732 0.60901189
0.65681815 4.1772871 0.60198784
2.4057677 4.7474527 0.60555845
1.329551 5.1221485 0.60457945
1.6600131 0.82984424 0.61467451
1.0942154 1.0277286 0.61463499
2.4493899 1.4841796 0.61577606
1.0796528 1.5398585 0.61619323
2.5485294 1.6690032 0.61548245
1.0771345 1.821103 0.61758631
0.85811162 2.0062442 0.6110419
0.86430281 2.0037398 0.61349881
0.71933365 2.0412965 0.61183411
0.67614627 2.2615724 0.6187163
2.2340839 2.7230189 0.6116327
1.2180451 2.8068535 0.61611527
1.3064457 2.8219349 0.61247617
1.5235848 2.8285153 0.61763585
2.2346783 3.2851062 0.61112887
2.2486413 3.3467984 0.61430395
2.2196906 3.457531 0.61712486
1.4681371 3.7251906 0.61171293
0.86168265 3.8695927 0.61808217
1.2149826 3.98473 0.61463249
2.4017706 4.1503468 0.61839342
2.552258 4.327178 0.61393785
1.1253105 5.1487293 0.61892784
2.1084771 1.6029416 0.62894255
2.1098843 1.8661668 0.62931842
2.226573 2.6218622 0.62193429
0.98631012 2.6602073 0.62099123
1.8576216 2.8788037 0.62333751
1.4397569 2.8813314 0.62139469
1.9541237 2.8880827 0.62339258
1.2257919 3.8353553 0.6251297
0.63099754 4.0827413 0.6275003
0.69231772 4.1825538 0.62880778
2.1165144 4.3820014 0.62029362
2.2768598 5.0759439 0.62260073
1.5882381 0.84709418 0.63289875
1.7809503 0.90077502 0.63222444
1.3904592 0.92815697 0.6393767
0.87381643 1.1892884 0.63558906
0.97616029 1.1895763 0.63225693
2.2971206 1.4691591 0.63900822
2.1089647 1.748355 0.63730323
2.2553935 2.7156801 0.63437128
0.69780958 2.9194658 0.63988376
1.5021979 3.9894853 0.63033503
1.7872703 3.989481 0.63128603
0.96915472 4.1942334 0.63697064
2.4514809 4.2059207 0.63729048
2.4354913 5.0020857 0.63302588
2.1496987 5.1279893 0.63126701
0.65635759 1.4137807 0.64526558
0.91776896 1.9384425 0.64746702
0.9975059 2.013247 0.64255601
0.67277896 2.3031414 0.64004827
1.2077603 2.7658849 0.64593679
1.2720668 2.8675599 0.64264238
1.9803855 2.8675938 0.64145374
0.89609444 3.6373742 0.64441252
0.67577243 3.7027664 0.64372581
2.3732812 4.186491 0.64692926
2.1536362 1.4839431 0.65289706
0.74028361 1.9639333 0.65522981
2.5353975 2.1390431 0.65187603
0.68156356 2.4307795 0.6588636
2.4933534 2.5837653 0.65334845
2.1902008 2.7540655 0.65451962
1.6478915 2.8773131 0.65541625
1.9947993 2.9236434 0.65046221
2.0196896 3.7724624 0.65777969
1.5093886 3.9981718 0.65726852
2.1202431 4.2071033 0.65552831
2.4670501 4.6796389 0.65818214
2.1836703 4.6820579 0.65180093
2.318989 4.6860547 0.65542167
1.4519318 0.92286682 0.66173959
2.495285 1.5409294 0.66774976
2.4880672 3.290303 0.66793358
2.4896066 3.360743 0.66382581
0.92211938 3.779736 0.66029298
1.7894374 3.8459911 0.66030997
2.3616731 4.2155533 0.6621182
0.89137197 4.2347083 0.66363627
2.4840183 4.2374134 0.66592824
1.0578055 4.3684864 0.66943944
2.1163113 4.3882236 0.6637944
2.2729533 4.6197762 0.66914523
0.9960103 4.6298418 0.66946328
1.0121495 4.6554236 0.66088539
2.3711841 4.6551795 0.66173434
2.1881769 4.6733871 0.66011751
1.7644175 0.95185918 0.67794466
2.0552733 1.0946571 0.67694229
2.1765664 1.1629736 0.67339295
2.3316858 1.2825819 0.67606503
0.87248033 1.3922814 0.67649907
0.66382241 1.5560408 0.67544562
0.75563931 1.561578 0.67779183
2.1080718 1.6763448 0.67318314
0.92143166 1.8748102 0.67618871
2.4757199 1.9229712 0.67937374
2.3478098 1.9718976 0.67612708
1.4187144 2.9206452 0.67579615
0.80309612 3.9070673 0.67620158
1.1901445 4.005125 0.67517531
0.78795433 4.2596779 0.67668235
0.67064953 4.2670608 0.67242986
1.0013928 4.2674232 0.675143
2.5146353 4.6287065 0.67678845
2.4914651 4.8975759 0.67775077
2.0221429 1.1029394 0.68403351
2.2327423 1.1122715 0.68224412
2.4791968 1.3407961 0.68695068
2.407937 1.5311708 0.68689775
0.69525731 1.5686646 0.68164241
0.845994 1.5684587 0.68082106
2.5438781 1.790467 0.68282771
0.76019478 1.9104214 0.68531144
2.5065877 2.23508 0.6885289
2.5034077 2.2567515 0.68071675
0.68718475 2.4740345 0.68522167
2.31337 2.5793629 0.6882866
2.2646782 2.6960125 0.68469578
0.6940605 2.7016156 0.68867183
2.0102396 2.8454978 0.68329847
1.818308 2.8527255 0.6814937
1.5913289 3.0538106 0.68953806
2.4945045 3.5311007 0.6815753
2.3220384 3.9022701 0.68503642
2.3541813 3.9029968 0.68352669
2.4524543 3.9187949 0.68205738
2.2911365 4.2537398 0.68158257
0.82085419 4.2890458 0.68419445
0.70623606 4.3263988 0.68650299
2.1162677 4.3366618 0.6899218
1.0435104 4.5906005 0.68150634
2.4812174 4.9206796 0.68946517
1.680326 0.94512737 0.69005191
2.1818631 1.3339493 0.69167697
0.94369012 1.362451 0.69168943
0.65183711 1.4849781 0.69535244
2.1643822 1.563629 0.69438159
2.1091609 1.8895874 0.69641703
2.1096566 1.9342371 0.69085073
2.5565484 1.9934331 0.69278252
2.2224874 2.9313221 0.6973328
2.2419248 2.993356 0.69390321
2.4966929 3.6099536 0.69476062
2.0409064 3.8561339 0.69667548
2.4721127 3.925983 0.69671345
2.1923194 4.0152869 0.69933325
2.45156 4.3015995 0.69804329
0.62743807 4.5249858 0.69769001
2.2131648 4.5606933 0.69817555
2.3808913 4.5896187 0.69529295
0.78610587 4.5940423 0.69351798
2.4145532 5.0214953 0.69903171
1.2999851 5.1233191 0.69001859
1.547086 0.9633069 0.70549524
2.2222507 1.2782133 0.70902491
0.7353918 1.3323901 0.70894802
2.4448352 1.8630968 0.70998991
0.83844602 1.8799989 0.70026338
2.2551081 2.7778194 0.70652157
1.4627666 2.9030623 0.70586526
1.9693056 4.0175891 0.70221257
2.5531251 4.2869067 0.70136023
0.91576475 4.5064101 0.70455986
2.2886083 4.5490513 0.70896977
0.75865579 4.5714626 0.70544171
2.1290276 5.0957389 0.70560193
1.7024862 0.99127817 0.71596152
0.88127363 1.3410671 0.71573329
2.3505573 1.3587279 0.71504605
2.5520246 1.5479434 0.71267653
0.87354147 1.6450362 0.71487331
0.98821658 1.6591393 0.71950239
1.07758 1.7037307 0.7121284
0.99549049 1.833349 0.71919322
0.86720389 1.8875697 0.71032906
2.4960699 2.4605947 0.71457827
0.68960702 2.7171021 0.71677363
1.7891772 3.7770648 0.71955657
2.0663247 3.848918 0.71190023
2.4590766 3.9321876 0.71251398
2.0215356 4.0250511 0.71601075
2.165076 4.4938197 0.71429729
2.3819442 4.5135789 0.71950698
0.92854965 5.0272088 0.71427727
2.116225 5.0797606 0.71937376
2.1196461 5.1065574 0.71315265
1.750838 1.0364364 0.72994131
1.7977107 1.0543236 0.7248255
1.2465916 1.1976943 0.72709817
1.1499236 1.2015529 0.72772527
1.0239024 1.7006621 0.7200954
0.64610749 2.0255754 0.72747433
2.5185835 2.1689448 0.72443742
2.3380659 2.5791671 0.72877461
0.90488952 2.6124413 0.72174513
0.95978045 2.9277942 0.72927892
1.1081368 2.9279127 0.72741854
1.8309059 2.9464688 0.72012764
2.2711382 3.2555275 0.72084135
0.62030935 4.5025473 0.72608083
0.75947034 5.0078583 0.7233904
2.2595892 5.0482206 0.72761917
1.6963737 5.1709585 0.72518671
1.1720577 1.2248815 0.73447222
2.2655489 1.7158294 0.73709655
0.62967896 1.7797074 0.73983777
0.62855893 1.8052952 0.73299396
0.66706371 2.2509177 0.7352491
0.68023896 2.6081305 0.73431087
1.6024626 2.9149284 0.73612523
1.6705617 2.9143391 0.73723519
2.0904064 3.059329 0.73051465
0.88202035 3.5552335 0.73034227
2.1157608 3.7915349 0.7321403
2.2655149 3.841733 0.73591912
2.5544262 4.4036703 0.73802614
2.4437749 4.9741874 0.73403502
1.5095813 1.0316472 0.74104059
1.6426821 1.0382659 0.74463868
2.3291888 2.58901 0.74186432
2.1003721 3.0565031 0.74873525
1.7272958 3.0785244 0.74458647
0.90007484 3.266613 0.74958169
2.3400738 3.9321649 0.74781871
2.4477525 3.9369228 0.7401402
2.3012421 3.9450612 0.74545246
2.5225518 4.082242 0.74922371
2.4731719 4.903048 0.74274987
2.2496285 5.032794 0.74142843
1.1067082 1.2656875 0.75358605
0.96036458 1.2878554 0.75148892
2.2346058 1.3607674 0.75066334
0.95822883 1.3744504 0.75514674
2.5019019 2.5321901 0.75088072
0.91466463 2.6951396 0.75405139
0.9632774 2.9035735 0.75688815
2.2869205 3.4298921 0.75514591
0.68012512 3.8279071 0.75584745
1.5836756 4.0493031 0.75735629
0.65747029 4.0796728 0.7506777
0.63374621 4.4300947 0.75643539
0.64428145 4.6224518 0.75301725
0.65132284 4.6708698 0.75394017
1.0462956 5.0185914 0.75385046
1.6642444 1.0812372 0.76104283
2.314079 1.3281039 0.76706779
0.90889347 2.6595795 0.76556516
2.5019114 2.7076635 0.76410091
2.2590704 3.0343168 0.76845396
2.0697017 3.0661426 0.76025873
2.2824991 3.329854 0.76968598
2.2621298 3.8233981 0.76300645
2.3388398 5.0744786 0.76213408
1.0722007 5.0949373 0.76952147
1.6615001 5.1880608 0.76005983
2.3777218 1.3075252 0.77370799
2.0242388 1.317642 0.77664906
2.2702398 3.7632623 0.77073652
2.5376658 4.440444 0.77763867
0.71860611 4.9034629 0.77452338
1.3587974 1.2308471 0.78866619
1.3228239 1.2467333 0.78239495
1.2640207 1.2950631 0.78485119
1.133395 1.366673 0.78476828
2.2214866 1.3752477 0.7858634
0.65167868 1.7570645 0.7847026
1.7094907 2.8754449 0.78919864
1.8313065 2.9630911 0.78307635
1.8778527 2.9740005 0.78207946
2.1430821 3.7559731 0.78950572
1.3927144 3.883127 0.78677332
2.524987 4.629046 0.78174722
1.5618527 4.9440103 0.78974342
1.6576102 1.1547089 0.79352659
1.4428166 1.1706188 0.79443604
1.8248017 1.2360647 0.79568815
0.95266032 1.3022101 0.79309076
2.0470724 1.3666739 0.79097342
2.2501221 1.3664124 0.79264605
2.3759971 1.4183072 0.79579085
2.2661881 2.6810193 0.79458964
1.0457964 2.8731408 0.79614067
0.91243297 3.688802 0.79288018
1.541007 4.1848779 0.79731274
1.6664182 4.2209201 0.79815102
1.528888 4.2348881 0.7966845
1.8720824 4.2472491 0.7998606
1.1411644 4.3307233 0.79197252
1.4490259 4.3549643 0.79468727
2.5264568 4.3599186 0.79546416
1.4502137 4.3856964 0.79438436
1.8680689 4.4055986 0.79820198
1.3889227 4.4375696 0.79326409
1.7877884 4.4497204 0.79697812
1.9580824 4.509871 0.79800165
1.7656327 4.5425344 0.79581404
1.9232846 4.5498223 0.79725617
1.4305034 4.5705819 0.79230076
1.8074626 4.6750035 0.79485941
1.4874562 4.6926289 0.79159951
1.880828 4.7122879 0.7951842
1.8245065 4.7840347 0.79390627
1.6587024 4.7994194 0.79215443
1.7777531 4.8663116 0.792615
2.222815 5.1259408 0.79550326
0.90059102 1.3604484 0.8000229
2.252496 1.3731612 0.80225146
1.2152549 1.3992614 0.80416828
2.0556366 1.4262919 0.80665636
2.5243671 1.9714148 0.80570865
0.70495379 2.6071568 0.80708599
1.1560898 2.9154987 0.80889177
0.90250576 3.4256194 0.80532324
2.283263 3.8882241 0.80476213
2.1011212 4.2084789 0.80246168
1.9812411 4.2214055 0.80117577
1.9167117 4.2583008 0.80017704
1.2008241 4.5560713 0.80695474
1.5473329 4.9711056 0.80066168
1.6928539 5.1871886 0.80054879
1.8499861 1.315693 0.81731451
0.86476952 1.3974297 0.81803107
2.0408757 1.4796206 0.81453723
2.0643694 1.4823629 0.81829435
1.9332603 2.8244159 0.81706214
1.9157636 2.8498631 0.81823015
0.98958087 2.9035392 0.81651628
1.1334677 2.9131718 0.81227553
0.72793996 3.1848285 0.81506795
2.4609368 3.3509574 0.8123585
1.6726382 3.7960289 0.81626701
0.71913242 3.8742898 0.81151474
1.4362864 4.0796051 0.81131852
1.0969846 4.4800858 0.81227756
1.4144572 1.2869453 0.82531118
1.0836091 1.5413358 0.824274
2.3253336 2.6183224 0.820786
1.1999844 2.9095089 0.82429898
1.8091445 2.9914269 0.82798946
0.73895252 3.3375225 0.82774186
0.7095921 3.8957007 0.82508934
1.6969157 4.0867953 0.82582676
2.125469 4.1782913 0.82013357
0.77036691 4.97399 0.82415259
1.7193403 5.1844077 0.8248927
2.3044782 1.3822914 0.83105618
1.9547889 1.446967 0.83221269
0.71903312 2.3470478 0.83548343
0.72448921 2.4097767 0.83489907
0.8424747 2.5909925 0.83158672
1.9201035 2.7889972 0.83221155
2.0529306 2.8169589 0.83609879
2.4505219 2.9206331 0.83516002
2.4600003 3.7602944 0.8357532
0.67612213 4.2727027 0.83989745
2.1024323 4.4406834 0.83963859
0.99609482 5.030066 0.83284271
2.2446046 5.0765939 0.83630478
1.8735095 5.1678205 0.83243597
1.8252633 5.1732969 0.83334696
1.6612564 1.3422996 0.84962863
2.396915 1.4592264 0.84058696
1.0055966 1.5395367 0.84466791
2.485692 1.6926955 0.84630257
2.4968829 1.8659979 0.84385294
2.4892333 2.0663188 0.84274566
0.73368311 2.3448324 0.84732646
1.8435166 2.8475015 0.84489262
2.0231411 2.9983344 0.84505081
1.7106593 3.0024576 0.84321761
1.6947019 4.9695144 0.84388542
1.2991269 5.1605949 0.84554672
2.1562409 1.5858347 0.85887587
1.0011345 1.6098697 0.85715544
2.1182711 1.6015675 0.85336137
1.0119941 1.6404226 0.85830945
2.4534867 2.3689244 0.85581875
2.0218322 2.7235408 0.85184985
1.1733277 2.8752499 0.85373896
2.0908151 2.8719778 0.85410184
0.93695223 2.9180286 0.85102832
0.88879359 3.7144442 0.85544723
2.2790785 3.7234902 0.852337
0.72117257 3.8916602 0.85131091
2.4611752 3.9848533 0.85312873
1.9870337 4.8083735 0.85182261
2.4484639 4.8409519 0.85410124
1.7038944 4.9699068 0.85229635
1.3714354 5.1652718 0.85628837
1.5658944 5.1797814 0.85104513
1.5890237 5.1808352 0.85835975
1.55102 1.4156237 0.86965078
1.2902557 1.5446951 0.86304396
0.94673049 1.6009887 0.86651355
2.4649622 1.9208214 0.8698647
0.78556037 2.8492274 0.86541903
1.1018226 2.8426192 0.8691783
1.1637688 2.8474321 0.86442006
0.78391951 3.0261261 0.86409378
2.4154923 3.2134125 0.86761737
1.8255949 3.8981338 0.86094964
0.77032566 3.9935298 0.8614856
1.795722 4.1149001 0.86626256
1.2828772 4.1331215 0.86121893
1.2820244 4.1413293 0.86116409
2.1711659 4.1490426 0.86968803
1.7337165 4.174448 0.86533004
0.69708997 4.6797876 0.86397439
1.3796819 1.5223393 0.87599003
2.2544889 1.5243468 0.87008607
2.4162781 1.6197946 0.87357867
2.4598017 1.9091005 0.87304497
0.9868443 1.9253321 0.8756181
1.0411505 1.9538354 0.87974161
0.98758954 2.0676553 0.87949175
2.4320085 2.309478 0.87340033
0.7825526 2.4042382 0.87642646
0.84898293 2.6403046 0.87912381
2.2898483 2.6787047 0.87389886
0.76936829 2.769233 0.87882745
1.8848026 2.9551139 0.87922359
0.80738169 3.1361954 0.87406784
2.2779987 3.2437615 0.87283993
0.88094711 3.3531108 0.87412459
2.1059771 3.8762829 0.87869006
2.4672279 4.0672455 0.87889457
1.9930571 4.6758819 0.87812734
2.3780398 1.5795413 0.88715994
2.1757193 1.8827326 0.88125563
2.1391127 1.9035701 0.88009363
2.4315085 2.1297169 0.88352227
0.87322772 2.1316049 0.88820386
0.85678416 2.1677363 0.88795674
0.85756254 2.2224596 0.88513017
0.8218084 2.249542 0.88450497
0.93841511 2.2638876 0.88841528
0.9163757 2.2762756 0.88665164
0.8812663 2.2998147 0.88230252
0.825225 2.3917074 0.88288414
1.6808455 2.8511715 0.88503259
1.9183044 2.8743076 0.8872456
0.87996835 2.94945 0.88433266
1.9203967 2.9702311 0.88366318
2.3885713 3.1604443 0.8803339
0.83959556 3.270622 0.88526458
2.4173546 3.7285156 0.88151258
1.8551995 1.6392683 0.89906174
2.254539 1.6917244 0.8906846
1.247996 1.716105 0.89038926
1.1936667 1.7781169 0.89167929
0.86382276 1.8571841 0.89272588
1.1728392 1.8698745 0.89839917
2.2155459 1.8824468 0.89022553
2.2428188 1.9045208 0.89558637
2.4228997 1.9418206 0.89547122
2.1613855 2.0368402 0.89845979
1.0342331 2.0726106 0.89211303
2.2774982 2.279897 0.89766729
2.2978568 2.3493471 0.89531589
0.91218835 2.4522905 0.89243996
1.9476584 2.6785462 0.89350057
1.1381962 2.7192917 0.89177513
2.273984 2.7964516 0.89898145
0.83824062 3.349138 0.89211738
0.82331353 3.3776147 0.89472115
0.84310484 3.6193523 0.89974463
1.1219791 3.8908663 0.89548337
1.9995693 3.9030936 0.8929708
0.80843878 4.9460931 0.89301151
2.0786943 5.1206474 0.89199507
1.5176764 1.6290398 0.90616685
1.2382884 1.8360341 0.90836996
2.412955 1.9300065 0.90136933
1.1814101 1.9464869 0.90960443
2.1469579 2.1227691 0.90556377
1.0225563 2.2135663 0.90190715
2.2300501 2.2683859 0.90217441
2.2110262 2.2908173 0.9075973
2.2159479 2.3015866 0.90726411
2.2575624 2.3192327 0.90036273
1.0965875 2.6438234 0.90109128
1.3765523 2.6786754 0.90313172
0.88926834 2.6888647 0.90803665
1.6370666 2.6952641 0.90942562
2.1635654 2.6993382 0.90421242
1.4589 2.7092924 0.90100712
1.9147644 2.7063794 0.90317219
2.441751 2.8040485 0.90664411
0.85816771 2.8235335 0.90726244
2.3551044 3.3553715 0.90163577
2.3157036 3.6696253 0.90419388
