# .PCD v0.7 - Point Cloud Data file format
VERSION 0.7
FIELDS x y z
SIZE 4 4 4
TYPE F F F
COUNT 1 1 1
WIDTH 1469
HEIGHT 1
VIEWPOINT 0 0 0 1 0 0 0
POINTS 1469
DATA ascii
0.6686908 2.9241328 0.11481316
0.85034108 0.75628465 0.12352398
-0.76300073 0.88410282 0.12624584
-0.71877384 2.9099317 0.12693939
0.61372787 3.2019429 0.12212021
-0.74788892 3.3204255 0.12057611
-0.79448545 0.46860611 0.1344019
0.84614998 0.48832062 0.13847986
-0.60999417 0.68629503 0.1311646
-0.73592108 0.89427143 0.13678849
-0.6024819 3.0980566 0.1463073
0.73315686 3.4811883 0.14748466
0.71748358 0.44576371 0.1569365
-0.65362698 0.90973306 0.15164962
0.72307473 3.095099 0.15503392
-0.73675239 0.69897056 0.16391653
-0.74605548 2.8729804 0.1637602
-0.80797184 3.0667362 0.16825348
-0.58908963 3.3607135 0.16410197
-0.63771224 3.4812021 0.16392472
0.77534384 0.43395987 0.17211795
-0.57861555 0.54592621 0.17004296
0.66290164 0.55894911 0.1778478
-0.79796767 1.0138187 0.1710712
-0.68005562 1.0118191 0.17364281
0.69927418 3.0264263 0.17372417
-0.67233706 3.4783247 0.17741802
-0.77712619 0.79935282 0.18986022
0.010079424 1.1408511 0.18565455
0.35846502 1.2446197 0.18655187
-0.10041042 1.2743688 0.18576255
0.068003416 1.3447142 0.18624398
-0.16452593 1.3571441 0.18583769
-0.32604477 1.3815734 0.186941
-0.1495938 1.4422565 0.18606645
0.18740986 1.4407103 0.1866941
-0.034915753 1.4694498 0.1863454
0.2055469 1.5732782 0.1870407
0.029855974 1.5817577 0.1867317
-0.3070713 1.6399944 0.1862379
-0.27375278 1.6413758 0.18630357
-0.026319034 1.6635075 0.18681929
0.37377357 1.6752299 0.18759598
0.16939095 1.696403 0.18726337
0.28533652 1.6909134 0.18746743
-0.23174524 1.7384177 0.18661118
-0.12703498 1.7309711 0.18678978
-0.12471624 1.7492921 0.18683733
-0.21654147 1.7926366 0.18676758
0.23686856 1.8097885 0.18765704
-0.17221585 1.8779168 0.18705177
-0.010008335 1.9477892 0.18752043
-0.32087046 1.9616526 0.18697083
-0.18519342 2.1005244 0.18755259
0.15058844 2.1084476 0.18819985
-0.070414096 2.1164632 0.18780513
0.23145714 2.1154444 0.18836769
-0.21935821 2.1579123 0.18762395
-0.21435651 2.2518392 0.18785489
0.29036981 2.2923801 0.1888952
0.34168813 2.3076096 0.18902716
0.24765795 2.3536637 0.18895978
0.060008153 2.4151633 0.1887536
-0.034077875 2.5074091 0.18879503
-0.16534352 2.5603712 0.18867429
-0.11041977 2.5665677 0.18879168
-0.68960083 3.0139685 0.1851711
0.65186036 3.2333169 0.1819531
-0.84842342 3.2566266 0.18479227
-0.70773631 0.55635124 0.19862422
0.80015278 0.56696999 0.19449151
-0.74262863 0.64871305 0.19627613
-0.82722461 2.8630505 0.19931319
-0.83535874 3.4783278 0.19448204
0.81281799 3.4811969 0.19221823
0.20575106 1.0616519 0.20606932
-0.3219837 1.3254311 0.20451425
-0.36279008 2.1401687 0.20589016
0.38565427 2.5023458 0.20408323
-0.0074298009 2.5868425 0.20813866
-0.80370307 0.4440304 0.21053815
0.45676285 2.532783 0.21633986
-0.24994032 2.9947259 0.21141127
-0.19258973 3.3174615 0.21448177
-0.84667939 3.32147 0.21166347
-0.73553175 0.53510904 0.2243754
0.36611122 1.5392766 0.22623357
0.36738178 1.5932295 0.22207707
-0.40888426 1.9173534 0.22916056
0.46713078 1.9238669 0.22967885
-0.44941327 2.5125506 0.22162493
-0.49018711 2.5641322 0.2286173
0.21973979 2.575125 0.22563809
0.29927677 2.9456162 0.22137526
-0.24998489 2.9546766 0.22994098
0.6559208 3.2780328 0.22588237
0.75573754 3.4783151 0.22093895
0.16579804 0.12133341 0.23571667
-0.67275709 0.13994028 0.23401657
-0.41869551 0.13375711 0.23479906
-0.75676513 0.15655205 0.23359266
-0.01905472 0.16551068 0.23638149
-0.013102459 0.18473934 0.23682179
-0.094720945 0.19602393 0.23689502
0.39604485 0.19142738 0.23765293
-0.0178914 0.20302752 0.23721774
-0.76364231 0.9527545 0.23609927
-0.31528622 1.2470434 0.23014265
0.37231266 1.8224663 0.23226577
-0.45884636 1.9055032 0.23110059
-0.51215917 2.0779173 0.2314053
0.57907689 2.1877027 0.23669186
-0.54824567 2.4539318 0.23797962
-0.38420367 2.6042387 0.234846
0.14731158 2.8840404 0.23775016
-0.1407814 2.8925023 0.23885298
0.29924744 2.9254835 0.23464297
-0.067242995 2.9403045 0.23752925
0.30007067 3.2131894 0.23821849
-0.71994436 3.4812148 0.23234428
0.74344331 0.15904589 0.24041499
0.63127685 0.41308844 0.24369663
-0.75295895 0.75087494 0.24766153
0.83814144 0.94574535 0.24217421
0.22062086 1.0310434 0.242856
0.64542663 1.3134105 0.24915101
-0.39939556 1.7982558 0.2477622
0.56442767 1.8236241 0.24672222
-0.60101831 2.170706 0.24672028
0.29919317 2.776468 0.24235439
0.21322426 2.9007039 0.24089694
-0.26716259 2.9230835 0.24465737
-0.073916256 2.9403114 0.24341375
-0.78461504 3.1558576 0.24361861
0.32822713 3.2454777 0.2489285
-0.23761639 3.2957349 0.24398085
-0.17046514 3.3966994 0.24474922
0.77864867 3.4003618 0.24115023
0.72926849 0.15720882 0.25130686
0.58219576 1.17498 0.25191978
-0.48754114 1.1821907 0.25223014
-0.39827967 1.2398019 0.25692227
0.37128782 1.2535799 0.25845179
0.37192619 1.3353698 0.25706273
0.53774488 1.373606 0.2543928
0.56948709 1.4845829 0.2530767
0.69177884 1.5696602 0.25721413
0.60450363 1.6595932 0.2517184
0.39006186 1.7252052 0.25047171
-0.62587154 1.8822057 0.25178695
-0.66240788 2.0602877 0.25947425
-0.43666768 2.6788321 0.25463134
0.52554083 2.6838326 0.25715384
0.53324544 2.6955726 0.25806123
0.78998339 2.6904902 0.25533885
0.83615136 3.0927119 0.25776005
-0.23207942 3.1368222 0.25284767
0.24616058 3.245316 0.25301948
-0.72506881 0.16803391 0.26532882
0.22112651 0.24348868 0.26023373
0.44613081 0.2460144 0.26558828
-0.20072946 0.95337683 0.26710618
-0.1020776 0.96468294 0.26624879
0.26953357 0.98490071 0.26507601
-0.79515976 1.0094095 0.26621723
0.70360148 2.046361 0.26051363
0.74173665 2.0478263 0.26866031
-0.713745 2.2295685 0.26816121
0.67065275 2.7231171 0.26292455
0.34652981 3.0658462 0.26575831
0.3461726 3.201632 0.26860854
0.65774745 3.2962761 0.26344118
-0.23951097 3.312942 0.26978165
-0.13239743 0.24307486 0.27645773
0.35911277 0.2450165 0.27566266
-0.79475689 0.45912454 0.27264497
-0.015152931 0.81910443 0.27979466
0.26100317 0.83375645 0.27895737
0.84606832 0.91017491 0.27911189
0.64699167 1.0925244 0.27613187
0.74648231 1.7325957 0.27036694
0.75314301 2.0334508 0.2712253
0.21502005 2.4864023 0.27164873
-0.74098873 2.6754155 0.27941474
0.011133056 2.7410645 0.2761662
0.094612569 2.7770369 0.27617896
-0.019226486 2.878541 0.27024665
-0.16939317 2.8853705 0.27941278
0.18810746 2.8980849 0.2786305
-0.75686002 3.0490015 0.27221394
0.21978627 3.0577416 0.2744132
-0.79012942 3.0721197 0.27846587
0.82125753 3.185523 0.27913257
-0.74622947 3.4105148 0.27045271
0.1284713 0.72947335 0.28830111
0.00069082528 0.75579655 0.28564483
-0.20094992 0.76120681 0.28485975
-0.1629443 0.76508856 0.28448832
0.11432958 0.78625625 0.28305399
-0.25776073 0.80893666 0.2808347
0.78307414 1.4763429 0.28080469
-0.731996 2.6804569 0.28312218
0.35530251 2.8767042 0.28897941
0.3129203 2.9331312 0.28648508
-0.17057511 3.2352006 0.28063262
-0.12305763 3.2548747 0.28788802
0.10719483 3.457623 0.28958094
-0.69827116 3.5098276 0.28887686
-0.53471559 3.5472579 0.28993577
-0.055229496 0.15745765 0.29031092
-0.28876552 0.16395903 0.29195303
-0.55434668 0.17581026 0.29086685
0.13234317 0.242421 0.29899588
0.78638053 0.50937063 0.29139543
-0.010068789 0.62522334 0.29763067
0.69836932 0.85699958 0.29035139
0.65419298 0.86615247 0.29527712
-0.76703703 0.96707296 0.29640555
0.81027579 0.96531177 0.29337135
0.78706288 1.5458417 0.29498994
0.30158526 3.2530868 0.29706556
0.29933763 3.4569616 0.29759842
-0.58202088 0.20371079 0.30018854
0.059003681 0.23220289 0.3027156
0.73161244 0.23591687 0.30426279
-0.49014708 0.24000931 0.30173945
0.26198852 0.24387853 0.30089527
0.73248303 0.24930273 0.30628023
0.074723467 0.53544569 0.30604193
-0.7796942 1.0063144 0.30728179
0.65056819 1.0097065 0.30337897
-0.54170972 1.0114176 0.30527151
-0.33363414 1.0218781 0.30344397
0.15581656 1.3623015 0.30863395
0.51000446 1.3850071 0.30933666
0.36929113 1.5088904 0.30929178
0.30740529 1.5276906 0.30920911
0.40104026 1.5381517 0.30940282
0.35007676 1.5685937 0.30936113
0.48906261 1.5812417 0.30964354
0.24878544 1.5944533 0.30921721
-0.31732601 1.6010282 0.30816847
0.4858599 1.628583 0.30972105
-0.2515288 1.6472508 0.30837321
-0.052280992 1.6625993 0.30877328
-0.38388774 1.6713635 0.30816793
-0.12830585 1.6997465 0.30869651
0.11278145 1.6995094 0.30914751
-0.35564193 1.7159131 0.30829942
0.3570334 1.8061317 0.30979306
-0.11456686 1.8187261 0.30893213
-0.24748909 1.8290794 0.30870157
-0.35307017 1.8374983 0.30851874
0.080309212 1.8565397 0.30936366
-0.05326733 1.8665985 0.30913132
0.30221418 1.8787856 0.30981839
-0.40932885 1.9578587 0.30862576
-0.20191583 1.9791677 0.30905166
-0.090032354 1.9819683 0.309266
0.16702119 1.9881203 0.3097581
-0.43947417 2.1035516 0.30882636
-0.24082614 2.1631405 0.30930337
0.63641232 2.9219561 0.3004455
-0.0085128313 3.0318208 0.3040483
-0.76032114 3.0824065 0.30016714
0.034112763 3.2658076 0.30389863
-0.62240052 3.5569706 0.30529973
0.33797061 0.48965827 0.31356817
0.36464012 0.49273843 0.31366605
0.32955104 0.51215887 0.31124264
-0.54073334 1.1879894 0.31636128
-0.41265354 1.1996804 0.31824705
-0.13178571 1.231122 0.31191018
0.78945279 1.5158188 0.31019771
-0.55782187 1.520113 0.31528541
0.59521294 1.7236177 0.31049025
0.52383852 1.7888591 0.31007481
0.51035172 1.87793 0.31020665
-0.45137024 1.9008389 0.3140372
0.33903345 1.970583 0.31004918
0.16782698 2.139878 0.31002733
-0.29329133 2.1760831 0.31974354
-0.78763515 2.6966991 0.3154155
-0.35263401 2.7356694 0.31263351
0.30275673 2.9434087 0.31805897
0.84464788 2.9819975 0.3142401
-0.17060284 3.2183933 0.31450522
-0.66789544 3.3045239 0.31193191
-0.61555851 3.5776918 0.31676862
-0.68238348 0.22020213 0.32010666
0.12504728 0.30224305 0.32870358
-0.081835687 0.3531599 0.32340127
0.33483347 0.3654255 0.32566571
0.62063694 0.43196219 0.32233188
0.36929247 0.56526911 0.3299022
-0.77090979 0.86285365 0.32299891
-0.74072754 1.3157737 0.32419807
-0.73219174 2.6223214 0.32603869
0.219441 2.9567986 0.32698613
0.78050178 3.1695523 0.32388732
-0.25207537 3.2975643 0.32781512
-0.64140797 3.5382504 0.32886532
-0.46525419 0.24939324 0.3397716
-0.44364923 0.24913819 0.33981067
0.16304757 0.27015838 0.33071068
0.37172627 0.39168593 0.3378557
-0.32391062 0.46272016 0.33746868
0.62066424 0.46543315 0.33078182
-0.67229599 0.86106807 0.33469743
0.57907617 1.0077678 0.33974224
-0.49951383 1.0822461 0.33630684
0.56906748 1.1833644 0.33137092
0.77651048 1.237078 0.33705708
-0.7332027 1.585633 0.33503819
-0.58446711 1.6556752 0.33322197
-0.43664327 1.6531923 0.33342776
-0.24264026 1.7186151 0.33842498
-0.46257156 1.8029011 0.33800185
-0.10713436 1.8250154 0.33918563
0.81538099 2.1215439 0.33794591
-0.31903967 2.1823566 0.33741617
0.83279884 2.4002917 0.33281699
0.21902259 2.5096543 0.33829609
-0.25398418 2.7692945 0.33211726
0.62660402 2.8312571 0.33104697
-0.59043503 2.9159009 0.33849394
-0.80589545 2.9402049 0.33808032
-0.77317905 3.211592 0.33839542
-0.74294114 3.2994699 0.33163211
0.099425048 3.3122642 0.33620897
-0.56149149 3.3399305 0.33406907
-0.050113231 3.3672082 0.33446893
-0.81829834 3.472558 0.33268943
-0.052624889 3.4800928 0.33998322
0.55230188 0.17354241 0.34015816
0.37345108 0.42133352 0.34876877
0.36962116 0.91539061 0.3438881
-0.69621873 0.96775037 0.34946603
0.70914286 1.2254444 0.34439632
0.74484283 1.2492369 0.3418628
-0.66394937 1.4047598 0.34439349
-0.65548688 1.814009 0.34730375
-0.29144692 1.8312831 0.34920993
0.51079845 1.9679707 0.34487361
-0.69560963 1.9877437 0.34169021
0.73432893 2.0043015 0.34545574
-0.48324746 2.1864772 0.3487848
0.7675758 2.4560647 0.34881318
0.16325846 2.4861376 0.34361383
0.81037599 2.8128405 0.34545824
0.70430523 2.9221764 0.34643057
-0.78040934 3.0219703 0.34226519
0.17856665 3.1525841 0.3460086
-0.79103369 3.229979 0.34292796
-0.52746946 3.4693735 0.34778428
0.45738816 3.4694653 0.3494373
0.30022749 3.4709635 0.34877244
-0.49175638 3.6513295 0.34956133
0.18898803 0.26784122 0.35781461
0.84084356 0.35286036 0.35362875
-0.6980558 0.38235754 0.35575905
0.37479997 0.4953883 0.35906145
-0.719001 0.65607882 0.3518036
0.37074643 0.9424125 0.35127342
0.83359075 0.966003 0.35497007
0.27381295 1.2138079 0.35640684
0.0013644956 1.3007046 0.35086671
-0.64501762 1.4217522 0.35000107
0.70224458 1.4691474 0.35284212
-0.62122536 1.529074 0.35661998
-0.48824269 1.6262496 0.35286832
-0.47045702 1.7904477 0.3570118
0.70401514 1.8586774 0.35310295
0.039571308 1.9112526 0.35002995
0.058524907 1.9115579 0.35006925
-0.61907196 1.9600322 0.35754585
0.70947504 2.168045 0.35003477
0.2745851 2.1872499 0.35376444
-0.64874065 2.240397 0.35231519
0.65665203 2.2574375 0.35550946
0.68092394 2.2505434 0.35761258
-0.63176662 2.3521867 0.35547292
-0.84580266 2.8489463 0.3571431
-0.32296032 3.2675238 0.3591069
0.6378684 3.3164163 0.35849345
-0.56516576 3.3253345 0.35873798
-0.012696497 3.4965901 0.35891032
0.58866793 3.5677662 0.35775238
-0.15800966 0.19937268 0.36962494
-0.71383315 0.27573758 0.36556768
-0.63272089 1.2559634 0.36947259
-0.67829263 1.2852986 0.36731872
0.032356359 1.3516599 0.36764532
0.72354054 1.5725119 0.36276376
0.32538471 1.70262 0.36619318
0.1304509 2.1898363 0.3600347
-0.78576666 2.9437597 0.36340985
0.36471558 3.1241362 0.36379555
0.21938463 3.2050846 0.36904842
0.45998809 3.4494748 0.36227351
0.6668275 3.4675534 0.36916468
0.7373668 3.4649513 0.36726567
-0.3221167 0.15985423 0.37733591
-0.015706887 0.26751655 0.37850046
-0.32935613 0.77349412 0.37948611
0.52566153 1.8189662 0.37663847
-0.47488707 1.9002606 0.37094414
-0.45050976 2.1956217 0.37506956
0.25334311 2.1939232 0.37313312
0.72696501 2.2247441 0.3749868
-0.68735528 2.4061084 0.37301892
-0.77678496 2.7226629 0.37786317
-0.17036282 2.8176093 0.374605
0.30414852 3.043983 0.37285787
0.80797476 3.0801036 0.37334335
0.21929096 3.1275039 0.37453949
0.21933877 3.1599798 0.3708002
0.63039684 3.4108255 0.37812391
0.67624319 3.4624279 0.37695253
0.52592385 3.5633955 0.37601954
-0.026168903 3.7012038 0.37099156
-0.18538353 0.26800841 0.3886646
-0.73307884 0.59606421 0.38996539
0.0031109024 1.2793045 0.38842034
-0.60178953 1.3714135 0.38187665
-0.68310797 1.9777811 0.38648391
-0.15736119 2.1997979 0.38914156
0.24564569 2.1987748 0.38594738
-0.56141609 2.360378 0.3889342
0.66728431 2.3802764 0.38798705
-0.66561812 2.3923082 0.38423961
-0.7898612 2.6223934 0.38256198
-0.17033347 2.820509 0.38755029
0.87804246 3.3040967 0.38976195
0.25765827 3.7213027 0.38520738
0.61186212 0.14961077 0.39413035
0.089060113 0.24371105 0.3924526
-0.037162483 0.26208401 0.3922523
0.096292265 1.3047349 0.39112207
-0.68909371 1.4661884 0.39998695
0.21474673 2.1120791 0.39656878
-0.10830227 2.7580774 0.39444831
-0.068255424 2.9495161 0.39177388
-0.062376551 3.1683292 0.3963545
0.84748226 3.2852018 0.39993083
0.10029504 3.4471948 0.39721143
-0.74913585 3.4567447 0.39576027
0.81781036 3.5162888 0.39721724
-0.83894897 3.5231483 0.39716399
0.480528 3.7356875 0.39814001
-0.28464362 0.18412596 0.40379637
-0.051266372 0.24079573 0.40902871
-0.74876529 0.73699492 0.40639511
-0.32570198 1.154103 0.40679079
-0.61437523 1.9633702 0.40215623
0.49431807 2.1490161 0.40817502
-0.37595499 2.2045577 0.40086707
0.44263345 3.5722735 0.40480182
0.35393271 3.6734283 0.40679854
0.36054161 3.7465677 0.40687394
0.32738835 0.24131528 0.4110744
0.79888999 0.61249995 0.41340697
0.78364867 0.74471307 0.41236395
0.436923 0.75359195 0.41803485
0.83396071 0.86288339 0.41290605
-0.76723444 0.95849103 0.41420874
-0.097608805 1.6995057 0.41813606
0.19388035 2.0657597 0.41147411
-0.10092509 2.5899 0.41414896
0.49173898 3.0887733 0.41115785
-0.7853117 3.0984426 0.41380349
0.10618636 3.2005558 0.41742331
-0.82699525 3.2942915 0.41699731
-0.82668257 3.45381 0.41891497
0.074539229 3.4964638 0.41907495
0.072603337 3.7262836 0.4188115
-0.2645911 3.7459891 0.41419524
0.73658556 0.16583499 0.42366365
-0.32521582 0.25319219 0.42445308
-0.33699825 0.70823109 0.42254287
-0.33606717 0.93158644 0.42297605
0.83438706 1.0015874 0.4221614
0.20280056 1.1525974 0.42041978
-0.052151762 1.2792622 0.42052698
-0.69480723 1.8253405 0.42307422
0.32870126 2.0224187 0.42564559
-0.066665053 2.2120242 0.42307717
-0.16768906 2.4859123 0.42532706
-0.1702085 2.6900952 0.42728394
0.21899286 3.2380648 0.42131677
0.89600039 3.3342967 0.42330238
-0.6055631 3.4061618 0.42643103
0.65307647 3.4060204 0.42520443
0.72482324 3.6828439 0.42440569
0.3832567 0.15055768 0.43598983
0.32600692 0.20472614 0.43958905
0.31287643 0.24123588 0.43605059
0.67049909 0.32040998 0.43474883
-0.63882065 0.83593494 0.43255615
-0.34267205 1.014266 0.43989992
0.097468548 1.3393637 0.43228716
0.1241796 1.7344384 0.43652105
-0.068245091 1.9163532 0.43691766
0.29714134 1.9995397 0.4329769
0.39634717 1.9928333 0.43528378
-0.65094531 2.009351 0.43232128
-0.26567361 2.2167046 0.43806815
-0.25151044 2.2163157 0.43697405
0.27768001 2.2162311 0.43813428
-0.60498315 2.7351394 0.43831953
0.87837827 2.7608557 0.43089917
0.4020465 2.7869339 0.43986145
-0.094856143 2.8047884 0.43072578
-0.06609983 2.9886839 0.43217152
0.45880112 3.0206947 0.4380762
0.047714099 3.081224 0.43006867
0.46586972 3.2021084 0.43780991
0.10041799 3.4898882 0.43489209
-0.84229678 3.506458 0.43009502
0.43197215 0.18237786 0.44843122
0.45659053 0.18597855 0.44477767
-0.44383597 0.33988234 0.44021913
-0.21980137 0.36860606 0.4494814
0.32159415 0.46151733 0.44539404
0.82243609 0.51305854 0.4483524
0.38506466 0.6740098 0.44784993
0.4906849 0.73350048 0.44878909
-0.34110284 0.86144477 0.44864917
-0.43030441 1.0487169 0.44127315
-0.73123217 1.1602836 0.44436562
-0.69531465 1.2332317 0.44587398
-0.0018073879 1.2792022 0.44724914
-0.3044526 1.6541868 0.44699466
-0.65478599 1.6791599 0.4405717
0.12491779 1.6928952 0.44125
0.11272965 1.9085929 0.4457289
0.24365145 2.1551976 0.44360241
-0.58033442 2.2530401 0.44434655
0.13036607 2.7839873 0.44726413
0.37182337 2.9777873 0.44694087
0.34894052 3.0056195 0.44718555
-0.40245137 3.0313907 0.44805819
-0.3990984 3.0399904 0.44807547
-0.25817961 3.086884 0.44749588
-0.06333077 3.0870929 0.44001466
0.45786765 3.1317291 0.44114715
-0.28142354 3.1443584 0.44980043
-0.77166545 3.1533952 0.44756934
0.67544872 3.2832644 0.44823456
0.80655396 3.5404778 0.44595554
0.034609813 3.6744652 0.44220307
0.53638041 0.15383643 0.45682487
0.17487067 0.24411444 0.45107663
-0.095971227 0.26281211 0.45439211
-0.03554742 0.28463224 0.45442599
0.83945924 0.42884374 0.45257846
0.74269056 0.94759214 0.4519133
0.60342705 1.1560837 0.45298335
0.023563333 1.2791822 0.4548766
0.6208564 1.3614603 0.45807385
-0.70631933 1.5211884 0.45554575
-0.2132353 1.9087133 0.45527673
0.56688333 2.0799193 0.45305768
-0.59316802 2.8357997 0.45029503
0.12248211 2.9336166 0.45454973
0.11206204 2.9807296 0.45702147
0.81376433 3.0729606 0.45799607
-0.47087112 3.2399187 0.45562112
0.89599192 3.3226371 0.45342153
-0.30408531 3.3901353 0.4578909
-0.26519969 3.4075298 0.45753241
0.37786898 3.4379053 0.45505285
-0.35208708 3.5831127 0.45108923
0.2612164 3.5858521 0.45096385
0.48177692 3.7262123 0.4543021
0.37213516 3.7306418 0.45881325
-0.33143526 0.13496503 0.46844798
0.771312 0.15281554 0.46642762
-0.61188966 0.25467399 0.46366003
-0.31254587 0.26326326 0.4633995
0.61164796 0.85573792 0.46697626
-0.59145284 0.93367696 0.46287036
0.3887963 1.1067691 0.46872395
-0.69357455 1.2356695 0.46013206
0.74068689 1.2335608 0.46452379
-0.098565251 1.6829534 0.4678551
0.25177214 1.8693483 0.46551737
-0.30468768 1.8756902 0.46296653
-0.14720371 1.8762294 0.46317101
0.39771381 1.8766018 0.46400142
0.69980001 2.1239431 0.4697597
-0.45212448 2.2143359 0.46128348
0.56210387 2.4872823 0.46685532
0.35825938 2.5524733 0.46324363
0.578794 2.5968335 0.4636178
0.6092031 2.5995684 0.46379155
0.57779217 2.646641 0.46372265
-0.69477439 2.6572587 0.46732998
-0.48339063 2.6572304 0.46164507
0.43633911 2.7094748 0.46612141
-0.27507573 2.7141571 0.46227771
0.43388802 2.7218807 0.46350121
-0.38751432 2.7407823 0.46199104
-0.40861031 2.7745509 0.46197438
-0.2378906 2.7852054 0.46246654
0.22462684 2.7956274 0.4633958
0.44915932 2.8011775 0.46630719
0.33781672 2.8149629 0.46352541
0.51105183 2.8282077 0.46371102
0.47617516 2.8427243 0.46368915
-0.18068646 3.0117385 0.46289843
-0.47615117 3.1059818 0.46332532
0.32083568 3.1574919 0.46392918
0.35769016 3.1882997 0.46400386
0.37794197 3.1881747 0.46402746
-0.47544789 3.1950188 0.46677169
0.36196283 3.2431421 0.4640809
-0.34336767 3.2994757 0.46284363
0.42196864 3.3336387 0.46444634
-0.84755087 3.3486643 0.46624073
-0.25518915 3.3426373 0.46310252
-0.6933381 3.3937492 0.46370041
0.43263528 3.4115198 0.46473598
-0.30151793 3.4378729 0.46327716
-0.39154804 3.4788263 0.46343029
-0.31290668 3.492166 0.46345168
0.0054861815 3.535588 0.46465898
0.49252543 3.5794797 0.46320108
-0.54512811 3.7112813 0.46567467
-0.014691798 3.7282579 0.46310827
0.24347033 3.7275803 0.46158054
-0.74178451 0.32817033 0.47092131
0.38731295 0.69469494 0.47929618
0.79706973 0.94010669 0.4720318
0.52059054 1.1838243 0.47103986
0.57247365 1.3574089 0.47886688
0.62581497 1.3896228 0.47581917
-0.70596474 1.8649735 0.47027153
-0.47262627 1.8731554 0.47740877
0.75421619 1.8780919 0.4791356
-0.096290112 1.9143032 0.47604886
-0.60780489 2.2987435 0.47106814
0.77234375 2.6299338 0.47791862
0.71202236 2.8473296 0.47514486
-0.85067666 2.938282 0.47242427
-0.57418126 2.9571791 0.47027695
-0.80008423 2.9997702 0.47585475
0.075240694 3.1562457 0.47922677
-0.043359376 3.2471671 0.47012609
0.31591266 3.2435822 0.4757452
-0.68301678 3.2549057 0.47423273
-0.84727156 3.3097486 0.47019488
-0.020793762 3.3327098 0.47674778
-0.79123247 3.6235356 0.47826058
0.72844338 3.6817977 0.47066289
0.56640553 0.14881411 0.48503298
-0.52336204 0.25686586 0.4869203
0.66883814 0.26099223 0.48686787
-0.76960766 0.42259404 0.48302966
0.63945264 0.42444003 0.48832321
0.636136 1.4332118 0.48050565
-0.70863307 1.7307503 0.48215812
0.16068891 1.7666643 0.48989326
-0.65358961 1.8108829 0.48447087
0.75436485 2.1310165 0.48771167
0.24446684 2.2327275 0.48606408
0.80047107 2.4761376 0.48099092
-0.56513238 2.6450124 0.48635674
-0.8412627 2.8832688 0.48484462
0.30621406 3.5114639 0.48442364
-0.41602302 3.5487108 0.48246744
-0.021470729 3.7313871 0.48904228
-0.49093294 0.25534821 0.49076855
0.65665722 0.26162434 0.49008304
0.79104811 0.33741677 0.49113625
0.37291974 0.44747296 0.49320191
0.37194696 0.6338011 0.49362984
-0.28307211 0.71723378 0.49959862
0.83401692 1.0421733 0.49656081
0.61533511 1.180871 0.49512121
0.19020176 1.6488322 0.49133646
-0.059744902 1.6957817 0.49248236
-0.26248133 1.7562482 0.49157038
-0.65351623 1.7999437 0.49503309
0.52209699 1.8103169 0.49280807
0.0010387963 2.048794 0.49535125
-0.70818359 2.0860817 0.4947646
-0.028128184 2.4858472 0.49541351
0.00043820962 2.4858475 0.4977915
0.68736547 2.7458553 0.49709165
0.61551321 2.9226794 0.49719912
0.83426589 3.0273643 0.49914721
0.01656501 3.1621768 0.49440652
0.81952435 3.2167811 0.49502143
-0.71450788 3.3788393 0.49461764
0.032424781 3.3851421 0.49731061
-0.59615886 3.4347434 0.49054348
-0.14936952 3.732018 0.49587327
0.62712091 0.43085045 0.50110215
0.18968135 0.63575178 0.50002313
-0.74947476 0.65824109 0.50377524
0.2873756 0.72130609 0.50069791
0.79899895 0.74717158 0.50126368
-0.34444731 0.82998413 0.50401288
0.2296513 0.83961171 0.50126606
0.83647859 0.85122341 0.50563508
0.037080277 0.8868379 0.50335741
-0.1770398 0.929887 0.5010007
-0.45654848 1.094496 0.50067717
-0.6088475 1.2535809 0.50429869
-0.53650409 1.3600392 0.50865281
-0.57982856 1.6348177 0.50340348
0.15042327 1.6954708 0.50687319
-0.043181479 1.8929411 0.50996959
-0.49041355 1.9816184 0.5098511
0.12641412 2.1410503 0.50405377
0.51204848 2.2078524 0.50634766
-0.56603575 2.2138596 0.50352883
-0.09462887 2.242177 0.50938523
0.61409014 2.7153809 0.50520921
-0.64204174 2.7477331 0.50109464
-0.2490868 2.9979506 0.50520211
0.6953854 3.2336071 0.50058228
0.6234147 3.3399825 0.50574851
-0.59910965 3.3694983 0.50952375
0.63581353 3.6168859 0.50506687
0.82629788 3.6469388 0.5031907
-0.44709653 3.7264009 0.50230122
-0.74810988 0.20884608 0.51492149
0.38648736 0.55468291 0.51426828
-0.67778611 0.66608167 0.51464039
0.15642531 0.6979292 0.51087886
0.39138949 0.79796654 0.51320904
0.82416308 0.91769481 0.51186967
0.35501325 0.95123714 0.5115633
-0.71217221 1.8207706 0.51479191
0.53322852 1.8734837 0.51351881
-0.035544582 1.9846127 0.51972783
-0.51241571 2.0321045 0.51361191
-0.50926709 2.0344176 0.51450235
-0.44212076 2.1670763 0.5108549
-0.26386368 2.1672573 0.512564
0.37060678 2.1671352 0.51406151
0.22631258 2.2424443 0.51430053
0.73737001 2.4054174 0.51211208
-0.4956558 2.7800581 0.51534122
0.65764356 3.0169165 0.51592767
-0.69628775 3.0424275 0.51784384
-0.44960928 3.0987613 0.51479089
0.89587122 3.2635477 0.51954323
-0.47714087 3.2711031 0.51201057
0.86971587 3.5084796 0.51022369
0.85528517 3.5264132 0.51929307
-0.23938516 3.5443439 0.51929891
-0.28133446 3.5980842 0.51594537
-0.15876798 3.6637216 0.5188489
-0.070546798 3.6641769 0.51614881
-0.20769937 3.7360809 0.51922363
0.0087369699 3.7349749 0.51828486
0.052379876 3.7351401 0.51866645
0.39040756 0.35615131 0.52185303
0.47269294 0.35707515 0.52596635
-0.33691499 0.37803403 0.52746469
-0.78745091 0.54885149 0.52105743
-0.5640257 0.75249171 0.52941436
-0.56450164 0.76684797 0.52079999
-0.43459699 1.0466145 0.52557242
0.099121489 1.3047889 0.52935261
0.64469534 1.686825 0.52554804
0.56999022 1.6987336 0.52882302
0.53471279 1.8087378 0.52766818
0.76026976 1.8712485 0.52448875
-0.49392855 2.0426414 0.52794397
0.16511174 2.1617975 0.52810061
-0.17926057 2.248991 0.52868259
0.3873533 2.8491998 0.52051866
0.65389353 2.8735781 0.52617097
0.82787853 2.8749282 0.52795875
0.85872769 3.0367706 0.52257633
-0.70306253 3.0674191 0.52670538
0.51212072 3.3190913 0.52609873
-0.74453652 3.4130831 0.52763373
0.56593263 3.4454362 0.52943826
0.3853426 3.5488441 0.526784
0.15472719 3.6621752 0.52148622
0.19651844 3.7390158 0.52612585
-0.67546552 0.14773586 0.53782845
-0.58082062 0.15345566 0.53195363
-0.28233877 0.20949355 0.53430659
-0.35057688 0.25264418 0.53678703
-0.47743106 0.26526147 0.53252524
0.65079719 0.45440474 0.53057951
-0.67279625 0.46209234 0.53260714
0.0090409815 0.58698541 0.53479517
-0.78272688 0.68959934 0.5353545
0.041930694 0.7037853 0.53041685
0.084379762 0.8165825 0.53706992
-0.29633501 0.96205717 0.53421974
-0.22561044 0.96242702 0.5382064
-0.78690046 0.97627199 0.53497636
-0.6500777 1.1478472 0.5394851
-0.71436065 1.2386245 0.53644025
-0.59267598 1.593642 0.53251153
0.63669461 1.606092 0.53870058
-0.64641488 1.7273289 0.5399546
-0.65227783 1.949502 0.53165412
0.19723891 2.2512381 0.53611726
-0.60286522 2.2792072 0.53908175
-0.71339536 2.4008698 0.53181756
-0.71516573 2.4672017 0.53999275
-0.14846461 2.4860396 0.53952473
-0.79035014 2.5414736 0.53831947
0.5265196 3.0810528 0.53725427
-0.63784909 3.1463592 0.53721809
-0.84941173 3.2289762 0.53996289
-0.82971281 3.49053 0.53702819
0.30327809 3.5457239 0.53046811
-0.26509362 3.7385588 0.53733844
0.62315065 0.14547005 0.54006219
0.36204228 0.2669501 0.54505074
0.71442103 0.27932119 0.5455144
-0.72399044 0.32305378 0.54233575
-0.16791567 0.58935642 0.54614609
-0.3096686 0.76511449 0.54671711
-0.34736073 0.85354739 0.54361987
0.35105434 1.1912011 0.54968774
0.12021634 1.2077719 0.54920274
0.75584686 1.2290506 0.54345441
-0.075720899 1.2558103 0.54960406
0.54659796 1.6898521 0.54664552
-0.71626145 1.7182608 0.54252803
0.69813138 2.2104981 0.54879028
0.37659943 2.2524726 0.54389536
0.31544286 2.4859505 0.54019243
0.013856969 2.8997738 0.54861182
0.85455275 3.5352697 0.54861391
-0.33016521 3.5501661 0.54175228
-0.074638233 3.6032276 0.54471338
0.61362219 0.26746684 0.55073625
0.76347822 0.317348 0.55208123
0.15360256 0.76419997 0.55455106
-0.2198085 0.9637289 0.55113137
-0.34307188 1.2313311 0.55408442
0.11049705 1.3544219 0.55153161
0.70131791 1.4390171 0.55434555
-0.56657004 1.730907 0.5556426
0.76466143 1.8429525 0.55768239
-0.58251727 1.9827871 0.55871147
-0.06160596 2.0636826 0.55060202
0.76448429 2.1945765 0.5593012
0.051250465 2.5185277 0.55555832
0.86463648 2.8953199 0.55074561
-0.26870659 2.9978619 0.5586499
-0.47822881 3.182091 0.552001
0.62734002 3.3060274 0.55851269
-0.64582151 3.3983185 0.55291563
0.76160467 3.3968382 0.5527162
0.79588151 3.4001083 0.55288142
-0.47960877 3.425868 0.5506534
0.56154418 3.4493127 0.55595756
-0.27290556 3.5484958 0.55074251
0.05536513 3.699414 0.55610871
0.14919642 3.7011447 0.55593437
-0.1484621 3.71738 0.55299145
0.26893842 3.7186921 0.55351388
0.39311469 3.7230721 0.55280447
-0.44275355 0.15402603 0.56861687
-0.23882924 0.19769982 0.56650496
0.68660557 0.48883343 0.56620896
0.35296643 0.53834343 0.5666824
-0.5628565 1.9634924 0.56467855
0.56143159 2.0819097 0.56531203
-0.49799809 2.1514158 0.56077784
-0.22435004 2.2604227 0.56543964
0.62970722 2.3148923 0.56215161
0.19127433 2.4860373 0.56613016
0.29637021 2.4860108 0.56711584
0.00024690852 2.5185323 0.5606488
-0.57616812 2.9529736 0.56925416
-0.47848853 2.9968741 0.56214678
0.89596081 3.2293649 0.56863707
-0.55638099 3.3858871 0.56843793
0.52378964 3.4253919 0.56275439
0.49232635 3.4380012 0.56375545
0.53883046 3.4613514 0.56372941
0.61475903 3.4824719 0.56321454
0.80618042 3.5969057 0.56049889
-0.56198812 3.6242247 0.56329995
0.47716287 3.6240244 0.56774175
0.064918354 3.6442144 0.56696171
-0.30546007 3.6630929 0.56027102
0.031185634 3.6653547 0.56108403
-0.1092295 0.1615102 0.57555026
0.05493718 0.165465 0.57932353
-0.78084552 0.30791754 0.57629764
0.067797951 0.55111998 0.57423562
-0.78786296 0.7908662 0.57952327
-0.75672299 0.84509027 0.57382679
-0.12929669 1.0882015 0.57976621
-0.61037081 1.1149235 0.57292593
-0.13276586 1.1541677 0.57685721
0.075540751 1.1541102 0.57787555
-0.68626702 1.1861624 0.57505047
-0.65316439 1.2447532 0.57279998
0.17336783 1.2531786 0.57509601
0.13882676 1.2794005 0.57922995
-0.6210357 1.723734 0.5787425
-0.58452278 2.1416321 0.57772976
0.13883644 2.2014499 0.57465577
0.34807172 2.9976711 0.57160646
0.4387809 2.997638 0.57737219
-0.22447003 3.315841 0.57386506
0.86024714 3.3821492 0.57786852
0.55217546 3.4122703 0.57495505
-0.0042776763 3.5678663 0.57785743
0.25783664 3.589155 0.57799017
-0.20974013 3.593648 0.57704151
-0.23506103 3.6027687 0.57684135
-0.22145326 3.6054966 0.57682103
0.44228107 3.6065767 0.57265186
-0.55660713 3.6314273 0.57234001
0.35516778 0.14758588 0.58646166
-0.34397513 0.55056435 0.58629382
0.6935997 0.83974826 0.5831247
-0.11505517 1.0243204 0.58897448
0.4727242 1.0323817 0.58732283
0.39228362 1.0919471 0.5896095
-0.57263625 1.3353148 0.58768386
0.62344307 1.3343991 0.58424473
0.52082485 1.3595459 0.58710498
-0.71729952 1.7424637 0.58552599
-0.4002479 2.2685275 0.58406508
0.76631808 2.3756943 0.58029038
-0.70843369 2.4090025 0.58271283
0.2894145 2.9009314 0.58656979
0.86723238 2.937906 0.58852458
0.89541781 2.9919465 0.58396983
-0.25792611 3.0036163 0.58135188
0.89584029 3.0609307 0.58048928
-0.45791584 3.0732679 0.58885491
0.6128816 3.1215029 0.58098942
0.52648771 3.1415386 0.58269787
0.52645153 3.1944888 0.58944917
-0.17811894 3.3351624 0.58832318
-0.8663308 3.3780603 0.58184075
0.73642009 3.434072 0.58395898
-0.44244826 3.5551586 0.58251405
0.041174207 3.6138349 0.5848999
0.436169 0.18432777 0.59760731
0.80389929 0.25662494 0.59842205
0.61164784 0.26837856 0.5900681
0.6240297 0.28996977 0.59860128
-0.75691533 0.29998219 0.59557474
0.80247235 0.31286022 0.59851772
0.61690229 0.35645187 0.59857869
0.81615639 0.35377657 0.59861457
0.75680083 0.36271101 0.59895164
0.32812625 0.37531525 0.5932765
-0.61776316 0.55636215 0.59588516
-0.6027652 0.55194098 0.59308195
-0.0061861128 0.58196235 0.59541976
-0.75301367 0.80009079 0.59990042
-0.22846696 0.826015 0.59056902
0.50429028 1.0611446 0.59570783
-0.65118515 1.1397204 0.59213173
-0.090067908 1.3394659 0.59251201
0.1323206 1.4104018 0.5922026
0.76217699 1.4811407 0.59535629
-0.64423579 2.0437994 0.59364092
0.2686919 2.2693048 0.59260172
-0.59874177 2.3588679 0.59516817
-0.079414234 2.6486425 0.59888279
-0.48731768 3.0940814 0.59820986
-0.2623598 3.1014037 0.5971303
-0.47830477 3.251915 0.59377801
-0.81548846 3.4321616 0.59337175
0.60936052 3.5530357 0.59983361
-0.025744837 3.6671495 0.59007841
0.18580645 0.16382036 0.60081345
-0.79208231 0.4371289 0.60967565
-0.34511071 0.53611076 0.60934007
-0.65297472 0.5748924 0.60680741
-0.087899238 0.65877599 0.60112286
-0.76711667 0.77919376 0.60964811
0.72605979 0.7961942 0.608468
0.13280766 1.1238244 0.60468167
0.58115101 1.1357915 0.60128134
0.14007398 1.3144931 0.60038102
0.31790617 1.3760791 0.60376555
-0.60975575 1.7052696 0.60164285
-0.59277517 2.0432858 0.60580885
0.085825123 2.0755062 0.60026199
0.026773185 2.2753077 0.60462022
0.12624472 2.2767448 0.60900235
0.69548035 2.4034853 0.60657173
0.51093423 2.4867315 0.60646182
-0.66492933 2.7996521 0.60633224
0.035682071 2.8960361 0.60216826
-0.70681524 2.9724622 0.6069926
0.69772547 2.9739287 0.60766077
0.48943621 2.9975665 0.60114872
0.76435006 3.2695107 0.60496998
-0.83912885 3.4214344 0.60214758
-0.79428136 3.4325724 0.6006012
-0.5446955 3.4383168 0.60490668
-0.2319167 3.4673715 0.60757339
-0.35134983 3.4945462 0.60523176
-0.56119502 3.6452706 0.60990942
0.66672587 0.30752102 0.61575556
-0.20493123 0.64357966 0.6162867
-0.06434682 0.65691864 0.61811095
0.29092869 0.65794355 0.61761093
0.1366137 0.66448224 0.61058116
-0.63848877 0.75345218 0.61300331
0.25854969 0.80918676 0.61090112
-0.19247475 0.94858551 0.61325622
-0.71103638 1.6599159 0.61806154
0.52647883 2.9537895 0.61124605
0.51176423 3.0507855 0.61042958
0.26169887 3.1836677 0.61580133
-0.27961889 3.5479021 0.61432999
-0.68487513 0.24670523 0.62950867
-0.67313439 0.25011963 0.62280113
-0.58851171 0.26246375 0.62197
-0.22839978 0.53931528 0.62144285
0.3185004 0.53357941 0.62592483
0.62034476 0.66271591 0.62779289
0.40393773 0.76493478 0.62662113
0.32521456 0.82037932 0.62582242
0.16422167 0.97766298 0.62671202
-0.15617721 1.0021418 0.62956637
-0.57113886 1.1065488 0.62735742
0.015002146 1.1554618 0.62250853
0.14406863 1.1668996 0.62310648
-0.1414237 1.2316772 0.62274969
0.088268355 1.2373359 0.62323511
-0.66615933 1.242853 0.62993991
0.67755473 1.2490844 0.6238656
0.49205422 1.3981757 0.62701231
-0.70956337 2.0039268 0.62168026
0.46205124 2.1939712 0.62567401
-0.48536164 2.2088783 0.62783259
0.43236059 2.2818573 0.62958211
-0.43944061 2.4868293 0.62525117
-0.38472998 2.4865432 0.62440717
-0.44565016 3.0496173 0.62659484
-0.78472161 3.2297425 0.62436503
0.81000841 3.2396994 0.62055367
-0.18727702 3.4228749 0.6229648
0.60786462 3.5759606 0.62355846
0.47985166 3.6591625 0.62107402
0.22909997 0.19987014 0.63407898
-0.61112773 0.35557419 0.63733613
-0.19596156 0.5126701 0.63799334
-0.03659454 0.51125491 0.63914067
0.3316842 0.52496475 0.63128036
0.79861677 0.73036456 0.63133669
-0.80106461 0.779845 0.63884938
-0.57476437 1.1095515 0.63997167
-0.5238542 1.1267996 0.63330561
0.75554007 1.5035381 0.6307168
0.6861515 1.7306809 0.63110566
-0.077931143 2.1957994 0.63736099
-0.59598231 2.3293586 0.63331664
-0.69398254 2.6238973 0.63631618
-0.60627323 3.0620806 0.63921964
-0.41814744 3.1367624 0.63678467
-0.58346492 3.3318129 0.63600993
0.52279615 3.3522937 0.63012713
-0.56624025 3.3675098 0.63152039
0.37131387 3.6102009 0.63708663
-0.30920547 0.12940709 0.64467186
-0.40623379 0.30733886 0.64858007
0.51887918 0.37574479 0.64624166
0.11974642 0.43332079 0.64467251
0.84173894 0.8156001 0.64288098
0.36999243 0.92928046 0.64114529
0.84098852 0.9302662 0.6488781
-0.27586386 0.97293955 0.6421296
0.2560578 0.98939645 0.64265716
-0.7357142 1.083173 0.64476931
-0.18111023 1.2532147 0.64064223
-0.59999567 1.3322908 0.64153075
-0.70478272 1.3963723 0.64657331
-0.57759637 2.1588445 0.64141297
0.68541932 2.4019353 0.64073062
-0.57580417 2.4875121 0.64134991
0.63083625 2.5495515 0.64175117
0.73567116 2.6700749 0.64188325
0.7264607 2.7572608 0.64098597
-0.60017598 3.0745058 0.64089155
-0.10592191 3.1249275 0.64110857
0.3310132 3.2315702 0.64617813
0.34785745 3.2432826 0.64106858
0.58122522 3.4118121 0.6414187
0.66979623 3.6421332 0.6405338
0.23328745 3.6687143 0.64237916
-0.70051277 0.27220497 0.6528101
-0.13553968 0.41524744 0.65502959
0.33415252 0.42307681 0.65115619
-0.036548048 0.48628718 0.6545974
0.18753406 0.49764258 0.65980047
-0.023836013 0.51172733 0.6507796
-0.70388079 1.4534495 0.6532585
-0.70280892 1.7622678 0.65990323
-0.63501096 1.7832261 0.65032518
0.1722112 2.4863503 0.65197849
-0.58317137 2.6637082 0.65832585
-0.47571483 2.830554 0.65262651
-0.59448111 2.8618019 0.65916109
0.8968935 2.8758676 0.65689361
-0.34527588 2.9977193 0.65211147
-0.41342595 3.0589254 0.65677887
-0.15799724 3.3236136 0.65840405
0.76084733 3.3927357 0.65233755
-0.59014887 3.6496332 0.65058464
0.24263772 0.20916499 0.66055107
-0.25656152 0.4635146 0.66832083
-0.059949949 0.9270103 0.66707468
-0.71663809 1.1380286 0.66247642
0.58308202 1.1575613 0.66547054
-0.17820546 1.2534134 0.66652995
-0.7016269 1.560377 0.66704559
0.65343934 1.9766555 0.66596746
-0.33015457 2.215703 0.66739523
0.5220865 2.2479525 0.66807479
-0.51914263 2.2977033 0.66733319
0.68166649 2.3999214 0.66502166
-0.15906753 2.832499 0.66688848
0.11425944 2.8373253 0.6656673
0.65494466 2.859328 0.6621601
0.38720065 2.9974999 0.66489398
0.067918211 3.0506537 0.66303277
0.091199219 3.0702815 0.66316563
-0.29209083 3.1366892 0.66021329
-0.47862345 3.2051458 0.66653395
0.20058723 3.2451413 0.66393632
-0.74039036 3.3792186 0.66925424
0.2135824 3.6136277 0.66684312
-0.56007475 3.6307576 0.6665349
-0.33820432 0.13667777 0.67441142
-0.50097501 0.37622553 0.67248237
-0.40832061 0.38184464 0.67069441
0.62633389 0.38329521 0.67635751
-0.35363939 0.96874475 0.67916644
-0.16442773 0.96144968 0.67019171
0.039567772 1.0039481 0.67445725
0.23470846 1.0146888 0.67942876
0.78962219 1.0199286 0.67611963
0.061452057 1.1080775 0.67468452
0.18458608 1.2240337 0.67305613
-0.69904208 1.2679297 0.67364681
-0.59781182 1.3256369 0.67178738
-0.43867862 1.4414035 0.67043954
-0.59454936 1.9782958 0.6741308
0.57079029 2.1340137 0.67176396
-0.099695049 2.1604939 0.6703341
0.29994708 2.4864063 0.67777079
0.85139722 2.5568533 0.67196089
0.88746947 2.8416951 0.67264181
0.042062193 2.9560025 0.67455846
-0.30824214 3.1366625 0.6779983
0.33909738 3.1544158 0.67318851
0.52642125 3.1628304 0.6727708
0.15860759 3.2535353 0.67480099
-0.11860476 3.5777617 0.67731273
0.31668362 3.6085005 0.6767807
-0.34791052 0.15462787 0.68966585
-0.10847578 0.18194792 0.68515247
-0.21647298 0.22102995 0.68400556
0.53833598 0.35148615 0.6852017
0.058397636 0.42991012 0.68832737
0.37219715 0.48665947 0.68755609
-0.783117 0.49166664 0.68070233
0.29855049 0.96737421 0.68437397
-0.71174902 1.109628 0.68201077
-0.59174275 1.1214566 0.68389833
0.75017202 1.1563829 0.68268532
0.74445617 1.3027774 0.6827606
-0.59353113 2.0928037 0.68026102
0.50370038 2.1993835 0.68303186
-0.28919885 3.0669682 0.68727082
-0.17598262 3.2098837 0.68913668
0.51401043 3.3874373 0.68484557
-0.74315572 3.4567213 0.68320292
0.79325545 3.4507635 0.68682021
-0.72454751 3.5922174 0.68041366
-0.39580896 3.6468291 0.68229342
0.43297714 3.6663358 0.68223828
-0.38049936 0.23481223 0.69807756
-0.4388676 0.24067554 0.69824064
-0.32539147 0.31416622 0.69850594
-0.48197758 0.37619394 0.6976229
0.064039677 0.417431 0.69739532
0.088007666 0.41603658 0.69829941
0.15668303 0.43598419 0.69766533
0.32666388 0.43389389 0.69755441
0.33342889 0.46637708 0.69832581
-0.049095064 0.61874568 0.69435817
0.1406693 0.61930054 0.69776452
0.34062082 0.61778641 0.69079733
0.35912585 0.86081427 0.6964379
-0.68719769 1.2231526 0.69212359
-0.59586149 1.3297849 0.69845814
0.74247205 1.356179 0.69484383
-0.26731881 1.4433279 0.69113749
0.64166427 1.6148834 0.69339281
-0.47921234 2.1533794 0.69832575
-0.24879085 2.2284117 0.69312835
-0.464439 2.3079579 0.69685632
-0.15479255 2.3060746 0.69228172
0.4473232 2.3056235 0.69258642
0.3870056 2.7574446 0.69743276
0.13199118 2.9895086 0.69341266
0.46097001 3.122221 0.69329667
-0.073932111 0.14951226 0.7045359
0.69354951 0.29629055 0.70342529
-0.36373645 0.33130082 0.70178658
-0.273947 0.33218873 0.70439464
0.74069875 0.4309209 0.70376003
-0.59508759 1.3389659 0.70870435
0.74172854 1.4282222 0.70118678
0.18664894 2.4865267 0.7023958
0.45183983 2.4864564 0.70377648
0.035268646 2.5182693 0.7066915
-0.81305987 2.6270895 0.70090938
0.32737845 2.7043703 0.70404851
-0.82962859 2.8018286 0.70030802
0.047429089 2.9410446 0.70766389
-0.52491409 2.9709108 0.70142663
-0.18610752 3.1124845 0.70862889
-0.47872287 3.1234322 0.70897001
0.49300411 3.2431211 0.70357507
-0.089919835 3.2535427 0.70794475
0.12800254 3.253499 0.70022273
-0.47786796 3.2770669 0.70922929
-0.086621538 3.2773561 0.70181912
-0.58028907 3.4091098 0.70288157
-0.13737182 3.4725189 0.70556903
0.39060289 0.14357378 0.71420616
0.62804294 0.29209757 0.71503007
-0.53160858 0.39202845 0.71123677
-0.37823474 0.39290017 0.71961629
-0.14107257 0.40283144 0.71754652
-0.32460955 0.53497547 0.71575975
0.7536847 0.62214005 0.71873331
0.37202868 0.78617525 0.71116102
0.65500236 1.2668654 0.71691394
0.66868466 1.2610787 0.7125079
-0.23993731 1.446147 0.71601599
-0.094153069 1.4460719 0.71112585
-0.30322632 2.3128898 0.71796185
0.1508068 2.4865716 0.7120319
0.11423818 2.6536369 0.71165478
0.26603511 2.7358379 0.71442235
0.11428287 2.8089254 0.71806449
0.03274164 2.8284678 0.71611059
0.1775108 2.9894609 0.7133522
0.47436032 3.136373 0.71645385
0.50497836 3.1444459 0.71016955
-0.56284231 3.1914442 0.71997869
-0.19402839 3.2871938 0.71868074
-0.038212769 3.2895334 0.71844959
0.60409164 3.4349833 0.71985543
-0.21100888 3.532064 0.71265918
-0.21022491 3.5410845 0.71727484
-0.39548343 3.6374905 0.71082085
-0.2332181 0.16815068 0.72200489
-0.3839322 0.24290909 0.72337729
0.042101674 0.30350593 0.72206348
0.54227853 0.39305466 0.72029108
0.23524749 0.40572172 0.72362405
-0.39620984 0.61401904 0.72993761
-0.50894254 0.74052399 0.72115391
-0.48979917 1.0300262 0.72741067
-0.35029772 1.0429977 0.72741711
-0.40372729 1.1475097 0.72583008
-0.3811529 1.156407 0.72576284
0.61602998 1.2870923 0.72344637
0.25342697 1.4310939 0.72870648
-0.55224693 1.4469149 0.72435236
0.63697338 2.1092885 0.72790211
0.15690072 2.2908814 0.72857201
0.31975996 2.3167686 0.724177
0.054505356 2.5182369 0.72256255
0.11425344 2.688175 0.72205925
0.84154367 2.9190018 0.72117728
-0.52533966 3.0790241 0.72541445
-0.19974709 3.1136165 0.72114283
-0.3582871 3.2719798 0.72557986
-0.20618166 3.5671549 0.7252081
0.20460054 0.39071161 0.73894507
-0.072834522 0.43287587 0.73043305
0.37192467 0.51684463 0.73004645
0.51533169 0.77728695 0.73998785
0.51859176 0.87648475 0.73661697
-0.59775585 0.99870878 0.7359125
0.62956727 1.1045011 0.73680925
0.17808621 1.2448251 0.73965913
0.66137946 1.2738614 0.73324585
-0.59197748 1.5394286 0.73883796
0.73542702 1.5334688 0.73161352
-0.68506938 1.6744493 0.73971701
0.73308086 1.8135502 0.73721325
-0.064039901 2.2019861 0.73459971
0.1461197 2.2762239 0.73396826
0.17838085 2.3189652 0.73009467
-0.58847713 2.3307049 0.73820531
0.44884795 2.486567 0.73448873
0.64151418 2.5258305 0.73652148
-0.082984917 2.6558311 0.73200178
0.72829509 2.6571712 0.73078197
-0.18261331 2.8231359 0.73775625
0.58324599 3.1012759 0.73116195
-0.78521526 3.2927539 0.73497909
-0.41381446 3.3918505 0.73806995
-0.091574952 3.5629804 0.73276871
0.031905066 3.576654 0.73408341
0.084632382 0.23064384 0.74747151
-0.59505343 0.28899205 0.74237549
0.4993847 0.75588071 0.74127537
-0.56483543 1.3943946 0.74499857
-0.57995194 1.5438323 0.7421968
-0.42410281 2.2554777 0.74699128
0.49855947 2.3117378 0.74815047
-0.18903276 2.3250802 0.74663848
-0.48786944 2.4868636 0.74269146
0.24428098 2.4866543 0.74257571
0.52453673 2.4865804 0.74419492
-0.6775924 2.6183512 0.74681365
-0.67441553 2.8616891 0.74406934
0.71718562 2.9656277 0.74942422
-0.22550076 3.0093138 0.74285853
-0.7930131 3.0270135 0.7481854
-0.08001741 3.2534754 0.74444371
-0.070753999 3.2906761 0.74132705
-0.18959412 3.4770923 0.74309164
0.67005706 3.4827724 0.74039745
0.060721494 3.6436522 0.74749005
0.64372921 0.2823506 0.75610518
-0.47966644 0.53091645 0.75079662
0.45472234 0.58384931 0.7593174
0.58036798 0.67577356 0.75876826
0.57070875 0.77829385 0.75236303
-0.5730682 0.80267841 0.75469553
0.5839715 0.86708719 0.75166512
0.62331587 0.99304783 0.75861716
0.7325421 1.0761708 0.75730681
0.34262371 1.1141437 0.75090909
0.4156065 1.1693164 0.75325513
-0.18925941 1.4505615 0.75634092
-0.67910939 1.8966308 0.75346076
-0.013259508 2.4867759 0.7560668
-0.67496222 2.5355737 0.75731701
0.72262824 2.5387447 0.75617063
0.12747268 2.5698972 0.75030148
0.72272444 2.5822952 0.75190479
0.022961568 2.6846695 0.75829172
0.12252608 2.8096766 0.75115651
0.094412528 2.8185296 0.75965476
-0.004287675 2.8857188 0.75041699
0.72936535 2.92119 0.75743055
0.84507942 3.057395 0.75229424
-0.82000881 3.0977099 0.75266904
0.0026142262 3.1026039 0.75290418
0.14288013 3.1112239 0.75351202
-0.13868836 3.4658351 0.75667894
-0.41105238 3.4978728 0.75066626
-0.65162873 3.5004749 0.7590223
-0.54722327 0.28405842 0.76764798
-0.12367167 0.29897699 0.76257807
-0.27941257 0.30696887 0.76519442
-0.2091326 0.30316275 0.76767039
0.081956103 0.30854437 0.76483417
0.023000509 0.31282461 0.76208401
0.41682911 0.35548437 0.76126254
-0.54915339 0.4169333 0.76404417
-0.43909755 0.42267925 0.76857722
0.60849357 0.76547045 0.76136553
0.38900837 0.81053907 0.76581132
-0.39376047 1.448195 0.76719385
-0.025823535 1.4475625 0.76788086
0.63650852 1.4627664 0.76883447
0.72104895 2.1374121 0.76441771
0.29077411 2.3287468 0.76569128
0.57948387 2.3309767 0.76556969
-0.66154313 2.3817165 0.76242679
-0.35078824 2.4868865 0.76005459
0.26248726 2.6473682 0.76536673
0.2234071 2.6792011 0.76929283
-0.6791029 2.6946847 0.76654983
0.043555677 2.875067 0.76668835
-0.38677776 2.9028165 0.7616263
0.20865792 2.9458821 0.76926017
-0.72748822 3.0746779 0.76251841
-0.78865427 3.1695492 0.76464146
-0.52560115 3.185008 0.76172686
0.14814621 3.5562222 0.76988977
0.61172944 3.576364 0.76445824
0.37189168 0.23937151 0.77137715
0.34833285 0.54933786 0.7781893
-0.57914591 0.97073758 0.77492321
-0.62967199 1.1808587 0.77430177
-0.67182964 1.4461417 0.77240747
-0.66935223 1.4875178 0.77878308
-0.58332652 1.7347047 0.77134556
-0.26513156 2.2712708 0.77911699
0.59696269 2.2936978 0.77627778
-0.13011634 2.552422 0.77972293
0.22241268 2.58566 0.7769767
-0.69363272 2.6206801 0.77296317
-0.41972566 2.9750133 0.77027094
0.74252647 3.4045532 0.77991652
0.63046956 0.29445186 0.78813994
0.49918878 0.30554241 0.78390306
-0.35706395 0.42594898 0.78415084
-0.66539919 0.59184831 0.78082281
0.41319209 0.72301614 0.78452921
0.36571717 0.99561024 0.78529406
0.46111619 1.0406469 0.78683823
-0.43959981 1.4348259 0.78005981
0.71427619 1.98194 0.78467745
0.50407326 2.3371079 0.78293395
0.6497941 2.3665073 0.78911877
-0.069056794 2.5274682 0.78003013
-0.40069544 2.9086144 0.78043056
-0.80651295 3.062741 0.78379703
-0.46968624 3.1365073 0.78734273
-0.13925874 3.4826381 0.78539962
-0.1895081 3.512217 0.78908455
0.57053715 3.6022673 0.78937697
0.3957299 0.30893785 0.79016221
-0.54837406 0.31077456 0.79102463
-0.24136432 0.31804767 0.79315799
-0.070183128 0.31328207 0.79989088
0.53067398 0.31517255 0.7979188
-0.62648702 0.38135913 0.7992835
-0.35304517 0.42063737 0.79019719
0.58074397 0.63805401 0.79447055
0.71662205 0.78621733 0.79335713
-0.072844729 2.245944 0.79587162
-0.49982473 2.3435717 0.79878944
-0.59433633 2.3624649 0.79263866
-0.67791897 2.3973618 0.79863739
-0.15526813 2.6535177 0.79179686
-0.39109832 2.8141224 0.79536116
0.020512201 2.8750267 0.79381585
0.44574901 2.9866447 0.79551613
0.62335074 3.3352065 0.79369044
0.69171822 3.4741914 0.79383028
-0.51860064 3.5997651 0.79745686
0.26159978 0.18399291 0.80340171
0.31270051 0.3344886 0.80318463
0.45993754 0.6718154 0.80190229
0.70872974 0.75870705 0.80725366
0.7141999 0.85567409 0.8019082
-0.58093518 1.030874 0.80510086
0.61180317 1.3515712 0.8017481
-0.66084874 1.9767139 0.80154836
0.7066111 1.9991739 0.80510819
0.037514135 2.5273876 0.80963731
-0.18427284 2.6911488 0.80507421
-0.34212896 2.9604416 0.80799878
-0.5938772 2.9736781 0.80985981
0.62324351 3.3506215 0.80625093
-0.51620007 3.489181 0.80717415
0.12010914 3.5373125 0.80287117
-0.45516911 3.6282945 0.80259699
-0.13162844 0.28772578 0.81509501
