# .PCD v0.7 - Point Cloud Data file format
VERSION 0.7
FIELDS x y z
SIZE 4 4 4
TYPE F F F
COUNT 1 1 1
WIDTH 1614
HEIGHT 1
VIEWPOINT 0 0 0 1 0 0 0
POINTS 1614
DATA ascii
12578.094 917.14795 2206.2327
15324.614 29630.994 5939.9082
13820.03 10685.444 2056.7197
15793.888 39301.297 8334.1846
18579.332 33207.031 7058.2056
3812.3545 12266.831 4103.2729
9208.8721 28935.113 5751.1484
3098.3621 12194.392 3344.4692
19397.818 29369.779 6093.9009
14419.232 3959.7769 7856.064
8793.8604 10522.193 2079.0376
11854.041 28712.488 5434.5459
3930.5063 24155.373 3776.6135
12359.164 7616.8999 8986.1475
8578.8037 13485.626 9767.542
521.39221 15425.79 7080.8857
18875.668 13033.998 7522.1953
4491.02 25063.133 3047.2195
489.95908 5764.4746 7032.6787
17386.602 20670.896 9371.8574
15291.799 5823.6846 3030.3044
15269.89 11769.714 3371.6016
17190.574 28908.219 4697.4263
4259.2798 34353.359 4430.3818
4088.9463 25377.652 3343.052
4259.2798 28174.713 2871.7463
244.20789 5367.1104 7116.7725
2360.9929 35992.039 3954.8359
2870.2065 20576.027 3371.3225
12708.008 26005.24 3611.3484
1003.7196 37419.102 6369.8633
15291.8 36217.602 6229.2495
11555.436 2605.3254 4226.9443
10575.156 12064.455 5721.2622
16603.279 15414.723 8785.0801
865.07593 7650.0581 7866.5063
17183.689 24307.605 4530.7241
12387.737 27343.84 6199.6963
10625.209 3083.041 5852.6689
11063.857 26119.148 5855.4404
17578.734 36739.668 4237.7446
2683.7117 30854.887 6241.4512
2893.4712 38808.43 8248.2676
17679.582 3730.0396 1913.7136
646.1709 7422.6504 6070.957
19205.438 34806.109 6655.5972
407.10162 5315.4512 5856.7783
15597.326 27795.869 10448.168
17131.121 32095.584 6725.7217
5905.2207 15138.032 9257.8711
2362.957 25701.621 6753.0815
17931.738 7884.3594 5598.229
15458.287 11919.065 3343.5874
10270.329 31597.773 8959.5547
19078.199 33246.637 2428.5952
210.52776 14858.812 6115.5059
1231.7435 35088.773 5742.5029
14270.69 11584.052 3342.5139
16925.314 11664.054 3342.7703
10546.312 9962.7119 9401.8389
308.61465 24509.34 6959.5752
4259.2798 8281.1113 2931.1528
3462.5977 27027.168 7112.6196
5787.248 17501.898 1984.687
2338.7258 20457.9 3370.9443
880.08423 35005.293 6645.1289
2555.0227 26377.77 5904.644
19041.5 33549.914 1058.6807
6900.52 4690.7261 6998.7451
4942.7207 1826.1375 2983.1699
14755.135 12001.942 4048.9897
15291.799 30081.695 2900.0344
19427.301 19631.232 5935.3613
8619.1123 27784.088 3390.2356
18795.748 5112.2314 4140.8613
11943.352 4389.812 6920.6987
17388.725 9827.6484 4854.5845
861.40814 31242.473 5783.2905
2947.7861 11074.778 2024.3546
17970.814 5532.8535 5495.2383
2146.4783 10136.447 3838.7139
2322.7585 27963.924 10001.046
17201.213 17225.59 7890.0205
9681.1318 12031.557 5613.6562
18920.141 32466.207 1157.8704
3243.9319 4489.8516 5500.2207
13714.783 33927.883 7031.6089
15405.24 14544.171 9285.4678
295.18454 31869.568 453.94995
16631.434 10150.716 3165.6775
14773.303 22049.93 3674.6035
16031.065 36781.781 3812.1792
8639.5312 11584.48 3342.5151
3560.4587 11928.488 1982.0994
14208.879 38292.648 3046.3774
11909.682 28881.996 4614.4023
559.6333 34021.68 999.42273
16280.196 36563.129 2169.7031
18059.373 29392.785 2532.8098
8827.9062 17561.594 1984.7148
16195.735 13502.707 3348.6609
2182.2854 23842.551 7121.2676
3265.947 36630.66 2478.1462
5864.6992 1574.2646 6823.5342
9671.5596 22676.42 4253.8735
17606.875 6769.689 6775.1787
393.44495 30320.465 7165.5029
18370.01 33338.734 5744.6797
6968.9272 16209.691 3357.3337
7396.5962 22237.213 3376.645
11586.283 28082.148 10406.747
7595.1802 22672.988 3378.041
5707.6436 27681.271 3789.5359
17296.902 23024.611 4305.8809
18989.291 34888.34 2758.9966
15575.201 1606.9932 6863.1816
1212.1106 2857.5479 4849.625
1777.361 29270.572 3331.2959
535.4552 28383.863 4166.2129
15643.171 26317.395 1988.78
863.61865 34363.508 6307.4897
7856.4287 13165.055 3347.5791
16414.727 39956.324 5895.1479
15497.238 9768.1191 8921.4688
11861.131 39957.82 3454.1772
857.19019 33265.816 683.35223
4095.2444 4769.0327 7019.0547
14194.44 971.3429 2755.4495
3358.0063 12850.719 3346.5723
7543.4697 15299.785 3354.4185
10206.56 14657.719 10448.773
10804.983 15035.974 3760.6243
18344.328 19070.781 8524.4902
13658.167 2274.4626 7201.6372
4076.4165 30489.406 6582.0083
6109.5576 12889.396 3346.696
9833.2734 1297.5686 4073.1575
18230.496 4411.0132 2844.2529
8047.2007 33306.449 7088.7314
16575.059 3892.5713 1651.4617
18598.621 6016.7222 7092.376
8834.1172 21407.373 3373.9861
14499.646 27138.414 3392.3472
5199.3623 26625.959 4102.0625
17359.51 25558.34 8641.3936
12165.189 39659.945 5083.3057
4259.2798 32598.867 6068.1387
2080.261 8130.6025 1329.7808
12399.551 37461.273 8497.7529
11876.986 27375.746 3393.1074
10181.875 14626.105 4253.8779
16536.68 26473.164 4000.2202
17818.729 10172.271 3418.6152
16487.43 38097.391 8665.292
1439.4468 7398.7188 5773.2188
17835.082 35223.586 5595.6577
2446.2407 30695.023 10171.05
2583.3076 12732.439 3346.1931
246.73003 16027.681 4513.3828
18290.586 2843.9158 4581.0649
12005.911 29066.848 5079.7466
4906.2969 25767.23 3997.9827
8742.6797 27766.809 1989.4529
695.44897 10518.122 7667.1982
16398.789 4529.3296 5736.5024
4993.1865 18021.363 1984.9282
17514.02 26286.586 10201.777
2494.5591 25757.012 3387.9214
3636.8499 27250.75 8633.1963
8568.7773 37906.82 3099.0542
2221.0918 23545.82 5506.2861
6927.7026 27966.82 1989.5459
9995.9619 37230.391 3029.8796
5606.5649 15371.497 10425.565
1890.3379 11087.223 8972.3574
10325.857 18684.859 4253.876
2988.3037 36769.582 3952.0601
13922.188 34949.137 8916.2852
15291.799 32758.012 5188.0488
6458.1152 567.66943 3501.761
12460.408 2664.031 2731.9768
16584.584 34527.957 6922.2617
14719.021 40281.391 5517.0356
13380.948 13610.774 9273.4932
2984.3428 30168.77 5669.6582
17022.779 7899.8472 6586.0503
17233.18 3901.3164 7990.9761
7075.1963 1422.2917 3779.3721
464.89771 36892.059 4771.9902
16533.135 11369.074 3341.8252
18234.475 11216.04 2900.2942
1282.6135 4674.2275 6027.834
16965.721 25646.693 4133.8906
18057.332 30181.92 3425.0371
729.89111 34314.062 6888.3379
14866.825 22199.641 3376.5244
9431.4375 25342.357 3386.5933
8118.5645 865.03772 5392.4746
2761.2424 12372.697 9255.1641
501.43256 4001.2251 3832.3618
17482.445 30517.508 767.83575
16078.246 27892.121 3394.762
275.32333 13113.201 6432.29
3408.3042 22890.621 3378.7383
15846.199 33084.691 7096.2334
6393.1777 27975.91 8186.75
4259.2798 4654.3057 5695.9126
3201.0796 32380.922 9898.2607
607.02332 23953.41 7776.0928
19073.367 5742.8691 7029.0684
17103.479 10840.59 2010.1768
4203.1123 24076.6 3382.5378
7577.9551 39419.875 8206.2354
8740.3652 8835.5723 9271.1777
10199.604 7373.8096 7014.9829
18200.77 31788.928 122.9318
5818.7358 21271.799 3373.5518
13575.041 15666.668 10656.667
17435.637 11950.08 9156.3262
442.32059 35458.918 6259.7021
19007.312 17025.109 7249.3975
11825.015 37124.727 8471.7246
1851.1989 9204.3262 2863.085
9366.7832 22771.426 1987.1337
15689.847 18582.887 3364.937
15291.799 2977.5625 2894.4583
18083.807 4628.6475 5993.6855
556.94653 4532.79 7309.7715
12365.26 39501.047 8202.584
4150.2134 13009.01 9127.7031
3463.7393 15440.25 3354.8684
2577.6978 26318.717 1988.7808
17743.545 11273.934 2203.9885
8588.3438 33403.793 7085.439
15112.199 28742.117 2060.7993
17365.223 20966.621 9971.3301
18261.66 33798.191 1231.3195
14020.056 894.58612 2319.7334
5788.5664 30562.707 9175.168
665.25122 7980.9941 6547.7041
10711.374 2269.304 7530.2466
7602.7646 20791.953 1986.2146
8987.0234 26706.682 3390.9644
15882.483 217.71637 4584.2466
15823.709 28126.461 6846.5146
12014.137 13204.212 9325.6221
212.3123 27346.473 4848.4565
18903.795 6729.2217 4133.7075
43.035011 25209.412 5698.6123
2552.3477 1633.4841 6746.0078
6074.4385 27536.902 3393.624
6275 40388.57 4121.7939
11984.393 16620.328 1984.2778
5317.0742 27119.211 5173.7017
8211.1777 5692.9165 7123.1172
12368.549 34793.043 8711.7617
19259.477 3709.3254 3417.4077
4259.2798 3232.1775 5504.3682
14226.563 22007.188 3256.8062
12354.827 28014.07 4129.543
7199.0039 3779.6174 8079.8682
3597.0493 27686.689 8491.7275
5058.2202 34613.738 9077.499
11314.571 22911.994 3378.8066
17776.889 25788.652 2138.6699
14580.936 2030.0082 2472.103
501.46017 6178.1006 2677.8103
18089.838 37386.789 3597.8157
814.04382 30394.637 889.89514
12254.206 22880.895 3620.0986
17806.594 29554.764 4725.9902
3905.9585 23466.402 3380.5828
1523.8582 28807.723 4506.7212
331.57428 20053.535 4268.0239
17264.029 19846.502 5162.7969
2362.9314 3208.9004 6048.6255
9462.1924 33625.328 8929.3848
3483.5393 32338.652 7070.6792
16037.483 16232.314 3357.4062
401.20328 31964.895 213.18819
8026.9336 36349.227 5411.6162
2687.4067 32568.191 16.01828
17062.797 10124.695 3953.897
18582.26 29836.131 1533.9626
3832.2739 943.96375 5194.6196
8491.7129 22100.74 1986.8223
15944.844 27513.918 8087.2217
3602.1199 28949.496 4796.9121
18201.979 13472.364 8607.3301
2572.1572 19117.281 3366.6489
12430.674 38245.422 8418.6016
2187.7612 11733.205 9157.623
12221.937 30979.682 6807.0762
1776.1455 6016.4482 5716.3379
11658.679 24845.682 1988.0967
4259.2798 32351.252 5128.6406
5598.4878 1439.7159 3951.8589
10430.833 2627.2544 3193.2231
8205.5771 2595.3955 3956.3916
2620.4497 14006.197 5829.0947
6744.6846 11463.068 9230.8916
3769.4004 30392.668 6529.4839
18728.678 30520.482 8173.0557
19176.539 34744.195 5846.2344
8220.9941 28787.959 5513.6533
8154.6387 12767.635 1982.489
507.92532 33709.832 2943.0239
7765.9663 28132.324 4283.4922
11526.61 22810.041 3389.8115
512.64697 30012.695 3385.9895
18052.762 26654.262 9650.4805
586.76727 35409.23 3718.3457
17754.996 30218.51 3831.574
13776.746 17499.791 11436.629
11729.084 14000.092 3350.2544
2647.1929 27756.666 8512.459
14413.787 10426.468 4522.8994
705.90393 30382.607 3184.0027
18163.074 7310.6279 47.012741
15846.781 26788.504 7242.2983
15042.516 30817.658 9459.4541
775.37958 31259.883 5792.8359
16430.834 1868.0404 2429.5981
582.39966 8346.5176 1832.5149
8751.0762 29304.484 5506.6055
1398.6101 30476.16 5976.2285
12022.95 28131.123 4312.6611
2254.8628 19589.232 8870.001
10095.919 1425.8721 2109.2402
15500.924 17657.844 1984.7595
7739.748 22555.924 3647.4707
17952.355 5874.7275 5671.6558
7249.834 36310.812 5481.4468
4259.2798 9751.2686 5568.4077
1950.5498 9697.7354 1657.4762
13148.348 22538.963 3377.6113
17168.178 14411.616 3722.9834
5840.0347 2716.7778 5012.3906
9273.2744 32948.652 7100.8354
15196.749 8249.2617 8752.3066
240.37148 36256.289 5457.8696
2750.1118 35133.656 5687.9678
4259.2793 35096.586 3865.0198
7471.0566 27644.248 9839.5322
6245.2524 27768.795 9049.6172
217.9986 14663.014 4770.7319
3074.1758 26381.391 3467.4229
13919.689 16105.917 7649.249
6983.5967 2837.6138 2180.636
14642.982 36642.219 4675.5142
7864.5732 40587.062 7567.0479
14112.452 34852.367 8966.0146
7388.4893 14673.527 3352.4121
7961.2041 40348.156 3899.0063
4690.0166 26999.031 4953.0591
11911.736 27856.039 3756.4863
1911.0913 3896.001 7928
8791.6855 12092.154 5800.9043
2332.4363 17763.314 8299.0674
8863.0488 21583.203 1986.582
490.68945 32687.482 14.312516
18624.506 8689.1064 6175.1689
13721.605 22254.615 1986.8937
16135.644 28351.943 8106.248
15291.8 6519.5625 2441.8062
17237.744 1838.2078 6504.7617
14380.848 874.15833 2748.6445
14657.35 11778.461 1982.0295
7561.8721 40625.242 7516.7134
8523.3418 1321.5615 6861.0166
622.08685 12868.241 3828.4321
5443.7974 5450.0347 8254.8164
5809.7788 20128.969 3369.8904
14011.84 13923.717 1983.0259
12751.637 14377.051 10145.566
425.77774 35071.809 4919.9565
16443.854 36581.473 4862.3867
10642.197 25462.953 3386.9795
10392.383 12599.469 4253.8789
13238.206 27834.812 3394.5786
7896.0518 3238.2583 7982.3135
19435.131 3803.4207 6231.2041
2182.2727 7813.4229 6919.5015
3312.3162 1194.6311 6666.2295
11888.006 29827.137 6118.6953
1380.5225 3498.1946 2561.0881
12754.876 30461.389 8796.9922
17058.777 7081.165 6754.6201
13713.41 4206.6514 6869.6133
7565.3638 26673.896 5303.5786
15197.881 27845.316 8904.1084
12418.441 28024.621 9434.6406
7884.3804 5493.0474 8710.1758
5379.8345 1034.4436 4896.3481
15749.397 7773.3691 6931.8403
15777.669 27189.881 4189.3525
14761.05 26708.826 4307.3062
17192.541 14966.497 6428.6836
1591.0618 1665.1473 4755.978
18296.098 9362.5566 5589.249
4163.4312 27002.461 5645.6494
15898.464 27375.869 7791.4551
8275.8066 40729.375 7386.9912
1072.7394 6716.7334 9.04039
9758.4199 28460.617 4817.2676
17775.889 34426.594 501.95612
19177.451 31776.26 6143.3794
16565.861 5503.2734 6522.4517
2197.9043 11226.262 9117.6426
885.43433 9136.8105 4870.7393
1487.3922 14591.632 2470.8137
362.10959 31493.684 7290.3848
19334.537 9414.4121 6597.1782
2255.0872 40252.051 6352.2393
1844.5618 14989.824 9206
18097.904 1347.3884 5143.8838
512.64697 30344.742 3752.377
19257.25 35613.434 3426.8157
7500.3174 21096.24 3372.9893
16997.615 32085.717 6722.4233
14912.706 27000.438 4989.0332
5713.4863 1350.0732 4039.1384
15788.596 14514.348 1983.2999
19078.199 6222.9043 4535.0283
16408.141 14590.305 7913.4233
2270.2903 7047.5796 947.92865
826.89929 8988.1484 2752.5332
11899.036 3196.2156 7939.4775
17048.072 23929.053 1987.6713
12122.568 3600.1174 8071.4297
12664.544 27795.229 9968.2178
3143.3359 16466.566 10237.051
6788.5913 28294.533 10647.69
15291.8 34249.949 6984.6602
191.28938 18753.254 4937.0024
4317.4551 40584.41 4924.4131
14081.823 1153.9912 4416.8125
4269.3687 22478.061 3641.5435
9013.0098 32519.572 9011.2959
19224 35746.035 4030.6482
18008.242 36621.965 3506.7129
1106.4156 31286.422 6473.0356
8450.1494 1564.6832 2958.1436
2503.0632 13995.256 4606.311
1619.7146 28589.863 3544.186
15472.932 23035.328 3379.2019
3106.6504 34760.922 6831.2729
999.50763 6085.8643 6703.8325
8198.1221 40169.402 6246.5005
7816.7295 26708.58 6770.4272
18088.258 14516.408 2502.4832
1843.5234 3655.4968 2098.9343
15985.63 16152.091 10262.916
16671.121 18961.336 11466.15
14037.516 28781.582 4132.7754
12744.589 27644.482 8622.1152
18316.736 9182.1445 1009.7628
755.21588 34878.418 4038.2656
4259.2798 8062.3374 3844.2705
13059.912 36961.527 8599.6328
9302.7344 25059.824 1988.1963
809.99646 36796.312 6380.3398
11468.957 8605.4834 9228.5596
5962.4717 23370.592 3380.2759
19257.865 31155.334 820.32629
7151.8794 17956.727 3362.9307
16743.59 24873.688 3385.0916
5294.7236 26876.129 4643.4849
8315.498 36364.164 8505.8457
14888.586 9888.8945 5549.4053
18635.572 19528.332 3245.1299
10829.495 21307.734 3638.7368
3673.4675 5526.9111 8356.8994
8561.2852 17500.393 3361.4688
12237.104 34445.805 6937.2324
2157.3418 24211.684 8044.0889
13856.646 1119.3612 2733.4658
6765.354 28103.07 9747.0781
15291.799 30210.756 4199.0972
2314.6577 36648.293 3003.4836
2685.7898 15360.067 9457.2373
13345.645 5109.7246 8213.8828
6534.1196 9104.1123 8956.6699
1339.6746 4399.5928 3872.0063
15363.455 24997.438 3555.7954
16037.204 2603.7866 4200.272
9596.002 40715.375 7404.9551
13025.646 34316.273 8833.9609
3913.9612 3490.4072 6408.6416
332.63696 8683.9746 1205.7759
3205.6848 30550.139 5759.5356
12713.741 2600.9639 3727.7729
4227.8398 27731.504 8648.5625
16198.439 26990.316 7329.6885
3054.4819 18588.668 3364.9556
2398.2197 22974.367 1987.2278
948.18909 7343.647 5467.875
993.4928 25741.453 8698.8145
4259.2798 32945.578 3517.3145
18305.219 6021.6479 1069.2742
3914.9492 20076.568 1985.8824
511.12396 5885.7559 3296.6995
17769.016 28882.707 4617.8154
16726.582 33660.246 6612.3945
8755.2236 15585.34 3355.3333
10821.406 18474.818 3678.9529
14365.853 906.85187 3007.175
5244.9512 23628.957 3381.1038
5310.6797 13956.008 8108.207
10881.491 37363.242 8422.9092
13382.773 1629.1846 3476.8967
17303.203 24348.131 5994.625
14612.291 23141.004 3572.3936
2370.7905 9930.8691 2137.46
7140.0518 29340.242 6748.0884
19130.219 10363.454 7180.4556
19041.5 6050.3442 1270.8634
3352.1472 22155.496 3500.1721
2042.312 20175.24 9642.7588
4742.7256 38793.539 2898.3906
17944.414 32684.801 5851.9194
6003.2139 30150.453 8847.1738
6758.5391 17519.408 1984.6952
18821.945 5295.3364 7012.5229
4259.2798 9553.8545 4027.3657
14279.067 13688.055 3349.2549
12017.029 1189.2205 2987.9541
538.10748 16735.141 7208.417
17300.551 25390.949 7677.0488
17195.307 16684.463 8491.4941
2219.2559 23036.211 3379.2048
3629.8098 20582.797 1986.1176
18099.004 17139.322 8799.626
3170.4644 21891.109 1986.725
4259.2798 9077.167 4971.1016
17338.172 30549.184 6039.6592
17247.703 27399.469 9514.8428
15291.799 4058.979 5704.1279
1423.6106 27399.035 2654.0601
3201.092 13268.18 5531.5283
12942.567 1173.6267 4364.9014
16196.107 16318.363 10262.354
17014.895 29672.443 4965.3081
4259.2798 4334.7349 6572.0186
1612.118 30724.162 1859.2061
412.18262 7634.0264 6546.2803
17073.041 29815.271 1560.5784
2416.6641 15963.816 4609.4634
512.646 31295.121 5554.0391
4488.3823 26751.398 3391.1074
17237.303 31442.158 6931.3623
2983.4526 27434.348 6736.5005
11020.333 24921.059 4601.4883
3411.5403 32123.168 7048.7012
17336.922 21755.752 6689.2627
2250.9832 38241.281 7946.4761
16126.324 23294.955 3857.478
9390.1631 11870.887 3343.4331
1240.4471 31486.141 6561.459
5376.562 22341.826 3233.304
19023.449 33147.133 3675.8696
3836.011 9373.6328 6116.2378
4283.8081 31140.096 9517.5762
9443.6016 36147.023 8516.9775
16558.23 7404.0527 6708.6675
14087.866 34458.914 6934.8438
13188 3427.8481 7704.4268
4390.9077 27700.273 3394.1475
524.68915 33713.738 791.6189
2167.1174 24589.646 7344.8115
14014.971 28855.082 6507.9229
3130.9797 8458.2012 568.16699
7317.2173 9910.292 5516.0527
7476.853 27891.699 8716.7988
17397.869 8059.1367 6519.1416
13556.027 22582.975 3377.7527
2259.6172 27700.369 3394.1479
2272.0098 19267.055 11346.281
4751.3276 25882.889 3388.325
17077.832 6520.6543 16.248121
6027.5913 15112.124 8139.4487
6868.2637 1174.6567 4400.5615
512.64801 5041.585 5224.9385
8959.7578 35256.18 6614.1245
608.00739 6729.7739 4189.167
11707.249 25417.422 3495.5112
6422.5195 28174.371 10025.313
14345.206 40008.852 2825.9729
10234.109 2788.8733 7811.791
1243.4834 3382.7207 6278.3457
7281.585 17622.967 3361.8616
14297.367 15318.993 8094.6562
19395.307 12992.283 5611.707
6724.5615 24583.721 3041.9351
5560.7241 39978.039 5762.1562
10978.372 37465.625 3048.0115
10746.168 10028.43 9407.6289
748.85413 8547.0254 3278.4832
2836.425 33106.793 7095.4858
4814.9854 36942.57 2482.4475
1924.7477 9481.0195 6007.4033
16460.984 12163.683 9199.6562
18711.328 32461.016 1924.9558
17234.018 19353.828 4266.2812
960.5116 9029.8848 869.22675
10784.188 11663.458 3846.4663
924.43951 34145.297 6422.9121
18102.418 29459.213 4491.6733
16072.358 11947.64 3347.7471
12527.375 33457.367 8908.0713
15239.521 142.12212 4382.6895
11454.527 14126.148 1983.1198
2504.9912 13709.643 3349.324
11292.76 4636.2847 8502.0811
11665.66 14521.101 9537.249
18555.889 33899.844 6538.6528
3697.947 30914.957 9727.791
14668.348 38279.219 3151.3652
10997.787 23038.143 2801.8447
3803.6423 36132.855 9330.7178
439.87509 8859.707 802.03821
18493.621 9031.9541 8141.9766
17273.848 4442.98 4084.3262
3314.625 12467.474 4171.0327
767.29535 4997.6592 2882.9282
3278.7644 9336.1621 8960.5029
15291.8 9186.7695 6174.3594
11927.691 13769.104 3349.5146
6057.9551 9741.9111 5742.9956
3636.1096 306.20212 4174.812
5090.3311 28536.27 6129.3838
19042.184 34528.645 6788.4062
18829.951 33745.902 1348.0261
7362.3315 25380.121 1988.345
13120.694 12938.733 7595.0811
10786.469 13527.227 3841.9023
19476.027 23884.73 5831.6841
18614.668 16889.871 8008.7471
2204.6484 21016.629 9207.7832
8802.8193 13354.754 7988.6377
2821.0381 18145.158 1984.9858
6386.9614 39672.621 4939.6909
2630.0557 3705.6235 4789.77
5157.2905 27363.443 5734.105
12578.309 1470.1727 3648.2593
8774.8652 16886.178 11484.191
3394.3213 27890.764 1989.5106
2296.4185 35991.297 3961.1726
9955.0029 37964.785 8382.8086
502.91489 8588.0371 6239.8032
2889.5806 9522.6572 9019.6582
19238.691 9665.7305 2999.2642
18618.305 34230.906 400.66635
8350.1758 371.45493 5911.625
3907.4319 20923.664 3372.4365
1071.8785 9211.498 2888.2068
2308.02 7713.3486 8776.4531
5933.2617 30463.656 6568.0283
5545.4873 32315.879 9151.0625
15291.799 30635.395 4987.4648
17240.355 1687.0176 6577.4326
14112.067 17175.576 8155.27
14833.581 15191.842 9229.4395
3298.6077 25181.377 4805.7861
2101.8596 4446.417 2702.3999
7583.0034 17567.914 1984.7178
6359.0742 30600.77 8971.7061
15099.965 194.91899 5158.7725
13186.887 25430.322 3386.875
2174.7104 24407.445 7109.0063
18548.387 29622.961 1920.1201
5743.4053 24223.734 3383.0093
10657.131 23316.344 4100.6538
16881.629 30496.664 5991.77
14546.623 16318.932 1984.1378
13041.982 27442.227 6114.0161
8451.4727 27369.328 7895.7925
14666.889 25548.982 3387.2554
2299.863 36037.109 3666.7417
15291.8 29436.416 3047.4448
10226.974 6878.1621 9011.834
15872.088 28712.434 8532.2295
9832.4277 40792.812 7222.9868
8717.9736 9243.9482 6247.6733
10358.401 2943.5027 5596.0195
10229.893 16695.98 3358.8916
11655.902 35763.141 8568.9443
13736.121 28238.477 10197.018
17132.51 15935.155 4375.1694
16457.217 35271.645 9634.9736
4259.2798 34881.082 4922.6216
18043.346 37327.504 3504.615
1007.2297 17094.521 8140.7754
18911.758 5068.9463 7474.957
5876.7563 25288.555 3607.7725
12878.947 25792.143 4053.449
8151.2432 22423.682 3973.0642
9072.8984 11861.586 4993.1123
15015.557 21986.66 1986.7693
8202.0039 31117.139 6844.0166
9014.6445 39719.352 5445.8481
2607.9707 26892.32 3391.5591
18815.152 31431.387 899.45886
9785.877 13414.188 3348.3774
126.69694 18429.422 5908.291
2292.6584 18565.234 9152.1992
14495.213 15747.445 3355.8525
13915.831 37038.625 8731.8477
14155.779 25840.045 1988.5583
17418.312 6902.3149 13.088313
18685.008 5118.9214 1827.632
18779.984 33173.512 2350.8679
15909.644 26518.727 3390.3621
6299.4082 12605.957 9168.7988
17188.219 16895.143 7437.8076
18124.145 2371.0303 6912.9634
13521.4 2703.6978 2312.4233
1664.4628 29859.309 1494.9272
4095.9131 3361.061 7679.4609
1978.8195 26648.426 10157.748
3076.3955 4525.9912 897.64624
11782.4 13404.609 9363.8936
18565.594 5280.1504 1472.3202
14466.611 38922.516 2971.1863
10324.741 31151.371 6853.2163
16689.529 14691.687 9358.1982
14173.837 38080.012 2615.7913
19073.332 34042.191 4233.96
14186.225 19076.717 1985.4182
14817.14 24626.904 3472.1008
1532.6835 30382.572 5886.377
309.34369 8643.7236 5898.1113
16129.02 39660.211 5517.2021
17010.953 13957.305 4889.2695
15441.543 32479.51 9550.7705
18949.045 24617.164 7795.7314
9282.3408 11267.438 9549.4639
1709.0651 26263.584 9888.9717
4180.6851 15575.583 10168.534
10012.93 24997.984 3385.49
4657.1079 6595.8511 8493.9785
12893.395 13203.797 8028.228
16658.492 16242.879 3357.4402
7806.5854 17381.152 1984.6311
3625.5894 13987.225 7281.6943
2532.6069 8963.498 805.97351
12766.885 1392.1409 4024.7812
3605.9858 35709.16 9457.542
15025.531 17348.873 3360.9834
5106.5122 345.86349 5599.3252
1472.5801 14569.398 2489.657
15761.266 10602.263 3817.7302
14851.823 33663.625 7076.6494
10116.292 17467.502 3361.3635
3071.2744 36027.91 3266.626
17363.562 21683.355 8982.8496
827.55457 20965.035 3420.6943
14801.114 28145.004 5514.0762
17099.529 2596.1382 3925.9048
15291.801 34608.141 4959.0947
3918.8618 27917.219 5980.8252
3108.9062 5131.9966 519.49896
16696.109 23090.207 10990.401
11373.309 14719.326 3352.5591
19018.686 15457.354 3931.4302
6999.1997 38190.141 8435.6699
17181.643 16741.943 7180.063
2893.0693 3258.0579 6119.0586
4259.2798 30309.305 4305.957
6683.8535 25803.436 4062.8738
14520.117 34290.168 9111.8076
16520.262 26866.568 4903.9331
16588.174 4359.8945 5740.1797
7365.0518 27695.182 7155.7764
8028.0317 2066.2361 7375.9507
18905.732 32736.449 6771.7227
10693.136 24769.514 1988.0613
19166.26 18275.477 6905.6914
19100.377 12541.878 4226.4819
14235.972 21716.402 3374.9763
15559.769 14799.449 3352.8154
4206.291 5938.2441 7121.0195
12449.951 9693.3486 9223.3877
6905.8032 1539.9631 3700.5571
8584.1484 28728.334 3512.5464
10807.865 19694.48 3746.2932
19256.922 31526.463 6097.4893
16043.556 6303.8921 8535.9072
13165.07 29293.965 6929.5259
15741.435 26643.688 6289.6929
5504.21 617.974 4187.9365
10787.61 10629.092 3407.8877
9252.665 2615.7803 3351.9531
16207.2 12418.854 9178.7012
15682.051 36583.77 2220.6438
1012.2905 31582.977 8406.0879
15291.799 36096.207 5505.8369
6811.5303 30870.926 9030.9717
3697.0913 13100.775 3347.3733
8890.001 8853.291 9274.7754
11819.562 29080.949 6155.2202
16751.883 39780.93 6194.6558
5169.5332 17356.969 1984.6196
6735.8438 38780.668 3125.8848
2269.665 19487.438 7934.1812
175.57399 13144.669 5845.0327
1299.6105 28646.172 4118.8174
8824.0137 21485.203 4067.1492
15033.178 15205.563 8654.2305
13796.838 28235.545 10888.035
1784.4216 1782.1415 5016.7749
311.1933 20116.645 6792.1602
3638.1135 20590.199 3371.3682
844.01868 33113.723 5805.5898
9745.8643 13481.782 1982.8207
8981.4531 33366.133 7086.7129
5236.48 9563.1064 8888.4248
18006.457 1980.0569 3758.6672
656.75201 32758.1 3848.748
17575.686 35532.25 1602.9521
5212.4741 10541.169 2068.7131
19062.322 7712.9609 3766.9653
9910.4238 13111.563 4253.8789
7610.2666 39586.465 3292.6538
3954.6392 15487.08 10037.893
9684.165 24207.391 3382.957
15181.155 3003.968 2194.2788
15285.798 22216.975 3664.7224
17378.525 23722.535 7653.3359
3558.8608 7145.6001 8671.5918
14582.406 28151.914 1989.6318
16301.105 949.43872 3189.2502
12613.887 24040.582 3088.1064
5335.0684 39072.227 3041.416
2090.9927 1845.9307 5194.3945
11147.219 27399.879 7984.0293
14503.463 12072.455 3344.0786
15426.979 24919.025 3385.2366
2596.3457 29330.24 2779.9644
17954.977 2857.248 7424.3789
16466.143 15378.01 9005.2471
1728.635 22212.064 9422.2939
13515.764 27807.695 9246.1211
13551.847 3566.3457 6473.2881
15635.371 18937.273 1985.3535
5294.458 29085.424 5124.5132
8913.0381 17416.689 1984.6476
17051.695 3476.5649 4072.8257
9077.1504 1012.9764 6602.1177
1180.1285 20184.344 2861.7273
14606.638 11462.017 1992.1633
7445.0381 1572.1101 2123.4514
2801.5864 35970.258 4052.5454
3063.1726 10841.025 2043.7863
16984.84 5085.6724 7062.1475
7520.4951 27406.309 6403.0684
19211.963 34674.922 6985.5547
9894.5459 10590.717 2064.5942
2772.365 25197.787 3386.1299
9915.8027 29080.266 5112.083
2707.3501 37257.207 2618.1353
2099.7456 30603.471 697.09204
18492.119 32535.814 16.057896
17132.604 25762.896 6150.1118
4008.6924 19505.43 3367.8928
18597.371 34494.809 6238.9971
7910.8896 7201.0513 7037.9814
7976.3853 20691.404 3371.6924
5005.4697 29423.045 5679.3032
1698.9183 28761.146 4235.168
10261.955 12803.254 4253.8789
10032.827 22625.434 1987.0659
6995.6133 3210.0015 6050.3398
6444.1768 27332.367 6699.7607
512.646 31732.75 5699.4019
16950.312 28711.141 2891.6323
17357.375 37712.121 3292.3325
18436.711 36938.758 3557.1821
2370.9631 15637.179 8456.0537
541.43256 33288.164 2819.5244
17206.062 26385.637 7423.4443
15369.943 6480.7144 7116.3813
9449.6279 19446.389 3367.7036
1329.7786 9963.124 5499.5415
17332.59 21626.539 6537.5278
17551.203 7634.8555 116.47752
7496.6704 21544.33 3409.2168
4064.1719 38401.25 8732.834
16131.904 26571.355 6506.7725
1521.2683 11891.293 8745.7236
6919.4277 27764.676 9693.1797
14487.873 28154.84 5250.6357
16008.21 28370.699 7863.144
8606.7793 23279.338 3328.4111
17895.699 14486.237 8985.8203
982.4696 30868.113 5091.3096
2397.6577 25341.393 10607.465
17040.188 16974.186 10011.572
16956.998 35668.18 4942.8662
8566.999 10254.508 9431.6289
612.15045 35290.27 2542.6392
7741.3311 26915.023 5097.1865
2083.7461 22130.92 9475.9844
1061.2032 10008.143 2388.3892
16347.059 23661.836 4099.0664
14383.298 39410.801 3351.3354
12985.016 22825.666 1987.1589
15867.652 24821.857 3384.9255
11619.957 14525.037 3351.9365
4259.2798 30235.105 5396.1055
17267.598 28860.26 10261.222
5336.7705 12765.969 6249.4478
6005.9111 15543.857 1983.7781
18665.961 7723.4253 779.30823
2390.7532 28623.885 2382.9487
12362.812 8272.1846 9077.3252
4259.2798 4008.282 4398.9307
13550.396 36570.48 8714.6885
14031.383 1118.1849 2950.4773
18711.629 6873.6436 7069.1807
17800.133 34434.164 6939.3525
18035.035 31055.43 9367.5918
15501.345 6121.5874 7119.4521
18392.555 36374.539 5166.4741
14941.624 20810.586 3372.074
2023.1592 4539.6006 2447.3149
10218.646 15063.299 9049.6445
15291.799 30164.186 3680.6711
2796.7861 40178.211 6241.8184
7774.4204 22825.934 1987.1591
1824.729 3739.5176 1896.8406
737.67725 7366.9102 2297.9211
18776.008 30631.246 6090.0259
17844.66 2956.0415 2936.2935
7645.8633 26245.268 3389.4858
5889.8115 25890.914 3506.4324
4194.6143 34702.438 9373.4805
18242.697 3674.1436 4714.6943
3176.4414 32050.117 9917.9502
2890.8652 14712.557 7865.1875
5340.9883 11822.025 9060.043
14206.049 12906.501 3346.7507
16103.766 10624.682 2990.3604
13509.085 17595.605 1984.7307
1269.0337 19743.248 8647.2295
5238.0342 24161.789 3088.5789
17198.172 31158.523 357.5817
8429.1787 3580.4265 8155.1943
18508.961 23513.783 8574.4668
15988.478 10528.873 2069.7354
2313.6379 18599.98 7199.835
2351.5586 15124.369 5873.0444
9396.2256 23097.812 1987.2852
9586.5391 28821.041 5526.6377
4648.6553 16660.23 3358.7771
16647.391 15426.531 8950.4199
5811.3203 10632.826 3325.4712
15214.035 2611.1619 4328.124
8569.6367 17490.426 3361.437
1260.5594 10163.828 3484.1216
8422.0635 22240.852 3963.4053
2243.4976 3435.239 2926.9734
5796.5796 1068.6649 4079.0271
845.34473 34473.57 1763.9519
18966.988 4238.9492 5604.1846
9206.6104 12561.645 4253.8794
7498.374 39626.465 4718.6094
18017.74 15006.439 8864.7959
259.86304 28596.129 6685.0146
6478.8066 982.37573 4951.8872
5853.7793 14507.77 1983.2969
15645.521 26593.293 5936.7588
10821.565 27469.361 3678.1682
7814.792 3639.833 6535.8477
5202.4829 16923.408 11049.058
7612.4209 27033.152 6496.1211
3306.7666 21145.607 11309.98
11554.139 37722.48 3082.0645
12216.114 20989.123 3372.646
10761.976 1394.5063 2110.561
8244.543 39797.219 4435.1577
14281.493 26595.562 4032.2256
18758.301 5181.5542 419.66641
608.29523 34934.051 3732.8386
5264.0234 27349.777 5680.9761
1627.7512 18211.684 2272.2842
1119.8192 33712.043 180.70107
17566.295 29745.49 1661.9653
10417.583 36320.605 5465.2354
6010.1187 38089.973 2971.3616
16566.281 36033.68 3506.4871
396.32684 19222.031 6977.7705
16249.058 3539.7065 6450.6099
7794.4912 16612.543 11333.727
5870.834 22907.467 3378.7922
1496.4741 30115.676 5626.3545
5731.021 11713.93 3736.23
971.84686 34686.484 6091.3555
2764.0684 36856.797 2315.1853
17185.762 25078.027 1988.2046
7478.7627 23420.492 3380.4358
5958.564 34485.25 6930.0439
4763.1514 32989.547 9298.8643
6664.1396 3961.5835 7935.7847
13563.088 770.79504 3234.1548
7518.9551 6230.1968 8827.2373
2498.9663 23598.473 3381.0061
12941.511 28050.162 10975.417
13951.155 12394.274 3345.1099
16823.982 28200.781 9419.7207
2576.8259 15075.351 8035.2905
13833.748 14839.121 1983.4507
2167.6907 31933.828 90.586861
10421.835 18558.396 3364.8586
17232.992 7688.625 130.52112
18065.627 31587.645 176.89012
18627.496 22810.883 3286.9556
11614.547 17194.617 3360.4893
3998.6318 23429.26 3633.5259
16365.844 19139.139 1985.4473
2729.7866 29311.918 2974.7224
14028.856 27274.965 3392.7849
14901.164 40026.641 4010.1482
422.18961 26011.379 7341.3374
7658.3774 23463.906 1987.4553
17524.77 14264.047 9291.4326
19116.191 36709.48 5447.8286
6633.0312 27321.666 6788.6592
325.05499 30515.471 5358.0703
481.06662 6020.3896 97.965561
2188.7546 22039.236 7952.8271
15291.801 32877.062 3549.2351
18401.633 2911.1562 4372.6685
5273.814 11003.046 2030.3177
18283.094 8898.9629 2099.728
8203.9775 39094.672 8274.4072
14510.11 15635.141 3355.4929
7982.6865 30720.582 6707.5244
970.49615 10012.666 2406.3933
19418.932 23977.357 6199.9956
17852.535 34930.383 877.54633
1555.1377 2085.5117 4564.1431
728.20105 8190.2676 5790.0713
3174.7153 9490.2832 1641.7605
10090.482 26237.867 4253.8711
12052.204 30014.242 6289.2422
2105.4565 22835.379 10048.139
5769.3877 21683.461 3374.8706
17714.443 5440.3154 8278.833
10946.212 25101.969 3385.823
16954.764 22789.439 3378.4141
4105.8706 25827.258 3607.6553
18827.779 2369.8992 6259.0518
6972.1519 3451.0635 7851.7324
2013.0844 32870.27 6769.7163
3890.7827 17421.441 10896.845
19272.178 27534.199 4625.5078
6713.9717 1014.3877 2576.6079
8942.1943 15978.735 11094.725
3922.6108 24632.957 3454.9395
295.43103 6971.2393 370.35889
15001.146 10622.852 3545.6458
15573.264 26821.701 3391.3325
14212.049 27888.109 10667.168
15058.149 10565.514 3992.7686
8825.834 28530.062 4953.9482
18014.08 29631.609 5940.4688
2004.6582 1560.1605 6678.8169
5467.1328 37247.199 8739.7266
14791.19 15359.673 3354.6104
4125.3506 26323.275 3897.4573
8331.0986 3433.9741 6343.834
172.32294 12419.945 5819.2988
13765.657 18778.188 3365.5627
16748.834 27829.805 3394.5625
11005.344 21820.244 3375.3091
1452.9872 30877.648 6261.125
4259.2798 7684.3569 5742.9121
14792.867 7756.2725 6937.1074
16859.334 25721.977 3467.7031
17556.762 1120.6023 5150.1855
166.37018 17241.607 6077.457
2242.7651 23170.883 4739.4585
11243.612 30715.199 6704.6016
18784.16 5804.6436 159.15565
19447.137 22993.928 5131.104
8868.4434 10280.898 4881.8584
15677.841 24870.729 3651.1641
15906.202 11188.383 3341.2461
10487.431 12383.226 4205.1689
17383.762 3674.4907 2053.6101
18983.943 7498.5 6686.2852
11503.713 23810.207 3911.2192
5090.9922 17322.43 11190.803
3293.6208 21188.779 3373.2856
1948.9515 22817.863 9577.3643
13838.482 11235.766 9054.0254
17045.631 26115.641 1988.6864
16940.365 3546.8589 2412.0425
16413.266 33887.508 6426.2021
15573.873 18611.07 11348.522
10181.645 1061.3418 6649.1313
16230.211 28451.949 8589.9473
11914.713 21238.121 1986.4219
17744.824 30823.984 552.05646
2252.491 20522.453 6309.4165
16355.043 20764.432 11172.104
14568.256 28045.91 9096.6504
501.48639 36627.867 5922.9062
18796.971 5022.7095 507.24075
17915.77 7553.2549 6680.4419
18886.578 6460.3818 7625.2324
3326.5811 30485.973 6580.1445
5350.7798 25971.281 3388.6082
1017.5743 36468.953 7065.2129
19515.115 25017.883 5601.1436
17176.123 14592.571 3490.7112
691.40375 6370.3096 5647.6094
3128.3582 13282.417 9251.6982
2188.1218 31164.051 354.01337
4698.0508 8904.416 6459.7578
17421.646 5153.313 1575.3087
1337.9978 15683.311 8598.1963
8935.3125 39251.223 8229.9678
19041.5 34742.703 2147.5505
267.79288 28756.842 6721.1006
3212.8062 4753.874 5815.4409
3809.3154 22277.148 3376.7727
1856.8347 13108.87 2029.3446
15947.797 2635.2988 3082.0176
409.00482 3806.4595 7003.2881
17652.482 38164.586 7490.2651
10394.05 12103.01 5874.0781
541.29871 8292.6152 5755.7954
18203.328 34142.762 349.14572
2617.4277 20893.932 10594.316
5607.1592 37022.922 2691.8096
15795.951 26118.326 5588.4165
14664.271 24293.258 3383.2319
1750.0142 30018.219 9883.3008
14208.336 8067.6255 6841.187
14951.068 16406.9 3357.9653
6425.4468 13705.402 9321.2754
12284.614 28786.627 5639.8906
15500.455 26426.408 4240.9258
2324.572 1829.5913 6869.2715
8246.2959 39888.414 8083.8062
12407.469 880.02612 5091.5928
11653.063 25351.055 1988.3314
1954.6567 27896.006 1989.5131
3299.5115 12903.841 9210.0918
8566.8594 19564.977 1985.645
361.04846 7180.1787 207.65535
8506.4238 14485.433 10346.391
4893.043 32193.592 7055.8843
4667.7363 15027.853 9985.1367
14374.828 22260.414 3650.9404
2923.4287 30148.459 5650.4814
4843.2114 40593.32 4835.6089
1576.252 1691.9144 4471.1064
2254.3379 23552.543 4611.1895
2759.2129 32356.48 7072.4971
17278.326 20255.355 5232.6064
417.24585 32103.086 7428.1758
7599.6348 27313.629 6144.7861
537.4646 13193.036 7219.0605
13796.396 16190.723 3357.2729
13988.149 16347.938 3357.7766
14137.817 26403.107 4460.1279
1139.1107 15102.505 8294.4248
3616.9653 21486.049 3374.2383
6668.3613 31495.496 6945.6968
1060.5576 37691.648 6277.9795
10839.043 15326.317 3591.2485
12561.744 28053.045 4236.5698
18405.465 20865.881 8539.582
8151.335 27966.51 9624.1963
18817.158 34825.73 5116.8569
9438.667 8545.3516 6682.4316
13993.336 26647.908 4129.0024
784.40533 6943.8643 6759.9683
18170.467 7375.8271 6720.8853
4115.7119 21577.547 3201.8967
10405.111 40723.109 7394.9648
10994.245 26737.625 6821.7422
4606.7456 12671.775 3345.9988
2377.1494 16511.18 8878.6416
18310.68 37917.898 4321.8257
6752.4238 12891.068 3346.7012
17707.057 30213.1 3012.2695
4036.9602 14551.363 3352.0208
12202.813 32501.523 7087.291
17897.584 3600.2156 6502.1206
5630.0654 22581.828 1987.0458
12760.24 12253.35 9236.8711
16466.535 32975.609 7099.9229
10890.011 31507.078 6948.8105
17575.523 34591.832 603.10254
13979.188 3823.2451 7807.417
12803.912 12210.087 5508.3701
18807.074 8580.5801 6246.7471
529.02081 10155.542 3222.623
19166.699 17296.748 4166.7446
13944.095 9754.0459 8927.1133
2710.6541 40103.77 7227.0654
810.24353 10151.863 3595.1475
3177.6682 31527.443 383.10983
18335.971 29586.785 1990.4153
14145.636 27913.746 7527.1533
12952.165 32274.539 9031.9287
6485.6079 34352.719 8833.1328
17308.09 24944.826 7032.1987
5606.1353 26214.807 3769.469
11073.521 14255.148 3351.0718
8500.7803 20861.549 1986.2468
1164.8442 37014.086 6971.709
11748.717 25874.627 3684.0952
3496.9065 22494.623 3377.4695
10623.781 26057.66 1988.6595
16970.426 27852.002 3394.6335
18445.275 34729.91 719.70435
8163.6426 22654.654 3377.9822
4259.2798 3203.5601 3000.3457
3227.6436 17845.281 1984.8466
3463.3286 27503.141 8188.9229
4259.2793 31361.316 3814.9255
16449.721 29099.828 10148.696
12846.101 37279.539 2962.0332
5480.5059 27101.961 3392.2307
4664.3516 77.063889 4515.2754
13558.324 24570.184 3384.1191
1832.0339 3126.4392 7633.8389
5322.3652 11858.012 4026.7471
509.73596 12914.396 4075.0933
6114.126 6622.293 8529.2207
3680.5774 27511.65 8175.6357
11501.823 14701.301 8064.9409
12269.769 28103.145 4292.4028
12841.797 3796.7959 7887.4058
11999.552 28179.818 10288.882
15291.799 31577.996 4418.96
5694.4355 17086.094 11240.566
113.4949 28299.34 5914.8042
3113.8831 13983.061 9284.8271
2137.6548 3419.5686 3787.377
8887.7939 4262.894 6887.7812
7800.7305 14670.646 3352.4028
109.30333 23074.025 5084.5059
15291.799 4318.6953 3569.6445
17396.838 33092.051 38.201324
9813.2852 27541.34 4253.8706
2162.698 22756.318 8696.3838
4259.2798 6006.2925 3527.7524
863.04688 7057.4893 2255.521
9320.3887 28190.793 1989.6499
2676.8132 13762.723 5799.5933
4979.231 27108.977 6597.8682
17366.992 24184.953 6817.6279
6351.9365 36714.812 4361.54
19117.205 29861.051 3954.5054
17093.062 39729.18 4811.4263
406.63495 5832.0791 6507.7402
14739.23 18109.943 3363.4219
2483.5129 16136.979 4714.1919
4282.667 21863.537 3375.4478
12251.61 29421.582 6884.8491
6631.3008 26095.779 3670.1094
2391.7803 3104.0806 2243.0981
8952.5977 26282.885 1988.764
3184.8984 33423.922 6505.896
13245.313 13188.418 3347.6538
4259.2793 4473.8472 4208.4902
745.11523 30843.109 6768.9121
18515 20987.982 8375.0547
5935.375 22353.799 3634.1897
3853.103 2637.1655 3056.1108
15504.889 28181.781 10189.12
2713.4568 8727.4443 6569.5068
404.4884 34628.402 5986.1094
16797.877 32313.559 10029.281
8808.1113 19195.332 3366.8992
16312.491 12337.701 3344.9287
17251.463 24854.447 6221.6025
5670.0767 940.28467 5145.5034
18296.402 34196.996 6398.1357
14599.481 33947.684 9166.041
10560.77 28739.717 2901.1636
661.84314 36101.945 6689.1938
15154.88 13167.943 3347.5884
19175.082 13314.287 6777.5923
9943.666 20329.076 4253.8745
19030.09 8316.8018 1214.0096
5551.771 22336.184 1986.9316
12993.718 18882.723 1985.3281
8026.5342 30705.916 6699.5625
1513.7009 32779.551 935.48566
15736.402 1337.4607 2453.019
314.83972 32386.812 6291.7905
9063.1123 28977.613 4864.6758
203.30003 21435.338 4892.4214
3948.4204 36343.359 5424.3677
565.3667 34957.574 1860.4996
3053.5557 35198.68 1167.5171
296.4213 33257.609 6316.0117
17749.43 2786.0957 3788.6919
16706.291 1712.2629 6996.5625
13143.854 29925.514 8227.2607
16705.525 31289.086 6890.2266
10711.387 11491.533 3992.1084
15291.801 31841.264 6809.8027
2433.9443 18670.543 1985.2296
6587.5225 22001.732 3256.5217
15457.41 13743.18 3349.4316
15483.067 2481.0039 7314.084
8793.9766 27082.074 3392.167
13656.23 25658.969 3387.6077
14906.049 27566.039 6644.3418
18426.748 32918.5 8463.1318
11978.221 27476.836 8737.5586
16142.537 21508.252 3374.3093
16783 6943.6514 19.010651
2180.4468 7919.6533 6580.0391
8086.1611 11921.903 5038.2759
9558.1621 13642.604 3349.1094
13120.697 19413.729 1985.5747
12871.95 23938.396 1987.6755
18910.5 6604.8643 1272.429
14694.848 14294.936 3351.1992
17159.023 8097.0205 6500.7393
2980.8748 33479.961 9907.4219
6591.9658 25211.094 3064.0112
11979.843 35452.047 6472.5444
2104.5715 35765.898 4731.3638
11255.433 26589.594 1988.9065
13905.309 16669.012 1984.3004
11288.303 5731.4741 8780.9863
10420.542 36837.742 8460.7617
16793.477 35827.051 4559.9253
3300.4143 23388.023 3380.3318
2338.5691 27167.281 1989.1746
294.85135 6316.3828 6416.0371
2647.5361 37626.359 2914.4973
2272.7065 35655.793 4967.5244
4209.6289 9705.9424 5779.4502
9400.5576 40624.859 7520.3179
10339.847 28716.043 5319.9858
15674.227 40128.277 7870.0781
512.64801 8886.0781 4694.6426
337.53226 16169.545 6686.1235
515.59894 6001.1475 6096.4463
18726.078 10823.648 7879.417
17609.811 39491.789 5078.8726
7417.9502 27729.174 7557.541
3356.5593 37434.285 2437.981
15213.654 40346.863 4582.3794
16490.936 10550.336 4065.062
12700.135 14591.039 8082.5259
7787.043 15823.594 10996.681
216.40323 29572.762 6532.1758
4259.2793 5840.7539 3354.2671
16389.609 12316.132 3768.8774
10798.627 36618.305 2865.2954
3712.3462 5193.9985 7073.6025
6426.4307 33722.852 8906.3467
4516.7632 34270.625 6969.1528
6807.9771 2810.1855 5289.8477
11566.015 3567.2498 8131.3281
859.30737 31011.52 5230.8574
13431.856 21055.117 3372.8574
14070.014 19473.496 1985.6024
14116.916 17246.598 8335.458
17464.076 4155.2197 6843.9883
3237.8806 3680.1274 2994.9155
14543.549 1266.8475 4236.9688
16478.643 32056.605 9954.3438
1787.0508 38965.188 4708.5093
18505.141 1900.1382 4786.4678
600.13812 32216.215 6743.4478
7342.9219 4445.4756 8351.6289
15613.762 37740.523 2525.2617
12493.056 17755.328 3362.2856
1842.0621 35383.273 8748.4902
4814.0469 27945.32 1989.5358
14169.006 4265.7183 6888.5127
2882.332 14857.634 8113.7954
2735.0203 17043.881 3360.0063
18324.881 29286.949 3551.5603
6298.666 23998.387 1987.7034
4061.0127 18437.031 1985.1213
7157.5532 24396.674 3383.5635
3159.1572 13593.953 1982.8727
12326.543 899.92078 2201.2803
15066.264 23506.094 3162.2993
12228.955 40494.203 7679.2559
8544.8613 23970.945 3018.0046
17287.213 20879.232 4714.2637
17315.977 35668.746 9056.9121
2243.5366 1868.3649 5018.1514
2540.5642 24871.117 3385.0833
15291.801 32450.77 4359.4014
13483.957 27655.91 3636.2349
4155.7139 27763.637 5153.5098
6785.2646 10282.431 4878.0801
6398.7002 28020.617 8660.8271
311.17181 29616.496 2682.5454
15730.064 23663.457 3502.0039
10344.191 26827.941 3391.3528
8749.2275 1957.1562 2654.729
14095.287 31938.027 9184.8887
17304.053 30183.564 1083.2673
14411.591 30511.797 9337.7158
18161.459 24916.357 2660.3049
1546.6415 12552.246 8797.4805
968.91272 37873.531 4734.9692
11260.602 6158.6045 8872.5713
5423.4463 3185.8838 6012.79
10730.465 40551.684 7613.4727
1697.2932 35146.02 8654.5195
4941.9541 25592.352 3385.2756
16975.156 5291.8701 357.51221
4957.0732 28306.818 2002.307
7261.8281 2505.9446 7508.0449
19313.686 12465.59 6267.1299
18304.695 8998.9395 4491.5171
12459.326 10868.144 9344.6582
15291.799 29544.732 2942.6453
16860.266 1748.0996 2788.7124
14348.765 24381.578 3467.4717
15111.131 7385.2905 7013.4546
2414.511 29328.605 2783.7466
15648.493 27341.244 4407.7495
7449.2207 12104.957 3344.1829
1606.7339 1924.9917 6853.1509
16877.777 1760.1118 6991.4629
18555.691 23622.297 8501.5088
9405.5889 36620.16 4743.3091
1060.2711 32705.266 8408.8164
15728.049 28062.004 6537.7651
11895.59 3325.5945 6205.353
17959.723 10002.523 2356.0032
15538.287 14693.421 3352.4761
4259.2798 30677.604 7130.1719
339.00171 31469.77 460.29456
11921.16 27243.562 3392.6843
14608.928 22533.807 3224.4792
3096.3591 31128.59 6351.8945
17159.934 3110.6189 5895.606
11201.29 23362.225 1987.4081
2498.9863 31327.555 6900.5635
1099.1353 7829.0381 167.80098
649.87415 4213.0088 4360.0039
13918.871 13123.236 1982.6542
16647.73 2596.5249 3910.0251
16194.407 25388.859 1988.349
11572.297 20039.816 1985.8655
13619.821 28730.559 3121.4912
11556.064 13863.452 3349.8169
13691.237 12045.982 3343.9939
16515.438 4712.0352 6051.0366
18402.91 3431.9968 2953.7798
19191.346 19654.191 6903.0894
16813.926 35815.945 2189.2876
11449.757 25939.254 3388.5056
8720.4385 40256.52 3735.8062
6535.9429 23706.729 3381.3528
14098.97 27249.074 5449.7285
17479.824 19499.068 11675.753
16686.887 17061.781 10293.1
10631.177 1273.4277 4117.8857
15337.394 24514.008 3095.8037
8325.4688 32783.527 8989.8691
18603.508 8203.9961 2004.7124
15925.118 28788.695 4166.8828
3775.0625 32579.18 9677.5996
18000.664 30698.67 1893.6406
17078.012 15998.325 6696.7056
946.87366 5453.3291 1337.6953
548.81354 17563.592 7305.8838
11597.446 23647.506 3381.1631
4259.2798 3765.314 5714.4727
9716.3496 10475.801 4401.2471
18129.516 38441.836 4626.7563
11458.738 26051.689 4704.5815
10896.391 32531.355 9004.666
14613.338 2609.9443 3432.6868
13529.284 16870.598 1984.394
4259.2798 5254.3447 4377.1436
19214.5 4067.6401 5012.2666
7436.4565 27875.551 3394.709
256.46658 27939.086 4734.4932
18893.178 7004.998 4610.6455
10531.336 26493.848 3390.2822
18116.664 10159.74 3204.4026
7960.6255 28179.037 10295.975
295.69397 34780.965 1233.3096
11277.909 6107.6255 8862.6846
9940.5996 29470.316 6804.5098
93.468422 27340.217 5330.9478
771.22638 3488.1768 4123.0693
19016.311 5991.1729 5030.0415
15309.235 36327.645 5453.5791
13276.649 1081.9669 4601.2881
19024 31100.129 1216.6167
96.079208 16880.961 5181.6499
2810.8511 13189.366 5036.5732
13149.09 7920.8369 8776.9307
13713.598 29385.562 7442.9062
1894.2604 17533.113 9345.3174
9475.3145 19156.684 1985.4554
7580.7729 39917.875 6016.3564
9327.6152 39072.875 8267.7314
19077.291 33683.742 187.57019
7516.9751 8230.7383 9140.8555
9372.7949 16295.201 3357.6077
13480.527 12126.575 3344.2522
8843.54 27697.207 4106.2007
19241.295 30199.914 5319.1309
12289.604 14162.741 10082.205
9122.7754 17036.467 1984.4709
882.02216 34150.406 4033.8608
17475.08 37019.438 8317.5234
5017.4121 26743.088 4368.8662
18030.539 5576.7852 5518.3857
2833.1663 12511.86 1982.3704
10582.101 10180.768 9426.7275
18394.797 32917.152 6760.8276
19013.148 4765.7617 5189.6826
16294.21 14432.339 1983.262
17297.574 27297.855 10494.483
1238.0118 29348.238 4069.8813
11862.95 12662.21 7602.126
17761.227 14091.54 9114.8203
3887.4348 8573.8096 6664.7832
17205.184 15254.468 6754.4683
7416.7261 13567.819 3348.8696
4234.7998 26074.574 4265.3628
14906.394 30104.777 9479.7773
17500.082 35671.109 4945.3115
17260.277 19784.816 5051.2075
19041.555 6903.3608 7476.999
12272.077 21356.375 3373.8228
2724.0913 34678.727 680.37219
4259.2798 3603.8364 3909.9658
12860.24 19361.014 3367.4299
16408.004 6471.271 143.88715
4259.2798 9723.6484 4707.8125
13481.002 17283.545 1984.5857
11368.682 25108.357 4280.2695
10846.359 929.47406 4969.2051
2234.0251 21039.322 3372.8071
1297.356 5798.9741 6620.6831
15291.8 8567.251 4753.4785
13601.596 2599.5935 3784.043
5793.1064 12299.919 1982.2719
17495.277 31690.732 6998.165
11329.673 7858.8232 9138.7939
11386.312 12584.124 7471.7285
10051.934 30279.062 6467.8027
4722.1934 28752.189 3928.4512
5449.5254 20170.699 3370.0239
15030.381 36781.391 3682.9424
19135.361 5487.4546 367.39911
16718.879 34125.152 6995.6621
512.65002 4529.0801 2173.7742
8335.792 13441.138 9731.4434
19462.451 23093.365 5371.627
7902.7295 11910.662 3343.5605
11084.931 23728.516 3381.4229
7063.1011 10630.898 3368.021
11194.48 35331.945 6559.3564
4781.1553 22581.062 3625.6533
17264.072 20077.469 4448.2104
4428.166 26155.93 3775.4038
9390.2373 21653.232 3374.7739
6984.915 12006.348 5040.3804
16749.072 30140.203 1129.3007
14399.494 10756.4 8987.2754
16964.145 25527.523 3968.231
1959.5393 26566.633 10128.62
16147.275 25658.047 5257.668
18724.807 5522.0308 6530.1763
5130.2197 27744.568 6868.9824
1539.9952 28267.902 9893.7637
1803.0627 34590.441 600.66101
14311.03 27543.715 7741.0938
10674.723 4544.8262 8488.1582
18999.23 32463.043 1097.7766
18259.334 9555.3682 5319.2949
15542.28 12158.726 3986.6841
16979.611 6930.7305 6762.1519
4126.3989 27874.018 5497.9756
13186.016 27937.771 7737.23
19067.904 6959.6465 4421.7139
4843.9717 18866.648 3365.8462
719.31323 6155.7407 4566.2617
5010.0366 39923.023 3382.019
14434.145 11143.784 9013.1816
8120.29 6372.7646 7117.3037
15380.919 18274.109 1985.0457
6306.8271 1515.328 3519.1592
9530.1885 20839.979 4253.8745
3270.4585 39752.902 4360.9116
1643.1024 30465.887 5968.4546
7216.2896 12642.557 7235.0278
12576.263 21456.057 1986.5229
14206.053 38760.688 8513.1367
6120.8667 27727.154 6547.0757
15056.534 20666.365 3371.6121
18823.32 21840.535 7898.8154
13047.029 39657.516 4828.3062
7780.1396 25972.977 4230.0889
17207.186 35025.547 5813.7993
10466.08 25675.354 4216.6499
18671.121 34268.586 5032.5181
