# .PCD v0.7 - Point Cloud Data file format
VERSION 0.7
FIELDS x y z
SIZE 4 4 4
TYPE F F F
COUNT 1 1 1
WIDTH 1506
HEIGHT 1
VIEWPOINT 0 0 0 1 0 0 0
POINTS 1506
DATA ascii
2.3614588 -2.0260968 0.25452623
1.0900959 -1.9591558 0.25345063
2.0988569 -1.8939378 0.25106233
2.2611215 -1.8709543 0.25821263
0.24688672 -1.8552407 0.25415519
1.0913677 -1.73562 0.25791898
0.81237113 -0.86229926 0.25757685
0.34773299 -0.761154 0.253512
0.34733418 0.2391016 0.25797597
1.3741179 0.75555843 0.25310659
0.32208449 1.4639646 0.25301552
0.22038013 2.0513687 0.25047854
0.95552069 -2.38994 0.26233679
1.3737448 -2.2300882 0.26291025
0.75419128 -1.72278 0.26659876
0.22036332 -1.2727492 0.26986635
1.7610214 -1.2073014 0.26315415
2.260911 -1.0949676 0.26882264
0.8066892 -0.87467057 0.26153702
0.34763372 -0.51211542 0.26281166
0.80062026 -0.43749881 0.26718161
1.6900885 -0.3249709 0.2601805
1.4263701 -0.14289035 0.26682699
1.4673812 -0.053524323 0.26682699
2.1834123 0.19781956 0.26442882
1.6940049 0.77914482 0.26714361
0.62261301 0.78645098 0.26558226
0.46815479 1.0758761 0.26753709
2.2218802 1.4581892 0.26365978
0.28518903 1.6994057 0.26081958
1.385088 1.6905366 0.2616249
1.4624473 -3.1157181 0.274055
1.4485414 -2.32254 0.27160528
1.6500578 -2.2454515 0.27309051
1.4666967 -2.153672 0.27543876
2.3411429 -1.9278939 0.27695638
1.6632426 -1.8626356 0.27996191
2.005578 -1.7525599 0.27329978
1.7001276 -1.4000758 0.27823329
0.23537824 -1.2710124 0.2734476
0.80447066 -1.2317692 0.27697966
1.7622404 -1.1762913 0.27296841
1.9150169 -1.0362575 0.27429312
1.6993935 -0.46146181 0.27915788
2.2933915 -0.46194935 0.27521145
1.4498124 -0.047486082 0.27018905
1.1081028 0.79369676 0.27850413
0.62261301 0.84523541 0.27902371
2.1836946 0.90590751 0.27439982
2.0740895 0.95355535 0.2773768
2.0516267 1.1337173 0.27831021
0.48998827 1.1455164 0.27786711
0.52011096 1.2008222 0.2715835
2.0247555 1.2197154 0.27085575
2.0024199 1.3802493 0.27903882
2.0214546 1.3960521 0.27400613
0.48579973 1.5371642 0.2786864
0.5395472 1.7175288 0.27737999
1.5479076 -3.1056738 0.28843153
0.54794723 -3.0739429 0.28662407
1.7344272 -2.32254 0.2842764
0.82620966 -2.278116 0.28206775
1.05247 -2.2080302 0.28183097
1.1040207 -1.5875534 0.28811324
0.25129962 -1.463519 0.28277689
1.210889 -0.92863703 0.28211969
1.3098658 -0.88565612 0.2820437
2.1831086 -0.56418312 0.28373972
0.82273299 -0.49765825 0.28302154
0.79081565 -0.416733 0.28864804
0.83759153 -0.37789351 0.28361785
0.44439498 -0.36745301 0.28698289
2.2350402 0.23344144 0.28596836
2.3080091 0.24839538 0.28623623
2.1867609 0.3520588 0.28732222
2.3065574 0.38958907 0.28814861
0.33637804 0.82292068 0.28073162
2.0402937 1.2557681 0.28506666
0.48294377 1.2760854 0.2863934
2.0331042 1.4784117 0.28248519
2.0662301 1.505908 0.28384069
1.0500764 -3.0914483 0.29690656
1.0784439 -3.0950842 0.29455245
1.6100346 -2.3269832 0.29421848
1.6168411 -2.1665695 0.29343873
2.1522689 -1.8857257 0.29171562
0.96279955 -1.8717232 0.29475617
0.20207946 -1.8254116 0.29996806
0.50383121 -1.7551498 0.29144445
0.22310388 -1.1139179 0.29716519
2.3251514 -0.94578552 0.29782653
0.61162144 -0.70308316 0.2981011
0.34768656 -0.64467657 0.29315513
2.3014569 0.59469724 0.29096711
1.4042701 0.62933701 0.29859447
0.55450302 0.80654651 0.29060364
1.6192229 0.80760992 0.29050812
1.5143306 0.81317848 0.29260066
1.1293789 0.92392755 0.29855534
2.2914767 1.0322714 0.29519746
2.2547433 1.1425599 0.29527229
0.52284276 1.2942777 0.29251805
0.23199028 1.4432921 0.29086408
2.0108728 1.5009779 0.29586783
0.46483839 1.6805608 0.2969802
0.2252574 2.0628135 0.29515961
0.71810502 -2.39501 0.30590189
2.1101563 -1.7620473 0.30880666
2.0271723 -1.6187757 0.30678314
0.79982978 -1.4460955 0.30184427
1.7154406 -1.0165714 0.30168888
2.1832023 -0.32919028 0.30535546
0.34731153 0.29597813 0.30298132
1.9762599 0.59635901 0.30458012
0.35710523 1.1772182 0.30247411
2.184782 1.1834407 0.3059814
2.3046703 1.1882052 0.30871108
2.0502226 1.4541289 0.30267906
2.0128331 1.5149254 0.30856299
1.2186674 -3.1039386 0.31893361
0.78581429 -2.2726052 0.31680205
1.1820014 -1.9975071 0.31491727
0.57998317 -1.832266 0.31824091
0.79459333 -1.7547127 0.31826365
0.89537394 -1.7294101 0.31175232
1.4444935 -1.5595552 0.31406158
0.80164659 -1.5489402 0.31225854
1.8612432 -1.3435588 0.31557578
1.2790444 0.31264177 0.3174538
1.4315892 0.71387106 0.31770778
0.96617776 0.777861 0.31579897
2.055196 0.94800174 0.31340492
0.22362536 1.4723599 0.31583631
2.0596926 1.6980697 0.31953627
2.0582137 1.7051861 0.3197796
1.9425358 1.755649 0.31523362
0.20491666 1.899143 0.31874537
0.48984182 1.9340816 0.31054747
0.49711522 1.9872044 0.31454077
2.0583825 2.0366287 0.31131503
0.71383095 -3.0656204 0.32611904
1.2979232 -2.3777499 0.32361677
0.15767387 -2.0118599 0.32916477
1.0769944 -1.7919009 0.32343596
0.5827347 -1.72278 0.32785279
1.9415178 -1.0008243 0.32940099
1.919504 -0.98913479 0.32940099
0.52565575 -0.90170765 0.32940102
0.52668834 -0.87761974 0.32940099
0.5288763 -0.85936022 0.32940099
0.56187057 -0.81899083 0.32940102
1.9830326 -0.80846572 0.32940096
0.41189703 -0.73972934 0.32940102
0.43683705 -0.71425813 0.32940099
2.102541 -0.70408821 0.32940099
0.56098557 -0.68667316 0.32940099
0.42482537 -0.56351733 0.32940099
0.52516109 -0.46679455 0.32940099
1.7301809 -0.41673303 0.32126114
2.1694453 -0.40780938 0.32940099
0.20294598 -0.38674766 0.32870227
0.9483912 -0.3674522 0.32656413
2.3332238 -0.11884472 0.32871935
1.2985996 0.70993447 0.32827425
1.4968975 0.86767203 0.32283697
2.1837354 1.0085876 0.32384127
0.27511454 1.5833352 0.32169795
0.39553118 1.8180244 0.3270303
2.043602 2.0492868 0.32327563
1.2593771 -3.0957935 0.33563387
1.6308556 -3.0570889 0.33849737
0.60312134 -3.0360775 0.33772415
1.5827956 -2.8288069 0.33979753
1.220825 -1.977917 0.33054101
2.0729434 -1.7420794 0.33094507
1.4941734 -1.6538289 0.33402076
1.4471503 -1.508832 0.33054101
2.1833363 -1.4516715 0.33890444
1.2467153 -1.4342288 0.33054101
1.0668457 -1.3754653 0.33054101
1.4797345 -1.2988089 0.33054101
1.2670954 -0.65600049 0.33576369
1.0434809 -0.5935241 0.33410349
1.2353809 -0.19916865 0.33777672
2.3467429 -0.18373106 0.33536762
0.18703865 0.48794961 0.33634189
0.34721279 0.54366392 0.33074656
1.9762599 0.6088379 0.33742148
1.1727743 0.66260374 0.3394047
0.34715232 0.69530374 0.33978921
0.80837756 0.80705822 0.33251297
1.6626592 0.81234467 0.33575439
1.68074 0.95980513 0.33724159
1.1696751 1.0094862 0.33596933
2.0660987 1.3752456 0.33326006
1.0587956 1.565335 0.33278462
1.1484873 1.71086 0.33487129
1.9802916 1.7133582 0.33497393
0.48136461 1.9254806 0.33192036
0.51122987 1.9366111 0.33219904
2.0463364 2.1404414 0.33793387
1.8810091 -2.8900609 0.34409618
0.3942025 -2.8663189 0.34159574
1.4042035 -2.3777499 0.34374163
1.7044946 -1.7634702 0.34648323
0.6499334 -1.72509 0.34906194
2.3450961 -1.7260312 0.34337521
0.41519952 -1.6461349 0.3406876
0.32703778 -1.0417471 0.34969604
0.61402118 -1.0362432 0.34803206
2.2321799 -1.0369996 0.34222692
1.8148762 -1.0287758 0.34588617
1.4776437 -0.90258914 0.34891048
1.8523184 -0.89625454 0.34825975
0.37982014 -0.82719558 0.34751862
1.0193888 -0.77539921 0.34032738
0.31398895 -0.74723637 0.34751967
0.72768354 -0.66927981 0.3475036
0.86177981 -0.59646159 0.34749854
1.037824 -0.5820806 0.3474867
0.5720793 -0.55683643 0.34750363
0.51022691 -0.54168522 0.34750274
1.4285668 -0.54679209 0.34748429
1.4153 -0.44624224 0.34748989
1.8216656 -0.40529716 0.3474912
2.080025 -0.40425593 0.34749225
1.4860173 -0.38815644 0.34748954
0.68062496 -0.37770176 0.342123
0.53348029 -0.21818733 0.34749177
1.9966817 -0.20646064 0.34749177
0.49867505 -0.18176758 0.34749192
1.961218 -0.15875605 0.34749162
2.17048 -0.15760022 0.34749252
0.39304411 0.19946674 0.34949252
0.29390359 0.25306839 0.34802112
0.39922756 0.3204082 0.34955186
0.39182079 0.37617514 0.34942842
0.60511535 0.69285667 0.34775516
0.5242511 0.95964545 0.34597313
1.6123531 1.0269123 0.34194189
1.314854 1.0338601 0.34884119
2.1837885 1.1415094 0.34874013
0.40868801 1.5723338 0.3405225
0.29079917 1.878993 0.34986395
0.460596 2.0609097 0.34999382
0.52632082 -3.0258615 0.35717061
2.1472201 -3.0203204 0.35669261
0.48821813 -3.0185707 0.35533971
0.46434635 -2.0219626 0.35125259
0.57137012 -1.8350135 0.35103065
1.9188398 -1.0995959 0.35108075
0.52970445 -1.0810314 0.35925245
1.8130879 -1.0894414 0.35376173
0.42686361 -1.0375075 0.35911089
1.0073342 -0.99654961 0.35891849
2.2359939 -0.96096069 0.35516101
2.255738 -0.93964958 0.35289657
1.4807615 -0.73325861 0.35956067
1.0701933 -0.51301795 0.35073543
1.2474893 -0.27662477 0.35653013
2.316612 -0.15024307 0.3587302
1.3795177 -0.13489063 0.35456163
1.563694 -0.13214517 0.35193199
1.5710173 -0.10776142 0.35248882
1.4959342 -0.020510767 0.35596853
0.97511148 0.0091721341 0.35590026
1.2327492 0.083096512 0.35960016
0.56677532 0.10834216 0.35207024
1.5225466 0.15754512 0.35911164
2.0858381 0.2318016 0.35024682
1.9132655 0.27208695 0.35277319
1.960618 0.33724254 0.35333079
1.1733809 0.66287708 0.35662013
1.6618348 0.69690228 0.3564117
1.9667366 1.015088 0.35962549
1.529628 1.0398469 0.35380504
0.62261301 1.1362209 0.35920271
1.1062543 1.7319701 0.35936257
2.0662301 2.1780045 0.35039556
1.7905612 2.9310517 0.35894012
1.8241229 2.94906 0.35622439
0.72775316 -3.0690079 0.36506867
0.83006072 -3.056706 0.36277252
1.6852492 -2.3221033 0.36839926
2.3054824 -2.0878768 0.36295551
0.6698662 -2.0095387 0.36276919
1.9094511 -1.9631124 0.36208454
0.43792948 -1.9317412 0.36023003
0.93015635 -1.8534875 0.36673307
1.8195381 -1.7765653 0.36454117
2.1068356 -1.1561689 0.36566806
1.2240337 -1.06963 0.36133948
2.2077124 -1.0357896 0.36996669
0.25497323 -1.0113122 0.36831748
0.23697148 -0.51841831 0.36879951
2.2860501 -0.13875405 0.36938709
2.2756977 0.5228141 0.3678689
0.30820608 0.60100675 0.36413103
1.137362 1.4339172 0.36130115
2.3482907 1.6423281 0.36421245
1.6802292 1.6689142 0.3621757
0.23814306 2.0697925 0.36862415
0.45165896 2.0621679 0.36870581
0.47519436 2.1573665 0.3686645
2.0569885 2.1587262 0.36884248
0.48468879 2.2304807 0.3671712
0.67109388 3.0278754 0.36333761
1.9228566 -3.1328623 0.37718225
0.20894586 -2.5997119 0.37699106
2.3616951 -2.0363293 0.37994373
2.3616307 -2.0013275 0.37131846
0.77669001 -1.3887507 0.37530002
0.46303514 -1.3201842 0.37170362
0.46289271 -1.3166633 0.37417182
1.7584207 -1.2734529 0.37929851
1.6183202 -0.93154854 0.37443557
1.654628 -0.92535788 0.37866127
2.2718899 -0.22323531 0.37072092
1.006795 0.30902806 0.37274432
0.84499502 0.46178472 0.3784245
1.8476087 0.468725 0.37091097
0.66425031 0.48966542 0.37138799
2.0634632 0.63844472 0.37647241
1.1852801 0.65530425 0.37682387
1.7839813 1.1199493 0.37719989
1.4919773 1.5500668 0.37168118
0.46061134 2.2797275 0.37817073
1.8178509 -3.159559 0.38469988
2.1930354 -3.1405301 0.38384098
0.23755667 -2.8723726 0.3853997
0.18128912 -2.3347943 0.38702381
0.71574831 -2.1900499 0.38907129
0.17652389 -1.9494541 0.38082209
0.52965707 -1.7543736 0.38605759
2.1380401 -1.7483799 0.38814032
2.3584733 -1.3817432 0.38289636
1.7546167 -1.3702183 0.38482851
2.0579655 -1.3010408 0.38274837
0.69785905 -1.1671054 0.38682121
0.35836262 -1.1559907 0.38718539
0.49613845 -1.0443563 0.38405046
2.3121281 -0.87351573 0.38672638
1.0917714 -0.59883428 0.38504755
2.3583741 -0.20381017 0.38033679
1.6569715 0.52939069 0.38582149
1.1171026 0.61298251 0.38457543
1.3414922 0.70703441 0.3813526
0.27257735 0.8012464 0.3839747
0.62261301 1.0650237 0.38451946
1.2592629 1.3182099 0.38280803
1.9489684 1.7009366 0.3824999
1.9555399 -3.1784215 0.39050055
2.2937846 -2.8813679 0.3919833
2.3349814 -2.6322572 0.39650336
0.69504201 -1.7824022 0.39900008
0.45887163 -1.3803992 0.3994396
2.363966 -1.095731 0.39965534
2.1699581 -1.0537151 0.39956209
1.068689 -0.82564998 0.39430115
1.5000138 0.58108401 0.39959627
1.6613421 0.59896404 0.39313319
1.5802895 0.60639369 0.39815888
1.6422311 0.63690269 0.39823952
2.2024729 0.89840621 0.39740455
1.4332014 1.0875027 0.39055228
1.2758182 1.244536 0.39445022
1.2817426 1.3182099 0.39004767
1.8736558 1.7094567 0.39525867
1.2502911 1.74843 0.39880776
0.71583188 -2.2338548 0.40778601
0.38751695 -1.7344881 0.40270898
2.1432438 -1.7345586 0.40137061
0.6696437 -1.7226319 0.40163159
1.4246092 -0.68299609 0.4058325
1.2801836 0.48953536 0.40189996
1.1467149 0.61007488 0.40325639
1.0010191 0.69015002 0.40526074
1.497164 0.700418 0.40608805
0.84068727 0.72218633 0.40492743
0.95557332 0.74622458 0.4072938
0.83358204 0.79425347 0.40811104
0.746382 0.84799898 0.40957415
2.0445156 0.88598728 0.40428385
0.40675443 1.2463427 0.406423
2.2630301 1.6741751 0.40385896
1.3898544 1.71086 0.40705195
1.7704731 1.7889282 0.40153012
0.27995616 2.0679164 0.40539989
2.0134685 2.4144616 0.40723622
0.757496 2.9214001 0.40373975
0.9553889 -3.2636566 0.41960758
2.3465166 -2.6161973 0.41545182
0.62132955 -1.1557958 0.41072702
2.1406915 -1.1557827 0.41231588
1.2344762 -0.37842327 0.41115469
1.0131874 0.61707747 0.41636539
1.0934867 0.77515626 0.41013786
1.3623683 0.77659345 0.41103628
1.4881136 0.79854423 0.41063118
0.98711646 0.81262201 0.41065067
1.666943 0.83103925 0.41011286
1.0399288 0.85458368 0.41313791
1.3907378 0.9634496 0.4191801
1.0389636 0.99451721 0.41946229
0.37541658 1.0617473 0.41512409
2.0797315 1.5979737 0.41579831
0.22268161 1.8386997 0.41921133
0.43802962 2.7091007 0.41637772
2.320374 -2.826385 0.42453015
1.1459696 -2.3777499 0.42845669
0.1617821 -1.3858118 0.42229712
1.0384904 -1.3649125 0.42474574
0.25502926 -1.0403423 0.42945436
2.2760458 -0.77886289 0.42620319
1.7298105 -0.46529716 0.42748839
0.16138276 -0.0065848022 0.4230617
0.16100046 0.20290935 0.42565921
1.1372683 0.37250862 0.42308533
2.3675661 0.59504837 0.42279589
2.2556624 0.81540829 0.4265182
1.1323571 0.82849622 0.42686874
1.182078 1.0496806 0.4235518
0.95392233 1.0865933 0.4226847
2.1853452 2.0663791 0.42389598
2.271662 2.6310017 0.42776611
0.68881202 3.0067015 0.42960578
0.54490942 -3.2947171 0.43917221
0.15604204 -0.89017117 0.43659395
2.276041 -0.66551805 0.43333083
1.4152867 0.041382316 0.43374643
1.1283393 0.70888084 0.43173102
0.35027319 1.4442378 0.43348566
1.3931321 1.6078564 0.43817756
0.25885719 2.2221625 0.43401909
1.9019625 2.5672097 0.43527946
1.9441116 2.5892744 0.43499595
1.9783599 2.6695213 0.4398953
0.60973871 2.686543 0.43748105
2.0775101 2.7149441 0.43590403
0.78181225 3.02983 0.4382979
1.2546341 3.02983 0.43650466
1.307844 3.0226989 0.43492329
2.3818185 -2.2698569 0.444188
2.1577148 -2.0819013 0.44297534
1.7702231 -1.5628492 0.44825354
1.1974635 -1.2480402 0.44173187
2.275147 0.84336466 0.44404405
2.371304 0.90905482 0.44099674
0.15832047 0.96401018 0.44595969
1.6917591 1.1103722 0.44464993
1.5295775 1.71086 0.44815502
0.62208891 2.3440545 0.44131845
2.3242154 2.4454045 0.44046655
2.0239599 2.5695827 0.44011843
0.48499256 2.5920711 0.44631875
1.9008102 2.5981631 0.44697028
1.8915868 2.8241105 0.44453797
2.2718005 2.8674774 0.44636846
1.0499175 3.001621 0.44900596
1.2772995 3.02983 0.44636825
1.3557714 -2.3777499 0.45744246
1.829581 -1.5249425 0.45460528
1.9432064 -1.0855546 0.45209894
2.0030086 -1.089281 0.45824772
0.14627224 -0.87584472 0.4511776
0.3674472 -0.44461769 0.45886302
2.3842471 -0.23380995 0.45521483
0.7434417 1.7687371 0.45872658
2.0021906 2.7510815 0.4555777
0.82485378 3.02983 0.45438895
0.81347173 -3.3248062 0.46285394
0.62462234 -3.3139758 0.46283364
0.77297765 -3.2870159 0.46252522
2.1800203 -3.2665181 0.46743268
1.2454998 -3.247283 0.46247995
1.8610954 -1.6780624 0.46162993
2.2109787 -1.1553838 0.46050322
1.4403687 -1.0282397 0.46694487
0.25473395 -0.46769467 0.46459085
1.1792928 0.33574155 0.46786597
1.1570092 0.50142777 0.46152213
2.0188451 0.59856403 0.46647263
1.1608343 0.60203177 0.46624893
0.55450302 1.2627417 0.46935305
2.056478 1.3074543 0.46887136
2.2734773 1.4726107 0.46950027
1.7745991 1.6167586 0.46043912
1.3985493 1.6789869 0.46421498
0.60547203 3.0016217 0.46111757
0.33908325 -3.2691171 0.47870389
0.97903132 -1.6719428 0.479188
1.8529067 -1.4061475 0.47900039
1.3584058 -0.74085748 0.47990456
0.14198181 -0.73294669 0.47361672
0.96310663 -0.47845221 0.47015363
2.3882096 0.17649823 0.47580975
0.21169911 1.1907911 0.47024262
2.3533473 1.2707554 0.4794386
2.1513095 1.6335115 0.47163174
0.40868801 1.7093028 0.47725287
1.9088827 1.9797369 0.47900546
0.55744201 2.1028299 0.4730753
2.2720432 2.554944 0.47538131
2.0154419 2.9224324 0.47863501
2.2211094 3.0298872 0.47903958
0.54569262 3.0990276 0.4788824
1.9516082 3.0960703 0.47461087
2.2262111 3.0937939 0.47132358
0.15924537 -2.5677056 0.48561397
0.21070839 -1.5457963 0.48875591
2.2906301 -1.5240128 0.48957279
0.69785899 -1.3256854 0.48352861
1.2046057 -1.0554 0.48548692
2.2760448 -0.76359749 0.48420584
0.14250091 0.58819503 0.48234138
0.79140794 1.1274776 0.48389584
1.2690178 1.1266689 0.48636824
1.5848582 1.1286774 0.48840415
2.1219072 1.4628084 0.48417431
0.23865317 1.4919035 0.48208886
1.5163817 2.1198766 0.48663962
1.7380772 2.1599183 0.48627585
0.91141748 2.1895504 0.48983341
0.74751323 2.2382307 0.48958248
1.5264032 2.2457221 0.48575693
1.2260375 2.2697241 0.48916551
0.8558237 2.2995894 0.48909438
2.2719181 2.2992928 0.4896884
1.5602584 2.3252769 0.48885095
1.812959 2.3962822 0.48849237
0.77495372 2.4667945 0.4879694
1.6483021 2.5466814 0.487351
1.7490919 2.5627966 0.4872933
1.9430246 2.5775001 0.48083922
0.86890912 2.6167042 0.48687005
1.1186866 2.7106049 0.48617446
1.7152063 2.7224002 0.48615891
2.3485696 2.7312059 0.48088872
1.3194937 2.7407589 0.48598033
0.93946218 2.7685046 0.48580173
2.0787139 2.790503 0.48138878
1.9542577 2.8048222 0.48485857
2.1749091 3.02983 0.48669198
1.1212877 -3.3714623 0.49851289
0.88890743 -3.3621397 0.4913756
0.36130068 -2.0682282 0.49002662
0.46338579 -2.0264907 0.49130613
1.8247894 -1.9634011 0.49628562
2.3596859 -1.9562289 0.49507448
0.40282747 -1.8624318 0.4988445
1.9524448 -1.6982126 0.49769464
1.8533378 -1.54028 0.49381322
0.30595496 -1.1093352 0.49133813
1.1779982 -0.82065034 0.49089095
1.0918263 0.066602267 0.49308735
1.2672224 0.33016881 0.49462128
1.3318224 0.65047473 0.49179095
1.1392283 1.1301042 0.49387258
1.9220707 1.2771353 0.49190986
0.15876284 1.3102001 0.49528104
1.4705908 1.6047585 0.49559319
1.0689204 1.71086 0.49593303
2.2124743 1.8363609 0.49479076
1.6389706 2.0091348 0.49117595
1.7131984 2.0244644 0.49105769
1.5087098 2.1085887 0.49040866
1.1518965 2.1370754 0.4901889
1.3348931 2.1569386 0.49003565
1.6090484 2.159235 0.49003851
1.9783601 2.6530874 0.49993455
2.3544452 2.6922204 0.49067354
0.59219098 3.0016248 0.49958912
0.53875762 3.1106155 0.49561721
1.9544907 -3.3807542 0.50672042
0.69673383 -3.32687 0.50234187
2.354794 -2.751564 0.5014925
0.73694015 -2.315666 0.50186998
0.45253521 -1.9179244 0.50752664
0.37405539 -1.8494841 0.50323182
0.37235028 -1.2855365 0.50601822
0.41460717 -1.2868111 0.50464243
1.1175865 -1.2219667 0.50869423
1.2969229 -0.62043649 0.50149107
1.6879556 -0.49001348 0.5061115
0.77374756 0.58663094 0.50442427
0.25555584 0.80045044 0.50408995
1.2367423 0.88862789 0.5046531
2.2749586 0.96556032 0.50741708
2.2965505 1.4767839 0.50355411
1.1585865 1.7319701 0.50396883
0.52792865 2.6218009 0.50945461
0.44898072 2.7215161 0.5089432
0.84823889 3.0373287 0.50319028
0.97818208 3.1137424 0.50015706
1.7045808 -3.3843036 0.51061779
2.3717911 -2.6261916 0.5151211
0.59659618 -1.7276222 0.51648962
0.26940912 -1.1260718 0.5189544
2.1858263 -0.35446429 0.51650017
2.1858237 0.0031732023 0.5187149
1.8044771 1.1428642 0.51894969
2.0191722 1.2206074 0.51328444
2.2546799 1.5629609 0.51481289
1.1978385 1.7319698 0.51681358
2.2188158 1.8168998 0.51893747
0.43648168 2.6864665 0.51400149
2.3638575 2.6839051 0.51879871
1.3963804 2.9630768 0.5117057
0.30533364 3.122798 0.51350152
1.9500688 -3.2468958 0.52369732
0.14879574 -2.5476048 0.5296334
0.76294529 -2.3886001 0.52406454
1.397115 -2.3777499 0.52806926
1.504842 -2.3777499 0.52534968
1.4589944 -2.0244985 0.52775609
2.3490887 -1.9012253 0.52573222
1.9067135 -1.1306338 0.52648205
1.2950166 -0.72130138 0.52687848
1.4732196 2.9762135 0.52321994
1.6523665 3.0016799 0.52777863
0.71934468 -3.2706888 0.53388
2.277061 -1.7922074 0.53484619
0.3999975 -1.743466 0.53923053
0.69785899 -1.16719 0.53982484
2.2644882 -1.1547879 0.53248483
0.246783 -1.1405605 0.53699625
1.6790549 -1.1377882 0.5382871
1.9576594 -1.1367201 0.53652477
1.1329558 -1.1017344 0.53159153
1.2161226 -1.1014868 0.53424633
2.3699121 -1.0363665 0.53797024
0.13021906 -0.13649264 0.53479731
0.25417387 -0.06083753 0.53841317
0.13058262 -0.023785409 0.53321457
0.13141078 0.47080457 0.53032613
0.62228447 1.9591603 0.53158098
0.56587338 2.3597085 0.53186762
0.44511968 2.6347251 0.53965485
1.532571 3.0600395 0.53457433
1.7468019 -2.3886001 0.5497278
1.0770934 -2.3777499 0.5462603
0.69785953 -2.1247184 0.5443629
0.29048789 -2.0456643 0.54945928
0.67502564 -1.8285742 0.5413686
0.246783 -1.0899926 0.54996186
0.25473005 -0.61177331 0.54912245
0.12839824 -0.061354645 0.5437485
1.3309822 0.089420989 0.54693985
2.276547 0.15574795 0.54844677
0.25443843 0.31443673 0.54078293
0.93622184 0.5736751 0.54598963
1.484035 1.1510477 0.54154378
0.55723798 2.0966144 0.54110563
1.9665303 2.3098016 0.54750365
0.5374316 2.8354275 0.54094118
1.9893074 2.9259737 0.54790819
2.4002309 3.0226002 0.54800338
1.8952581 3.1435494 0.54405701
1.3617051 -3.3633187 0.55736005
1.5906231 -3.2914267 0.55730408
1.6048748 -3.2772858 0.55729586
1.7676978 -2.3886001 0.55282044
0.12699041 -2.253828 0.55480349
0.71234757 -0.50672221 0.55926257
0.35837871 -0.46237236 0.55575752
2.4043784 -0.36307013 0.55363739
0.12617825 0.99741542 0.5593518
2.1147296 1.5141073 0.55192828
2.1294341 1.5219487 0.55106354
0.40868804 1.6064639 0.55404645
0.62057841 2.0930519 0.55740929
2.1019073 2.5775001 0.55752975
0.35933104 2.5947499 0.55025154
1.9396911 2.7576933 0.55818498
0.18004836 -2.8882143 0.56196737
1.9499383 -2.4389973 0.56222349
1.641695 -2.3079839 0.56387198
1.8329099 -1.8898559 0.56582463
1.5584086 -1.739453 0.56349754
0.67203838 -1.5466104 0.56615365
0.2552565 -1.1489806 0.56240839
2.4062457 -1.060234 0.56533051
1.4884187 -0.50767106 0.56712174
2.4074996 -0.27562588 0.5689832
0.12318457 -0.056187585 0.56937891
2.2718899 0.51018196 0.56265116
0.2554121 0.70658696 0.56965661
0.25523868 1.0423707 0.56639767
0.29754117 1.5680517 0.56621075
1.2355919 1.6111443 0.56204289
2.1220801 1.6576098 0.56138939
2.0565794 2.2626231 0.56277299
0.40910149 2.2812209 0.56277299
0.49115294 2.3317003 0.56277299
2.0009522 2.3609123 0.56726635
0.27311322 2.4038687 0.56658214
2.2387381 2.4067206 0.56663316
2.2276859 2.5360343 0.56946868
1.9362924 2.8066459 0.56037021
1.6683218 3.0017359 0.56682003
1.8231663 3.1593897 0.56781685
1.5928713 3.1624613 0.56136107
2.3114936 -1.3212616 0.57659489
0.25521675 0.57877392 0.57461202
2.1473739 1.1692864 0.57657468
2.3310628 1.191051 0.57973629
0.42831275 1.7973943 0.57368845
1.9231553 2.0694818 0.57033718
2.0104952 2.1655054 0.57495606
2.2426107 2.1969266 0.57943141
0.35534579 2.2609427 0.5708465
2.2095327 2.2664118 0.57061297
2.0336297 2.2714324 0.57038271
1.9011748 2.5883708 0.57310623
2.2543352 2.6245849 0.57135689
2.0651331 2.670579 0.57220781
2.2109034 2.7016344 0.57303923
0.3632046 2.7805357 0.57296741
2.1988664 2.8010521 0.57292432
0.29787096 2.8267608 0.57288462
1.9916267 2.8516855 0.57281768
0.44397211 2.8629966 0.57279277
2.2514904 3.0917172 0.57845682
0.40514773 3.1663575 0.57824063
2.3664715 -2.7823672 0.58284545
0.69576687 -2.0502653 0.58617461
0.4627009 -1.9957013 0.5897373
0.67117703 -1.874442 0.58017558
2.1354089 -1.6500332 0.58788276
0.55431384 -1.1752636 0.58674467
0.12070132 -0.86688453 0.58398533
0.34493238 -0.30330262 0.58473629
0.41119507 0.10516138 0.58328831
0.46289474 1.3361825 0.58353728
0.52647686 1.3370287 0.58459449
1.9762599 1.4138963 0.58422554
2.3391464 1.5176239 0.58721554
0.27725789 1.6437593 0.58704275
0.89217538 1.8449199 0.58561802
0.45945281 1.8643327 0.58061647
2.3926387 2.3791695 0.58453155
0.31337532 -2.0201921 0.59786057
2.0710747 -1.5161602 0.59563565
1.8634515 -1.3031584 0.59497702
1.8402524 -1.1757059 0.59798157
2.4110677 -0.40808177 0.59127903
0.72962344 1.1745806 0.59273708
2.1220801 1.7093349 0.59116381
0.5885632 2.0391774 0.59808415
2.3924124 2.5433979 0.59069413
1.7504257 -3.4505806 0.60530889
1.8431001 -3.4486437 0.60617775
1.72995 -2.3550391 0.60806799
1.0013429 -1.4339259 0.60778427
1.8378762 -0.50537229 0.60815203
2.1296215 -0.046387032 0.60605514
1.470813 0.017997874 0.60154992
1.6335934 0.56879097 0.60347986
0.25547206 0.8886804 0.60075378
0.30468544 0.93201751 0.60866004
0.98788822 1.0644816 0.60374916
1.9554116 1.0708772 0.60400867
2.1857533 1.0980197 0.60759866
1.7526004 1.177959 0.60113269
1.3656428 1.8289865 0.60030234
1.7783203 1.8222177 0.60654056
1.9318353 -3.442198 0.61338693
1.0110145 -1.8019476 0.61709213
0.59766775 -1.6838372 0.61164755
0.16536546 -1.5475156 0.61488163
1.1479954 -1.2480314 0.61842078
0.51581991 -1.1608948 0.6139071
0.64606583 -1.1608708 0.61660731
0.24678302 -1.1338824 0.61633062
0.24473961 -0.90412223 0.61717916
0.261758 -0.62428081 0.61593002
1.7231389 -0.50158095 0.61722034
0.25055507 -0.41517523 0.610394
2.0890412 -0.085082226 0.61895508
1.7146825 -0.039723419 0.61107767
0.116845 0.045900196 0.61198831
0.95631731 0.57975733 0.61965096
2.1862264 0.97474813 0.61961621
1.4248719 0.98899525 0.61930919
1.3509274 1.0184759 0.61418933
1.2292898 1.0286264 0.61242646
2.2183437 1.1171285 0.61189783
2.0192099 2.0567405 0.61951756
1.0438514 2.3040586 0.61887467
1.078634 2.3391058 0.61884624
1.2555424 2.3360076 0.61894006
1.6304548 2.3583958 0.61899376
0.97204369 2.3705449 0.61893344
1.004954 2.4241385 0.61907887
1.2059095 2.4448142 0.61929661
0.2214653 2.4678209 0.61954856
1.9583714 2.6457434 0.61943161
0.23425731 2.6778586 0.61953777
0.2910378 2.7395618 0.61949205
2.3386889 2.7518702 0.61957288
2.1766906 3.1911688 0.61544532
2.2080691 3.1932261 0.61852777
0.65880346 -2.0615146 0.62587249
0.16292232 -1.808326 0.62116015
1.8053266 -1.7220299 0.62522292
2.337425 -1.664319 0.62304914
1.2235489 -1.2311993 0.62333488
0.56699187 -1.2068172 0.62987494
1.7395313 -0.49164924 0.62852693
1.2142262 -0.14849181 0.62996727
1.53171 -0.14837642 0.6299473
1.2742585 -0.12358816 0.6256423
1.3859613 -0.1179788 0.62466818
1.8093009 -0.10208069 0.62190711
0.261758 -0.0056146681 0.62200928
1.5952561 0.024334859 0.62808681
1.8343757 0.12249288 0.62417948
0.72837907 0.57763278 0.62353522
2.4153948 0.57807648 0.62269163
1.9023907 0.93846685 0.62808442
1.7029886 0.94286323 0.62732095
1.3994093 0.96901894 0.62277842
2.4149754 1.1115541 0.62265474
1.5730803 1.7959254 0.62853146
0.51149106 2.116781 0.62587309
0.19171059 2.1433229 0.62605625
1.5488622 2.6572244 0.62007898
0.90683007 2.7387156 0.62027287
1.2249477 2.8800731 0.6203841
2.1644447 2.9761484 0.62045658
2.2636218 2.9807816 0.62042886
2.1663229 3.0476246 0.62066472
0.51755136 3.0908799 0.62085414
1.5117141 3.1072798 0.62129003
0.67063338 3.1151578 0.62142915
0.90593129 -3.4211149 0.63118052
2.3503854 -2.9542117 0.63481867
1.7032874 -2.3191991 0.631024
0.44296086 -1.6673782 0.63494414
1.0265 -1.5025208 0.63191956
1.1774871 -1.160742 0.63143933
1.87321 -1.1607202 0.63506681
0.45433658 -0.48048475 0.63668215
1.8344703 -0.15096888 0.63039744
1.5669899 0.025015779 0.63093817
1.4402558 0.12605688 0.63305235
2.3664751 0.51648092 0.6305387
1.0231299 0.88829267 0.63477546
0.94144487 0.90107453 0.63347816
1.7772467 0.90978301 0.63259435
2.3125243 1.9685845 0.63162112
1.4911473 3.1084886 0.63001573
0.73076093 3.1213713 0.63842463
2.0806293 -3.4101145 0.64006412
0.66258162 -3.4000788 0.64752632
0.20997199 -3.1354084 0.64540744
0.69769192 -1.7938687 0.64501667
1.0350542 -1.4493734 0.64011949
0.66976821 -1.4391907 0.64463961
1.6242995 -0.45872337 0.64193988
2.2768712 -0.40938297 0.64330482
0.25382033 -0.39811742 0.6456207
0.82187539 -0.38985169 0.64680344
1.5286182 -0.34708783 0.64975435
2.023963 -0.33780885 0.64999861
1.3764697 -0.31803745 0.64799184
0.63197535 -0.3051874 0.64668763
0.79097658 -0.28109133 0.64424193
1.3169037 -0.2641587 0.64252329
2.2690101 -0.19668236 0.64296961
0.25411943 0.49053144 0.64105189
1.5926708 0.62013793 0.64231372
1.812664 0.62018716 0.64232039
0.39954412 0.67602015 0.64786184
1.2227657 0.71245068 0.64916247
2.2782876 0.78710866 0.64962399
1.8767612 0.815027 0.64221179
1.2703434 0.82497847 0.64120173
2.2690101 0.89249021 0.64945757
1.2407463 1.1050303 0.64615637
0.27706149 1.1970973 0.6400606
0.33041629 1.2001154 0.64767253
0.22673514 1.3550764 0.64802825
2.0640469 1.6377224 0.64667177
1.2232484 1.7478009 0.6473614
0.77930331 1.7519406 0.64446437
2.4117794 2.0758998 0.64943653
0.57204938 3.1232967 0.6437093
1.4654999 -3.3949203 0.6512897
1.3999612 -3.3871191 0.65750462
1.3411762 -1.1605223 0.65837389
2.4194753 0.23881292 0.65231484
1.7880849 1.7636471 0.65093529
1.9081501 1.901654 0.6551345
0.16667131 2.3840821 0.6537838
1.7423658 3.1102307 0.65822232
1.3976674 -3.3740706 0.66763127
2.3723779 -2.7957389 0.66780484
1.4376388 -2.0245097 0.66425115
0.16088372 -1.6576773 0.66795897
0.6195448 0.032982349 0.66429919
2.276099 0.90108395 0.66166002
0.45955598 1.6388712 0.66151333
1.1395477 1.7578254 0.66588378
1.8137227 1.756394 0.66720295
2.2691028 2.1730824 0.66442579
0.71678042 2.2057421 0.66286206
0.68045193 3.2221522 0.66191769
0.71397418 3.2244837 0.66635668
0.19028258 -3.0679784 0.67515403
0.10925566 -2.2632415 0.67924333
0.10988402 -2.236732 0.67277509
0.65445387 -1.8686559 0.67907882
2.3614621 -1.7618152 0.67413485
1.2421192 -1.1603687 0.67713773
2.4216957 0.3849954 0.67523193
0.50144523 1.2112446 0.6754539
2.0342872 2.1910152 0.67907661
0.16146404 2.871453 0.67354369
1.5784632 3.2241635 0.67251402
1.1800269 -3.3532245 0.68460298
2.0616663 -3.3430176 0.68855977
0.64964354 -2.2925789 0.689897
0.65279567 -2.032577 0.68280852
2.0568898 -1.8606689 0.68220556
2.0565252 -1.8391461 0.68134862
1.0977913 -1.2532403 0.68900979
0.10848819 -1.160893 0.6856451
1.1285527 1.7321198 0.68253106
1.9609616 1.8727738 0.68736839
0.18787175 1.9117993 0.68542182
2.3640933 2.3776095 0.68772137
1.0417521 3.1381028 0.68415546
0.65830737 0.15065363 0.6905731
2.2770467 0.15283448 0.69906533
2.4234207 0.88555181 0.69375682
1.8806616 1.1161304 0.69152457
1.0593939 1.6667619 0.69950342
1.0354599 1.6746026 0.69746733
2.273222 3.2183855 0.69781858
0.64216828 -2.3813021 0.70670676
2.4235449 -2.1350687 0.70584774
2.287921 -1.9039773 0.70942664
2.0563865 -1.7291211 0.70926332
0.63696265 -1.5100157 0.70514989
1.1062545 -1.4630195 0.70841181
0.63757896 -1.3761005 0.70289648
0.42057109 -1.2837725 0.70135081
2.4242716 -1.0854956 0.708354
0.25507915 -1.0650536 0.70860076
0.10614863 0.35954142 0.70992893
0.10688743 0.62626672 0.7011832
0.25338927 1.2150464 0.70757788
1.4042404 1.6331266 0.70823789
2.3622463 1.7949039 0.70713645
0.11366189 2.840641 0.70792103
0.98151147 3.1128695 0.70005274
1.6249862 3.1472757 0.70918459
2.3554814 -2.9751897 0.71165222
2.3752453 -2.8074892 0.71129882
1.7119987 -2.3207669 0.71790624
1.8363419 -1.6995685 0.71143919
1.9050329 -1.2837063 0.71971083
0.33657071 -1.274646 0.71662319
0.79345298 -1.1600605 0.71577728
2.2772341 -1.0369167 0.71162552
0.11038854 -0.94025469 0.7130121
2.4252696 -0.86956334 0.71680051
0.80385029 1.1215731 0.71377051
2.1438909 1.4391992 0.71694505
1.4512056 2.159147 0.71480423
1.9047071 2.1545022 0.71968722
0.11313256 2.8924167 0.71215951
2.3542364 2.9391401 0.71421099
0.1487595 2.9750569 0.71452749
1.2972926 3.1478508 0.71079576
1.3584269 -3.2933953 0.72244936
2.2914622 -2.439208 0.72746807
2.069459 -1.8584239 0.72737539
2.2616932 -1.476047 0.72734702
2.2757707 -1.0268233 0.72370732
1.4641463 1.1254864 0.72976482
0.45964932 1.2081275 0.72047967
0.11167578 1.6185452 0.725914
1.9762599 1.748785 0.72246063
2.4180055 3.0386519 0.72727275
1.2872771 3.1143374 0.72308171
0.15972632 3.1568506 0.72808886
2.3197699 -3.148952 0.73731053
0.52559668 -2.4392257 0.7349056
1.8814145 -1.7913543 0.73406595
2.0575478 -1.7851256 0.73081213
0.17889498 -1.4951056 0.73385745
1.1338844 -1.4560702 0.7349121
1.9006584 -1.2694572 0.73382831
2.0194037 1.9661496 0.73598421
0.73788649 2.136523 0.73971331
1.5015568 2.1427469 0.7329793
1.6406016 3.1152341 0.73795313
1.5236416 3.2051926 0.733693
0.60635513 -3.253871 0.74276799
0.16112964 -2.9160409 0.74809331
2.2996504 -1.834958 0.74580389
1.1417516 -1.7174941 0.74248147
1.904375 -1.1856184 0.74882448
0.65884572 -1.1598045 0.74733382
0.25642034 -0.67429185 0.74347699
0.25350469 -0.35894513 0.74148858
0.63118684 0.053323913 0.74948192
1.6986789 0.055237576 0.74210918
2.1517193 0.17532057 0.74853915
2.4261389 0.90876955 0.7480396
2.3906431 1.5006146 0.74246645
0.47112751 2.1183448 0.74198312
0.29398978 3.1787586 0.74837309
1.2593566 3.1749146 0.7477203
2.0264807 3.1907046 0.74037445
2.102011 -3.2403605 0.75550485
2.2573886 -3.2407732 0.75594497
1.3423204 -3.2328465 0.75852489
2.2650561 -3.2344861 0.75596786
0.66318488 -1.7702005 0.75969684
0.42350605 -1.5316024 0.75081307
0.12217961 -0.9001953 0.75304329
2.4275081 -0.70900464 0.75209457
2.1756558 -0.022797968 0.7568202
1.2690899 0.055129722 0.7570439
1.494711 0.17762794 0.75439161
1.860383 0.17849058 0.75622129
0.32898107 0.87413722 0.75367898
0.93579596 1.1318507 0.75577778
1.5426897 1.13519 0.7543205
1.6116167 1.1316714 0.75504476
1.6482532 1.1304421 0.75001991
2.2250252 1.5283474 0.75948429
0.62261301 1.6360916 0.75423622
1.9936223 -3.2183037 0.76592702
2.3625352 -2.7949944 0.76639128
0.29361287 -2.4392366 0.76967561
0.62482876 -2.2925634 0.7629931
2.4282022 -1.9020647 0.76977694
0.62501198 -1.5666381 0.76131451
1.3279488 0.18326665 0.76787019
1.9169381 1.5883981 0.76299369
1.2416717 2.1181142 0.7604534
0.10347474 2.3884511 0.76558971
2.428266 -1.5895034 0.77279878
0.62319767 -1.5533761 0.77788973
0.33088428 -1.2745849 0.77454603
1.5091038 -1.1595954 0.77245069
2.4281778 -0.72102809 0.7796393
2.4279518 -0.67558789 0.77034426
2.1742163 -0.063854516 0.7721113
2.2766478 0.85313821 0.77550137
0.25411701 0.86548233 0.77690351
2.2765868 1.000878 0.77488714
2.384701 1.2610919 0.77440852
2.0192769 1.4338987 0.77332592
2.3261242 1.7109444 0.77194911
0.18021947 2.1007426 0.7795909
1.1717756 3.1173286 0.7709524
1.5618906 3.1178701 0.77991158
1.2114596 -3.1970155 0.78187519
0.93906409 -3.1796026 0.78559035
1.6451669 -3.179498 0.78564322
2.3468211 -3.0341344 0.78353411
0.9685092 -2.3062239 0.78755343
2.4284017 -1.8245213 0.78149164
2.1684942 -1.6755373 0.78029394
0.50625414 -1.2834873 0.78165781
2.4283092 -0.99956858 0.78766465
1.5214441 -0.77369678 0.78581309
0.10256416 -0.60089999 0.78064561
2.27086 -0.60364866 0.78050059
1.9143207 -0.45007855 0.78351808
2.2270801 -0.10839806 0.78891152
2.2270801 -0.057728037 0.78971571
0.34495518 0.15369374 0.78227693
0.25499356 0.64191967 0.7894057
2.2768178 0.77788615 0.78556556
1.9152799 1.1385409 0.78312135
2.3905714 1.7957001 0.78876752
1.8978961 2.0991466 0.7813046
1.3290036 -3.1658936 0.79787755
2.4285469 0.44421944 0.79552877
0.12877244 0.51279318 0.79027134
1.086354 3.1189804 0.79745787
1.5536216 3.1188869 0.7961365
1.6888515 3.1186275 0.79135615
0.16584572 -2.7954683 0.80211747
0.516011 -1.3616116 0.80575889
2.4287863 -0.7889663 0.80466306
0.35947874 0.0063595697 0.8032046
1.2728059 0.070130818 0.80931449
2.1532218 0.091981009 0.80690867
2.019176 1.4029469 0.80645657
2.0193038 1.5463163 0.80995101
0.6767441 2.0783801 0.80442393
0.91919154 2.0794163 0.80323577
2.4278631 2.6488266 0.8008796
0.16700363 2.8430223 0.80371511
0.43405738 -3.134079 0.81099653
1.9512755 -3.126508 0.8149609
0.10202637 -2.1428325 0.81312513
0.53536999 -1.2182568 0.81691569
1.525964 -0.76082718 0.81221032
2.1166644 -0.75879359 0.81638163
0.10275775 0.74178064 0.81381512
0.10265465 1.219573 0.81638062
2.3012209 1.2526412 0.81893331
2.36408 2.2358551 0.81946814
2.2047603 3.12253 0.81405985
2.1902373 3.1436596 0.81461918
0.10208018 -2.032938 0.82542217
1.8774028 -1.6620172 0.82841772
0.243112 -1.0993214 0.82835901
2.2760432 -0.68427926 0.82032299
2.2199314 -0.2018016 0.82476097
0.33214071 0.86925626 0.827613
2.2376859 1.1928031 0.82317704
0.49819824 1.2740208 0.8213914
0.89168262 1.2752211 0.82641816
2.4274356 2.5067492 0.8266381
0.33122081 3.0986004 0.82246447
0.26635158 3.1137147 0.82705522
0.36253297 3.1166854 0.82707983
1.7072945 -3.0769038 0.83393204
1.5786216 -2.3147733 0.83685708
0.61721677 -1.4666356 0.83199787
0.53736764 -1.4483067 0.83224279
1.9135493 -1.3516792 0.8319152
0.25386143 0.89844596 0.83110952
0.25373229 1.2690723 0.83384442
0.14384912 1.2889577 0.83060831
1.7324278 1.2806133 0.83953327
0.14882942 2.0034938 0.83035791
0.23999071 3.139385 0.83905876
1.3344564 3.1753299 0.8363589
1.5011296 3.1753299 0.83205342
0.93739575 -3.0537901 0.8416487
2.2493374 -3.0505939 0.84177923
0.99421263 -3.0327444 0.84867477
2.3747303 -2.7902787 0.84087217
1.9153721 -2.2707744 0.84842372
2.4268293 -2.2557504 0.8460294
1.9152101 -2.1178656 0.84695745
0.61584336 -2.0135338 0.84438932
0.10326938 -1.3788648 0.8444227
0.243112 -1.1168154 0.84141123
1.2133301 -0.74692279 0.84073025
1.8823525 -0.74475288 0.84518087
0.10316432 -0.56897759 0.84370458
0.60029554 0.21625227 0.84527504
0.10411663 0.2815389 0.84710693
2.4270325 1.4774063 0.84452713
0.51150447 1.7940984 0.84473288
0.14275247 1.9309322 0.84137893
0.41135171 3.12253 0.84507918
2.3253574 3.15942 0.84183729
0.10422206 -2.2130356 0.85124612
2.1934605 -1.2745029 0.85196662
2.1513193 -1.1588992 0.85787833
1.6203607 -0.74149632 0.85186064
2.277627 -0.33340526 0.8518998
1.1523999 0.22165222 0.8581723
2.019237 1.608061 0.85195297
2.0949874 3.07319 0.85652626
1.5733503 3.1753297 0.85623193
1.289029 -3.0091498 0.863774
1.4110358 -3.0007372 0.8624264
2.2553322 -2.4391544 0.86690658
0.16377267 -0.89630175 0.86995614
2.4253616 1.277122 0.86444223
2.2788205 1.9415003 0.86506522
2.425504 2.0368185 0.8627671
2.4259443 2.1585763 0.86278141
2.4242811 2.8519466 0.86071509
2.0370739 3.1357999 0.86254376
2.0229175 -2.9397953 0.87994492
1.9187654 -2.421536 0.87915623
1.4602823 -2.3777499 0.87398452
2.1260231 -0.73251247 0.87028772
2.4337337 1.0834184 0.87984568
0.67786145 1.2972426 0.87721211
0.51157743 1.8220048 0.8733139
0.40206549 1.9060241 0.87409967
0.1060342 2.7214937 0.87021464
0.10426774 2.7752757 0.87305343
1.258743 3.1237497 0.87333775
1.3234103 3.15956 0.87655318
0.6115613 -2.0257316 0.88316822
2.1364069 -1.1873319 0.88582122
0.25327283 -1.036938 0.88959485
1.080533 0.09739843 0.8885231
0.10796238 0.48273575 0.88615799
0.10749036 0.50337005 0.88136488
0.10688282 0.69804871 0.88982546
2.0645432 1.4075797 0.88134634
2.1013527 1.5882413 0.88132405
0.14547724 1.7380948 0.88115114
0.2936368 1.8171649 0.88093495
2.2827563 1.8136818 0.88731378
1.683063 1.837767 0.88634253
1.037519 1.8515649 0.8857612
1.977919 1.8793833 0.88467813
1.7843485 1.9677005 0.88106239
1.9744579 1.9640648 0.88122988
0.39813477 1.9736959 0.88085383
1.9817784 3.0187008 0.88795894
2.1940508 3.0149534 0.88304579
0.61984754 3.1595399 0.88547426
0.66794723 3.1595399 0.88347417
1.1281105 -2.9094658 0.89218092
0.48786789 -2.8989697 0.89226651
0.67069781 -2.8939738 0.89387417
2.2110569 -2.8890507 0.89513218
0.51359642 -2.3858008 0.8977524
0.57016188 -2.1266983 0.89770639
1.9754142 -2.0878916 0.89771837
1.9550989 -1.9877833 0.89770192
0.51763624 -1.5791119 0.89774913
0.55488884 -1.4897373 0.89771879
0.54853463 -1.1999327 0.89772391
2.1830103 -1.0981839 0.89322996
2.2762403 -0.62923563 0.89701599
2.2777643 -0.016401673 0.89407194
0.093512796 1.0006762 0.89381272
1.7774314 1.1707691 0.89180827
1.4254808 1.6343288 0.89849293
0.348777 1.6666694 0.89324045
0.60771143 1.6843609 0.89252377
1.4283 1.7037333 0.891774
2.2512712 3.1358573 0.89932609
1.1067365 3.1595602 0.89103889
0.45476758 -2.8652813 0.90205896
1.8303003 -2.7900054 0.90417385
1.4625497 -2.7259266 0.90803605
0.94745386 -2.3491902 0.9085393
1.5024066 -2.3275359 0.90789729
2.4224143 -2.2622066 0.90455866
2.02332 -1.4585156 0.90823138
2.4236019 -1.2819313 0.90045935
2.1684716 -1.1584865 0.90826827
2.2839799 -1.1408863 0.90047705
0.14033701 -0.93457508 0.90280473
1.868526 -0.82486713 0.90170068
0.65427548 1.3088853 0.90395463
0.10932818 1.5079346 0.90444601
2.4212933 2.3409567 0.90565479
0.40345627 3.1396077 0.90953296
0.72050607 -2.8261929 0.91347665
1.12107 -2.7626047 0.91807389
1.8853333 -2.3957348 0.91315114
0.85818052 -2.3883357 0.91742331
0.50744802 -2.3095579 0.91905695
0.24742132 -1.2628679 0.91948909
0.11156468 -1.0368187 0.91806692
0.68144107 1.634112 0.91370475
0.18177724 -2.7905192 0.92056477
0.75007826 -2.7310522 0.92372864
1.5781909 -2.41694 0.92534852
1.2186978 -2.3848698 0.92106271
2.0194299 -1.5932986 0.92797464
2.0264289 -1.2438601 0.92686146
0.26182401 -0.79635656 0.92577267
0.37803388 -0.70723951 0.92212582
2.4193795 0.10939762 0.92630279
2.2690101 0.25364274 0.92613691
2.4201508 0.35559103 0.92160684
2.4187098 0.40549114 0.92983395
0.25178096 0.42339265 0.92005098
0.16842589 0.54026771 0.92073506
0.25347692 0.63432115 0.92290097
0.25351539 1.2092757 0.92105204
1.6064268 1.3164222 0.92128313
1.203048 -2.7973356 0.93207562
0.21295643 -2.7264981 0.93572253
0.71262157 -2.7210653 0.93708336
2.1131692 -2.729686 0.93463916
0.61382133 -2.6926894 0.93177825
1.267796 -2.6589782 0.93476456
0.71508068 -2.6424356 0.93622768
0.72576165 -2.643846 0.93610281
0.12105925 -2.4251382 0.93353546
1.4182024 -2.336585 0.93336308
0.50744802 -2.052531 0.93198383
0.30436927 -1.1992295 0.93890148
0.65430528 -0.72161227 0.93515944
2.1314011 -0.72029716 0.9363203
2.4186549 -0.63975281 0.93044007
0.261758 -0.040652066 0.93243468
0.10792962 0.79061246 0.93627155
0.25203449 1.2739841 0.93077397
0.78515977 1.6341064 0.93709719
0.1089572 2.8538506 0.93689662
1.9690459 3.12253 0.93611431
1.9552568 3.1357999 0.93668556
2.3356776 -2.6954384 0.94493127
0.53513813 -2.6768909 0.94322944
0.50987023 -2.6463099 0.94047034
2.4168525 -1.4094211 0.94246471
2.02332 -1.2936761 0.9464047
0.60996133 -1.1577271 0.9445523
1.8274267 -0.74461693 0.94139946
1.6280644 -0.72503954 0.94753665
0.3576282 1.1863619 0.94296616
0.11452194 2.2023835 0.94554663
0.1189637 3.0403175 0.94721681
0.57351881 3.12253 0.94790184
2.2540512 -2.6351707 0.95650828
2.3805237 -2.6383591 0.95095861
0.85624081 -2.6265898 0.95965433
1.9961532 -2.4914095 0.95319873
0.98635495 -2.333539 0.95096606
1.1702826 -2.31705 0.95099676
0.50744802 -1.5005575 0.95743072
2.02332 -1.2597624 0.95749271
1.800311 -1.0912435 0.95565069
1.3295255 -1.0890489 0.95601213
2.1463521 -1.0800989 0.95751107
2.4152205 -0.5663293 0.95005435
1.5987942 0.26389003 0.95761967
2.4135122 0.4391011 0.9597795
0.17037952 0.56765574 0.95127892
0.9613018 1.1933092 0.95307982
0.11566499 1.5076154 0.9518919
2.0423832 1.6342182 0.95067048
2.4143198 2.1662865 0.9582656
2.3637202 2.8509593 0.95544529
0.94619048 3.1291986 0.95890558
0.6910007 3.1402249 0.9500885
1.999511 -2.5994413 0.96603656
1.751775 -2.5407166 0.96654254
0.79917347 -2.3965969 0.96680701
0.77492934 -2.38708 0.96383405
1.2263833 -2.38708 0.96220684
1.2852166 -2.3848701 0.96320879
1.0350379 -2.3303847 0.96990913
0.38340676 -1.1143947 0.96799779
1.3577142 -0.56583637 0.96998459
0.11787097 0.086700544 0.96333176
1.7388494 0.1216462 0.96981573
2.413305 0.75790924 0.96156818
1.0071051 1.3356616 0.96400064
1.2228175 1.3353009 0.96399593
2.3641114 2.397944 0.96124923
1.1694825 -2.52354 0.97154808
1.3593391 -2.5271049 0.9712348
0.73798335 -2.5118475 0.97257507
1.9962159 -2.502708 0.97687793
1.7027779 -2.4700503 0.97624803
1.0664375 -2.458221 0.97728682
0.54038835 -2.3241057 0.97202414
0.67526889 -2.1711655 0.97773635
0.13646635 -1.0368403 0.97950137
0.92049068 -0.96375561 0.97692317
1.6577096 -0.52557194 0.97413909
2.2776382 0.89399505 0.97696835
2.4111648 1.3079126 0.97199631
2.3641737 2.7186286 0.97792906
2.1808829 3.169426 0.97963792
1.0731302 -2.5371718 0.98022562
2.3135908 -2.490315 0.98678488
1.4793121 -2.3497682 0.98655713
1.7690359 -2.2523198 0.98182905
1.3607057 -2.2414289 0.98039746
1.3626021 -2.2204378 0.98229575
0.76560539 -2.1917853 0.98493224
1.2286595 -2.1432476 0.98917913
0.50734901 -1.5551933 0.98962396
1.7709481 -0.90936756 0.98600137
2.2652099 -0.90309709 0.98705864
0.23351133 -0.88348305 0.98309243
0.40928119 -0.74081981 0.98514211
0.25472361 -0.73091424 0.98854595
0.31438842 -0.72936952 0.98549014
1.9820386 1.2010537 0.98687291
0.12445103 3.0313354 0.98485231
1.9767234 3.1309192 0.98425323
0.50068414 3.1729279 0.98183388
1.5988259 -2.4701314 0.99263406
0.524885 -2.454803 0.99578702
0.68941367 -2.4445257 0.9979009
2.0220029 -2.3467653 0.99009079
0.85224283 -2.2175663 0.99817389
1.8364047 -0.52378076 0.99370182
1.4617103 0.27802792 0.99096525
0.66638958 0.28067547 0.9972049
0.25241584 0.64860624 0.9914093
2.3645668 1.6550016 0.99118853
0.12154908 2.1236732 0.9919849
0.72631276 -2.4309447 1.0001616
1.1926699 -2.4268739 1.0092242
1.094503 -2.3776796 1.0097218
0.50853175 -2.2338183 1.0014153
0.94670147 -0.75045848 1.0079899
1.6481795 -0.74165303 1.001354
0.25263098 0.021485966 1.0074041
2.1850874 0.21461774 1.0040888
0.20401463 0.51279765 1.0076857
0.12337192 2.6536102 1.0041289
0.12484305 2.7975693 1.0082462
0.50453246 3.1779056 1.0082
1.4264877 3.1854115 1.0068997
1.1472192 3.1973269 1.0069139
1.2403488 -2.4213119 1.0163094
1.9490826 -2.3636813 1.0102468
1.7656993 -2.3597403 1.0108378
2.210875 -2.3436842 1.0126262
2.0986845 -2.3008819 1.019223
1.5926108 -2.0700598 1.011133
1.1995316 -2.016963 1.0153733
1.4572105 -1.9850461 1.0184569
0.920389 -1.8107367 1.0184181
1.9794111 -1.7215953 1.0171548
1.64553 -1.7094265 1.0182887
0.56104666 -0.8778134 1.0141685
2.399467 -0.37471431 1.0188327
2.4010313 -0.24829806 1.0134284
2.4022446 0.79956639 1.0102621
1.4975574 3.1445312 1.0140899
0.84930158 3.1977611 1.0162756
1.3145941 -2.3165922 1.0292505
1.557991 -2.2881868 1.021566
1.5856653 -2.252882 1.02632
0.49266213 -2.2220306 1.0294384
2.1626811 -2.2230906 1.0290039
2.3042521 -2.2106464 1.0291027
1.4565766 -1.9215828 1.023683
0.54028201 -1.8734417 1.020981
1.2850733 -1.860001 1.0281096
0.93934864 -1.8581419 1.0281405
0.50482732 -1.1905842 1.0240062
0.46894002 -1.1768217 1.0297137
1.9021919 -1.1669258 1.0276878
0.38879523 -1.1350253 1.0296971
2.278064 0.61298126 1.0213375
0.34552816 1.2189723 1.0283705
1.0392293 1.2167457 1.028828
2.40482 1.8425009 1.0214081
1.5346785 -2.1473155 1.0358123
0.52422804 -2.0981255 1.0337775
0.54104608 -1.937547 1.0391986
0.5085634 -1.8710089 1.0393729
1.4641254 -1.8175032 1.0323042
1.5403 -1.6994054 1.0380869
1.9653078 -1.5263648 1.0343643
1.5114892 -1.1913217 1.0313549
0.86105794 -1.1654809 1.0380685
1.1505623 -1.1657976 1.0399516
0.13520683 -1.0900187 1.034925
1.775697 -0.77180672 1.0324953
0.85753047 -0.76160526 1.0343549
1.5474505 0.15036793 1.0343931
1.8525257 0.29038045 1.0356101
1.9676299 0.2918959 1.0328515
2.3953218 0.37799531 1.0331559
1.4004028 1.3683989 1.0386386
2.0898545 1.3658952 1.0343174
1.1623449 3.1229842 1.0348901
0.87364483 3.1912427 1.0381572
1.4030759 -2.1073062 1.0410637
2.237056 -2.0762024 1.0409091
2.2801478 -2.0429294 1.0424982
0.23668167 -2.0307493 1.0432823
0.78567183 -2.0147066 1.0448155
1.7195694 -1.9942913 1.0461333
0.95172882 -1.9338481 1.0494967
2.0109615 -1.8853117 1.044825
1.6794224 -1.6014774 1.0441403
0.27582461 -1.0514233 1.0462742
2.2539523 -1.0516913 1.0438243
0.13964151 -0.85610706 1.047666
0.13962629 -0.825885 1.0476134
1.9336674 -0.76713854 1.0471114
2.3920784 -0.40352005 1.044363
0.56203246 0.28317001 1.048735
1.7703183 0.28543872 1.0446054
1.6485033 -1.9119487 1.0504956
0.70150447 -1.8609837 1.0524716
0.60457689 -1.8501141 1.0528793
1.5635446 -1.8568885 1.0526253
2.1975548 -1.8564292 1.052778
1.7092648 -1.7744062 1.0555952
2.3756089 -1.740423 1.0598089
1.6903545 -1.6924565 1.0585624
0.76150429 -1.6782017 1.0591065
1.9941335 -1.6504064 1.0556412
1.215022 -1.5900482 1.0502074
0.52950323 -1.5436907 1.0566427
1.6382951 -1.4689732 1.0589523
1.2107745 -1.4446826 1.059827
0.88497084 -1.4099528 1.054325
1.1822084 -1.3140023 1.0529625
1.5083407 -1.3109663 1.0532755
0.37004387 -1.0768882 1.0596695
0.88244438 -0.86282158 1.0527546
2.166801 -0.85725391 1.0580939
1.7138457 -0.78142381 1.0552421
1.6481411 -0.54968405 1.0521922
0.20852619 0.53006625 1.0553565
1.4397931 1.6341344 1.0529983
2.3641171 1.682343 1.0569474
2.0282123 2.6358805 1.0529009
0.16689156 2.9208608 1.0506015
0.55649668 3.1021304 1.0500917
