# .PCD v0.7 - Point Cloud Data file format
VERSION 0.7
FIELDS x y z
SIZE 4 4 4
TYPE F F F
COUNT 1 1 1
WIDTH 1538
HEIGHT 1
VIEWPOINT 0 0 0 1 0 0 0
POINTS 1538
DATA ascii
1858.446 1298.3124 -237.63263
-2531.8313 -128.22118 -644.98206
2416.343 4572.4194 345.23846
-478.9057 5063.1992 754.70923
141.38878 3414.2825 -1472.1335
-2534.1499 1838.9932 -523.04462
1445.7523 5597.0898 716.86804
2204.3496 -1626.5029 76.092796
-1415.5862 7133.6362 -47.754692
2113.5906 418.77029 -562.7179
-2921.7661 111.75964 -845.58899
-581.53223 4359.7861 82.364532
1206.2 6260.2832 -870.89673
-391.86395 7098.6533 -1042.2064
1403.0071 417.37115 -871.74707
613.11438 -4655.1689 814.37744
-78.107506 3753.1655 788.49194
-2602.0425 5400.4971 -605.27142
-2879.5344 -3471.1934 -1219.8507
2303.0857 962.15765 -855.73853
-1609.7385 3477.5447 -73.461754
-383.69186 4982.5522 168.77
2340.575 -1065.4541 -1004.2899
926.97437 2656.5161 -1472.1327
1820.5748 1372.7644 -1472.1
-2743.6614 -2779.3552 -1055.3086
-3067.572 -433.86743 -239.68376
1999.8552 5346.9238 -984.19836
-1583.8287 -2840.6572 -1361.7935
-2999.3325 2274.0676 -919.19476
770.85303 -3395.4353 882.12341
1719.0165 3251.4121 -1430.6594
-3057.4287 -1667.6743 -1638.5386
-569.05219 406.54395 -1472.1973
-1363.5153 8086.7974 -491.4527
1677.6968 97.526596 -1141.8136
203.24312 -1526.4631 -1472.2186
-1888.6401 -1785.7638 34.829117
-2953.8977 5319.4717 -140.0565
1508.9781 -1499.4299 1564.8923
2125.0315 -1147.5134 -1231.1093
238.55322 2769.9009 -1472.1514
2217.2864 -140.47127 -641.41174
2202.3953 -815.29834 387.95529
-2521.4797 -1887.2826 1117.9884
-2830.2737 732.0274 -783.93524
1022.7373 -3756.4353 1039.28
-1871.9786 1551.0271 -1472.0999
-435.98615 3491.3464 788.32489
-2975.9919 6408.3779 -155.76761
-2031.0557 4660.4224 -358.81866
-2309.9858 7361.3638 -748.94226
-616.11365 6176.5664 462.67676
-1022.2883 7299.8789 -1428.4126
-1387.811 1001.2549 -1287.1963
-2927.4958 6288.4956 -623.42023
-241.27698 4679.2275 133.68161
1149.75 -1394.203 -1306.316
-1243.0094 -4588.1699 -512.07629
-2996.0332 -2072.5388 -424.10217
-1113.3868 4079.9238 -1472.1
-2421.9619 -2569.0591 -1407.5242
-2401.4429 6339.4702 -90.331093
-2400.2097 6715.751 476.22754
550.22607 1111.6738 -1287.1969
2103.2183 -2232.1501 -92.693794
-2588.6235 -4191.9814 440.07077
-2187.0601 5789.9106 -213.08136
-2622.9233 -340.40942 231.40204
122.13669 -4209.7725 934.92371
-862.24738 3710.2969 96.581367
715.53589 4902.748 -1003.95
-1032.9694 4873.6641 -1003.9501
2437.1746 6353.1641 276.76746
375.80435 3297.24 -928.24268
172.79932 -820.50317 1823.0972
983.5824 8035.2559 -1402.6984
-2195.4368 -4470.9492 402.25647
873.34692 -802.26337 1793.3131
1778.6469 6407.8467 -1242.1257
1929.7317 -288.80075 -202.21054
1884.3921 766.02838 -177.06075
1520.1532 2839.7505 -1391.9204
1206.2 6314.3398 -251.50932
-2370.7544 -1700.9027 1358.6469
2432.3972 -1089.4939 374.11356
-2607.252 1528.2415 -1472.1
-2407.1208 -2295.2319 -1596.4418
1074.0553 -911.26862 843.37024
2354.7043 4592.4951 419.69086
2459.4045 -1534.2207 364.08017
-1685.5094 7979.1943 3.8327198
-9.226429 3630.8071 788.28162
-6.3829465 2441.5032 -616.09113
2316.7104 -3102.4229 -901.46838
-371.94498 -3051.7695 -1168.974
2179.8718 983.83899 -724.07294
-2968.5635 -422.4328 -1322.5021
-2886.6099 -2770.5464 -1438.1675
-2161.3157 -28.094521 1801.7638
2154.5425 2413.821 373.05399
-1251.9271 6449.2598 -638.41711
1954.4424 -1457.7373 -1504.0358
-568.40375 5150.4634 -1003.95
2201.4731 -1835.6199 -360.97284
1845.9163 6556.2773 358.97546
1092.2505 -1560.4061 1654.3361
884.14502 3903.2974 284.94531
-1607.5844 4611.207 -510.952
-2609.8713 6648.1157 -842.91614
2319.4568 4917.1289 -414.87231
-1224.3301 -1263.6139 -1472.1791
421.30487 -4605.4883 -649.0188
2283.7029 1380.4866 -927.83215
1909.1318 4861.1006 -950.03882
1257.5819 3399.8003 -1472.1
1662.3557 2426.3533 -232.97067
55.853455 7748.8799 -883.68018
-1896.7806 3118.1135 -1421.1182
-124.29816 -2884.9346 406.94232
1751.8325 1650.8113 1001.1582
1525.6866 22.328003 -1472.1001
1206.2 4822.6572 -636.59979
-2934.6167 -1768.614 -1030.8073
918.90912 -3827.8508 898.80518
1875.8855 5149.8672 -95.003403
-1387.9851 -3888.8955 -1093.2557
1667.3014 716.32294 1470.1821
1510.3673 7801.4834 -858.39764
-2584.29 -1693.5811 -353.61331
2409.3418 -785.86194 258.75809
2247.0889 3060.2925 292.93478
-1143.7697 3547.6907 -1472.1
-423.94312 3565.3037 788.50397
2338.0852 -2003.813 826.67322
-3012.1233 -1016.4768 -1351.2566
1206.2 4887.7056 -1130.1151
952.62903 -3584.541 1215.778
1049.5568 -1661.0022 1611.6311
307.11737 -4128.5381 910.39087
-2318.9453 -2534.9316 94.654411
-248.74118 2698.2041 1035.3174
825.62756 -795.89075 1433.8979
1039.6006 -1953.4113 -1472.2542
1233.1101 -2786.46 521.88513
-2374.7827 3783.3398 711.89673
-516.23651 2711.8218 739.08563
-442.68222 3565.0781 -971.54199
1779.6069 6431.1875 57.474091
-2502.8 6815.0928 -652.71387
1101.9242 6855.5786 -282.72546
351.7886 -3987.4329 -1072.8125
-1626.5635 3398.251 -1407.667
-806.89606 1013.0211 -566.93085
2285.4258 -3074.2939 -891.21997
-1648.074 7981.9199 -1404.5779
-385.37698 3371.2668 -956.60248
2201.3726 1184.2898 284.45679
1051.3201 1131.9841 -1287.194
2147.7087 7191.0986 -692.86139
1582.8604 1814.0933 1257.2241
-2933.0498 -2464.8374 -1101.952
-2630.9229 1728.3497 -741.70264
756.02509 4857.9932 -1472.1
1065.8351 -4597.4258 605.82343
-2699.73 1177.3369 -339.89676
-1215.2639 2271.6885 -1332.29
-2458.2693 480.58185 -1287.1902
-643.5166 -4650.8896 371.96317
477.70953 3839.9087 -1472.1216
1555.6832 -165.98721 1613.6655
2322.781 -1058.0773 -807.25201
-1080.4708 -4377.1631 -851.8645
-1183.5432 -84.050835 -1283.2928
-1412.8547 2019.1001 1385.6638
-1990.3102 -3015.5071 -427.14499
-2675.4829 -4193.8135 -619.5592
1690.4133 -2723.7896 -426.86755
2304.1152 -2186.0391 -121.99963
2429.5076 -1011.5828 335.55753
135.48654 603.276 -1472.2114
1024.4683 476.64328 -1472.1174
-1767.2432 -1064.3176 734.74805
-3089.0425 -2046.5541 363.18491
-1172.033 -1992.4447 1596.3489
2029.5381 1547.7531 -811.11731
-1748.1233 -2552.1702 1382.8575
-3052.4619 5965.4663 597.50763
-1945.0901 5354.7344 -637.46729
-1963.3859 -4628.8862 -276.37286
1857.8864 6462.2588 -1260.4434
-1460.521 3597.7051 -757.57574
747.03552 3208.5586 111.81158
-227.81415 7580.6982 -1042.2526
-2614.5723 -619.17029 568.86395
-2912.1794 -1588.84 27.987307
1022.7441 -2346.5583 -1451.09
797.84253 5894.7905 386.16586
-3052.5474 3548.2744 -1117.7772
-751.26477 3299.3237 747.23401
1640.7654 5476.9771 768.0304
-2837.3467 6336.0132 503.11642
312.64911 1280.4849 -1472.1926
1585.4596 1176.4987 1369.3124
1027.0579 6126.9697 450.54773
-2643.8806 4045.405 807.97192
1736.9382 4900.0078 34.841961
-2856.0625 1737.6248 946.11676
-792.63275 1220.2621 -1265.6919
268.45764 2785.7959 -321.79645
-2903.7522 7149.5801 -142.89645
-192.481 1910.3926 182.92862
-1732.3395 -416.72488 -437.03656
-2437.2803 2047.8835 -1308.8416
-1108.1494 -300.9801 -685.85889
-500.73477 7511.7676 178.07115
-1419.2759 -3433.1763 -1254.7537
841.03497 5859.9922 433.56506
-378.05069 -4322.8867 -978.78918
1866.3887 -921.45703 661.57605
-2491.5879 1209.8041 -1184.3835
-1212.2731 2271.3022 -158.28427
-2114.1631 4379.959 -1472.1
-2608.0801 1413.5081 -1472.1
1699.2595 -1355.6533 -820.96423
843.21344 6769.9136 -1042.5532
2232.9636 5579.3057 -1624.8413
-2877.8076 -126.00788 -17.505125
508.8165 3479.3906 -1339.369
2053.9863 5120.9761 -1201.3739
446.56543 3282.1934 195.94867
-1611.5198 4031.4775 -290.22058
-904.53625 2179.0759 1340.9238
2367.1667 6647.5708 -854.81964
-170.36276 267.45493 -258.31015
-2308.7236 397.43088 -1472.1
435.32263 -3149.7886 -1305.9293
594.59698 -4588.1699 -591.07233
-1298.4447 3577.0518 -912.99316
2329.1233 -2519.416 -644.11945
606.86548 6449.2598 -383.11212
-2270.2195 6615.4048 -314.40863
1855.4919 -2293.9736 1009.3141
2085.5327 5348.8223 300.27148
1459.6421 6957.5254 520.74561
880.70203 4543.7075 -330.39761
2417.354 -2568.4492 -1615.385
165.43413 7322.7275 -1042.363
2108.4368 6500.9766 -816.09833
1173.9838 -1056.145 16.923611
-2367.4438 6315.3667 -1478.8062
965.58728 3315.1602 -967.40308
-2682.0095 2263.7014 -821.48657
-2470.8677 4451.5288 797.08112
-380.50308 4955.5112 -592.31427
-280.50684 -3041.0088 1342.6686
-2459.3176 368.95163 -956.35828
-416.5419 6366.1792 -448.03201
-844.11945 8062.9238 -152.80502
-1213.9664 4792.9077 648.20978
1861.8601 6105.2837 -1099.6671
-1823.8052 -4724.6743 131.91057
-2293.4041 -3486.9368 1137.0906
1687.4052 -2777.3809 -693.12537
1031.7532 4303.6069 534.30499
1471.9623 5749.3672 143.46983
-577.43091 4016.3657 -1472.1
-3065.8149 3164.666 -345.5321
113.10606 6698.4688 316.74863
-1945.0898 6459.4736 -947.91193
-2173.8562 3569.5623 -969.28046
-1370.0029 6652.5737 -1451.2228
-369.98825 7213.959 507.85706
-1147.6882 7452.1094 178.28813
1861.8601 -1865.3843 -1100.2556
-1970.4674 -2947.4729 1358.5996
-1689.9514 7152.8677 231.27686
-245.1489 -1254.0341 799.49908
2049.0325 6613.2373 -813.81396
382.69687 -600.32275 -19.082108
-198.5051 4955.7432 -479.25381
907.17596 -961.43597 -1472.1304
488.15808 -334.56378 -613.6626
-3023.9263 2619.5391 -67.031158
1739.9198 5775.7515 307.24887
387.54968 -2814.7461 -61.654503
561.9353 -4572.2485 -287.4144
-2030.8114 722.88049 -1472.1
-925.38739 -2234.3445 -1471.3805
-2110.3625 -1865.7611 1579.1106
2331.5649 -2649.3164 130.52283
-45.744949 3210.0256 -1404.5198
2018.7325 3438.8479 -1472.1
-1317.1234 -3957.5066 387.72568
1172.0862 -3813.5667 -1119.1331
-507.07993 -2847.678 860.97321
-1885.3313 -153.79723 1814.8655
1631.9611 4592.395 794.71863
-184.04448 5526.8384 -1472.1001
-1966.8392 -4507.3193 -700.42877
1149.75 -1382.2673 -433.66107
-3114.6404 1065.2515 -986.8562
2022.356 -740.75684 385.2002
-3179.937 6234.4443 304.96674
102.86284 3338.2056 189.65445
-3046.4729 -2698.8181 -529.54712
-2569.4224 -4067.3247 -781.62079
-2993.8274 2982.9182 -1265.7581
-483.28278 6412.105 255.01071
454.02264 2219.728 -1472.1665
-2257.0088 6896.7412 -1029.7142
1861.8601 -1827.3433 -1206.6536
-764.9212 950.82019 -1472.1628
2460.5171 5027.0674 -180.8885
1251.2074 -2346.7319 1364.3649
-1253.0426 5007.3481 -1003.9501
-899.76715 920.40399 1752.0594
-555.07031 7714.4121 -1042.1608
851.17163 5324.29 -1472.1
676.43768 4740.439 -145.75883
1149.75 -1732.781 212.57068
987.8175 -1064.613 730.59595
-1537.7473 4897.6592 -723.93951
862.65613 -1707.9988 817.07617
380.97528 -4893.145 125.32425
-1862.912 -970.62939 705.47882
423.94339 -233.59132 -165.59427
1386.6058 1488.8955 -1472.1
-2384.9236 -916.88049 -1137.6016
-1945.088 6704.5942 -831.70471
425.60437 -3102.7908 402.45959
266.80087 413.48544 -772.38312
-231.83344 -3039.7559 -1318.3276
360.58591 -2950.2947 -1341.9764
-2833.7966 6619.9116 -748.63995
-2671.6729 2333.5688 398.79279
-693.0741 -4217.5879 -970.15759
-2957.7944 -2366.3123 -18.322096
566.77216 2991.5454 747.13794
-637.66895 1318.0995 -289.85825
1960.4771 -1006.3011 -31.774111
530.4848 2322.3076 -1472.1638
94.423531 177.0408 -1146.1935
-1782.2905 -713.40723 1774.4285
1621.3568 4393.2993 -1472.0999
-460.68161 807.35651 1593.343
1498.6399 -1549.1746 810.99274
-2086.5024 2215.8013 298.00354
-36.162178 790.43573 -333.50659
-671.88245 7415.5449 -47.963867
-599.901 2595.543 -305.85065
2011.8894 4935.3467 -458.3277
203.80099 2640.8987 -306.52576
459.5614 7702.6182 -1042.4456
-625.45374 5326.9561 425.10083
1745.0081 6407.7173 -1331.5305
351.87573 4380.5381 2.2391129
1942.1697 6791.8633 -498.28088
729.17645 2424.3442 854.76978
-2763.4758 -1017.609 752.14288
645.79468 5845.9951 450.76703
-731.69788 6449.2598 -485.01059
2320.9038 5154.7959 -88.416611
-1520.229 2169.2766 -87.969124
1124.6257 -3477.9307 -1246.6749
2298.2297 4347.9902 -1156.6677
1853.0042 -1907.0457 -1643.7788
1595.798 5165.624 -57.691639
217.73804 1576.1023 -721.1416
1801.328 2134.3892 -1472.1
1206.2 5711.4492 -1086.8561
-1206.4386 7345.8818 197.34087
-512.13513 -2108.8428 -1472.2744
1779.057 5968.1353 283.03198
1718.5496 -4029.8481 -998.39111
426.01035 5693.1494 240.50572
-1038.6364 3629.9202 -1472.1
1329.9188 -49.344257 -665.84827
1914.2506 -4263.562 48.395454
1184.223 4323.3384 472.71286
-2584.29 -1763.54 -342.92154
-1042.8422 55.769211 -1287.1981
1739.6223 7301.1875 -294.18582
-2965.5938 1252.9091 -163.73529
970.51703 7748.8799 -747.61047
-2192.3843 2670.7837 -1374.1899
-2496.533 -2723.3123 -1107.871
-2399.2422 2805.8726 670.78998
203.82562 4005.4756 347.526
-252.15115 4978.9702 548.25201
-337.83154 6519.5698 -1455.9579
857.86035 1645.4438 -4.0584307
-1661.5427 7790.8726 -491.63074
-1833.8092 7395.5576 -238.24451
-1951.2434 -872.15509 709.43958
-2677.9421 6254.4727 -936.09119
-660.45044 -1465.3547 435.78925
1780.7432 5223.6748 -1465.5978
201.02094 -1478.28 -1472.2189
1619.2192 6797.5977 -612.42584
1350.2262 -1144.5269 106.49803
2062.7935 -2675.4294 -1277.1401
2207.6104 1270.5895 -303.82364
2183.5771 1330.7493 426.24353
1223.3477 1571.9495 -706.78296
1212.7118 2140.9312 96.386925
-1478.8313 618.87555 -858.05884
-732.53491 1911.3274 -1065.9883
2248.3418 -1874.8816 -1677.605
-1468.0303 3717.7446 739.75293
737.44214 -4019.4238 -1015.5183
-2706.3157 -1899.5748 950.87335
-1010.1507 -34.774982 -468.4021
-1922.0527 7514.3525 -643.13281
-2849.2195 -2248.5547 -1610.2277
-1267.8657 -2931.7361 -233.03323
-336.05194 -1439.238 -1472.2681
-2722.4441 -2373.4653 -806.237
-2754.2759 6087.1748 676.19281
-687.6449 5670.999 568.02094
-72.137161 3603.1157 -1472.1282
-1912.6669 -2087.9136 210.38068
-866.42157 6638.5 509.94482
1139.62 -1346.2972 1652.5176
903.12811 -4666.667 604.64545
2415.3342 4619.1128 -505.81995
167.81137 4979.9678 758.99683
-3022.3359 -2768.542 -1098.092
-718.74359 3449.2332 788.20911
-1304.222 3441.3628 -248.8687
-2860.7222 -1689.0186 69.482681
1408.0211 -3971.9629 -1040.036
2381.6284 -2847.9541 650.164
1458.1613 1371.561 215.01004
783.7193 5772.8135 519.54565
1924.2085 6082.4053 26.622093
1818.129 4849.8774 -648.64978
1086.7883 -839.32318 602.13806
-1453.4521 3216.6426 279.13629
-3447.6846 1402.6393 1016.8394
-2205.5327 5758.4185 -398.25143
-1636.473 -2875.0559 408.70551
565.28381 3256.9495 -359.4649
2184.6348 -2023.375 -460.38281
-226.79976 -1782.3029 -1472.2727
272.27756 -3842.3247 -684.36554
1861.8599 5488.0015 -846.56409
2098.6208 5410.1382 -1606.3276
1936.5392 -687.29797 793.86108
1014.9213 2249.1621 272.30829
-2826.3823 -473.22491 55.971653
1861.86 -2007.231 -1094.4117
-148.99652 6068.6934 -1472.0112
-1950.0665 7351.6802 394.67825
633.81342 -2865.5125 861.67908
1261.5072 3008.3914 660.46014
-1481.4315 7748.8799 -307.23322
1179.0732 6111.8047 402.84131
2102.5264 -1726.5269 880.21375
-404.93906 -2477.2471 415.24194
-489.16199 6412.0972 -452.78107
2269.8408 3989.9541 629.42578
-207.77652 -4814.0464 559.34619
757.95184 -4742.6631 478.29144
2115.4568 -1216.4333 -1320.9248
1206.8848 337.45023 -884.43762
2250.6963 2014.2736 295.81177
65.120941 2543.8015 -291.18079
1949.0884 -4243.9463 -210.34669
-1919.9755 -798.35449 307.11206
125.58649 -1885.3208 1634.7083
-693.4967 2080.4771 -1285.7972
-1190.9343 209.18333 -1287.1973
-2818.3645 -435.12268 455.18604
-1986.5137 745.89655 1712.714
1816.1128 2044.2145 570.58112
1120.2104 7401.8291 -357.29535
-1545.3817 -285.28226 -879.43549
-2968.0957 5529.1162 -1655.7948
2078.8599 -1020.7619 -190.246
1381.9209 -2160.292 350.06424
2295.5625 -1654.5947 274.98059
-836.21545 8231.3857 -639.31213
-2710.6548 5545.9658 -1651.7651
-2779.8877 -2808.9912 -608.73669
174.46072 -138.29781 -1219.3306
-2642.147 -499.0899 512.38379
1865.8612 5117.3667 -1379.6018
-594.56665 4650.582 -999.86682
-393.87756 6988.5464 -1439.3336
369.67804 -2770.8423 858.02173
-346.33075 6412.2871 -482.44238
-3152.7659 -393.50021 -486.63535
-1945.0872 5563.1191 129.09058
579.31458 5912.7686 469.31
-1834.335 -4555.8306 700.94672
1647.5337 3607.4653 659.13684
-687.30011 2557.6892 -1472.126
1653.3831 143.14215 -773.24072
2027.4678 7145.7773 -1302.7988
-979.27606 -1268.1655 1753.2859
-1302.1494 -58.026649 -905.51562
2465.7039 5298.8872 -1721.9639
-3149.6677 -881.61768 -944.43701
-3075.708 -422.54474 -18.253798
2309.635 -1291.3334 -259.28018
-3065.6997 2062.2761 -969.70471
338.94232 7748.8799 -830.99548
-2375.1548 7547.7842 -758.88416
-1727.3748 -2183.4185 1511.1211
-144.18948 -4877.6602 366.46521
921.71649 5538.3198 456.004
-284.68289 738.68536 1866.5371
285.12906 1201.2603 -636.91858
-1890.3098 -2126.949 423.36923
-424.60626 -805.08582 1835.4581
2230.3838 1998.0326 -557.64307
1828.4357 7167.4834 228.53262
-39.022228 8247.5762 -639.31085
1838.3665 1275.4363 -731.06659
-1640.6804 1746.9897 -1291.1007
2175.8921 1968.661 588.1972
1163.5942 -3551.6323 877.30371
-1031.1019 -264.90607 -926.51941
1846.7927 -2986.6187 -587.81152
2320.0476 -1111.9874 -929.8349
-1300.6564 6743 -47.786983
-2237.3979 -4494.3779 272.81848
-55.784142 -4822.605 -199.03972
-757.98981 6539.229 638.36218
-1073.781 -3738.4985 -1096.4459
-2784.4626 474.3941 716.35876
-1480.2772 2935.2271 -1401.9189
-2407.0771 1690.5935 -1287.9226
2125.9932 480.87347 -639.9187
1954.3212 2391.8477 -829.10675
-2291.5647 991.23956 1669.3444
-264.427 -4429.0566 375.65088
2004.6115 -197.53336 -578.85712
1793.03 2581.0461 -984.4248
1905.4919 5071.4009 781.65002
1239.7947 -2343.7102 1500.2834
-2844.9707 7054.249 -1244.238
-2123.7856 501.83313 -1287.1921
662.95374 2061.7209 150.86462
558.32031 5217.707 -1003.95
-479.69687 1447.2668 -1472.1772
-2605.4971 1577.5581 551.35181
2419.425 1510.5017 938.12573
1026.8867 544.92181 -866.6012
1536.1957 7220.8809 -742.63708
-3075.5139 4352.4849 290.34357
-2882.8752 -127.96026 -139.1107
-1757.2949 -160.1205 1835.0183
-1619.51 7939.4229 -720.35394
-1426.9678 291.31372 -1287.196
1808.3259 5324.6338 -1454.285
-188.06798 4687.8311 315.44138
2314.97 -746.1142 -741.87769
-1306.9678 7485.3521 -1421.907
-2322.2273 2133.2542 -1317.7954
174.24454 -1068.0388 692.00592
-1510.1458 -3786.5791 -1122.1554
2047.7831 -2772.3638 -1429.4159
1149.75 -941.33337 -583.36414
-87.404869 7124.417 527.11829
1374.3704 -818.82739 632.90808
-2890.3096 -1434.252 188.0715
2.01073 148.21373 -992.80054
26.896698 888.30383 -1472.2035
1582.4238 -12.204312 -112.02682
-2468.9756 -1134.618 -1223.3734
-3060.6699 -1382.4072 -1185.7367
-2908.1245 -2233.2695 -609.46515
-2871.4082 -740.07007 -883.53125
-579.93164 -2611.4326 -1403.2544
2298.76 -2392.2429 -650.5448
-2756.8101 -1334.4459 -729.1012
-598.11725 2161.9878 -323.79944
-525.48596 656.99084 -1472.1946
-641.69031 7526.9443 -1420.4514
-547.0072 -3276.3938 -1283.1201
-2456.3999 -1106.3503 -777.97528
2293.8467 5900.6172 3.824276
-2742.644 7439.1338 -1062.4268
1031.8575 269.45773 -881.89154
-2426.1123 1667.3214 -1287.1904
-2711.7871 2286.3176 343.03955
1672.1042 5240.5757 -23.21134
1206.2 5608.8145 -630.66119
-1913.589 3232.4365 485.11551
-2972.3169 -2134.5107 -960.04749
-458.74582 -2536.2947 -1416.8291
883.67242 -2076.752 423.20865
1744.9196 909.18677 -608.8819
-2899.688 -2431.3774 -1524.5458
777.15289 595.56714 -1287.1956
-2265.7544 -388.58636 -640.55603
2095.2625 4692.4014 -555.73334
-1141.2106 -2427.7078 1490.9303
-1664.8361 3222.2078 -376.62405
-671.78503 3342.1797 600.87872
-3062.6614 641.52258 -1092.2855
-2517.5342 -1599.9032 -1801.7219
-2506.0073 2275.7759 -1328.137
1861.86 5344.5503 -955.18701
492.09384 3385.98 780.02759
-1754.9373 -1988.0548 1530.2595
-575.38879 3725.5327 -809.479
1925.2601 2773.5496 -1472.1
-2075.3252 -192.85464 -237.4586
840.84656 1203.0696 -727.53876
-2990.9285 -2087.439 -319.49084
-1623.7788 -4218.4727 388.54782
911.05286 6384.6758 370.90741
1149.75 -1125.2849 -760.41748
1149.75 -1918.7579 66.314438
1238.5723 577.00519 -862.89526
-2269.9766 6148.7578 -1661.7019
386.63071 -4267.4136 -417.29059
446.50555 3259.4514 684.90088
-214.19492 5103.189 -1472.1
-3083.6245 6463.5547 -1572.5156
527.44452 -1167.3015 796.2063
2274.9766 2205.7778 -261.40536
2292.5923 2393.8594 -843.16522
-686.4718 -4779.2393 -288.71097
-1895.1333 4826.48 619.39832
-577.01752 -805.12097 1733.2574
164.01302 -1247.7795 799.28607
890.44983 6012.355 -1472.1001
2276.7549 6880.4277 127.74841
2143.1025 1761.3744 986.95135
-873.07758 -2790.0232 -1370.9895
-2472.0144 -442.10495 759.65112
875.81665 2562.3979 -1362.8027
140.31436 -1737.8894 1664.8729
1549.7109 1504.2019 -684.91028
1992.5149 -2568.3887 -130.36511
2215.7583 749.83063 -1343.7383
104.41463 -4723.2021 -731.42694
548.23193 -2226.5886 420.21057
-1411.8811 -3318.3096 -719.47424
-2274.2805 -2810.2163 -1296.6416
-2229.9485 2736.5901 -1472.1
1206.2 6527.0342 -933.9259
-1343.1016 386.04596 -1287.1965
-2299.6853 -4524.939 18.85784
-54.198727 -4792.9033 -242.67743
-341.38657 -4764.0098 -339.96429
-1174.1292 914.11371 1733.0264
1946.0712 5274.5396 -1118.4756
2268.4595 5737.4058 101.91087
-2075.134 -3070.6956 -935.51965
-2181.4021 1878.5225 -1298.5419
-1692.1958 3274.3899 -382.37183
-1643.3793 6739.3379 551.87646
1445.1317 -518.03381 829.88263
1743.2283 -2714.1741 -967.0036
2199.3596 1091.3503 -253.94545
-738.07806 3696.9009 -971.54199
-256.82816 3913.1514 -971.54199
-774.56323 -3000.7573 -339.78299
-861.13782 -3996.2817 384.77197
2249.313 -2994.4771 -892.82379
-516.2821 -3954.3508 385.30585
-6.3850541 457.9566 -403.43124
-2416.9167 5780.4961 738.96954
-55.796417 2741.6914 -1472.1521
-2488.1509 1008.5117 -593.15729
-624.89893 -3827.49 -1105.6438
1458.1759 3558.2505 -1054.3594
1407.9458 4831.1797 -72.57193
2398.7551 -776.87262 -513.04089
2328.7402 1084.78 -962.85571
581.62823 2504.8748 779.2876
2015.2358 6317.4946 -75.841042
1952.3098 5257.4614 -483.44891
1487.1604 7905.1094 -1145.3099
1908.2942 914.27069 -722.26141
-156.07025 712.06769 -258.48318
-1261.1517 7349.4141 -47.798141
-644.10419 4025.2908 785.77393
998.37891 6487.625 -1457.1028
-1609.4811 125.10461 -1472.1028
-310.50839 4443.417 218.29147
748.39014 1723.3523 414.20178
-513.49121 3434.4053 263.52856
-1588.6215 3176.498 187.42252
-2565.7449 4994.6392 109.74747
1565.6525 6184.5732 -1596.402
-1945.082 6302.3979 -36.540607
-2362.4436 7535.895 -456.36786
1479.4077 -1486.2317 808.56458
-1142.7952 -4507.9004 1006.1605
1391.4138 7355.5527 -1426.46
-709.97571 3264.3567 -501.29233
648.28491 3238.2195 156.69101
-417.57303 4769.4033 -1003.95
1526.5735 7838.5342 -922.50726
-1255.1399 6660.7334 320.94321
-2266.3933 6849.7793 510.44836
-829.40558 7267.3384 217.38704
2300.2271 1273.6648 -960.68762
2204.1079 -833.40869 395.71075
-854.53046 8019.9072 -286.431
-1167.2225 -3020.4358 -477.71051
1939.0603 5094.2393 -339.79578
-535.81073 7535.0791 -1420.1665
-717.73987 -4773.7183 -355.83102
-2714.3362 1785.9308 -802.03235
-6.3808584 1549.8794 -648.72784
420.90402 4999.8276 -1472.1
-2709.0146 -2391.1589 -1397.3198
-486.5426 6563.7393 -1454.3851
-954.88623 100.16335 -631.55023
-2936.3982 -256.1297 -156.62263
-2822.1138 2698.9922 -369.99197
-1593.7689 -49.172676 -1284.4341
-672.71466 2907.6909 -420.84656
1249.9424 3320.5903 485.55707
1379.0173 1178.6564 -1287.1921
1166.0645 3448.9199 752.12585
-2699.73 1044.7075 -281.47476
1884.4606 -1048.9242 -563.32971
640.52814 -51.024734 -741.44727
-3030.7632 -2126.8618 -1560.7045
-1363.5106 3987.4607 718.25549
-2590.4648 2395.1484 16.216885
1136.7935 -3031.3479 868.10376
2412.7747 4753.7104 -396.32678
-3077.7273 850.2677 -879.31708
926.13123 -1453.6188 807.27173
956.9436 -2099.03 -1472.2731
1857.2572 1741.5376 -742.09973
-195.17773 1309.3372 1777.2678
182.87253 135.53189 -851.27753
1931.4899 -906.97485 -179.96103
-2933.7878 5106.8232 -719.04834
-1791.8447 -2555.6667 849.76624
1562.8942 -1233.5917 798.82843
684.18335 4018.9512 -148.53012
95.893326 6715.7212 581.74817
1793.03 2192.0334 -884.08978
-2266.8892 5886.6538 333.00104
-43.534142 -3653.4121 892.05786
880.31665 4610.4966 173.5499
-2864.188 -1103.4615 80.157288
-984.40454 3538.1804 -1205.4812
-731.1524 -836.46039 395.12097
-103.54597 -4766.9189 729.10626
1183.1377 -3741.4763 918.93866
-2602.0715 -2738.2983 -1154.424
2154.542 -2000.5295 302.151
-2784.5925 6450.4893 -1583.116
-2525.9355 5265.9668 -693.99603
582.98981 -387.10541 1847.7437
-1945.0802 6795.248 -358.88437
1863.2407 5154.9346 -130.90364
2242.29 -1733.248 -748.21558
788.81281 6950.9033 260.81924
-575.88269 6449.2598 -656.23779
707.62042 5698.5762 -1472.1
-1007.54 -614.89301 354.71567
-2727.5237 7323.8994 -51.434593
-379.66434 -1754.7229 818.81042
2137.2783 5775.4155 -1852.2562
-777.2132 2646.2915 1044.7437
745.35431 7709.5586 -1414.0436
-2413.1492 -1787.2332 119.56358
-571.35571 3413.9795 -13.981358
49.771324 4678.2461 188.42119
342.13397 6449.2598 -63.007206
1423.7859 2413.5964 643.56763
-2902.3367 3034.22 -1423.574
-1135.8645 6473.8174 -1041.9977
937.16602 701.03064 -1472.1287
2120.0776 5839.9224 -31.03516
-1635.9521 -3888.4846 393.58154
2135.1318 131.24318 -329.23337
1549.718 5035.1299 -1485.2241
-1570.3131 2345.7739 589.87811
2336.3086 4552.7627 569.47229
2228.8474 -1275.2078 733.4314
-1535.7261 -80.217636 -1222.5374
-157.84927 4576.79 456.95721
510.07507 3863.668 -34.956917
1149.75 -1871.9052 -822.91455
-1034.2115 1392.9597 -1287.1984
2472.1919 -2200.4431 175.03104
301.6492 6491.1445 -1456.9766
-1485.429 3393.1919 -1472.0999
1501.3969 -584.76477 -186.8867
2074.0103 -737.36841 -1008.4746
1159.8173 -705.63409 92.661621
-1124.7823 6968.3076 265.57425
1105.0554 2897.1204 -1397.9292
1690.658 3530.3499 -1472.1
830.60803 7748.8799 -685.99158
783.52344 1603.6294 -1472.1493
-2494.6892 819.52173 -783.56055
-2478.3101 4236.8564 801.34387
-3025.9834 4802.292 -85.501297
-2083.499 -1824.9124 350.83282
1484.4336 185.78909 -860.10602
1824.8948 161.42468 -415.07922
759.31433 -3971.3669 -1069.9583
-225.93661 4122.8193 -979.25623
-1930.7212 -1727.0973 277.7507
-2998.0752 1618.1732 -906.42859
1706.4102 5311.4731 -1569.7966
187.65036 7919.6904 -164.70737
-719.37451 8024.0532 -156.67175
2195.8027 -1897.8121 -1226.6282
-659.03564 899.90649 -296.54865
2287.2539 -2146.636 -204.43062
1023.5326 1322.4808 695.48828
1398.3846 3611.7278 -651.93829
2342.3469 -3698.6355 45.402679
1990.1372 -2029.9077 -1291.1614
665.26093 6463.5947 501.14648
1639.032 -129.36505 80.824341
1182.459 3407.2053 -658.76349
148.75285 7875.8618 110.0566
2312.8513 3295.043 -557.60437
-2725.8945 -1186.8883 -1235.937
408.46521 6709.0835 -48.267632
-1204.3264 -3654.9314 892.12701
-311.75485 -1582.2195 1704.3943
133.382 5441.3896 373.42789
452.2662 756.73083 -842.13538
2178.1379 -2502.6714 -1685.8972
1956.897 896.43756 -1472.1
-2901.0432 -1730.5432 -934.27844
1239.1755 -885.54303 1426.1414
-2925.5906 -1556.6151 -1784.4585
-645.26074 7748.8799 -840.72125
-3008.5266 2674.0496 -520.97046
407.69299 1704.6255 -1112.6963
-37.347248 3535.8796 -1472.1299
-1888.6401 -2188.4685 -128.22723
-2730.0286 -1883.1207 -454.57904
-2428.5667 6124.8452 -50.128075
-2412.1631 520.98535 -1287.1904
-34.373993 -2976.814 405.06866
-85.021439 -4559.3784 -764.48157
-1213.3135 -1395.3984 -1472.1838
-2584.29 -1578.0909 -601.21265
-532.95026 8112.3076 -491.45248
1206.2 4961.3799 -1134.5852
-2010.3354 -936.3584 947.1142
-241.05101 8090.6494 86.333939
-2214.2217 -4095.1733 -949.54553
-626.87964 2338.7424 -349.1485
1810.9296 -1441.4115 -4.1922317
-3040.7722 2535.4348 -949.93048
726.47034 4364.3184 -809.479
-259.78784 3770.8767 241.85353
-439.42267 1951.9907 113.11392
-2664.5371 -255.50644 -113.31514
2415.6416 -1157.1433 494.49805
1034.5476 3192.6335 484.76358
-2396.4028 -1078.3489 -496.68375
982.08484 243.6012 -1472.1226
2179.5349 -2282.5811 54.102295
-2364.7847 3547.4478 494.22708
-2516.1965 -1706.7155 106.07509
1111.9204 1540.7046 1574.8413
-19.557053 3418.8286 -1394.6655
1542.3453 5367.6914 308.01547
-949.83539 -4585.4067 -729.71161
-2584.29 -2212.2368 -802.37378
2211.9736 -2554.7573 -640.50458
-2849.752 2438.6648 334.66071
2455.1726 -1356.7748 -1661.7747
1156.5601 3295.3564 -451.51779
-2523.0596 -367.96249 409.02478
-1427.1127 5816.2061 -1472.0999
-2602.1824 6440.7788 -404.51691
-2566.8296 -1681.4434 -1825.2124
1206.5037 -972.69055 1765.4722
1487.963 7602.2534 -1417.8066
2012.257 -2153.4841 -821.47998
-2772.9299 -851.33429 -819.31122
-584.06714 5969.9302 -1472.1
1295.6788 -417.71777 -573.18726
-537.30383 2602.2817 -360.1355
2479.3374 1687.9761 834.89807
-1384.8468 3324.2371 -1419.2483
-2940.9087 6412.6992 -400.16638
-3192.6736 6354.0322 22.626072
1132.8042 -170.67157 1715.3484
-1021.1813 7466.2314 392.78485
1413.1919 -1992.8326 352.18536
-1510.892 3602.0574 -724.81885
2068.7859 1955.8754 -1472.0999
928.46954 -1821.0374 428.38809
-2462.7117 6810.8379 -309.04395
1625.0083 -538.82141 -1472.0999
1154.9939 932.70667 1752.6958
-2872.3342 6703.0928 -1271.0486
1465.5282 7263.0854 383.34341
538.56781 -4592.2637 -244.43509
-1699.6448 -4503.3687 -279.10779
-2617.4529 -3210.8474 -1294.8772
2193.0024 5675.2314 -1459.7212
-838.93774 4791.5049 -809.479
-1338.4045 -3068.2881 -813.11096
1114.7129 7019.6143 -754.97314
2281.6604 3231.3098 -740.13745
-2085.3867 7316.0713 392.73145
-347.92902 6402.3213 374.02164
-2753.0996 -1105.2948 -399.62854
-2891.1646 568.55133 373.62488
-1687.3774 -4167.5894 1068.3077
-2534.1516 1628.7515 -103.33547
2469.5518 -1252.7628 -1526.6366
-2506.0132 860.93915 -1472.1
937.8631 7921.4951 -466.86893
1553.6937 -2972.9963 -787.71643
-239.34479 -3176.7568 -1301.1113
205.25519 4348.2056 235.88055
165.02985 -3004.8506 -368.47272
-500.3465 7281.3203 -1042.176
1726.297 -2276.9517 59.69994
-2949.5862 -1767.4869 -1657.7939
1234.5623 1588.5698 1522.774
1841.2209 1883.7905 30.561441
51.6973 2022.1669 -1306.6267
-1677.6731 -4813.4453 1.4544208
1747.0095 6105.2671 17.150106
1923.4482 2695.9172 -1472.0999
-1833.0164 6810.2583 523.19904
-2366.3259 -2649.4194 -1319.6021
-1242.7603 6358.0615 -727.74298
-1006.9921 4739.6265 351.651
-655.07898 -4674.3105 -642.17664
441.15823 5452.7832 569.15204
2346.0701 4250.249 520.27631
-3121.2158 4013.4336 -510.97708
-2816.0173 4727.7842 769.25684
2224.1138 -1717.6986 -1618.8462
-2888.5054 -133.92143 -196.3573
-2736.1892 -3734.2864 -1179.9775
-3053.8914 -1133.6296 -1218.428
41.949059 6500.4971 -1456.6409
2109.7671 6696.3843 246.2384
-378.13434 -3995.0742 905.23077
1725.8793 -1235.8823 -1206.0707
-2097.2603 -958.98877 678.61096
850.21179 -4824.5938 -130.20747
1584.9434 4020.3032 542.07727
-3038.2136 -3431.9346 759.69116
-2560.9075 6110.9858 -1594.4382
-944.13196 -926.66113 1785.5964
2249.4978 -2020.4412 -1119.5808
-1218.7629 3273.4766 -498.35315
-1922.8434 -346.20026 11.214634
-1052.9858 -269.3511 -715.10455
1756.4102 -1122.3606 -1092.7526
-2509.9722 6107.6875 316.42715
1571.5938 5584.0698 760.1734
419.19836 3061.4033 -350.54187
-231.57394 5524.8691 -265.30081
895.10608 1387.2148 -1472.135
648.96936 -2036.1401 1577.6022
880.94543 4958.7695 -830.14362
-2735.4805 -472.48102 710.96698
666.90875 -4372.6226 382.92151
-2322.9453 5136.0254 -1462.8872
1492.0632 1095.8563 -1287.1914
-1341.7031 -879.85693 -1472.157
141.37479 -154.76331 -1472.2283
-2940.4741 -2139.5415 -1063.5635
-168.1832 -1812.5303 1654.8414
-1606.4315 319.06934 -883.74927
977.22839 6041.8975 -1472.1
-6.3854685 1590.9575 -434.02655
807.64935 7851.2153 -311.03094
1155.7451 1088.8354 -1472.1017
-3055.1743 -1072.7482 -715.71021
-1509.1763 1741.5671 -965.34082
-1723.0208 8199.8662 -1039.8335
-2570.3765 5815.2744 734.0484
-952.47437 4544.2817 351.651
1332.9807 -239.56163 -817.89282
1515.6277 6694.9209 605.04407
533.47571 7949.811 88.649399
-2542.1304 -1408.1243 -1469.1956
-1313.2567 6449.2598 -955.46167
-1531.1997 7748.8799 -323.64758
-1697.229 5944.1431 423.87796
-3040.0356 6136.02 -103.28294
-2923.9858 -2106.8486 -1510.2429
1700.0159 -2346.5479 1193.3104
-1788.439 6971.5947 -1439.9275
-2681.8147 2458.0312 33.288605
-2320.7695 1644.8259 1405.1769
-3199.7739 -2629.0828 272.34064
-383.86429 2035.2559 226.30521
-91.592445 -963.17316 688.4967
1363.9138 3053.0002 -346.07315
1911.3237 -4194.0605 281.57397
1779.7917 877.50934 -913.52563
2666.7363 1453.6447 854.20361
1581.298 -4220.3149 -794.7583
-2809.793 -1380.3651 -640.76477
1987.4246 -325.60837 698.71967
-996.81677 -2473.0977 415.39661
510.29443 -4853.9907 -218.93793
95.741898 5176.0244 297.86249
2166.3843 -904.93536 -427.09116
-1400.6355 -3133.4121 -828.6687
-1829.2761 3555.4072 -1075.8219
-2046.9788 7764.5654 -735.89954
227.14249 -2475.5315 1491.0177
2242.3584 -2021.3486 -699.6228
1642.0426 -1586.9009 1332.0392
2203.3135 -1511.752 -576.83942
-1070.952 -2920.2961 406.3382
-2516.6956 971.82935 -1044.5986
-2895.2114 2181.3369 645.06848
522.95251 7497.8936 -1042.4633
1970.8844 208.09154 -42.35392
1974.6218 1901.9409 -818.65692
2438.8325 4622.4751 -141.54671
-1642.9276 -80.910378 -1472.1051
-1913.5719 2751.8005 746.74683
-2618.6799 -1190.3484 -303.311
745.02551 -3425.5684 -1256.1245
-2977.9692 -2902.4229 -1223.8845
2235.835 -2983.2749 -980.84241
1887.958 -2566.6445 985.42145
1526.2117 -625.70636 1040.292
-1888.6348 -2373.3479 -1156.3979
-385.0799 4161.6611 -809.479
-1373.0894 2116.7039 -1316.0333
171.14018 35.966347 -878.45435
-2688.8979 2766.2063 -1472.1
865.60468 7901.7344 -1407.4165
-2822.9016 -747.86084 -1472.1
1149.75 -2698.4565 -776.52979
1668.2217 -2659.1311 -245.87856
-32.636055 2771.9148 -444.48776
2421.5808 -2973.0874 -932.3208
-1070.6007 7946.0811 -491.45288
-123.49017 -3333.906 -1272.7111
-488.11346 6449.2598 -194.19884
-842.65436 5522.416 733.23724
-713.72693 -1260.073 -1472.2292
-270.91605 8303.9717 -860.76868
2267.4607 3082.51 291.84042
780.78265 5941.0791 -983.56677
-277.14917 -3059.2305 -749.62543
-3159.2913 -1188.7203 -215.38509
-2780.7056 -1495.8191 -1570.2947
-1274.7476 -138.03719 -1219.9341
2375.0017 2351.4766 -975.91321
2465.8948 -1454.4263 41.88081
1892.5352 -3582.5981 919.39294
1380.249 -2830.8833 -76.190697
-866.78186 -205.32109 -78.088829
-2436.0137 3082.9111 816.21088
1149.75 -1051.8843 -1415.2977
-696.83813 5880.5615 -55.542534
881.51477 5038.2139 315.45837
-2101.5332 7911.2676 -1339.9446
872.82129 -2633.1213 -1399.2755
873.59564 -1537.115 -1472.2002
-2677.5308 -99.717422 404.27646
-1565.9072 625.65668 -1472.1
-1079.3506 -4620.1641 -651.16931
-1708.3771 6449.2598 -614.07373
-790.63342 -2566.8828 850.14752
1149.75 -2981.2734 -1330.2185
-3160.0322 6490.1748 142.71472
-2828.4839 -1454.9718 -549.6712
-1593.8553 3174.9434 451.97009
-196.66164 8057.8911 -1401.7815
245.66644 12.264871 -531.58868
-2981.3022 -1821.5741 -1369.6917
-1679.2279 -265.40524 -109.47075
-614.33636 3442.0957 -1472.1085
-1016.9987 3710.8799 -971.54199
1478.79 6953.3994 536.70959
-2584.29 5770.7559 -409.58817
777.26111 -3581.1387 -1228.0493
-1454.5708 -4761.4619 388.14456
-2615.2192 6143.1055 683.22437
785.64539 3609.2148 -670.90442
-724.3916 6620.002 -1042.1132
2331.0752 4905.7476 -661.42798
1775.9612 6043.6206 268.27972
661.24182 6449.2598 -990.28033
1009.1303 298.6333 -882.98401
2092.8276 6482.7529 -250.27078
2151.1665 -768.42389 369.38455
85.532249 4675.2583 770.63086
-615.94617 1685.2961 -261.1861
-12.054342 2907.4805 -486.19797
-1610.8187 3681.0667 -687.42279
-1624.8057 -4105.1406 -880.07458
1204.9683 -4395.6709 -518.8891
1065.9604 6485.3164 585.39398
1539.6741 4622.5718 691.25446
2149.3027 5749.0552 311.41608
-1333.3157 3249.1672 -806.28735
-1237.7493 -4064.5549 979.83789
1822.5662 874.00031 1086.1113
-2233.3538 -3474.0132 -1247.3882
1861.86 -2121.1641 -371.38049
-2936.0674 -1988.7659 -1676.656
-1902.3816 1528.9563 1559.4982
-533.01392 6691.9023 -48.002861
-866.36261 6410.0146 319.1991
1759.8405 1919.7703 836.76416
-2531.9199 2582.2971 -1142.2522
736.17188 7679.5762 -48.359867
-2829.7715 5796.9658 128.26257
1881.2412 -4062.2429 678.03345
-3085.2732 -2970.2878 -276.9631
1831.4928 6466.873 636.00671
-717.29895 3653.3005 -971.54199
-1089.9218 7748.8799 -891.53088
1034.5807 6926.5825 507.14603
-1249.9617 -4572.748 983.5083
-1924.0608 -540.41223 -289.45908
-928.97589 5190.0249 663.38959
-2957.2351 523.79974 -1339.7908
-3047.9722 6678.4746 -224.79913
-581.49164 6449.2598 -272.11169
2401.499 -2597.1353 52.727581
-1574.967 1734.501 -1213.6083
-2998.7195 301.06995 -1253.4286
-971.30457 3320.9429 331.16901
-3031.7441 2878.3416 -478.72906
-414.27176 3656.9741 419.64099
2246.1157 -351.715 -406.27872
-402.38141 4955.4834 -593.79865
-1021.0481 3235.552 -378.18671
-1888.64 -2077.2776 -591.44775
513.46027 -4895.6143 -18.874163
615.39185 2212.1885 256.41254
2291.3794 -1764.8851 -1656.9159
718.51044 4022.6626 -163.46185
-1702.9717 -2519.0073 848.34619
-701.44214 3341.0044 596.32526
89.190422 2911.8975 -1472.1472
-3164.6958 -915.02563 393.18488
1549.8525 -2193.342 199.21252
-780.52307 5503.209 -1472.1
1387.1938 1600.5769 -1472.1
948.99634 -4349.6675 -801.18762
-1330.8146 2693.1768 -311.0914
-2379.6606 4861.7432 -974.21069
1276.4745 -222.08253 -185.89716
276.30164 -3039.97 -1315.6635
-1014.9816 -1655.8215 -1472.2156
1980.8313 6573.0732 -424.39441
291.69046 -694.42712 877.01819
2170.7432 -3460.4102 -1154.1259
1974.1541 6453.5957 -219.99261
-2645.0972 5220.8076 242.56013
1995.1108 -2025.748 940.80505
-2767.8159 6204.1543 -1391.5471
-1918.3049 -4522.0557 679.35681
-171.92963 6475.6963 -1042.2683
-940.84631 4950.8843 -563.48425
1176.9753 4653.1045 459.98383
2344.1155 3566.8672 -476.29501
1432.7732 7431.5542 -1423.7947
548.87976 3260.4375 193.54524
2401.5513 -3462.7388 -182.20103
-329.0303 -645.00641 2009.2258
1754.0189 3618.9629 -419.77103
1958.6436 6684.7695 -1307.5746
1532.7936 6962.0591 436.51633
1434.6768 7259.0576 206.84755
-615.39532 -1525.5461 809.97479
883.2132 4108.4395 22.489508
-2433.9309 387.3602 -1206.3705
1150.9189 6421.1221 592.21802
1167.2915 -522.14087 -331.70731
1212.4336 4600.1582 -918.93994
-1784.5571 -905.64539 555.25922
-2580.3906 5930.6758 341.12726
35.862579 -2750.1304 857.21582
2457.248 -2834.5222 171.56186
-1589.6902 6836.2822 -1041.8704
-774.98358 2473.6675 710.47717
-2475.4089 -2753.5833 -1034.7841
-756.052 -399.40033 -615.51935
72.289841 378.22867 -687.95953
1195.1821 -478.83801 -431.84534
223.89709 1138.5829 -1287.1987
907.22784 3173.4165 -1426.916
1149.75 -1814.27 -193.97418
785.77448 -4452.9253 -751.9469
-496.56561 -4693.4829 -577.57568
-1950.8911 -253.88785 -787.09509
2414.2375 -428.18475 -225.46266
1616.7838 3396.7009 796.1626
2278.7534 -2435.7251 179.27518
1747.6624 -282.22751 597.75452
-690.37494 1374.4979 -1136.2306
-1467.666 2907.397 810.20227
-1944.188 -417.58148 1827.4177
946.16443 2143.7632 102.68841
1916.9692 -2688.8137 -1201.3303
2183.2878 92.28344 -862.56024
1910.7434 639.3421 -715.68439
2317.7251 1942.2316 -1107.541
-979.30188 4711.1108 351.651
-3061.4365 -1144.3961 -372.00012
-779.98486 3344.4673 -855.86414
86.831787 -3022.6038 -492.90536
-2909.6299 -1365.0636 -67.807892
2286.7422 -1129.6172 -433.48077
1696.3942 52.914673 -77.646278
-931.89441 -2479.0791 846.76349
-6.3746729 1387.8538 -940.00635
-2739.1255 -8.8267059 -738.76147
-1992.837 -2725.8137 72.494186
2214.8315 4942.8218 748.95746
373.38245 -716.12134 330.44232
-2242.2617 5829.5405 734.46759
-686.00745 1958.8118 -1221.7048
-2552.8357 -2686.0305 -517.00488
-1420.2991 -3816.5776 -1113.6832
-2773.8723 -2236.1016 927.44885
-2878.27 -2550.2891 -119.58965
-1536.6713 -571.69458 -100.16395
799.24066 3677.4531 -783.11353
1381.2794 -273.44769 -97.298515
881.82471 5081.4678 -853.98834
542.92096 6705.1035 580.81396
-2891.4585 -56.71402 -795.91907
1624.1907 4888.2383 -142.16939
2029.3269 5089.4868 -381.965
-777.99695 -1437.8972 806.60803
1857.5989 4905.0376 -1012.2536
-1941.8932 3583.7256 -862.72449
-792.81396 3607.4917 -683.98566
445.91061 6449.2598 -995.02649
778.90826 7233.5034 -48.371849
2258.1138 -1115.7789 -1159.5942
-2625.4526 -1716.3208 -1655.7043
-1945.09 4957.0703 -1403.8865
14.551043 1543.9391 -1287.1998
-541.77563 7196.6909 -1432.0334
774.90094 6244.334 443.82318
-3125.0535 3973.1602 233.8688
-2192.9607 238.33936 -1472.1
-2251.3804 100.4293 -665.75275
-2925.7725 5687.8945 -1314.543
-1913.7417 -352.43234 20.509985
1599.2539 -2192.7891 346.31525
1156.5601 3355.6262 -454.10156
-767.15009 5858.1064 -1007.884
1781.9801 -762.00269 -646.87079
1321.1504 7822.4375 -90.42701
1045.3738 -101.05261 -1472.114
-2293.6047 -4269.4053 -695.01733
-1671.1299 6550.2773 -1035.3621
2088.5774 3962.4756 782.76465
-1318.339 4503.0352 -809.479
1027.1267 -1316.1033 -1472.1714
2035.6313 4733.5063 -196.94765
-2345.7034 -261.8739 -481.76715
1676.1138 -2748.1836 -82.238007
881.4856 3590.354 -518.84656
-732.52515 2780.793 -956.38049
-2677.5278 5511.9512 337.27075
-489.05438 6379.8145 174.48991
972.14355 -277.1286 -737.13342
-1731.1055 -598.15002 -1472.1108
1117.9581 402.31689 1732.8483
-732.49225 -185.6949 -503.4718
-1235.3099 5881.1367 -1008.361
896.84882 -992.68542 735.51062
-367.8624 1123.1146 -1472.197
-1554.5127 2551.9844 1014.7041
2457.1558 -2364.3911 404.5899
-837.03827 3735.1809 96.58136
2274.5071 -3854.1797 -315.36832
-2531.8242 -145.25789 -755.1994
-1295.3115 6541.0547 -1041.953
-2795.5349 5221.7935 -235.96503
-3152.4255 -1122.0311 -305.45508
-1960.0029 -4243.3457 -891.67737
-2440.0894 -910.98486 1189.2372
-1395.6968 3233.7954 -258.49258
-2298.9087 6304.2505 679.78949
-1514.2898 7826.7256 -733.32458
1974.0299 694.72925 188.65813
-899.96405 -149.65717 -667.76477
-1226.2769 6570.7417 462.74915
-1323.2209 7748.8799 -864.83716
-1166.0198 6368.6543 -642.32916
1028.6494 3376.1899 -892.99866
1809.8171 1216.7806 -729.66956
-728.94214 6703.0396 -47.947769
983.42932 5181.8242 456.004
1268.6832 -1607.5825 1644.9027
128.88429 6250.2109 626.30737
-1029.1874 4743.9512 -1472.0999
1129.457 -2235.2356 1453.4812
-1025.8933 -3670.0046 -1155.0935
1274.1815 -3439.4971 -1253.6108
-3100.9153 -1680.8541 108.39557
-2842.3904 -1374.7166 -1273.4382
648.14697 -2705.5815 1403.9301
-2143.1604 7128.2236 270.15903
331.15234 1237.9972 -689.01202
-2563.0349 1263.5758 1153.6899
141.14297 -3345.4333 397.57373
-1853.0686 7375.1577 -1425.7708
-1888.6389 -2530.7014 -530.20721
-2962.2859 1231.1882 174.53589
790.48376 2228.4028 304.7027
-2391.4536 -2617.1094 151.20567
269.40842 3597.3311 -760.36853
-2572.4392 557.35486 -488.7811
-2702.2915 -1033.231 -892.02771
895.00439 -2386.4565 -1443.8759
688.2876 3226.2041 -706.70837
1220.692 -3073.5698 -898.07996
-1331.1331 -366.15128 40.972317
-900.33844 1583.8422 1675.74
-2873.0017 6890.8413 -590.07092
-3083.6938 -1028.2579 -673.83075
2335.8 -1583.0994 -1576.3235
1856.3678 -4186.2437 443.39206
982.38196 2907.8545 872.4765
1744.9902 -1637.4349 1172.9288
2473.5562 -2231.0334 146.93169
-2229.2307 534.7561 1764.6731
98.350235 -3826.9055 898.75317
1757.4989 5246.251 -1413.554
-2642.731 5031.4263 -1090.2755
-3175.2893 -1293.563 449.2821
-2298.9985 4404.3833 -1472.1
-955.34149 -3509.7302 394.3732
2028.7485 -102.3428 -690.65576
2094.0813 -1556.3778 -1003.0359
-1032.5116 -4020.4402 -661.01501
-1888.6399 -2323.6492 101.51431
-2989.0488 1886.6726 286.25562
-1892.326 6585.2148 -583.81982
-2306.4106 1685.7382 1271.9456
1968.6218 1724.2483 -781.52917
2326.6921 -1046.3447 -960.79114
-1915.9991 7321.208 -1427.6633
-1612.3311 -3960.9055 -937.23395
2382.3062 -1038.7167 -175.70099
166.26443 -4588.1699 -397.82211
-2281.1677 -641.40137 1224.7068
247.43518 -2961.3027 -830.3584
-1884.8634 -3072.8606 1318.8611
1828.113 4660.3311 -348.54706
-3044.2336 1614.197 -1138.7272
1647.6465 -1675.3948 -1649.3765
-2870.5403 -1346.4561 -300.70633
1188.3727 4586.8018 534.30499
1647.5646 -743.4104 -1472.1
-2281.0356 6594.7969 27.311123
-273.39435 2506.2307 -1472.1586
1149.75 -2304.7646 -103.58839
-876.20349 232.20911 -605.87177
1279.9999 -4409.0757 -455.13229
1774.7534 709.14026 643.76062
1844.8126 4857.1738 -623.51575
-2925.1167 -1114.0851 -1165.3076
-1695.7629 1206.6 -726.72778
33.867699 3096.0815 747.19812
-2926.3315 -3966.0542 -238.79745
2195.6448 5484.9204 278.95288
1740.5837 -3452.5498 1009.7482
-989.74268 1450.9836 -1472.127
-2142.833 -763.86792 -694.20905
-555.63446 -4715.8018 -563.70984
-2552.2463 -3349.8948 -1269.7861
1999.4114 5299.4062 -883.43207
-2920.4614 -355.4024 -1395.913
1839.4973 1807.5262 829.15649
-572.24768 1798.0154 -276.84497
-610.06836 4416.877 776.09314
-2194.2144 -1920.413 1047.2395
1992.7157 -2505.5312 -82.132195
-2918.4866 2604.2566 -1398.9268
1987.1177 -794.09857 -429.16287
-1103.9517 7643.1885 315.06232
-715.70135 551.37616 -349.6355
850.77814 3244.0054 -975.13739
-2475.4734 4595.6016 -817.08289
-2877.7834 6879.9561 -1186.0233
1957.9484 3940.363 802.90491
-1320.7725 4447.5889 110.61391
1939.3574 5046.2329 -205.03427
-3034.0115 3521.988 429.74249
89.583344 8218.6875 -1351.7386
-664.5882 7318.3906 -1042.13
2144.2969 -1261.938 -1111.4875
-2229.7185 -1627.338 1082.0233
-2666.5 -2149.8398 -1524.2706
854.2843 4804.9355 632.68719
-2493.405 6612.0493 554.89746
1087.2419 -3226.5393 -1292.0425
1127.5085 -51.488049 -762.28595
359.47781 -729.65375 400.7081
-2025.9983 -4492.5293 612.5766
-981.46594 -114.76575 -1472.1711
2206.3359 6257.0933 -1047.2821
-2376.0708 -860.04572 -876.48834
-2256.7996 -957.66449 1568.312
-2706.1479 -1475.4633 -1055.5922
2254.4932 -1212.8904 -495.96021
1795.0739 -872.10626 -535.40149
2249.0989 2191.5642 -1280.474
-1888.6399 -2359.8904 -140.61496
-1099.6382 7883.5293 -286.431
2002.8464 4898.1353 -1078.828
-1609.5048 4328.2876 31.33285
880.10052 4647.9556 -940.84424
-1135.043 -4915.7012 -20.239473
-2104.6602 1228.916 -1472.1
-12.903758 3305.9353 -527.5899
306.60709 763.36011 -753.29028
1403.8063 -466.13672 704.93579
622.18597 -4068.3552 908.07202
741.63336 2197.5308 209.05331
-2724.4753 -1537.2882 -915.53479
-2882.0452 6354.4258 591.84796
-1419.3428 3012.4473 847.99243
-1968.1636 -2856.6379 648.30707
-2118.7007 3383.6177 486.02521
-2929.4417 6377.7471 -1644.3958
-1880.7046 6404.7939 596.15875
2413.9448 4435.4165 -536.50635
1455.1199 5068.5698 488.24356
-1794.121 6964.4453 -920.22876
1770.5721 6797.5454 -521.54834
-655.90808 -4507.9966 -758.08582
783.07697 3197.7332 -392.73889
-411.38934 -603.26428 -1472.2408
859.67969 7921.3291 -491.52277
-1198.7212 4132.8164 341.41574
142.00797 -259.20312 85.280067
1284.1133 5860.6294 325.42523
1974.1604 -2577.7192 -1349.7368
-802.75 4954.9717 -390.3186
-1750.9373 -4011.8245 -1050.6802
2380.9541 6653.9966 -709.48059
-433.6514 7018.0479 262.57294
-2584.29 -2058.1389 -976.43683
2320.8506 6574.1592 -427.01135
-2879.563 5406.7769 324.05499
-955.91461 -793.90961 -1472.1924
-335.59583 7100.332 -48.058414
1354.7438 -801.09698 515.68011
1373.9535 7901.416 -874.19989
2405.1248 4582.8657 -663.5094
-1555.4508 -4486.2129 383.57483
180.87535 5437.3701 169.42624
-2389.1748 3463.0032 590.58691
-283.65115 3511.7656 614.98273
-1618.8572 7323.4712 -1041.8621
-2584.29 -1805.5436 -248.00812
-103.996 -2412.1968 -1439.2278
-2077.2271 2045.7533 -1472.1
1069.6746 -3953.6343 713.84412
-754.11969 -4734.5952 -667.74158
-2149.0293 -2502.7695 892.55371
1829.5132 442.80548 -609.53809
-959.42621 7913.9155 -546.60272
-140.16589 -1260.9197 1763.1221
1141.0044 7734.2148 -169.2153
2262.1309 4284.9688 666.05066
-2445.8618 -2123.5095 112.35507
2409.8132 -2460.5474 155.10837
-3053.1021 2334.1438 -1116.3774
-2581.9541 716.66443 583.90393
-2692.9626 4761.7246 -155.35544
-2531.9199 2556.322 -888.69696
1931.8533 5217.8965 -1346.4319
167.43356 -2642.2559 411.828
1904.6246 2250.0342 358.91296
-685.29816 5261.2314 -1472.1
-2400.3557 369.06281 1464.6057
-2470.791 -1586.364 249.96317
-2993.5183 -1595.5559 -1152.6344
1206.2 5072.6372 3.0781784
728.30994 -234.52464 -163.94778
1216.5841 -2078.7854 -816.03717
1755.4438 5222.3145 -155.40749
376.15567 -4786.063 -182.93108
2333.4919 6212.4561 -38.197063
-2845.9265 -462.09116 372.70721
-512.50842 -4596.9341 -641.1059
1149.75 -1852.9102 255.12508
1396.0044 6650.2964 620.10974
165.81769 -2195.0513 420.89563
1184.0608 -434.80487 1698.2461
2018.2631 -875.69476 -996.11481
-2014.2965 -3305.8755 903.11432
1594.9355 5700.5049 336.50482
-1983.9528 5470.1104 456.00397
-2945.9463 -2831.8086 -50.264011
-3055.8989 -3681.4138 395.18558
-1888.6399 -1913.8115 -326.34705
2111.2954 -2750.3159 896.23718
-2189.6619 4633.312 -424.19931
2001.03 -874.47241 -987.05933
1864.1268 -2249.2139 -1194.285
1471.7965 4913.6401 487.83789
1421.4729 5686.7339 331.0816
-1967.2455 -3796.2778 -1035.6738
-525.97717 6449.2598 -600.09131
1966.9771 6354.3984 -147.12094
1861.8599 5769.7271 -1123.0227
-2105.8911 1697.5598 -1228.6831
2275.9893 1222.0968 -826.89612
-1607.4321 4916.6812 -625.19647
-1021.7791 8255.542 -852.43512
34.519024 -4933.2998 81.861092
857.56213 -4107.5957 -987.39185
-2465.9348 870.74915 -1472.1001
-2682.6323 2715.4629 -722.40729
591.32568 5274.7852 -1472.1
613.45947 -2880.5464 -158.04532
-2663.6333 -1299.7057 -299.0752
2401.4368 6654.0386 -665.78351
-1888.6383 -1158.7552 -955.89008
-547.22559 761.92322 1495.2275
611.4574 3561.9092 -1026.8102
-3095.718 -2721.2388 806.74097
-2536.4565 -1881.8186 -1679.2622
1120.1091 7912.7256 -326.76215
