# .PCD v0.7 - Point Cloud Data file format
VERSION 0.7
FIELDS x y z
SIZE 4 4 4
TYPE F F F
COUNT 1 1 1
WIDTH 1596
HEIGHT 1
VIEWPOINT 0 0 0 1 0 0 0
POINTS 1596
DATA ascii
-290.95596 407.25476 150.40733
624.67639 -2.5061893 205.30798
67.741989 -51.362297 194.22131
6.3617182 -51.362301 219.30806
358.54352 5.4419408 308.61282
1132.095 345.49667 356.31625
83.035461 528.50726 196.13019
1322.6317 46.186073 91.761856
-118.62234 -38.70311 112.88458
421.32373 599.29163 76.95578
1041.7278 311.74149 375.75269
978.69983 607.89178 85.431679
377.61957 284.92062 443.38965
1334.75 405.3512 115.57997
-76.241875 -9.4346895 55.614166
852.1814 -18.133614 70.17907
773.93524 199.85529 467.77594
246.77057 6.2280436 302.63202
1287.318 451.44952 337.9942
1305.09 393.50409 315.77164
957.30865 35.217743 45.407227
496.4498 472.06039 463.24335
1083.1766 563.23828 314.78534
1022.1965 530.52899 347.4201
1067.6871 2.371758 127.73958
1333.0646 85.211868 42.838459
1165.0898 569.43341 215.63266
743.82288 609.3407 82.807335
581.92169 565.53052 198.82466
1153.0079 571.06824 188.29309
1222.4585 161.18176 401.67801
-153.84595 613.55212 83.125275
909.73151 562.0614 35.985832
294.77313 172.59048 397.38342
-225.04276 348.32507 287.64972
164.31372 -47.835079 156.01276
-193.52625 42.295864 270.58636
964.16394 -45.4482 167.96573
1014.8849 266.67032 387.13922
84.389282 49.860504 105.38184
378.52621 4.7979717 259.56848
-137.48967 615.63599 171.47786
-178.18938 190.6102 304.13684
762.52222 -7.0046597 133.14633
890.46295 178.16606 432.93146
-296.80701 242.31958 141.51221
1235.2101 42.293091 340.27844
881.56219 608.21655 137.0914
1256.9243 378.33716 348.80365
96.116318 608.83008 215.75305
-210.595 253.75926 221.07736
1052.2716 51.451195 84.095238
-210.595 475.10529 211.02238
278.68262 566.60242 139.45584
762.67627 571.03497 167.43253
431.8551 206.16644 466.75323
1069.9697 409.89001 359.80899
-226.24052 575.38708 96.309189
847.25134 279.94458 455.06421
707.98352 -30.624695 94.600502
1308.5999 231.74382 233.17551
311.31906 557.61475 302.39075
1016.7377 576.87103 305.69357
451.00665 605.4624 56.736866
1352.8777 171.3765 55.322342
-191.42542 559.72174 250.25116
543.10706 315.97736 479.61853
690.05365 567.55957 281.4519
1305.0901 424.198 280.73871
642.21405 472.9632 467.61453
772.59393 -47.302658 75.283417
759.87305 -6.3670406 200.70639
1239.499 186.28061 349.09515
1278.55 160.66762 108.6926
1176.3461 -2.6573749 271.07016
806.21277 462.17307 455.77731
99.507347 -42.869667 87.90506
394.87677 4.6059446 311.45172
-152.71574 -4.3311348 250.25645
-56.875515 516.54388 232.68983
-210.595 227.50504 114.562
-5.5910697 -50.378952 57.94458
-19.187883 570.86365 313.76593
-8.5129557 559.90857 47.890133
145.11284 619.54773 84.557472
1054.4443 36.215511 77.205475
771.48645 -4.3858533 301.48956
1351.8186 124.59125 53.918465
-48.370384 -47.344166 188.6398
-287.13605 400.59579 225.4086
875.05292 269.83966 443.5733
528.22705 0.460778 186.1149
781.41064 -35.208401 117.41891
1269.8168 287.26163 135.26892
1328.2726 95.64994 216.8336
700.39734 226.02277 475.65195
1269.6748 466.91534 345.87122
1212.045 27.537724 338.48346
1086.0032 -6.5628242 128.38992
570.68201 525.12189 367.28741
430.33887 601.51172 69.681534
104.42437 -53.117519 209.9827
1234.5933 275.30347 145.05206
422.09171 72.958473 438.92001
858.67792 -37.250648 146.40485
881.67505 545.39691 106.99345
327.88434 49.09409 379.93109
-210.595 230.03368 103.90765
556.03418 332.15701 479.06549
78.925415 7.3543081 197.79839
-1.4301815 208.53851 330.82431
369.09644 5.1649065 228.07253
520.39587 584.77271 94.284836
898.50531 611.56165 192.92786
598.30566 288.6156 483.01978
577.72217 565.35626 151.93343
-16.865013 45.795666 229.325
76.047211 -51.362297 176.1227
1050.6101 -34.383224 214.87514
368.03479 55.71542 402.58212
850.87122 597.63477 178.5847
921.23206 317.96777 424.28876
791.26599 347.91577 467.21426
35.855232 607.75146 78.652817
558.92444 0.24081619 294.49368
1273.708 101.09829 345.98932
-240.27905 126.76268 63.054298
763.30756 571.354 126.28441
1328.2212 175.06194 216.87628
97.068825 35.75267 199.63567
-87.66877 574.14709 185.0787
83.774323 568.25598 119.9958
1334.75 241.59024 185.33984
1154.0006 222.73557 355.15338
-71.517822 -6.4499378 87.815704
747.60095 569.2196 270.57266
865.93286 511.11499 112.82754
-44.563011 -39.964256 220.29851
-284.7128 71.082802 167.32436
802.80518 509.60556 416.41992
329.88348 610.29443 45.834137
1083.571 525.11151 129.12076
1025.0955 -6.6740122 307.42593
-291.54037 431.8555 211.83904
-2.3201571 -51.716534 268.89594
896.59375 482.3913 423.0639
318.20258 366.39963 411.69604
949.30481 -10.101695 23.847153
975.29785 601.53687 154.88895
14.928565 -28.733376 22.042835
-115.75014 5.5346484 88.236725
845.65833 468.72693 444.47711
1149.0028 21.342068 335.69992
813.72961 600.12677 221.70712
721.76709 568.49463 275.02771
81.069588 -47.766068 264.12149
595.94373 71.551102 460.06769
1291.9785 545.90039 245.89455
76.55011 530.21667 164.81615
751.79041 -53.009529 56.584335
-210.595 300.11938 153.57452
311.21069 6.7966647 273.94507
264.46338 235.77084 386.93402
8.1882467 217.53503 331.81204
959.74304 8.0973454 233.35275
1118.1371 617.47711 55.581615
1305.09 177.43701 244.57632
-47.836906 515.39014 63.944328
710.2644 568.38031 266.89771
901.28119 -30.933502 42.352234
623.23529 565.79077 288.18457
-151.62154 614.23102 54.044331
884.58893 564.40472 199.01892
-45.506744 30.087563 58.511833
-210.595 447.40961 161.08136
745.46851 549.41284 324.50903
-310.94476 92.481018 46.368889
1118.1332 7.6836696 322.93463
-282.66663 254.40662 262.97241
238.93472 -24.03171 98.749718
773.5285 504.74744 428.58386
-151.92688 -49.803272 112.94484
983.86633 548.39075 331.33228
-30.234154 -40.329048 196.07245
1223.0056 88.366135 345.77985
-198.4021 553.3999 257.5108
1037.7185 514.3219 214.8459
107.08201 3.8604543 129.80704
516.45587 129.64284 468.65375
84.438095 46.12759 122.07066
53.427937 524.52881 37.5037
87.444496 31.66555 186.69623
-336.34186 231.2449 75.852211
220.05721 485.18427 341.16553
566.33954 554.49554 324.0408
1239.7556 209.09288 416.87799
1290.2708 515.15613 318.54761
13.703948 -40.913872 249.28897
-193.22649 89.544525 282.50043
87.25441 -42.296165 65.163986
1249.3033 246.54398 163.93211
616.60059 -2.2400861 196.88847
831.50061 605.54944 238.26181
-27.905956 21.140465 24.909607
1094.337 200.08319 357.57861
48.035168 606.42401 162.49669
-164.79825 -2.7454681 245.56102
1261.2546 2.5592668 148.39955
-121.39363 -31.712402 130.23608
996.28162 511.11499 49.311436
864.82672 611.24487 251.02548
976.15527 -44.021748 293.06671
982.04675 21.675888 345.10022
158.80795 319.54889 345.06601
-216.36678 594.47095 76.462517
423.40247 520.96552 370.6814
704.46906 569.18475 172.35161
-77.966873 154.89308 320.34253
420.23834 3.5939293 289.80908
271.7869 565.62061 179.02594
1015.8224 605.93677 36.894394
295.45056 178.22719 398.53998
1200.0676 76.895569 413.10135
115.61824 -8.43293 78.568909
-91.58123 154.04272 317.7215
1278.55 51.624664 205.26299
-9.3378181 38.24321 246.45636
7.7735844 538.85864 211.98659
210.89778 -6.6089134 142.57031
-334.72784 273.81421 45.826809
2.7617729 -23.900335 307.23621
-210.595 467.59216 159.50999
131.94205 222.19373 344.51923
1066.282 -3.8780594 117.05837
1223.8505 293.3082 353.53113
-80.874535 554.43842 127.18738
125.42331 552.09375 114.50786
1334.3435 475.36206 92.081329
-199.15872 321.1019 297.72141
-161.44348 -46.89883 64.637184
1141.9741 613.2467 68.785194
1195.1365 46.246864 417.55991
142.98004 302.61584 345.06601
1026.3458 606.896 235.09364
856.27496 616.34955 221.6647
1309.2717 -23.146959 81.230064
361.39609 559.07172 280.18274
1094.0294 607.33087 239.13019
1148.6614 450.07629 349.79053
956.41083 14.669945 4.0267582
1234.1707 7.392869 320.67145
1233.8385 272.57346 154.75194
-104.554 251.19176 318.21729
-233.66475 313.74319 63.054298
-305.802 272.21826 163.20773
339.74442 332.56573 422.99548
-82.162697 598.19861 42.963604
1044.722 540.57007 131.2598
1009.1691 612.49463 233.39
-117.74249 123.21216 309.89001
1029.9846 609.67206 275.63483
-74.663071 -24.11157 156.69888
1305.0938 36.889477 227.94313
-5.3281212 101.78796 325.66345
388.07367 4.7569227 164.10052
501.74094 244.38184 478.05496
-17.382534 -47.951019 100.31005
1248.1757 372.62585 349.13031
1143.9187 570.88116 212.99066
1035.2566 51.451195 180.29584
1083.0286 -0.22961301 104.02229
-210.595 350.03448 163.52945
1318.9226 528.69897 108.52647
215.00693 9.23839 329.96594
1348.3643 144.1012 49.338936
1036.1121 356.43036 376.10696
446.6781 177.85448 467.11685
-210.595 102.27768 79.244087
1024.1913 282.17825 384.18881
837.88373 9.6860628 117.00567
260.72406 196.32504 384.48346
-263.71451 494.71991 122.55338
8.3659954 601.10858 24.750603
11.509529 -48.920662 252.02602
117.87464 -55.623276 198.48808
-325.90488 438.82303 47.800156
437.43555 561.2063 288.36896
-210.595 338.69345 239.87004
229.16763 554.90619 329.20184
306.89618 564.80414 130.728
841.12079 591.37018 105.52078
819.01666 207.56326 461.4317
699.34686 568.43115 251.45387
81.296104 -37.701733 194.70889
1300.0897 593.13049 62.276653
919.21545 204.47801 423.58624
340.18878 2.1296847 153.48837
879.27838 586.93866 130.3631
70.6642 615.71106 255.48911
455.39777 2.7136781 116.30841
893.01898 589.15924 82.379745
-79.4245 -30.217503 111.9766
1074.7791 558.96631 181.96461
-210.595 398.84698 214.87946
848.73694 -30.757696 174.51682
5.2361135 610.74701 62.651356
-174.5983 68.05201 283.84274
1302.4709 -27.969385 74.266365
291.61728 41.213436 352.46014
1280.5685 475.84149 344.6474
106.50652 600.45502 138.37509
-210.595 381.52454 167.91658
229.38434 1.1433513 254.14111
-241.2643 516.32019 63.054298
615.44714 566.63208 134.33461
829.00439 417.11053 454.86673
1016.2382 51.451195 208.99736
-214.87337 530.71991 63.054298
535.98309 175.33516 474.15991
-46.619438 3.3736601 219.44672
575.55353 572.16504 101.05811
-210.595 371.04224 228.98145
991.88928 441.29022 389.02847
93.233505 -7.7170601 72.956078
99.237335 531.31641 168.631
392.92819 402.53229 442.18207
1255.6951 116.311 400.52078
1275.2002 262.80615 351.18314
20.968075 130.12946 329.96484
229.8573 619.8349 49.078159
-278.25378 300.16287 63.054298
109.86684 509.9881 124.3923
819.73242 -44.440331 216.83151
491.18805 101.47667 464.31354
764.6604 570.96729 189.51366
-4.3418884 610.74701 196.73158
1325.2491 320.48996 219.34521
1295.7585 511.31522 268.25894
351.8172 187.52803 426.5155
47.055332 616.13153 263.24701
1013.0966 -51.556206 243.22614
320.50455 132.08539 403.58231
868.24048 564.19537 175.21425
940.28772 -39.229469 191.68948
1320.3677 40.141205 103.06767
918.18335 613.16553 271.42426
1209.6581 118.0605 369.72665
-24.067104 606.86627 54.927803
-242.75305 446.81345 271.20209
901.76404 566.42072 318.25232
1334.75 295.34668 175.43311
-34.819927 600.21326 126.77164
1040.6677 453.64798 369.12076
-125.60284 603.09192 103.29929
-288.38528 450.60635 195.66788
1228.0262 564.58258 234.55782
316.66168 557.86078 234.23337
1013.675 51.451199 36.270256
-80.361862 39.959454 37.031746
1066.2959 -32.453838 117.16404
585.98352 -1.3441236 208.47687
382.84692 567.90118 103.59344
554.81909 -35.305077 44.040581
1278.55 120.87303 186.54701
1217.7814 566.92627 103.93166
1115.3733 -21.706604 231.55769
944.2998 615.07666 29.885555
-210.595 166.00243 108.17607
170.51157 226.63231 345.06601
104.79298 7.1259589 196.14487
835.00903 393.22064 454.12787
-69.96093 543.34528 206.6127
-210.595 488.42813 93.035057
1038.5549 -25.264969 55.511978
630.07379 252.98497 482.6601
1066.9402 511.29153 121.31718
58.489822 411.52899 334.86377
675.75879 567.36121 107.89864
372.10437 79.735069 418.04187
44.876377 32.398323 323.40714
1236.2189 -43.280384 44.111843
912.38379 425.88284 421.4552
-127.47192 -44.881508 110.68394
-295.7182 55.487106 53.507931
618.21375 604.43787 44.602909
-169.53113 35.80389 278.52597
131.03171 508.52896 332.89749
1045.0084 536.45667 126.4728
-337.884 330.69748 63.716663
522.81427 563.69562 180.63951
1015.0893 375.66217 384.10031
-291.27286 366.78299 206.75369
-227.72961 552.58508 239.28076
107.05782 -26.582464 129.99086
-96.24408 241.46851 319.7789
395.38345 587.90613 92.60144
1334.75 367.32657 164.98271
830.01099 603.21753 238.4386
1035.2719 548.64838 51.824036
619.45221 -39.348953 72.596207
1029.0896 392.72922 377.4953
231.22485 567.62762 194.40631
591.41986 86.814789 465.44647
-86.455864 537.19934 303.22879
866.93127 523.83264 83.502258
972.70728 16.63644 332.29001
539.69403 131.43277 469.54797
-37.106438 -32.929455 28.720587
1199.4927 498.78375 342.99646
626.22418 476.60721 466.64746
949.41534 17.20303 231.99301
156.94116 516.68811 332.82907
-46.431488 521.19904 223.07404
-8.0643826 -28.771639 303.24597
134.86021 345.43164 344.81888
-40.554874 -42.507454 132.39328
273.43863 555.39838 327.73181
0.65747356 9.5335073 20.475992
1200.9843 303.3735 405.57516
447.05475 2.8252883 221.02869
509.15686 319.78696 478.29877
83.969765 -48.986202 97.552605
-227.49365 0.36799431 101.77309
741.51978 135.9232 464.82147
941.86774 33.051926 47.440109
49.938801 -55.213295 37.973118
-330.1839 414.39203 60.960739
185.10318 588.44336 176.92847
1045.9084 579.49347 190.7037
-210.77899 596.17633 52.360683
919.29651 534.80383 56.71624
69.170197 576.59778 81.902527
356.0191 558.76202 311.94168
-186.802 504.15079 277.31531
954.0517 5.110918 209.98956
396.12073 503.89001 418.49792
-280.39774 291.05054 63.054298
81.868805 27.451672 148.19832
1014.2072 26.287657 64.116035
1037.7285 508.13434 352.14362
-210.595 460.83032 233.81784
-337.88397 271.59531 63.664726
287.87311 556.85077 281.30002
785.14587 112.13003 458.72418
-281.72235 525.52563 45.927574
-284.93387 121.93517 152.2858
10.257307 -51.362305 117.10158
809.75427 614.96942 86.806198
-260.79053 528.24945 93.087799
866.58795 612.33801 130.56282
941.42529 213.31096 415.18271
1278.55 141.46761 130.27745
663.22235 253.54065 480.48959
1262.2174 2.9696162 167.93832
70.555748 593.70142 83.708221
1259.2068 556.38129 300.93994
562.33716 564.95044 203.55266
-285.27847 110.19981 160.74615
1251.5812 290.75381 416.87799
808.55951 571.04041 254.72401
125.29073 117.81006 339.18146
-321.06201 276.06854 184.17599
47.770691 -47.151409 31.611593
1244.1244 295.293 416.87799
-30.663223 585.4967 248.03072
-266.10999 213.32132 63.054298
1255.2433 -44.349377 77.796844
353.1795 2.5365834 119.09243
1262.2679 432.92725 354.73755
1278.55 90.158112 147.17828
1301.7661 81.967957 316.41229
1334.5724 472.61801 106.08008
49.317036 -40.396217 293.16089
1129.677 92.605141 349.89032
-170.38794 384.92828 304.66364
-79.090134 -4.1783118 298.59167
1359.986 138.24969 84.308212
-127.68819 305.81296 313.86981
1237.3628 565.35614 111.69318
1000.2954 51.451202 214.92139
1251.0443 525.22662 340.09311
520.97046 563.67413 118.73544
898.43994 317.3053 433.48422
945.40271 421.88464 408.85474
-297.59674 239.18126 105.92699
109.74892 584.15985 277.33398
1234.23 565.48572 145.6769
1278.55 433.54147 140.06627
230.81664 561.68658 272.29343
-129.76578 -52.397079 123.03854
1237.0857 47.412113 340.82544
128.48903 331.94037 344.16467
1254.3844 238.84235 121.27232
980.46936 601.97699 167.43475
267.62238 520.33374 350.05402
1035.8992 274.2323 379.1351
965.09161 393.26617 403.37961
207.47156 170.763 356.05103
-241.71646 545.37207 160.42625
486.10059 89.587646 461.89304
1365.1299 238.02995 82.688751
123.20714 -31.349379 142.71573
968.07275 525.80219 210.10634
1334.2974 90.905624 208.80315
-290.40601 308.37729 257.64859
109.32042 597.74146 188.53482
-198.08742 566.48285 192.66644
1065.9296 531.6991 61.669655
865.70123 527.28711 53.713715
82.74398 35.599533 192.82201
944.32965 282.40802 416.0401
151.29555 266.92844 345.06604
-153.28253 -49.389534 88.898087
-22.014048 596.75031 10.764975
972.59558 609.41516 23.430866
1278.55 302.19211 147.92107
-30.439264 316.26556 327.8454
1352.043 257.5379 54.215828
-16.360567 57.098667 321.39224
538.87933 165.73688 473.21457
1239.3872 515.99359 340.94873
1281.584 188.32135 348.79089
629.8374 -18.234344 97.558136
1043.147 511.11502 62.972771
919.07593 377.04294 422.57324
970.77795 -45.90863 109.39204
-143.6286 597.79291 224.93546
331.09198 -24.64571 94.504189
557.65558 443.49896 468.91266
1271.4346 -39.475883 62.766708
905.85004 554.06738 67.033844
56.662025 303.64966 336.78949
958.38043 314.6413 409.37305
672.823 482.50775 464.8363
-9.9148769 -12.18616 311.99432
-103.22833 565.21625 134.06145
314.4859 298.40973 411.95407
451.1138 31.134775 334.70923
926.74445 -54.937244 253.28966
868.75635 587.86218 176.45973
6.4570999 530.94025 234.77324
-226.05101 8.1340208 237.11824
-299.32574 419.12683 193.65428
1146.0139 -16.44582 181.97823
837.99097 385.29291 453.44446
118.27026 -6.8402829 282.38019
900.92365 9.0420094 236.22652
673.84985 387.65991 474.36072
184.49701 506.38895 334.50504
322.2435 35.837173 338.41803
1278.55 221.33789 141.73721
75.842728 591.97675 54.222115
605.07935 527.81616 361.13928
365.64468 -28.769245 90.827332
1012.0671 616.85699 257.36517
1206.3411 457.98062 401.67804
96.539314 581.22803 288.38721
27.66814 135.54196 330.96152
1256.8567 41.723057 426.35638
1350.4637 92.32579 87.306061
772.88989 -48.64476 70.885902
-210.595 26.127674 179.2778
106.31866 -44.163582 116.50143
1132.4045 39.702103 336.67447
-240.38716 134.80139 274.75391
1021.0366 246.91699 383.7204
1052.4808 122.78388 365.03827
-152.37242 122.01422 302.81009
331.05249 1.099655 135.16393
290.20178 141.35553 390.84851
1293.6428 289.88605 125.88574
820.52087 332.06781 462.38525
89.66243 620.17572 226.38266
760.13684 570.08081 243.72647
88.180725 39.896572 66.37117
818.37854 -51.402958 160.25427
982.48706 604.67633 230.82243
471.57996 119.29027 464.50674
657.53937 341.65964 479.09641
1081.333 548.63965 160.73535
883.97498 62.628929 418.73135
-249.05081 379.64801 277.12357
-101.85135 590.6991 144.52022
1039.582 582.1803 99.587082
1129.2594 -47.125366 124.882
510.03455 280.68436 480.48233
-161.42426 54.320713 285.62781
895.05444 604.94336 175.82845
9.9849567 -23.719536 230.71594
1222.8297 279.82733 354.05353
-111.55619 -6.155829 76.57814
1342.8997 23.995176 66.629272
-251.35977 478.103 257.82962
1252.1045 245.6452 350.81329
529.55475 255.92683 479.63391
910.37738 216.96104 427.65302
-50.767494 -49.141769 266.86771
45.856014 531.84363 59.472763
1011.9813 44.317421 35.160034
544.24835 -4.0677233 103.07967
89.560654 -55.533798 227.69456
1278.55 299.15576 138.9395
-230.27628 547.43439 239.99008
-210.595 434.74017 235.11665
-27.956379 509.75464 206.45876
37.328556 536.50281 322.63672
868.63586 -37.132698 79.326477
337.43689 558.28503 256.29813
766.36261 55.661533 418.42987
-290.77759 157.87773 247.56264
-210.595 501.88943 98.483543
675.57172 240.78799 478.66296
1371.5157 144.52237 80.678322
41.954994 49.860497 42.462402
60.610626 592.14587 296.14682
-230.68634 6.8705163 199.65414
391.39337 379.91446 446.4537
267.38754 3.1828697 241.80254
-151.62686 -49.894844 95.383392
926.04187 600.33911 242.66766
852.6911 0.93427736 68.460999
1278.55 431.88782 100.31023
-137.627 596.11804 233.44806
-220.58237 360.63745 63.054302
220.7628 154.50665 360.16953
-210.595 440.48395 193.17653
1010.4978 544.15344 61.069939
14.21274 521.38745 48.134109
-223.06372 163.62781 63.054298
797.68738 -6.900919 232.40526
1240.1294 142.19185 347.6572
-60.273342 600.32367 125.3412
1085.3356 -36.372337 164.93236
876.0929 550.08984 37.821732
69.461258 612.36493 220.40826
938.31921 -47.681168 249.28412
-158.3696 605.75818 44.957485
-262.79962 497.42535 132.16949
-210.595 437.20236 100.44386
1328.8107 542.93054 87.659828
214.42017 158.52063 357.73822
-294.17117 475.01483 178.79916
591.85156 95.673035 466.63434
-229.33566 -15.262216 92.571014
815.33655 -5.1584167 304.82767
70.32579 606.42395 167.45184
122.57363 57.678364 332.83038
-210.595 320.74368 79.944679
383.82126 584.66534 94.573975
1037.3708 546.93884 94.253166
1278.55 219.45689 157.52069
1305.09 232.71011 265.65903
924.48206 -49.608139 271.15472
873.02905 591.13922 183.95389
1215.8859 35.035099 405.5314
709.75012 9.6537743 322.38339
9.9731989 570.2832 211.69693
73.766525 -44.644737 231.93393
405.66745 560.41302 281.00488
1179.444 260.82751 118.81355
1266.9479 241.28346 113.54605
315.67737 582.57629 98.588974
1039.2466 -45.920975 128.43112
954.14722 -5.4834757 23.20965
1132.0234 173.28979 353.98529
523.36865 563.84717 232.56839
531.04089 149.12057 471.18018
-147.77962 -17.854427 233.01642
-39.679859 467.87866 321.66379
1000.7748 565.71503 10.968845
-279.96024 337.08917 63.054298
377.05615 370.34537 439.46326
556.45264 86.120522 464.27948
77.346077 -6.113667 92.990753
1296.3523 29.971989 235.0632
1008.6044 560.69287 33.5896
1303.8177 87.459167 293.64719
-225.77612 155.60907 282.51733
89.041733 164.97603 338.49829
874.22101 522.61169 70.048294
-83.704773 509.52399 129.73219
1315.0341 31.913664 173.64688
1234.7533 -1.2548871 104.7599
957.3786 272.99646 410.47421
815.22601 278.98587 466.01822
399.70639 4.1639585 257.02734
-201.52249 441.25641 288.07419
-210.595 276.78317 198.16698
-63.194489 524.71094 79.127769
359.53006 5.5575094 188.27594
1187.4177 494.47607 343.78961
567.33716 181.90199 475.82895
715.48633 464.29617 463.17477
-210.595 317.76361 158.4256
861.08606 551.38037 97.613869
25.379738 560.13306 26.990509
1099.2914 322.43463 359.34012
1095.8171 80.274475 347.67249
1320.4105 525.38116 94.972809
1048.1404 176.78683 369.89856
15.038513 597.35699 233.64374
287.45917 556.87115 322.09161
226.2504 533.64612 330.97964
-128.44 612.3877 127.20543
874.8537 611.11163 150.04549
-65.118492 174.82463 323.24451
1362.4609 323.03439 68.027168
-295.06979 442.00024 193.29329
91.950745 473.85886 332.89935
-17.390274 607.85962 171.85431
597.6853 124.32635 470.54282
1024.5127 30.841808 231.67874
596.67053 437.39517 470.7937
940.68292 -40.936104 153.87938
889.43628 -16.587219 226.30264
-275.77859 474.07886 160.14758
-92.902039 509.52399 167.80135
-41.186325 580.06335 306.16855
1228.8761 484.19281 344.54407
53.169739 513.36053 37.396748
111.73135 461.9884 335.32654
-99.553795 93.264999 310.93829
1278.55 220.81656 101.70029
1176.5886 609.4408 43.419888
927.51184 314.62289 421.85938
452.85172 2.5627942 254.6203
-89.514107 -43.73579 72.910858
1181.5881 299.7345 120.64018
-154.32008 236.71161 308.86502
-268.58557 448.79541 254.74867
469.05951 25.21509 327.83948
896.9115 51.451202 68.500862
80.505829 548.67737 104.00591
214.95845 566.37915 227.34808
11.264819 563.14972 4.7430897
1282.2688 326.47385 350.09485
-58.129242 510.57037 215.69138
-74.868759 29.303326 95.90564
-85.398926 412.26688 318.73795
138.73254 212.37549 345.06601
554.18781 1.2349474 317.0079
824.71753 125.17276 454.07776
993.43567 520.48535 364.28656
1278.55 398.63531 175.54486
794.24548 -6.2072568 261.88278
1152.1749 234.67482 355.90128
1252.2031 47.392799 395.51971
1195.4631 77.506599 344.71997
1189.4509 566.6897 242.11465
840.56421 133.93288 449.59894
1018.0308 -40.655708 288.96735
1284.8754 232.22952 133.22655
886.92023 -11.034649 202.29776
871.96588 565.72546 318.58325
170.92393 -18.908787 213.78186
902.73602 590.77209 41.163017
432.05032 473.83902 450.81116
-99.754715 509.69653 97.826614
952.38214 -25.860588 304.98199
589.63306 -1.4728817 215.55862
104.35686 39.244202 150.5112
-105.52558 526.78375 69.831093
1043.5576 609.28955 271.66937
1303.1528 53.987579 232.6098
609.57446 566.41803 141.57953
-79.920609 -47.13168 126.79724
831.79242 479.96533 448.30099
104.93321 602.34308 150.32483
918.01074 567.82324 11.070704
371.55606 559.1579 194.96635
-210.595 290.21765 197.242
968.75134 584.41766 232.63089
760.86731 43.889393 387.56412
1036.7008 616.18903 201.22815
1278.55 382.95068 101.20231
996.89404 572.00055 202.54767
201.63284 385.50879 354.40634
254.3045 394.7851 378.0321
81.001602 -12.004762 30.369242
944.71069 13.18561 249.58559
-30.703127 519.10052 320.0162
582.48517 506.41318 422.63876
86.494728 -50.882626 64.173935
1311.7006 544.20026 177.92639
1228.6372 -1.4046626 163.03073
-8.0799599 597.54303 142.02374
-74.156219 31.675016 199.2117
884.35217 -42.509789 155.85381
64.055359 594.97375 214.09569
5.9039536 -29.68886 20.854721
24.804928 600.45868 176.41919
681.05334 343.90125 476.95856
857.31873 36.510414 372.99255
-298.56323 303.82776 252.03734
233.88432 34.797985 331.71902
940.37866 588.01227 249.17554
273.82642 220.45004 391.09738
1050.1182 51.451195 129.36452
939.66565 -8.9243116 312.5625
955.86749 611.71997 78.232941
200.97145 557.32037 326.10934
506.69879 607.17566 51.123344
75.80069 37.617184 89.259827
870.29443 529.47809 180.17296
-274.07666 93.539383 155.86786
-296.80701 323.09515 107.74136
1012.4487 -15.070368 305.91037
101.56369 364.9162 341.39999
737.93811 -5.9498076 164.01001
-231.6866 6.7211165 102.29902
1157.3611 -4.7619348 235.71133
0.068916321 339.67117 330.97827
392.75122 173.42148 445.14331
-54.058487 -52.691307 253.09116
-256.84293 1.4621425 45.679214
730.05103 -35.895035 92.339157
1276.4048 442.31757 346.66132
548.82135 -21.628843 93.645226
-86.917877 490.57758 310.56458
123.97815 404.81866 341.78055
1071.8411 612.42224 239.72255
859.06445 482.64413 437.97
596.52911 565.90765 157.55936
-188.19084 490.67871 280.19418
-287.41019 134.49144 148.53152
994.27625 22.340912 347.49988
500.17529 510.41235 408.4353
1064.3782 23.071434 153.23988
785.67023 605.96381 137.35272
1334.75 451.38315 194.55655
1060.3411 34.040764 164.38043
86.136093 493.55096 332.42627
257.22479 194.8768 382.78683
-275.6687 484.65433 163.65431
938.76794 584.07092 230.4455
-113.68976 -51.325451 123.37445
-210.595 222.78159 152.35925
-210.595 255.19972 67.381554
42.433098 -46.795258 78.376312
-77.541245 514.82343 60.995285
1301.4336 329.45847 159.94135
-296.80701 314.41901 120.00436
-20.302792 22.039387 46.02792
-87.492889 47.690331 70.276764
1222.636 330.23676 416.87799
135.88487 -50.019958 205.61029
893.68719 50.813942 174.28723
313.33499 486.49655 389.0679
1200.3059 270.89194 122.93675
112.50081 -15.003479 179.49802
-210.595 328.59616 207.36267
100.61165 511.25815 165.31296
1071.4705 587.65155 186.27153
528.89136 0.50912529 269.36633
-285.72827 436.50375 233.74025
913.43079 11.058931 323.84497
1130.3099 310.37781 358.1391
1334.75 206.8821 142.54938
-104.2229 233.35759 318.27948
820.40771 -6.949636 256.99176
189.39502 357.29782 350.70728
345.09689 5.8479347 244.58704
1339.6519 478.29547 44.699154
1.2486076 140.36331 328.4252
179.43201 616.06091 61.443756
290.54755 -1.237799 159.15538
26.633224 516.10828 50.672577
881.62701 343.18124 438.99908
-1.9739952 244.17937 330.76846
18.389727 35.758739 321.95135
-239.82135 20.212984 120.12755
-171.72505 -39.097363 149.01079
908.52698 511.11499 212.66318
935.71228 572.05902 247.74719
1315.3322 220.94185 227.58304
41.254883 193.90948 335.20746
1234.2644 295.12665 153.88387
-62.648705 256.23203 324.53784
-64.805542 -22.040958 293.56488
-48.067856 -47.65226 104.72321
1334.75 341.37466 182.77312
995.51929 538.09656 227.38501
696.24188 618.07715 47.629745
-62.935913 608.37317 231.64798
1164.9884 569.26282 221.29065
986.35132 602.05237 172.65207
989.13367 601.48993 58.753006
703.91016 42.385178 380.8277
-112.80926 544.61804 170.89972
1344.7975 197.58072 46.255657
775.72882 571.25439 189.57881
-319.76538 454.73682 54.431313
-93.761093 476.63757 311.61942
433.37436 561.18701 256.41779
46.010658 474.42749 330.70407
1305.09 166.15968 285.02719
-264.98315 356.81097 272.10858
443.01538 319.48447 471.20505
-210.595 181.19421 67.242935
135.87471 600.99451 73.73671
934.06946 612.03711 149.98944
-121.06546 -55.65395 172.65495
-210.595 62.797783 166.5739
860.70715 608.83984 188.62122
1307.3015 18.636751 213.68253
1299.8236 10.750816 103.1842
371.36072 560.57837 141.81052
61.038857 22.764357 323.56427
841.15173 547.61609 142.34773
693.33698 27.01812 340.215
208.23828 154.68768 354.40503
795.32471 299.66104 469.48691
1321.1884 52.239254 192.77353
689.30847 568.8396 152.39258
1303.8092 87.426765 273.4812
422.90369 515.15369 388.82056
513.59619 561.92535 113.43655
892.93427 -7.5181351 230.65372
982.01562 -47.733009 111.03033
1020.4666 329.45746 383.35797
-216.27194 594.49988 92.264999
865.11304 46.389725 87.831322
1055.6711 612.33801 99.208771
1190.976 270.70877 355.4133
367.91592 560.59534 146.07108
1305.09 155.94006 258.80893
1305.09 365.29556 254.83765
1205.8036 385.55606 349.71652
917.77026 585.24902 242.32767
709.91077 253.11705 476.36115
312.99457 363.70844 409.27945
-192.78752 440.54904 291.43323
1200.7329 179.92978 413.76743
1029.8956 -44.85701 81.050957
1199.47 220.08371 411.47757
623.22913 565.60748 293.81903
140.7074 612.93091 207.12646
87.770233 -28.487942 214.56613
1314.9255 291.97546 122.4637
672.44305 265.86572 480.39816
1164.0804 257.7066 163.09373
836.45276 -52.250893 195.0746
1235.8207 18.518232 336.992
627.4425 -1.6743108 283.36072
-44.036278 607.1947 71.818977
912.36658 485.21329 415.17737
-210.595 360.88376 174.94275
955.02582 513.01282 209.97214
1201.3928 246.47699 353.53574
933.75531 -49.537174 229.68918
1305.09 397.13525 248.03223
-61.022243 518.87671 312.34885
-235.7233 582.71417 78.878204
756.11694 614.01672 67.486282
620.27142 290.72122 483.59888
1229.79 358.28516 349.89258
1097.4285 -35.05439 241.71635
1049.504 532.71021 69.535858
-108.03045 612.7998 144.13153
75.053398 447.20132 334.14288
-171.73293 183.93156 304.82544
-43.753418 563.04889 60.810974
236.21939 -37.000542 91.852699
-37.493149 548.01385 32.496632
1199.47 213.44147 409.63702
651.255 226.32991 479.85358
-264.36243 63.662659 231.75096
834.87933 478.56622 447.78232
4.6814995 483.27765 325.77707
1288.9286 -22.620552 83.62854
453.31714 597.15033 83.971542
0.60423565 536.02344 321.09448
-78.857834 513.4444 147.40326
100.58814 -11.121593 201.46712
1186.9473 138.4552 348.68259
603.92334 602.66577 71.465912
1058.8274 64.175934 347.41425
315.66882 510.72372 377.30963
127.50871 -40.818077 166.91977
1125.3856 -6.4972305 241.57277
337.35876 6.1635427 213.15359
1046.2775 535.33374 190.22293
-133.27271 248.24203 312.82034
942.24792 231.90559 415.40073
-193.44025 596.32275 45.311493
819.54431 437.90674 455.2952
1211.8315 330.47525 146.70984
564.729 -0.73236579 220.4613
895.04095 -46.559437 135.1748
40.078819 600.64893 135.4604
1328.0725 -16.180071 78.837524
1352.3463 333.09763 54.618011
-210.595 468.02066 111.20435
12.798842 35.646164 21.762451
559.78131 -0.55458927 124.39995
-247.58104 335.68668 278.87988
-210.595 354.05554 197.263
714.50073 569.53973 198.42346
874.25665 -53.622501 176.02617
1319.1549 260.52094 113.27109
-26.47015 -51.362301 138.54089
1278.55 304.8447 74.238098
888.30255 606.82062 222.36322
-103.60876 555.58643 128.10004
1038.9163 390.04257 373.57745
110.98252 605.63416 178.94176
213.70779 -53.107029 56.920181
1045.1547 20.597778 218.31815
329.33688 97.773422 401.39557
1252.8522 209.08002 401.67804
538.85791 39.951168 367.25009
1249.6013 330.59854 134.7323
929.59003 -39.859123 133.33878
446.48633 38.706211 357.65994
366.42017 289.51941 437.67361
-319.14117 109.18039 46.629292
292.22449 3.7608302 223.89508
1163.1038 159.28622 351.21814
-294.24976 178.27696 146.25627
454.40271 561.75659 230.80719
-104.4726 603.44238 190.35365
-147.53204 168.48944 308.22095
105.42893 548.17047 146.56253
608.64203 -1.8228083 249.0005
792.83997 95.859833 456.20471
607.77258 346.94611 479.78455
1304.2445 567.14258 42.817093
576.65698 170.12743 474.84198
924.40454 398.45142 418.82657
411.21313 35.093452 343.70526
94.663971 570.63696 179.67255
73.742996 612.81641 233.39139
998.73187 -27.711422 9.9706602
418.37665 381.15567 461.89554
881.67529 542.78632 338.31873
-92.283249 408.45892 317.72449
-112.35484 -45.266582 165.06436
932.2334 32.913563 229.05875
298.68872 557.23346 302.67975
-210.595 84.049446 125.58619
798.39294 451.72647 457.67804
646.78149 146.85419 473.76834
262.13403 303.17612 386.27127
602.41809 -1.845678 123.31219
1042.2922 588.56537 106.12567
-113.81687 -48.420292 177.95778
1210.7798 42.893112 340.03928
518.84711 66.657982 447.66919
1278.55 243.93211 150.0218
96.509979 -33.596771 48.1362
119.6761 609.25098 248.91545
569.97852 519.41199 384.15155
353.41876 564.15588 106.85001
587.21301 -1.4001107 139.25916
508.55304 1.0538733 270.60501
384.59375 4.8736734 159.66882
1026.7792 198.76505 379.68298
699.04077 568.08093 117.08282
-210.595 83.068314 174.91185
764.25037 529.26099 364.6763
634.79456 125.46943 471.78781
144.9765 619.58936 82.926048
-311.1752 309.27246 94.617653
530.37329 465.3988 465.18842
1285.3009 17.159683 291.73721
609.92682 -1.8981316 245.68298
70.108246 610.74701 195.67023
949.15881 543.38416 6.2701368
1201.0814 184.07256 405.47791
577.9798 443.1799 469.57153
1231.2882 330.40137 121.86537
-130.61534 -50.314209 193.04581
-207.22298 597.2616 84.468948
430.78458 438.22113 457.2363
708.14514 -9.3806705 105.97735
1305.09 239.56206 271.54749
-84.687202 607.67584 188.96451
566.14197 -0.067414582 288.37177
346.776 558.6214 306.28287
-291.58292 160.98979 153.06335
-210.595 309.03662 167.32906
913.74219 522.15765 60.978142
388.909 167.03355 440.81662
-102.28359 31.19721 138.26933
899.39581 34.888985 43.798878
-74.166344 34.123772 31.668922
1109.927 156.56285 354.54733
-19.261684 -41.069862 174.61086
719.00592 -18.269485 101.7308
682.30798 -3.5910256 255.6835
1204.7864 567.94409 114.28039
954.46002 34.684063 374.83295
243.2065 281.14783 377.3833
825.62256 619.81244 68.275932
405.21585 378.88034 459.45828
1134.6165 333.2171 356.77194
-138.31799 290.6293 311.87219
57.023987 377.34637 336.44022
1.6773093 606.42395 73.726097
871.87482 571.06921 298.74982
-253.09099 523.09082 100.21747
232.29257 -8.0130672 107.42577
-282.74115 501.12567 170.01102
1124.7533 606.30365 194.38158
550.40338 533.68506 340.98184
1234.0594 358.48093 401.67798
1346.4915 549.88812 81.689461
7.7153363 610.74701 48.864471
859.71631 -23.398968 154.29385
396.25549 106.57672 434.46356
-210.595 78.255524 148.03784
478.47705 1.7844287 255.89723
680.20575 -3.7723746 242.04651
468.44348 59.033943 422.24182
224.19785 571.55402 117.73776
721.58783 611.02942 77.274307
23.363625 44.249462 206.33858
1265.015 295.53226 351.3757
741.5119 537.68231 342.62048
1322.0894 268.61832 221.96992
232.87994 -2.5809534 201.99643
1055.1377 35.071518 78.879784
973.67834 169.1517 399.82993
302.01144 243.31693 405.11316
720.72278 505.51407 425.96893
644.37793 554.92004 322.96817
621.09406 560.37323 322.53851
540.80054 564.29504 130.04681
1316.1501 403.09973 226.90355
590.03229 565.76123 193.17995
-319.56842 228.12827 187.49567
1043.6157 542.69214 115.88686
458.96582 561.4057 305.86545
1158.9078 568.50244 244.84766
3.4059143 -37.946301 134.89267
960.47406 511.11499 222.36653
1183.1084 141.24573 349.05127
367.29626 -39.857731 66.794228
959.58344 608.01501 92.195877
127.95748 559.37946 127.37117
-257.70798 31.47686 171.58333
8.5686798 35.253937 246.26723
517.43341 563.01709 297.60748
1319.9601 449.32346 223.7388
483.31183 64.397316 439.59613
-97.244003 -55.213299 151.20995
834.48578 -32.698349 43.650047
8.7410126 535.83807 24.799974
168.31445 111.14374 340.90427
843.86401 48.651257 401.53564
581.09711 -1.250493 229.35074
965.93414 -49.63784 144.05928
-185.35585 -39.600807 83.334602
455.13013 3.3937025 316.86414
-62.90213 302.43231 324.51181
962.6355 367.1752 406.06787
366.67996 165.75114 430.10071
1278.55 445.81854 87.778336
1321.8047 54.057102 182.96176
371.44202 440.51624 425.99994
-298.69916 365.05377 242.06297
955.07343 37.938957 377.24643
1357.1147 192.76505 60.939548
866.07617 558.05573 169.9893
15.219784 614.59802 230.75124
730.12451 -52.441738 58.444748
-291.03345 436.65494 200.81383
1240.4109 333.24738 350.53131
887.89111 609.7359 160.26013
-210.74945 245.93797 293.21136
59.28743 49.8605 55.581829
84.31572 549.90186 194.46167
-261.73547 330.70825 63.054298
-246.36819 276.1171 63.054298
1250.385 184.59851 401.67801
499.98953 1.7144456 296.095
389.73627 153.12366 439.00812
-232.33199 316.32489 63.054298
69.542564 608.19806 282.362
-223.71033 248.57903 63.054298
422.17242 559.87756 322.98682
74.880013 571.33118 303.58957
-247.66823 294.91333 63.054298
1233.6412 137.66307 401.67801
486.30249 -19.738949 94.660545
-72.972321 -51.362297 87.795883
781.43134 609.30481 82.925186
-52.020477 -47.718231 165.60455
535.71509 -8.4471502 100.72689
811.03473 -3.7713354 318.56671
1015.6896 608.01501 88.572525
1308.1641 305.54791 116.90916
-288.91296 157.81958 249.77261
1315.5873 296.39102 155.84561
915.71295 -49.687141 20.948658
1109.2335 431.15979 353.36157
432.72394 509.09286 408.80359
-210.59502 164.48117 228.83119
885.24359 576.56213 157.67535
386.5914 193.73349 443.94296
343.15753 43.195889 363.00531
154.61722 611.84589 187.11023
1262.5305 204.08742 349.29858
765.87183 570.12817 248.23584
304.73788 548.55145 328.24426
1276.6372 6.6040421 208.42979
-210.59499 49.792763 169.21405
1154.85 259.14709 114.85551
97.060555 278.80563 340.93762
1112.6135 -21.875292 234.68974
1211.5446 579.1568 97.079453
753.40216 376.01459 468.67688
991.80347 -45.204292 122.57339
70.099716 -5.818994 21.069927
1052.7283 291.73947 372.34839
1338.4191 173.51584 44.307705
312.2233 520.17584 363.31235
1350.8188 349.82874 52.592827
170.77493 -52.760685 45.694916
941.04443 -41.30072 186.57652
-289.76898 269.58514 258.08679
1067.2017 23.397171 124.04879
352.95432 125.13808 417.65097
-257.93649 92.4739 255.41367
1278.55 303.79852 120.42973
-66.62001 541.58966 28.640799
93.573082 -2.4997523 208.23904
1272.3317 24.20262 328.32892
1320.0145 150.29985 223.69354
1278.55 136.54633 158.96048
-210.595 82.232323 235.87044
-1.2451634 -37.946304 114.09006
-57.47522 137.49112 321.84631
498.24274 562.96216 137.49231
1278.55 193.40186 160.68759
489.23407 571.13147 101.61334
969.31482 577.62708 312.51306
1066.7111 28.67659 135.50623
-282.49573 523.06732 79.751755
55.824551 527.69324 220.41139
421.16895 104.37816 451.28113
975.33777 16.863176 333.00891
1268.9011 309.45132 164.35651
342.00616 -3.9582081 105.11954
391.93921 559.87 231.83076
879.32123 525.15405 130.68842
7.2121439 397.61942 330.38361
801.83142 103.55299 456.34595
1194.9808 35.035099 402.80621
815.82495 597.45038 226.42213
1240.3754 564.87805 161.76648
-272.67657 417.28015 262.16226
-97.880913 516.86353 162.62006
1220.411 103.92653 401.67798
1061.0067 40.969612 93.05294
561.9704 564.83301 162.55582
913.22742 612.33801 153.46811
-113.33224 -2.0854585 285.328
750.80579 570.62518 173.47098
1334.75 232.41649 208.4926
1152.7051 89.025848 347.18237
710.94519 511.03375 410.59973
860.7113 33.956802 367.0253
-309.56427 155.3042 188.47127
1029.423 615.24127 208.22099
350.1554 2.3402014 123.35226
22.077011 575.85742 312.1972
849.56433 -51.718304 126.46426
98.906021 592.51599 279.57858
974.48169 38.461826 23.824841
95.758804 -20.868927 206.23502
-170.42365 583.20105 192.38622
1350.3424 486.53809 86.237862
-85.060257 -20.270262 286.66113
932.55884 511.11499 49.120716
991.01721 539.47101 50.573456
1267.7565 303.28702 412.39709
927.46289 -35.398186 53.010429
-210.595 180.36517 100.45029
604.07031 256.80054 482.05496
-46.760635 -16.7265 219.38821
1195.4033 567.45685 216.33694
842.90833 494.81003 439.16095
1065.7195 597.50684 112.03887
864.97876 525.31665 198.81291
1251.9987 115.84708 370.81482
526.03528 499.50195 442.10162
946.56055 542.26147 248.88052
-54.315601 115.04572 320.9444
841.14612 541.5791 148.42009
1255.608 461.5918 346.12885
1327.9875 373.63971 217.0705
-68.691902 -51.362301 196.50172
371.08957 328.67285 438.20435
871.85852 588.8454 282.9838
581.03357 355.57693 478.44232
1110.743 243.08492 358.73682
-80.910675 561.1485 127.46193
-279.28842 323.01001 265.29626
530.99774 212.90771 477.11951
-256.61603 321.81036 275.36426
-78.328598 -21.079605 147.84947
-185.71338 -1.4583716 229.31543
-128.42712 -1.5433707 275.5766
339.24457 558.42102 287.62891
600.69604 381.17932 476.99689
-132.11829 -55.186142 139.96138
1295.5615 371.72278 327.78809
904.80457 -18.262527 39.648735
941.31873 524.79047 230.78133
961.13123 8.5362301 3.6976519
121.61819 -54.84383 198.01056
219.61002 569.93268 176.13542
1334.75 445.46317 166.75262
-111.29921 573.93762 78.774521
-313.3934 349.17374 92.963669
78.599342 7.8934917 156.09152
1042.719 578.81958 194.85847
859.70007 -5.8788662 154.17006
217.82776 61.1535 334.84796
1262.7018 381.31668 416.87799
379.54483 453.37128 427.51501
613.92853 600.3446 81.910278
147.3334 283.21948 345.06601
-232.8205 463.47406 270.55298
789.98706 163.83371 463.32617
654.08813 565.49487 313.25031
-138.84015 618.13184 48.826279
3.4920118 -47.039001 180.58034
964.4201 -49.7715 67.050125
537.52802 564.18237 258.90408
640.57178 -3.0293264 145.13951
975.22528 207.88666 401.19672
1115.2231 364.3027 356.36984
-283.7261 428.37366 239.87183
90.24041 74.77771 332.61877
27.202147 609.70624 288.10071
380.02423 386.21915 438.3671
-10.501451 382.79471 329.28876
970.11914 605.70428 249.72632
1278.55 65.343719 144.87869
752.49042 -5.4651914 248.24779
831.14417 -48.39637 210.25677
35.171917 606.42401 113.54154
589.82617 487.90579 462.66797
-276.78476 495.55011 166.35818
1305.09 384.63745 265.57764
867.63147 -52.606247 81.751305
370.33795 12.047732 326.88855
1305.09 153.86996 264.23703
1145.3053 34.448059 337.12164
606.38599 -1.2351868 279.61288
-210.595 504.10764 116.56277
-19.389328 -50.020271 23.115208
870.59949 603.94183 74.768005
832.36377 341.32379 458.16483
1049.5708 292.61234 373.5639
1046.1759 615.242 246.74257
933.30432 535.99139 358.10852
1278.5499 382.79816 168.25029
275.77136 -36.454063 90.531357
150.362 16.645414 328.56769
527.89624 563.68811 277.5166
1334.75 337.90521 98.941978
228.15593 559.89526 290.8049
1349.6267 93.086159 51.012577
423.7674 3.3780589 279.44229
100.19112 -32.107193 276.06403
-226.16376 154.06825 63.054298
-306.23138 428.03967 188.47318
673.41254 -3.9833272 206.49727
73.355293 581.49121 29.928486
1059.0968 603.5957 207.82159
-124.25982 64.971451 299.13821
824.77289 74.705215 447.35965
65.202934 -33.804386 233.27155
-337.884 212.0098 60.924889
90.781776 326.14474 340.29291
1317.2524 39.667904 170.28766
1216.1085 310.7348 416.87799
-313.81308 162.49072 167.29962
709.30579 344.52963 474.5155
641.42078 153.123 474.81592
-140.06732 609.1286 214.27087
820.48669 483.50549 450.44611
1154.85 274.79907 133.09802
890.50061 570.44482 313.34149
542.32916 1.2924024 313.39587
1151.8484 39.905468 338.43378
664.92035 567.63776 247.73912
40.117603 -47.039001 154.16254
102.90207 542.31238 327.15018
826.70032 299.66095 462.51147
-78.678535 -13.516042 106.31033
734.31763 469.80542 460.98578
-143.03767 551.67908 282.25375
891.9823 523.12292 386.61734
-23.208933 -47.839985 195.45549
1218.0546 189.36818 401.67801
876.95728 26.511425 189.31384
-39.664101 606.64185 198.36411
1304.4756 517.74158 230.52698
-295.9892 284.91971 253.80801
-233.68414 113.80746 63.054298
-122.73072 562.43231 130.29929
1305.09 182.49419 296.51727
-123.77049 597.08826 68.20874
931.68127 -40.248913 10.436737
1038.1575 563.01447 30.994446
401.80093 522.31934 364.5256
-303.71979 465.66345 43.715805
289.69284 556.92493 322.20947
1306.4171 425.5907 234.98856
1049.1765 572.2995 40.007015
-215.08911 -24.332083 97.356384
-140.16141 -53.394085 119.35446
-243.02686 215.96983 63.054298
1287.8585 81.98056 332.66125
1067.636 562.13885 192.22754
-217.92874 557.4054 239.47002
664.09058 149.59328 472.59189
103.21858 509.52399 151.57115
124.90683 543.97913 140.686
-210.595 461.9281 104.1192
74.488609 609.31396 276.50049
1164.7976 -44.978592 81.019867
830.63971 609.63617 118.16476
805.96033 19.297491 327.98343
395.20538 353.86261 454.84332
1245.4705 296.41837 416.87799
665.99725 -18.241652 99.253975
350.52692 472.99347 410.06421
1271.354 495.28314 343.0564
138.02672 -43.711124 78.564919
1057.8226 557.70886 170.52007
-206.5341 565.19568 180.05513
654.20782 564.72778 119.94033
981.00183 175.68665 397.44205
-174.17316 214.27914 305.13412
27.043427 7.9492121 4.2908387
562.6225 -0.67025185 221.0773
-128.69318 344.7865 313.68094
793.73224 266.59521 469.73276
61.774872 -41.971798 212.2005
-239.0397 9.6984711 197.28162
445.52155 173.99333 466.36951
1058.2452 556.13025 86.056274
-103.50521 596.6709 131.95853
-121.88159 -25.048355 130.87436
-310.34598 183.09523 166.31363
-306.32886 413.54492 166.54233
83.970963 518.88873 137.78258
-286.85123 297.30444 260.09387
617.85382 236.07596 481.23846
358.60199 558.76782 195.6042
1181.4542 216.64413 353.11667
-293.1637 132.23779 101.87383
1284.9519 519.93726 413.59839
535.21271 553.85522 324.53195
1115.0348 213.00003 357.01572
1314.8223 306.64688 111.55441
1009.2374 549.5976 330.04474
1195.1013 47.392799 415.33337
-295.07321 169.42622 202.73422
202.08731 -2.2831964 228.42099
239.14232 144.81956 367.45676
1217.235 74.561852 416.87799
1058.3818 184.24121 366.04327
-58.936375 17.252703 233.67175
856.36108 514.12769 406.1109
50.933956 49.8605 214.14197
-160.19458 -1.3152463 256.2457
-260.39484 501.09772 126.96201
1344.697 528.07727 84.198578
1014.944 608.48401 71.692383
257.18311 220.298 383.20584
-225.7099 458.02213 63.054298
39.275978 57.051102 327.45355
238.53107 -2.7936873 193.43315
1257.1906 305.59094 116.88791
1225.0118 330.82678 143.54753
1014.3524 612.33801 103.15197
1211.9835 108.73696 416.87799
-210.595 416.92957 178.07204
-101.26273 49.581692 146.02368
850.48956 6.7992072 180.41437
-18.020363 -46.562237 149.77362
758.83899 197.15628 468.9082
86.375694 512.59918 191.77695
958.85394 396.34363 405.60822
410.02606 148.85135 455.84839
1168.434 296.6947 124.0265
-15.628603 601.99884 26.213146
1227.0966 132.011 400.97241
-302.13245 166.39716 99.655045
-287.46967 337.6095 236.28944
1157.5642 69.523918 342.90106
583.3479 475.50928 465.46265
913.44116 29.021179 358.46942
-9.0045156 -51.334179 241.61627
863.77258 571.61365 288.57935
1225.0173 281.18207 353.99844
416.97995 560.65759 243.46892
807.21387 -55.724628 47.688068
93.081375 -47.118298 219.02768
-291.55634 133.01324 202.77756
1109.2178 495.22162 342.68396
-66.397896 585.57825 175.9698
1278.55 28.427746 148.73842
1251.9419 116.25951 391.37085
377.8288 526.36652 349.73087
1201.2059 136.08841 405.35345
1059.198 615.52979 104.32373
1069.9097 410.22702 359.81723
1032.8281 -47.987762 159.26468
125.15292 260.68414 343.82214
687.92413 237.0325 477.38318
389.69998 89.855652 428.48932
1215.1296 289.24149 401.67801
966.42987 557.34399 232.93652
-101.55177 510.52332 146.79559
-60.057602 -44.63327 71.351883
1235.1528 320.8577 113.33852
83.751541 -21.714855 116.85583
997.67566 573.78418 9.3508701
1229.5454 448.49133 401.67801
-29.502518 600.42224 81.945213
1057.5846 -23.468908 50.053772
843.95447 562.32642 92.041519
847.31287 495.22476 437.12067
1268.17 111.0806 411.89539
1204.6545 219.08827 351.9053
143.10593 566.00519 303.01065
-273.37695 271.57889 63.054298
296.07907 231.82126 401.8367
46.307182 49.148083 31.005388
102.13377 35.126663 94.24556
1250.127 491.97363 343.53922
1172.4966 570.23639 150.88968
119.56313 40.745224 152.4808
-292.21094 424.90265 211.57956
60.291592 597.50476 293.18008
1054.5237 -50.975971 178.42885
-115.03868 549.76331 171.68192
276.71826 422.16757 384.72955
454.93323 2.4677849 266.97314
-294.1329 95.66996 88.120377
1117.5892 -4.3530798 294.86575
1289.4712 28.791157 293.04034
893.52765 -49.7715 62.310966
402.45148 -40.14146 59.968948
402.89404 4.0717001 255.42693
1279.7216 529.29901 418.57794
1224.787 329.82507 351.55438
-124.23008 -34.259861 125.79948
703.35474 17.039976 325.32904
880.64294 -15.75172 141.47449
415.59296 560.35693 143.71661
802.86884 133.56703 459.4646
1000.8669 49.543507 225.27003
-295.12872 215.8515 254.3999
170.46997 620.03882 48.410004
1358.4529 217.26392 62.713615
596.5061 417.04718 472.98114
955.14728 608.01501 198.04108
-210.595 277.01163 92.507278
1278.55 215.02335 133.80272
-136.04784 618.98413 106.99431
-222.85928 558.05408 222.44646
1271.8663 9.319705 243.64038
1014.1016 -49.7715 207.74146
472.1087 2.1953988 285.92004
866.37476 605.7818 84.845627
1325.7185 503.62592 106.14935
1272.1145 264.91629 157.79231
18.577696 -49.626129 39.275772
641.24341 -2.0485978 281.62592
899.29199 528.06018 230.94211
678.74036 -3.6692615 247.19241
269.33063 567.02954 152.77144
1055.4053 -48.015907 251.78627
-57.91798 606.42401 86.334579
1257.2168 562.47443 169.02634
370.625 370.10443 436.42923
365.94128 510.08765 399.60443
820.59894 542.52484 335.01413
456.61618 2.6163483 190.10095
1349.8346 400.46661 87.50415
22.567825 509.52399 45.187504
-133.78864 420.25732 308.65421
1184.6989 116.86607 347.73541
747.44293 451.75439 461.93567
707.9873 43.882183 384.99625
-101.53449 -12.321243 108.14793
663.21906 33.929829 356.95282
147.03128 543.1059 329.09518
