# .PCD v0.7 - Point Cloud Data file format
VERSION 0.7
FIELDS x y z
SIZE 4 4 4
TYPE F F F
COUNT 1 1 1
WIDTH 1614
HEIGHT 1
VIEWPOINT 0 0 0 1 0 0 0
POINTS 1614
DATA ascii
62.794468 143.8231 41.477692
77.772499 82.258545 29.305502
51.902534 30.755722 47.143631
102.37617 164.3642 24.722559
99.520821 138.37924 56.465729
38.537804 58.599693 26.935993
35.739632 82.20652 30.842642
43.670441 39.654202 26.380754
35.317192 131.68594 19.313774
70.986359 170.90407 33.495697
28.317142 118.75081 39.044403
71.543251 70.106079 48.182835
102.24689 173.09399 46.181503
30.554909 136.50168 45.343296
99.308502 120.02623 30.204302
76.62468 16.573685 39.647808
69.176529 100.05669 33.671902
76.859955 202.12787 33.495701
102.3047 181.80222 36.14119
54.851509 142.75351 42.507648
102.16269 162.43976 14.804717
87.547691 144.35594 31.360929
80.640785 132.13008 71.912361
68.951355 14.843663 33.125679
92.851257 108.55283 18.71192
98.722244 62.827061 32.81237
97.277237 128.87804 33.150871
35.074512 171.25436 8.6216965
32.218483 176.27376 40.181034
29.164463 167.1545 19.763414
94.977432 99.852768 18.485573
49.026657 67.167892 32.629147
71.002151 142.54903 37.254822
70.197639 20.831432 28.696171
45.094074 148.213 45.00634
68.390854 130.37489 32.872658
67.284744 146.42101 58.561695
70.200462 211.68707 26.370001
42.829956 102.80231 70.655754
29.59808 135.24792 20.737423
49.739639 92.665619 31.014231
62.632328 136.49677 25.280422
27.794558 74.14444 33.008812
65.874832 9.9390926 41.77536
101.48792 61.142479 18.785286
58.389503 86.357712 30.612921
88.018845 100.62112 33.799435
29.120028 45.993496 7.0276599
33.912186 109.97836 43.228577
78.506439 132.53642 37.420898
62.456375 104.269 29.535273
54.100937 20.126598 39.554138
51.120731 61.894539 49.969036
86.518028 72.099594 60.781876
37.029869 210.26816 39.323807
64.450638 168.24146 27.106592
34.592434 202.94383 44.035404
95.788437 140.60376 31.825577
84.103973 59.763531 49.427803
93.68589 30.529728 21.399826
84.556503 22.650549 24.423691
100.89067 19.336723 30.687805
33.35561 93.346878 32.534256
82.346634 148.213 50.711647
101.8242 170.20792 1.2976433
37.988541 30.506561 10.344611
96.339584 34.377502 39.917377
34.104752 31.601364 29.676674
94.225449 114.84582 29.409397
32.841183 47.794426 37.975006
61.713715 132.2075 72.44828
98.583939 173.07944 10.956272
29.052809 177.48407 45.399632
93.575966 64.600624 17.568419
60.180092 189.47733 33.495701
33.221802 92.250816 30.781338
36.659863 48.10717 17.705715
47.992859 133.09169 71.748764
96.416428 67.863503 40.25713
37.347847 53.333412 10.676435
53.487083 81.175827 32.117096
69.481369 53.612381 49.245018
77.353516 36.996132 41.318424
86.453453 15.220665 18.374689
28.509008 62.132694 38.42207
32.344345 183.6572 31.121792
102.67009 84.322052 38.146759
101.70515 177.94229 49.761711
101.23148 89.905075 22.712742
44.769497 141.4442 59.512413
77.474319 97.596764 71.034195
32.969242 208.70761 28.464355
40.21381 144.27322 48.884064
34.313728 55.013405 32.526367
92.77433 210.47044 32.902084
40.077202 125.48674 71.257172
40.238789 130.56589 71.333374
37.047432 48.201607 14.592754
29.454075 70.967422 19.07682
70.484566 136.27548 24.828037
43.24625 60.688599 53.197968
36.666397 161.43289 17.287361
70.09935 210.714 32.178497
35.81303 130.07846 32.92775
29.447994 51.648354 8.4076109
53.856434 33.359226 47.737026
101.01822 81.855385 52.22163
93.324753 135.28958 22.812973
96.175148 31.310831 39.319054
39.560234 44.668644 1.5653925
55.901638 212.0114 39.521019
100.63417 18.486397 32.068901
49.172501 162.0313 24.429012
103.20566 76.661835 31.699335
97.821289 98.839622 18.459213
32.043472 176.16226 47.206341
80.939819 77.341537 44.652534
102.47456 142.31841 36.567085
29.06123 145.08804 26.755323
102.51147 93.036514 26.70949
70.742699 87.424042 30.801243
99.437378 29.971468 38.764278
41.348003 45.00795 28.838314
90.624161 10.546722 20.221981
38.891621 127.38242 70.846741
102.369 167.80312 11.755539
88.265312 111.47851 17.542915
99.020363 162.7269 47.943951
58.739059 168.40683 19.443176
33.330276 112.44486 61.529491
79.340897 64.746056 51.782379
76.760918 89.318573 70.10482
102.76665 151.84183 20.441208
58.483734 5.460835 27.148668
96.082329 81.016937 63.506424
76.104736 108.74881 71.76828
91.129089 62.314156 53.680038
39.581154 12.794288 39.254105
58.382591 99.556038 31.326878
60.661556 55.213337 49.531891
61.699654 136.58868 25.483562
46.280998 20.182453 22.840311
32.738541 190.8609 51.04155
73.892944 22.556103 32.434906
103.85319 159.6069 40.929539
82.576065 104.62299 27.938662
36.087463 15.024632 36.866734
82.397293 58.061409 20.907415
58.359306 20.015478 35.789024
83.876755 142.0578 35.823277
68.334396 14.497014 37.855244
43.937553 191.46246 33.495701
29.882298 189.14615 39.421867
90.293861 14.574061 34.101723
36.971832 33.732414 24.259727
98.247002 191.07472 36.928947
89.354301 25.096249 36.258778
85.246819 94.530334 70.051201
49.172501 159.41156 23.618177
102.66306 97.283165 27.388611
49.151249 63.699841 56.069046
62.701611 14.116576 40.380501
89.255211 86.660507 17.170082
30.167892 192.30771 49.985138
73.160728 143.99515 47.62521
81.410355 36.770523 39.609665
46.940491 146.42101 62.917522
78.267464 137.61824 53.867317
91.120041 184.55901 27.220028
33.514088 209.45499 31.655495
85.267166 114.96094 32.077095
40.387352 30.02985 38.788464
35.151104 135.68933 48.391068
85.657402 175.5811 29.59639
101.4727 71.597046 50.14415
33.377701 149.56987 19.78998
35.383278 63.347462 27.945099
60.263538 57.586273 52.581573
31.973841 165.23425 51.456451
91.220245 102.25069 70.335335
28.830976 66.273285 46.798069
81.551872 120.74257 34.662975
84.043297 74.338448 44.81617
33.051483 194.1619 38.312775
93.892105 124.69411 19.131866
66.257721 49.609974 24.776573
49.172501 160.62245 24.164873
32.979607 44.720467 30.110497
84.556503 34.739071 25.666739
47.968498 148.32118 33.495701
70.045326 53.11253 49.171719
45.3405 181.5193 31.010073
91.726562 140.24657 19.871088
94.364433 34.44426 0.82177621
35.476437 64.918243 27.945101
89.258362 133.68509 71.601486
76.376976 26.442644 42.843147
31.211815 115.02138 31.563644
33.719658 157.38768 42.145302
92.729523 110.07303 53.700115
78.208763 107.06072 34.197449
82.435608 114.95978 30.612068
101.69724 37.510098 7.3039675
30.022709 42.016754 24.985302
56.985836 70.148415 60.782154
46.280994 47.502621 35.682377
103.0593 65.891586 31.445686
51.616055 14.117838 43.114536
27.921896 61.665859 32.677746
83.565025 92.50737 19.2439
46.606102 165.09158 26.527946
96.570351 202.11084 36.587986
57.29142 113.77333 52.225479
97.874405 160.64331 17.275778
37.324104 86.51786 33.924973
96.054321 115.18128 33.286789
67.637535 84.827415 69.076241
27.898647 47.653305 39.375641
100.89048 189.73727 50.331192
102.33355 51.70747 41.948921
41.035309 68.93486 16.558487
95.386124 130.27441 19.277046
99.022011 165.63628 44.349453
98.404068 16.231348 37.4128
34.537487 59.801559 50.328255
46.280998 49.374962 34.071419
35.423336 144.56679 65.297829
65.492111 88.169426 20.565355
71.85743 34.172001 27.4021
100.30547 146.73163 52.310703
60.154816 141.74828 57.043522
30.650188 89.262817 54.209137
51.455967 173.62863 33.495701
70.038727 45.113422 42.460484
28.989098 163.2084 0.50448418
40.462761 138.59758 30.138247
102.36699 170.01236 14.837057
103.09786 139.6615 36.91087
31.992954 169.15913 49.49136
33.367828 23.898968 10.554459
90.31604 157.40033 24.023905
30.272999 194.25816 43.621487
92.623886 158.58864 30.005222
33.165779 161.34421 0.51615179
67.140419 40.81078 39.733101
84.556503 202.73026 26.70676
67.499603 97.997162 71.515701
37.624653 27.419275 37.707153
93.811562 52.988701 21.700081
28.378246 116.50475 43.183167
42.317528 39.618279 15.943589
46.889366 168.05658 22.8599
28.954926 51.857849 14.499524
79.170723 40.675945 48.728024
80.645767 137.33974 24.264076
80.936966 67.161041 52.605396
47.528835 126.86734 27.945099
81.960579 142.77376 37.989609
65.591736 98.955063 33.671902
72.944328 113.40394 72.094154
72.888901 35.50016 43.492416
55.357239 6.5224094 33.172382
34.851879 172.89594 20.768126
75.503204 137.02486 52.182644
35.588875 115.37616 66.032494
51.587376 109.34092 52.215099
28.424706 102.35632 46.235504
79.888847 118.74478 71.832375
43.422234 208.60944 49.671223
81.71817 106.9648 45.537117
101.55048 41.838387 44.482651
102.9593 169.38663 44.674164
92.927567 132.09419 31.623945
85.657402 170.74146 29.714714
39.405823 137.84718 19.474068
53.400246 15.076899 23.562775
61.371288 20.447708 39.520802
101.81058 131.1339 25.088888
102.36952 168.65704 10.742027
58.12775 105.67458 42.703712
69.80513 39.485249 24.043335
66.594063 19.824503 31.440098
79.471352 46.055698 37.23761
101.4482 62.218269 18.47575
102.61663 175.49588 21.091942
102.40475 167.21245 6.1883712
54.391495 26.530434 31.316704
34.744141 89.129761 64.574188
28.697136 101.31554 47.537842
71.018204 161.1073 33.495701
100.80086 142.31235 24.040051
74.540619 182.88272 33.495705
92.218857 81.012711 17.995409
98.948868 153.57338 50.638203
97.278564 158.08092 22.870605
81.306679 196.39923 33.495701
37.09333 210.27029 39.480576
28.983036 51.564613 14.607503
86.257156 112.45403 49.87809
28.220732 156.93967 27.1537
46.280998 30.783792 29.488787
34.316566 28.791862 16.057272
74.779335 143.98981 47.601063
54.892792 133.19681 40.940651
96.178589 42.351357 0.76278776
87.951355 59.722214 24.226038
43.992081 179.0466 38.352978
48.689388 127.86691 71.793587
40.595337 40.762589 47.902035
95.651352 106.65929 38.995102
41.268044 67.065224 32.290878
102.46739 165.86604 26.061234
77.358269 24.215031 31.481956
28.552925 71.226906 26.831482
47.169174 211.49335 29.202198
102.61187 95.427834 27.172085
59.499741 185.66779 33.495701
36.222183 53.260826 10.532495
73.606812 173.73024 33.495701
82.609787 199.52998 33.495701
100.77299 18.760723 30.608173
48.83181 121.7747 27.945099
66.288757 15.333954 39.656143
102.82925 70.949417 35.44582
62.338779 123.79303 34.096001
84.716797 43.801491 23.136829
101.69385 43.420273 8.0055103
59.679604 121.57993 34.507339
102.64294 109.43793 44.11322
33.300312 60.335808 21.335333
97.41333 189.22133 33.495701
66.858597 146.42101 62.098648
61.498096 79.046783 66.231422
57.700981 37.536415 48.715691
97.437408 123.62335 27.939297
37.941525 145.12582 46.677761
51.334801 112.75564 50.736481
98.669159 13.611942 31.371824
98.796677 157.48996 1.9239684
57.149879 111.56546 46.279678
28.851646 46.304821 28.052191
43.530121 209.89957 33.560955
30.956844 117.91384 55.212612
58.801929 139.466 32.339336
74.957024 170.35223 33.495701
95.119164 155.51224 2.9305813
35.7033 60.32835 21.391983
84.618286 174.93845 33.495701
85.657402 155.88367 30.489399
95.906998 87.551506 30.799564
91.623764 210.71478 35.822647
99.004044 169.33768 42.75602
100.93995 172.4624 21.540649
41.193962 13.33809 33.808922
81.100204 70.07814 34.961807
27.793627 81.111496 31.265686
100.66019 194.05905 50.262371
90.32814 170.33536 2.4277625
33.355946 105.01595 61.641167
47.614815 211.13257 44.848465
35.333115 87.134834 33.821785
27.631819 138.60548 34.699532
85.803848 23.600014 44.804672
90.058167 122.55885 19.076313
36.625191 148.213 42.266724
101.58428 172.07561 17.108105
28.44018 91.891586 44.311298
29.156141 145.16594 46.857903
38.74118 146.21536 53.408985
57.750458 145.78166 71.579117
90.96209 29.147541 18.2887
32.211979 135.85298 58.632942
84.237206 167.09912 33.495701
96.744087 12.766159 32.50808
28.432108 160.91423 4.7015781
83.503174 200.47575 24.413641
98.818497 144.94193 32.999329
85.65741 157.5558 18.531902
98.644821 183.30643 52.06715
102.26598 166.98334 47.945396
30.934109 30.396151 17.536562
75.601067 101.69477 37.814041
100.29104 200.51547 43.490612
33.100647 194.44334 43.80529
94.376343 124.18601 68.006691
83.64711 143.5804 45.751488
59.753391 101.26762 71.591232
42.658073 132.60228 71.680069
29.743572 120.51436 51.825367
95.839035 201.77267 24.401264
33.184906 12.946299 30.728645
29.557735 125.6405 20.01479
84.877174 83.287003 67.295273
59.869873 70.344116 46.031666
43.794685 208.65057 36.715988
103.34818 129.19666 34.904095
31.004692 72.810593 54.976627
47.39465 148.213 44.413742
28.272593 94.472069 45.020824
102.61938 183.50162 28.988327
71.611954 108.7576 50.28968
58.524384 111.42057 72.037651
30.313566 62.26403 21.906422
65.020622 41.735283 27.4021
45.3405 159.65286 20.031248
72.257492 6.8887119 36.391655
29.534384 102.63169 20.102402
50.035576 107.76976 36.546345
28.281561 95.019836 39.592682
28.20842 68.116722 29.024551
99.118774 19.827801 15.836858
71.798615 214.53761 27.968685
71.626122 16.084169 23.52206
49.172504 40.092392 24.102814
54.467678 138.45387 26.673889
80.480728 143.99757 47.636143
67.184784 47.506401 34.878124
45.3405 178.19608 28.198441
38.727463 39.041634 40.238773
40.307533 122.84436 19.08374
41.356209 36.187901 3.3647296
79.451981 135.74319 71.932289
51.565689 144.3553 49.257862
83.642731 33.94873 47.349281
62.502396 213.39055 26.391956
34.19577 129.98991 27.945101
96.223709 143.62062 29.304998
54.576138 26.533699 46.479073
93.091507 68.912521 36.126961
67.622971 46.491745 27.4021
88.387344 105.52489 70.892845
91.324104 169.84479 1.1336511
83.730255 138.58829 71.603409
102.12854 104.81982 24.334023
41.864342 164.44592 26.973576
100.5902 77.027534 27.942019
37.899395 29.872087 20.109926
85.657402 154.88049 19.299397
36.131084 129.30893 19.25193
71.429024 11.923684 42.455074
95.683449 202.33742 24.405294
102.82124 153.28435 7.0135107
75.459473 111.41881 54.204941
28.506487 56.734066 43.224537
45.3405 162.47261 32.072742
32.04187 154.47708 50.168938
102.61227 70.808319 44.048485
52.036743 40.962036 33.96484
58.288525 210.71399 31.095276
28.385681 152.82001 14.130947
101.82891 132.05493 25.175339
31.632204 163.64243 31.215729
86.992867 12.537996 39.643391
27.285591 150.33609 38.306808
28.103107 59.609364 34.832756
66.962265 159.05501 33.495701
87.898735 86.393318 27.941978
42.469875 96.348503 30.517506
85.657402 173.47118 39.612709
88.136963 122.52348 71.585693
98.653732 184.55901 27.170982
31.108677 87.777557 20.262947
47.802467 103.10203 71.026985
102.40507 117.42628 47.241638
28.189762 162.22311 1.79585
82.238823 46.849514 26.942764
55.700218 105.51251 28.930767
54.435669 41.459469 39.877682
63.237316 142.6458 42.097321
102.52496 43.262169 41.496834
87.927818 184.14909 29.044615
91.186134 181.40369 35.980663
92.013062 210.66644 34.808426
29.273945 46.351913 21.96862
50.584183 142.19434 40.47599
84.716797 46.3004 25.760376
103.00462 106.89266 36.057816
102.69731 175.96742 9.2811193
75.163078 38.962204 20.732649
102.43866 155.36598 11.712242
67.815628 171.79837 33.495701
30.8447 92.20636 35.204834
98.605667 188.14761 22.675303
37.244232 58.175728 49.727226
83.779335 142.0746 40.084587
84.716797 51.256496 20.458618
99.021561 165.72926 47.714886
94.351273 16.376619 23.47554
90.311264 152.26794 9.2373686
27.682318 127.82796 32.206745
48.841625 134.41965 71.780853
40.275059 181.6552 35.683224
45.340496 150.47412 33.390263
91.725197 86.112335 34.02668
46.696758 139.13602 28.219532
101.1124 89.082657 52.037781
65.438446 139.84506 55.970707
67.355423 158.82782 33.495701
57.747139 121.1008 27.944359
91.835548 31.240511 9.4801617
97.818527 142.74194 37.885712
46.820839 109.42865 41.267639
34.968746 210.45682 30.26276
86.92765 20.803722 32.4701
63.962418 32.46347 42.128716
69.003029 148.14169 52.310699
49.172501 192.4863 26.12672
55.579849 210.69844 33.500595
39.905655 163.16644 0.56646198
91.547577 99.667152 33.782249
102.57622 76.632889 39.169186
38.072815 83.00972 27.84376
50.010632 139.82385 29.850151
101.44057 155.88712 19.923668
43.182323 92.932922 27.945099
85.83667 45.906143 38.757126
43.657158 134.66956 17.560854
72.769737 199.76523 33.495701
58.449562 70.478859 44.97942
52.684547 87.095779 31.879559
49.172501 137.07288 25.71513
59.598736 39.774616 19.947147
93.307419 105.98231 44.715092
85.778275 25.960602 36.922024
101.62525 80.102432 19.714373
80.954407 132.09016 31.632908
29.789898 139.87006 29.967197
29.693699 114.07991 51.701424
85.523842 198.56693 33.495701
99.810959 115.99362 55.89175
93.18821 25.451576 36.531429
95.880402 96.21843 65.274857
35.210297 115.10543 32.149506
51.01207 148.213 40.598328
31.98164 166.83627 50.565247
29.297426 32.207272 15.541512
30.412418 180.03676 17.291523
90.749519 41.149868 0.63080943
39.602932 136.69159 22.939449
78.416328 67.893524 53.001698
40.431095 66.381172 17.614744
94.915314 156.94891 2.1984119
86.453705 101.19938 34.918995
73.140656 139.16902 55.764206
41.361824 30.219097 9.1867962
30.432777 150.39392 52.310703
29.9394 124.22758 33.141811
89.639854 34.310757 2.3587935
47.474056 27.817511 41.080803
81.941284 106.22585 43.460342
35.703075 53.658737 19.702276
89.063271 91.486847 16.701859
102.11856 27.337807 24.232698
37.183243 58.187859 27.930233
103.59136 151.14828 39.656139
57.814606 128.73251 72.324463
36.904007 112.46419 18.813681
103.43689 111.67018 32.109863
64.157082 157.99667 24.972492
77.652481 68.960243 31.355976
73.445015 138.30193 29.389343
48.259926 142.31259 40.862392
70.356377 6.1373987 33.503563
40.784958 53.294136 13.015747
99.048996 136.43945 22.423859
86.506271 83.676727 32.226585
37.389435 13.820665 37.712116
94.565834 120.9276 34.628582
77.839203 60.322563 54.129608
76.137596 69.988472 48.146233
54.274605 211.86775 33.504284
74.834076 42.347759 39.853069
27.682873 101.49402 30.963755
99.001129 17.297527 27.025101
63.365868 61.682468 55.364906
57.631569 99.575195 33.358315
35.065815 150.60294 9.0420341
98.705612 93.516182 27.938555
39.661697 60.76754 18.056011
48.075798 192.89842 26.942101
32.640354 189.14835 37.97596
86.029831 60.715965 18.44776
29.87985 127.40798 52.18816
91.332947 127.53978 71.119736
73.614182 6.2747054 25.278742
85.424988 148.213 40.171734
102.63331 169.18332 27.127649
99.18396 145.73413 49.473442
28.067543 86.931808 29.11701
86.538879 109.52078 41.529861
96.257889 20.398981 31.942631
35.136505 29.440369 19.258991
101.94878 85.02037 49.071682
63.863258 34.741982 20.518366
23.315111 71.215187 54.69569
68.922417 11.169056 42.199303
92.63385 186.82814 33.495701
54.857681 10.486103 41.59082
35.999214 120.52463 19.023388
32.22784 17.814711 14.9676
94.400429 175.68277 26.5116
60.279049 47.587296 50.282368
41.195824 141.39604 56.221725
83.164597 34.604481 26.948486
30.381792 65.175232 45.067215
55.596859 146.72871 52.310696
45.3405 146.51408 34.211548
75.060974 212.18501 34.828465
44.897766 81.127426 32.330605
98.803482 147.93042 41.355186
84.074974 171.01125 33.495701
64.414024 52.056057 49.038876
29.257132 171.39243 29.543606
39.827042 210.46921 43.164211
85.219704 39.28793 22.240143
101.69808 166.98416 11.76694
59.377808 134.00209 43.600979
28.243242 169.9903 3.1724401
85.384949 27.349245 37.678146
51.138268 55.184219 50.54047
62.163361 58.58342 53.285172
95.014267 109.74062 46.816589
80.773529 165.9185 19.257893
72.776489 40.277298 49.14909
85.61879 37.073402 37.038521
37.815662 176.09616 5.269598
31.939173 60.703297 18.543991
90.323792 165.67091 29.561346
46.137657 141.54578 34.358875
85.657402 150.98891 36.527618
99.436295 93.214371 56.838654
103.39738 114.74892 34.521774
73.525719 104.05929 27.940306
84.780563 110.95893 27.93685
95.723923 18.27437 39.168098
32.493839 52.410286 22.841604
45.3405 174.44601 39.02364
98.679939 182.49605 49.53624
44.304295 163.51604 25.237654
102.66098 102.18806 43.216518
69.117569 37.173241 25.9013
62.677593 33.563942 26.305616
39.36982 145.97336 53.050934
29.30117 91.169731 50.217697
95.720985 160.53954 6.8727093
92.382568 169.3793 0.75624961
51.347694 188.17172 33.495697
76.59111 33.832844 47.8592
82.901794 109.54713 41.604843
55.282391 89.71492 70.233208
28.372257 74.268723 36.807514
28.4713 64.819366 37.505157
76.431892 101.40542 36.363235
42.473858 122.37612 71.575836
48.667328 13.089262 42.016796
102.6452 175.09113 22.549007
98.509094 156.78464 2.2832081
65.960068 132.80075 72.53894
102.47417 74.730576 42.993668
44.721375 193.20572 33.495701
101.18225 68.092712 51.144272
99.004456 14.211856 31.490162
94.83371 72.443558 59.228512
27.51026 102.9944 32.352684
87.273964 136.25401 49.99424
30.583704 159.89799 52.310699
46.606098 172.51709 26.169249
43.238396 29.31147 43.024849
90.446404 101.2222 37.351704
37.869228 64.499344 27.945101
40.404671 26.091478 6.6824942
93.77269 81.432251 33.098904
70.742699 94.620537 27.403122
57.290421 15.378281 28.379597
28.644049 44.491322 42.115326
62.450218 132.50845 37.271805
49.535652 138.69716 62.045853
28.314919 34.238708 36.027882
94.295609 76.388809 61.933308
66.6856 140.64059 60.164246
74.5653 138.43781 26.637465
41.252922 136.91827 51.880077
45.340504 180.67366 33.931332
100.93689 68.792259 52.075676
30.955173 20.78508 36.838341
101.7726 188.36441 26.863281
81.990204 139.25702 25.73806
97.178711 148.97281 15.281378
71.159027 137.8766 54.600735
68.143654 52.333694 49.06329
64.000229 69.312042 60.433662
91.304192 69.518753 31.163998
63.084148 31.348915 21.308859
100.69698 163.48521 52.310699
96.700714 178.59607 22.346046
34.916779 203.884 51.844971
96.515778 136.87718 51.166668
92.516449 9.728282 26.261515
76.838104 110.28078 43.692879
45.121059 114.56455 30.034975
83.098289 146.42101 63.706253
31.642681 169.79404 7.4447603
59.715683 92.656693 27.945101
71.360474 115.20087 33.156738
39.404438 37.715107 15.825424
92.8806 68.361572 45.549393
68.722206 82.471436 33.671902
27.920464 77.072281 34.783321
72.676895 178.10432 33.495701
42.003777 69.692169 42.750698
72.882629 99.290497 32.045792
36.011852 149.59979 19.986877
35.272579 141.02591 36.705608
75.091339 80.977341 67.011269
85.310303 23.793015 35.258766
55.927792 45.945877 39.555992
69.575104 74.74749 35.725971
81.075302 70.407631 36.547424
83.313141 8.8936577 34.382301
57.377106 91.546082 70.528175
48.751804 211.75124 35.930202
32.767277 191.36217 51.395493
59.350578 71.396286 61.656261
84.716797 38.858459 39.192261
27.201839 160.87189 40.877842
33.934589 207.80368 26.499672
37.582397 88.182388 33.577396
90.494354 140.5563 20.73711
102.82274 158.94394 2.618634
80.951065 79.736061 47.993134
73.778152 146.42101 55.94455
49.172501 47.540417 23.479862
71.438782 16.273209 27.532267
85.01416 146.41644 54.162781
96.068954 155.24835 12.75782
84.556503 146.84441 24.344505
85.657402 163.28568 35.412838
43.53455 10.037423 34.382301
56.48568 62.77137 55.96093
39.504013 208.13928 46.694092
67.464767 19.545 31.475342
46.930431 139.5199 26.942101
62.730865 143.33397 44.715389
43.416187 38.215939 42.852146
102.22195 66.511848 25.71929
43.453163 110.97427 55.872902
28.574741 68.670158 45.032814
97.074005 64.338898 30.456158
54.844387 137.98875 25.619717
54.197334 84.606613 68.644508
41.347149 45.926861 6.6713028
95.533707 82.621811 18.037275
93.930634 47.605137 19.501848
38.291706 115.2087 33.239513
76.781799 23.810843 30.816502
33.572906 157.62492 42.145302
49.172501 78.148399 20.091898
72.510872 129.91331 72.346573
81.990204 25.994869 24.642166
64.760094 7.9035468 20.016474
65.634033 15.728755 25.9247
54.87608 66.689651 30.029812
81.669693 211.52682 41.744801
73.618896 47.072971 39.733097
65.39106 5.6044741 26.543684
99.367294 79.17868 56.977211
28.993345 119.2935 49.17437
28.605133 162.59604 24.980947
36.596954 211.61189 30.736511
45.033989 80.717773 27.945101
39.952324 108.97373 51.18314
45.3405 159.99648 24.829056
28.204054 159.99777 29.66827
96.102005 203.83701 34.301586
85.657402 143.00848 18.640533
75.247032 96.193893 71.018982
30.100334 72.213356 52.40485
33.627968 171.55763 22.443199
47.982319 132.1212 71.759705
28.514734 94.006119 46.423901
75.368835 148.213 34.428646
90.316086 157.46759 8.5244598
70.699356 111.2569 72.092575
88.974754 9.9056854 33.241234
73.007675 10.46542 41.594234
65.778656 137.94948 54.807663
46.782974 69.541908 27.945099
65.82856 15.971627 28.902512
29.384008 39.056602 12.876708
35.366802 201.1707 24.067158
68.787979 10.191345 17.044867
86.201889 108.53522 38.724899
96.296288 13.8184 17.461723
84.716797 33.701756 25.670153
33.019318 20.13829 41.704937
38.913826 70.682449 58.721344
35.677658 51.86763 23.902424
86.451042 26.928268 45.692707
90.315636 156.97743 25.510103
53.881554 80.903572 66.840889
97.099785 42.370289 46.65781
89.068375 142.20227 36.235653
33.875404 15.328845 18.852066
95.902016 103.5898 65.133011
32.696281 207.47374 44.992706
63.109138 148.213 39.93998
66.123993 4.9069901 30.160097
28.337662 87.323273 39.324417
63.77562 210.11499 46.1189
90.324623 166.57182 27.442867
95.63295 146.8815 38.422424
101.50098 193.66965 29.193226
92.350723 104.71294 70.071167
101.09957 147.40012 51.862606
102.37227 161.00858 17.788424
84.556503 114.23712 22.005547
88.265533 114.66645 28.658686
82.009727 106.18384 43.342239
92.068459 21.16433 39.961937
84.369431 73.992813 46.640137
58.193928 107.37793 35.316956
96.226761 34.715092 30.921047
41.353809 38.782906 2.2780752
40.536198 56.676575 30.358879
45.428543 9.5271797 35.197762
67.936615 36.262657 27.4021
33.534279 184.55901 26.939369
88.379303 108.63664 16.892355
49.461685 135.57237 23.390869
85.657402 177.08527 29.215919
34.52726 132.48962 63.770027
39.464371 63.687119 54.478249
91.880791 158.24527 8.327961
34.071564 18.198011 29.07427
44.48568 135.78268 48.656136
103.26294 133.43694 46.643066
43.829838 142.25131 25.476395
28.976992 36.855091 28.662926
47.509323 68.755829 19.2439
63.16037 76.00386 35.610336
45.3405 171.87047 29.264174
72.257797 139.23181 72.23317
40.483723 145.39313 71.006821
29.087399 47.3134 7.8300138
58.66935 16.207769 28.896896
67.438965 138.06306 25.788132
94.299347 135.41573 19.410809
49.526432 110.68489 71.482689
54.138119 96.743683 31.789883
90.332855 175.35753 9.7632227
51.167171 66.266266 57.89436
92.262169 68.919594 43.14016
29.098499 71.555664 49.588436
45.569622 138.42337 26.604742
90.53746 142.32458 40.901611
30.741674 118.17757 35.139725
54.083405 16.010635 30.288828
102.6602 92.076126 40.677002
33.100643 114.83605 30.054691
54.794853 108.73275 39.287067
28.196518 178.69983 13.984187
32.124104 61.464241 48.258606
36.041153 143.48393 45.31562
28.359509 116.99608 42.092522
64.337776 148.213 51.908539
63.838165 138.90936 30.928869
85.657402 157.06735 38.574306
89.14521 31.463871 45.885471
91.400513 66.732483 27.945101
54.985153 39.155895 38.011547
47.421993 140.30151 26.942101
36.616081 53.39922 10.804626
61.3731 142.90561 43.085854
35.254791 183.13194 33.339668
74.787498 7.3289571 35.052319
84.652298 21.378302 44.559818
68.677277 71.040222 44.752098
52.640251 5.90556 30.205128
77.808815 114.02426 54.347084
80.422707 67.115433 58.407482
46.227776 132.29218 36.119106
84.716797 36.75782 35.739342
64.253494 7.8649864 39.951626
98.59227 208.6729 32.996941
71.621124 148.213 33.710304
46.531929 87.634598 68.879356
96.493752 158.71057 17.394281
49.406403 7.2279835 24.019896
29.976273 186.88576 37.895775
28.620247 181.58975 38.165207
60.701645 39.792007 39.733101
44.215309 134.82762 45.944683
90.456734 69.319214 49.510147
56.833923 98.459641 31.435829
86.101044 113.97198 54.198326
47.623985 110.88089 45.400833
42.265087 140.16742 17.703276
28.465965 129.37773 43.786362
93.340149 132.31772 36.255173
59.360291 212.90889 28.338501
89.822327 111.74944 47.872757
85.657402 153.78499 41.081379
101.69004 45.816933 10.450978
94.499573 101.44598 38.307564
58.092274 53.429642 49.240772
97.611229 140.51543 53.036186
41.02861 144.30991 31.232258
47.06908 64.322952 49.428196
97.442665 163.51605 31.19589
72.248428 14.842649 30.179808
94.783188 166.07556 6.1006374
53.644295 212.11497 29.941063
47.134289 160.0936 22.8599
28.198795 177.08061 9.0108519
95.016479 137.10461 66.56591
63.114815 31.56933 39.733101
42.128201 113.98892 57.656975
62.962246 132.37427 72.483337
40.860584 14.473211 37.716766
71.809296 212.20343 38.096645
32.903801 140.77673 35.99263
76.887146 69.820312 35.84663
88.498039 186.68613 33.495701
31.272316 204.37958 40.178616
99.930283 85.568939 55.360611
88.934631 94.705582 17.005913
89.755272 145.91508 50.478245
100.98972 155.96954 11.279729
40.305023 34.241985 7.1794138
34.454689 205.21431 52.310699
60.12101 187.73221 33.495701
30.864843 16.765121 27.325344
49.172501 171.98633 25.254948
27.602289 156.31641 42.581863
100.05235 82.512604 20.626461
79.64093 70.428024 37.365128
92.558365 136.6351 19.442532
28.404854 155.75259 23.382164
33.221802 89.551102 31.753469
29.175642 35.859341 26.323967
101.94079 78.993744 24.050121
57.03373 136.10245 21.735916
88.72522 144.99223 46.072464
37.735321 24.880211 8.6228857
79.658569 97.713379 30.333422
90.422112 16.805492 25.367992
91.5998 160.1666 0.70218652
70.483749 61.337204 49.717705
28.349033 124.69489 38.017418
69.532272 114.64124 30.330734
45.3405 152.3093 31.655121
48.858437 33.255516 26.94912
35.806179 28.85865 16.478018
45.3405 161.77353 25.809381
33.949467 170.31853 1.2088137
101.15526 189.21895 46.448105
66.36628 71.04052 22.133575
68.826035 146.42101 65.179245
72.140831 15.644509 32.161167
32.390434 109.10514 18.726288
61.769707 42.869156 39.811684
98.031387 157.96222 22.751394
65.008446 15.251976 28.694712
69.699799 34.613258 48.501957
27.543295 143.51285 35.156193
64.057381 23.753349 42.311642
89.963135 210.45798 45.468224
77.425919 111.7278 56.500046
94.096825 132.79993 27.945101
71.423447 106.30559 71.859207
43.574341 84.323959 32.139294
65.005112 19.469954 36.731953
102.78892 100.35696 37.632069
35.110474 155.12338 28.109682
28.240477 164.30536 1.9991071
34.091961 148.213 43.579002
96.814819 14.152633 33.450081
65.587021 137.42966 24.448408
60.313751 68.731544 36.085762
79.18335 108.39162 38.31617
72.34182 35.157902 41.936497
101.38052 155.22578 18.44372
42.432907 10.235321 34.665794
45.248238 63.416195 49.436089
28.229595 174.56679 6.1483727
85.229691 148.213 48.901585
60.2253 83.369629 27.942501
37.645897 88.140411 33.586163
56.888939 90.175499 33.221226
29.337912 165.57526 0.1538599
37.182365 137.01476 26.449322
102.3696 171.00168 21.561916
101.19231 79.841537 19.948006
83.68766 209.03781 43.201241
32.850853 76.878868 60.12735
90.314392 155.67751 10.669832
88.416641 64.56076 55.701214
93.457428 147.44714 52.310699
56.794186 16.30932 44.110794
42.99453 38.649513 42.177242
74.37455 129.87277 32.965981
99.134155 145.03055 57.350735
35.58625 141.29575 37.538437
98.39875 130.9529 59.706795
42.757652 8.8371868 32.10128
63.150269 5.9384189 32.181652
102.40349 162.59167 6.1573238
102.60976 78.899124 44.626301
40.500633 76.648865 27.945101
55.578209 32.014462 47.631813
92.693199 172.68681 28.950188
101.69141 57.448956 20.283949
77.078697 109.1076 51.559383
45.3405 162.16109 36.414009
38.645233 170.86151 41.827011
95.872757 209.51523 34.782829
102.38351 155.84111 14.7085
36.773563 48.248444 16.813248
54.314941 100.34203 71.295013
40.404556 100.13618 32.817314
58.341309 111.72301 72.044052
32.766697 54.167397 15.196421
36.095062 67.549339 37.433212
81.129333 33.568161 40.677017
83.575974 145.1449 46.762993
100.07587 75.843582 20.667294
31.804049 25.676685 7.0674777
28.255817 107.44669 39.697346
29.993849 64.002678 30.504137
65.979736 38.801941 39.81279
59.744301 100.29893 31.684593
89.734642 124.88858 27.941339
69.685333 151.5813 33.495701
59.949638 35.286396 42.287514
60.404049 15.768133 30.170994
102.81921 173.46552 27.075705
92.984604 133.32539 41.626015
71.329971 142.51062 41.58329
90.335854 178.52863 15.474687
102.54004 122.24368 45.481564
54.069038 64.42334 27.945099
96.997955 75.232193 59.962669
63.46542 139.81183 33.233482
85.657402 142.12773 17.752613
57.041332 13.376599 43.079292
29.308886 41.532646 14.322185
35.974762 154.95264 16.77733
38.770515 151.45294 7.3689361
45.340504 173.71721 22.113239
48.0084 134.68227 45.532024
56.157295 146.30128 53.601589
45.340469 193.61691 33.495705
28.071625 53.596725 30.41692
45.742249 146.42099 64.93087
32.502483 122.04181 59.536537
71.985504 63.677261 49.195938
95.265793 13.596754 37.215973
81.990196 154.01738 25.650454
102.71338 174.46466 24.474312
56.666821 131.06848 32.743736
93.208397 126.57569 33.578796
100.87794 69.31694 52.297844
50.995758 35.935101 35.135529
99.879723 204.95505 35.640335
28.635233 27.515833 36.543251
84.556503 204.67433 24.876614
37.548378 112.27099 53.669262
31.994373 160.55806 43.037804
89.009903 108.3909 38.314121
64.530487 144.48358 49.97102
37.206841 108.29854 18.705303
84.716797 47.972599 21.441793
85.657402 152.20424 33.187645
81.364914 125.66169 71.85218
63.232346 20.507128 35.066662
94.622459 150.19409 42.145302
102.27798 111.68329 47.932632
29.039579 41.296494 3.8305612
59.04763 16.39233 34.259914
97.828049 167.09396 25.105946
28.628321 167.80013 20.397495
63.123871 171.0287 24.130222
92.329956 162.60049 6.1835723
31.246416 180.19577 16.283104
89.651337 46.619251 28.005154
36.930923 73.941292 60.40694
88.874969 104.27705 39.391384
68.881248 146.12579 51.648567
77.525787 111.33279 59.951126
58.771362 20.495197 30.426876
101.01991 190.64279 44.525345
88.806549 140.48828 31.533033
90.532295 120.78999 71.315506
28.837343 29.209318 26.773754
31.327038 26.355465 6.1751876
31.482883 34.088509 24.439266
102.38008 158.57269 11.108098
85.57692 148.213 50.423283
95.681145 104.89765 41.734589
73.712944 134.79324 21.798744
51.024742 18.207752 39.253983
103.01854 66.023788 34.015106
32.486801 81.505623 59.301971
81.850304 87.757721 31.67617
86.104263 99.902046 70.590858
65.75032 130.83403 72.559303
35.820827 205.91821 47.701851
98.970032 133.04967 40.156475
30.437965 115.04585 18.880848
88.196037 111.2195 59.597507
43.066898 165.1564 31.864767
40.045418 173.01633 20.525105
47.407074 143.1606 44.05608
34.361938 112.47536 50.452946
71.117355 182.72386 33.495701
91.580902 32.616966 30.195946
47.74593 69.843178 47.333412
83.780594 141.89513 39.497849
96.80619 80.630051 62.993202
77.147362 148.213 44.224625
70.9496 16.073536 44.204536
47.952621 164.97 22.8599
50.633091 211.43518 43.72818
69.337776 170.2966 17.135374
37.606518 132.83945 69.838959
96.536125 39.923737 0.37896803
58.3895 83.110779 32.895855
92.844986 12.376554 36.703651
34.196472 115.63303 63.25946
65.626068 15.558557 39.618629
27.803093 118.35007 35.721138
44.095863 87.407082 27.945101
51.639874 81.021851 66.746658
99.497086 154.88097 27.864832
30.294003 100.63565 20.232996
34.171299 144.00749 47.682961
46.606098 183.80522 23.289392
86.421394 116.78273 27.936993
31.089016 129.68539 55.530289
94.629616 40.571346 16.420492
71.313934 124.31562 72.359695
33.212467 59.752846 48.147629
27.30389 149.79747 37.995514
52.686749 59.759087 53.716003
85.310898 32.040543 39.609707
62.015961 211.13826 26.370001
27.338409 158.38768 41.906063
30.184425 136.10072 38.350204
94.060341 173.26611 2.7117708
54.084213 139.46521 32.337143
92.223557 59.628433 24.452465
84.556503 103.28658 20.336874
32.44072 29.203712 18.60536
87.255356 156.04036 42.145302
72.927727 15.151695 25.947006
78.577148 25.572378 39.892368
39.943756 52.61842 49.56612
102.90363 92.878265 28.799435
74.868973 14.930885 35.551434
39.40654 136.10878 19.428839
34.703636 174.2807 14.797298
77.186661 209.46722 49.471504
100.2989 162.66644 6.174016
28.438271 172.40851 7.2080107
98.826378 64.834442 40.703098
99.869423 55.325657 47.990921
43.52412 139.20958 56.039036
39.193512 36.897964 6.299788
44.48399 35.061253 40.007393
93.608078 163.85017 14.966005
90.283051 29.103617 13.680329
68.109764 211.13121 32.275501
102.95211 51.273361 39.457352
100.83916 89.420082 52.816574
28.631886 105.96167 47.471252
61.455513 212.27374 36.709698
49.172501 162.06662 26.334255
37.134331 146.42101 61.233543
60.805927 41.916397 23.100916
101.65146 162.63086 31.055008
49.128231 142.72644 37.834915
58.749325 47.506401 30.390757
41.462135 208.39987 36.57608
80.152588 17.546362 38.760971
86.392723 108.45714 49.731262
47.874062 208.2085 25.390759
65.334755 37.850502 22.539938
46.54026 211.47202 39.44532
83.92131 140.95996 61.778427
89.956566 112.82578 50.936138
69.302689 54.330418 49.336525
71.570236 37.504669 23.528242
84.556503 137.36563 24.459602
76.773796 86.758987 31.810871
61.1259 156.35016 21.276604
75.512466 20.566437 45.201496
58.655861 145.42975 48.051338
46.606094 73.79789 21.426794
92.121498 53.990746 14.107894
44.647125 18.199831 42.985714
41.978897 40.333328 47.943268
32.33728 149.56685 11.60112
84.556503 163.38448 26.358936
56.370575 68.395393 27.945101
42.297173 166.00224 25.444866
101.34063 104.44857 22.925493
98.617561 115.31882 34.401722
58.445198 36.856506 20.378408
99.564194 207.32297 30.794016
66.953499 128.92296 33.142521
52.164429 95.736862 70.721519
71.937187 212.71313 26.370001
68.040375 47.506401 32.487675
92.572433 146.42101 61.664257
91.90287 159.21733 23.821815
35.35495 168.263 6.6658869
102.51218 63.892754 37.874081
84.191193 139.53015 29.112991
45.3405 160.39003 34.035686
50.114365 32.274044 44.001465
38.606094 176.97322 6.1471109
101.68438 48.141159 46.083393
54.540977 208.95671 25.578247
57.032501 139.91711 33.53434
30.154144 108.06496 22.103897
33.221802 89.920532 29.343781
60.087963 48.478077 50.386539
48.782818 140.0482 71.675369
103.04987 50.706676 36.252975
39.718292 66.147171 28.87921
85.657402 165.49353 24.013628
97.680962 114.51431 61.518948
29.288996 36.096432 24.905876
94.0177 58.470528 49.809479
29.974232 197.67441 34.741764
33.294983 102.16826 32.240459
57.949287 70.83284 43.642365
44.268147 164.44128 39.933075
56.006355 112.7688 49.699596
34.096111 109.33741 46.515465
79.885971 101.48925 71.149918
30.686611 107.01759 54.54406
84.716797 50.039825 23.869707
102.57375 175.56241 11.427572
36.322815 17.264091 39.34288
100.63699 64.720825 21.770414
49.639397 209.21118 42.166981
71.757523 148.213 34.774559
28.875534 85.013962 48.279709
49.763092 109.79688 53.496574
79.571884 156.7247 33.495697
33.636692 89.851662 33.280254
46.804401 17.639442 43.277271
38.475197 137.29062 27.074688
35.958797 123.56367 34.138626
101.18307 42.595459 17.251898
82.334534 113.85664 56.702904
46.280998 50.17572 34.751804
96.055687 164.25633 15.278011
89.475143 166.77016 42.167679
66.512711 148.213 43.326241
69.575104 70.457047 31.656513
36.861626 116.91719 68.550797
69.71096 32.2565 20.226028
101.96787 102.84433 49.394478
90.754791 109.93789 53.892879
39.805687 77.211197 63.121338
34.381996 148.94434 15.455662
85.850555 23.008436 34.656734
102.64294 114.06728 27.60767
32.772152 147.25269 39.460251
60.978226 37.724995 22.487406
40.098869 146.42101 57.730957
70.881561 146.06693 51.321712
61.405422 210.69778 26.538124
84.376312 121.0923 71.574661
46.280998 18.134941 26.023018
45.29747 208.81604 46.482105
96.828804 140.99371 21.960123
98.253731 124.0105 60.194038
102.58402 102.58545 46.199345
28.519197 134.51585 44.945282
47.68644 10.225843 38.464512
70.920021 27.885139 39.815849
101.85834 137.47755 49.460041
43.626457 98.544006 30.221395
45.340496 180.49324 21.543449
35.747849 144.00365 42.163635
34.161343 35.188896 19.335125
53.471012 200.16551 33.495701
49.172501 193.45804 24.190556
67.132065 23.519482 42.468414
84.515816 153.86035 22.8599
41.371323 56.015228 50.252048
76.199692 45.091942 30.144539
56.064144 16.675711 41.863174
85.171356 37.877575 37.821609
41.018375 57.161499 48.912876
94.682144 58.523705 49.322952
66.8964 209.73 47.597042
80.588898 106.58427 71.372833
89.962906 147.9015 41.274368
40.997864 32.346664 29.296032
73.548904 153.96503 33.495701
20.994839 72.482254 54.999802
32.065414 16.917795 17.44751
63.754868 137.53036 27.61776
30.273359 118.61655 22.432699
55.996147 109.81209 42.358932
98.060204 156.09496 20.336216
101.77996 189.39053 32.307449
84.198959 123.59673 71.633972
86.299149 211.19508 28.925104
86.070244 122.6095 34.315979
84.775146 79.739365 27.944038
102.14043 24.681396 35.580727
32.725071 16.765388 25.191053
57.796959 89.691177 70.296158
100.01643 58.999592 47.852776
70.819763 110.62154 27.93924
102.50951 100.14934 46.400681
96.210938 189.18311 33.495701
37.109512 185.50873 33.495701
30.848511 77.385612 20.789646
49.172501 74.356201 19.773731
94.493996 108.0027 18.697605
95.113548 105.20168 66.693848
42.22908 135.93307 71.604378
37.508537 10.134523 28.701038
34.6744 78.67981 62.279606
45.018318 86.823364 31.802189
73.502213 14.77614 37.800831
90.334427 177.02718 10.682211
34.166733 179.62677 11.506138
81.69001 79.04776 27.94471
102.37302 27.738392 36.944344
31.071049 43.330769 0.91722363
100.38281 74.960297 21.207794
54.804848 114.00928 53.261932
58.884911 22.556101 38.284187
84.716797 37.197121 28.308044
50.707909 141.80832 39.214005
34.344452 165.6012 0.15852113
38.272049 142.02493 39.922348
64.376785 58.290478 22.001684
98.04808 39.867481 19.178322
102.52574 117.46958 46.651768
100.77204 78.908806 21.873009
49.930504 122.74051 71.818756
41.941898 142.0316 39.944092
100.78934 198.67278 39.637402
53.937183 148.213 36.619366
77.281631 101.80125 35.843475
95.187111 113.31152 66.442101
89.681511 157.60313 42.145302
54.417194 115.35941 35.152004
98.561554 208.51279 29.356735
67.818069 129.57178 33.021927
35.676006 207.29201 25.163626
88.180222 113.61658 17.392673
66.956741 168.4725 21.09721
90.915276 65.152481 17.582777
31.797493 149.40001 18.729141
102.82309 155.58192 26.712023
47.513821 137.99806 28.678261
37.75853 34.594517 0.79783309
48.577213 158.03891 33.495701
28.317257 162.16374 28.166958
91.166702 165.58037 0.4342522
100.02928 140.08647 34.018753
92.668587 175.62747 4.801312
99.438362 96.746513 56.873455
78.810532 77.729179 65.071663
35.625881 176.57852 5.7504296
34.640968 84.257118 27.945101
33.800953 33.177914 15.21806
36.703308 37.525921 40.331875
77.914413 38.893818 40.57473
51.218613 149.41464 33.495701
57.602322 99.868332 34.709747
29.137342 173.06953 2.7922227
28.378099 83.744934 27.535927
94.161446 137.23152 24.042837
94.432236 133.51088 28.468752
28.432102 93.141449 44.312519
77.864258 81.191818 46.404976
85.596321 148.213 35.668274
64.977303 20.810902 31.483185
97.45401 178.99936 38.384113
101.07774 145.47643 17.097118
67.448959 126.904 33.517773
67.178368 137.85965 54.552635
96.551682 149.82001 10.57929
70.435608 16.404646 37.023273
46.280998 42.165474 24.307686
52.409592 137.31134 24.206242
99.258659 92.609383 18.297119
39.846062 115.04365 31.497395
65.266914 32.591362 39.733101
42.437595 80.650909 65.48111
102.37967 158.82104 20.365059
90.316071 157.43607 26.948935
74.809402 164.08646 20.004845
58.389496 87.397949 30.282377
64.493721 23.7715 33.108269
106.65517 72.751534 49.092712
95.902344 99.741058 65.181534
82.879143 69.142609 48.157551
28.200754 170.59177 2.9570117
87.772964 16.465256 23.866627
87.627708 94.255104 30.799849
54.433815 16.832514 39.495071
95.939621 113.03026 64.945847
102.69078 89.087723 38.790245
35.856918 173.53731 41.222
92.033737 65.448555 55.482109
49.45612 142.5788 37.352188
93.207611 67.022263 27.945101
61.595547 37.324707 48.959091
91.071426 109.55508 70.768005
102.51753 132.75113 43.200668
63.732815 40.864426 25.48633
71.301498 9.3534489 18.292435
29.699255 186.47389 40.190975
78.627945 195.05922 33.495697
92.56958 38.327271 46.696854
60.544098 133.90518 43.325905
102.98681 54.030975 31.642273
57.335503 74.71563 63.766445
28.442747 70.061569 27.540619
87.137909 165.46608 21.094196
84.414444 136.22594 49.914505
65.350098 115.24564 34.423126
70.453964 184.32651 33.495701
37.107677 135.23912 47.112926
81.481033 154.0847 33.495701
55.291985 41.532593 38.199287
90.331108 53.755863 15.299023
101.86401 48.422855 21.547548
29.271149 30.022697 11.349655
76.702179 211.88469 40.563316
40.682663 156.53676 3.6415451
37.428551 121.11893 27.945103
29.761681 194.82419 34.141216
60.541073 21.319063 40.666245
28.096344 140.29077 37.678108
28.019955 79.464844 35.255203
40.100418 132.74226 38.518051
46.606094 161.64822 26.440445
89.609398 50.486614 49.304653
80.443695 7.9165783 23.608425
35.983337 162.54515 0.32543355
42.831547 38.233219 21.57699
28.533543 137.06224 44.685799
29.058681 30.122456 24.325909
98.92717 150.79562 50.180038
36.486889 209.58977 26.32333
95.289307 68.194901 31.443001
91.74939 134.90518 70.919312
40.367699 50.66309 6.2562547
34.33028 36.419777 17.456625
69.409439 154.55264 19.656322
102.99884 97.866348 35.918671
63.943687 146.42102 63.782772
76.571327 171.6557 33.495705
93.281013 35.855076 46.161427
82.044502 28.703972 41.361206
77.00325 17.096109 31.670813
86.896271 22.471163 44.085564
29.605473 137.64722 19.859184
45.3405 175.59943 38.978466
66.874557 67.255852 28.631319
90.309814 150.74658 15.948736
98.26281 113.06373 18.829279
100.2396 69.764 54.200493
52.496765 25.112013 46.020447
34.598537 43.323032 0.91637838
76.914528 60.199783 49.655624
88.178177 60.166847 22.618715
96.046013 149.41812 18.85495
89.46489 136.98601 23.540731
31.177532 120.76476 19.029638
85.657402 157.70859 40.137352
73.106323 194.85284 33.495701
61.131916 198.07805 33.495701
101.50946 70.821419 50.197868
36.507679 140.09476 67.557564
28.499073 133.38252 44.226723
83.734634 26.194489 45.874374
54.495087 18.022341 44.47998
33.417915 105.7012 35.17403
45.840679 59.237579 49.448856
90.334152 176.74278 17.95813
76.556938 12.102118 42.255577
42.445896 140.37189 71.553299
40.901794 193.9556 33.495701
65.601738 38.895897 15.187677
28.614937 156.3349 16.954119
102.65471 158.1991 5.0427313
67.647316 38.208126 39.733101
99.116562 206.18359 26.46636
81.121262 80.113129 49.68832
30.24439 162.9744 25.242241
100.31873 116.12391 21.582523
74.234711 143.66833 40.913834
40.572155 82.64183 32.366165
103.14021 56.889542 33.954464
71.067047 148.213 38.880371
74.987236 144.59042 50.565369
41.620686 21.20438 32.992249
48.714176 203.95273 33.495701
46.280998 35.776699 31.536793
49.100544 91.535248 69.945168
47.318703 98.85984 27.945101
62.230614 146.35176 71.232925
80.15274 70.143211 46.390633
99.07328 15.113108 22.586994
41.602467 132.46497 71.608734
75.496613 34.971378 38.742615
76.547699 195.12691 33.495701
73.974075 146.42102 62.071392
53.894726 148.213 38.517223
101.77912 59.313335 25.8032
64.920776 32.152924 24.686317
90.521057 56.444637 50.250324
80.467323 146.42101 67.661423
84.887115 206.35283 33.495701
49.172501 90.121788 20.639431
60.137905 40.733948 39.812233
101.6916 169.75833 50.202431
62.610359 43.020592 42.053326
71.959702 8.8136759 19.059116
88.41069 10.267256 22.703623
32.544792 167.50198 30.908421
30.761255 104.13027 20.355501
45.3405 168.80515 28.770977
65.186935 130.29436 72.557373
28.228991 156.17047 4.8805561
99.368355 59.420456 48.992813
92.473663 144.10611 48.128433
52.654938 16.140558 30.923477
49.466167 101.52986 71.040794
101.56046 77.123474 41.647202
95.928703 86.204521 18.130486
55.870449 148.04597 52.310699
36.448803 92.515381 18.294676
70.906815 115.05611 31.628885
84.538208 139.44284 32.280239
43.769211 112.2786 61.074272
55.085659 143.97318 71.951202
77.985184 164.16888 21.484856
52.70256 74.534912 63.292858
75.979881 187.08778 33.495701
76.287491 145.69179 49.238239
57.380157 54.180626 50.263912
49.172501 173.91246 26.310726
84.716789 47.440605 18.420597
96.417564 171.32733 1.7230462
102.06308 32.282997 40.297153
82.814331 78.517136 23.8293
33.114906 207.57861 47.290264
89.543373 79.75325 48.900452
62.574718 66.661804 58.67762
98.182472 77.51017 17.904285
29.44957 182.68143 46.808128
40.7384 69.455727 44.291573
41.718483 146.42101 62.408409
76.236099 15.646889 34.93359
30.977268 44.116493 30.418957
31.915863 113.85387 57.987404
64.237389 144.69417 21.14514
30.837461 35.129658 30.986389
87.358086 19.99123 43.392025
30.021503 64.624153 38.111473
64.931564 36.523808 42.820171
72.48111 148.213 39.511646
102.22897 118.73879 48.085609
48.795048 115.13979 32.512093
68.897232 165.07773 19.471481
66.105957 121.78207 27.943382
103.41407 107.33379 34.402996
74.158165 9.4019814 19.997999
101.13156 198.08963 33.026257
93.672134 207.65479 41.369614
65.023827 34.243496 39.733101
55.806145 25.968451 38.513878
89.259842 156.81306 20.675371
40.496273 191.15326 33.495701
91.939697 82.113693 65.768875
32.968231 193.6351 37.406712
61.867714 69.468124 27.945099
74.538216 59.549587 49.671814
101.6195 96.804657 50.615585
86.685516 152.96497 42.145302
98.72522 167.89862 14.827567
33.085213 47.031696 11.06748
28.490383 138.53488 40.966484
61.517853 5.7681646 26.608658
102.80873 165.18555 45.366005
102.58387 131.91818 38.723778
43.516098 162.88478 42.145302
47.231064 183.17499 33.495701
85.657402 173.05014 38.239777
102.55753 146.76685 42.557999
101.63279 96.527779 19.785292
28.465025 153.81442 18.124874
67.91362 165.97969 21.73391
45.3405 158.77786 19.813625
56.830189 146.32054 53.654205
102.9155 149.06931 41.496101
102.69887 175.74219 43.658829
32.373623 183.7814 36.786674
44.135326 142.07864 35.882576
98.643929 116.08334 27.934544
