# .PCD v0.7 - Point Cloud Data file format
VERSION 0.7
FIELDS x y z
SIZE 4 4 4
TYPE F F F
COUNT 1 1 1
WIDTH 1459
HEIGHT 1
VIEWPOINT 0 0 0 1 0 0 0
POINTS 1459
DATA ascii
1.3760577 1.2606449 -0.5207864
-2.0551343 1.3751935 -0.52838266
-2.0009851 1.37106 -0.52542329
0.9299804 1.3977773 -0.52490628
0.68392277 1.6466658 -0.52499557
-1.6034693 -0.23046371 -0.51628351
-0.60063946 -0.1984331 -0.51214588
0.92161781 -0.17099924 -0.51801693
0.92246544 -0.15451612 -0.51988316
0.824009 -0.021184668 -0.5153873
1.5575109 0.1871281 -0.51383674
-2.400332 0.20902002 -0.51546335
-1.9467387 0.20902002 -0.5199011
2.1205184 0.24054484 -0.51143706
1.7167437 0.28612351 -0.51109374
-2.1738446 0.34445506 -0.51511192
-2.1736171 0.37514877 -0.51845646
2.0705898 0.46834064 -0.515881
-2.7729988 0.55174857 -0.51281548
-2.4561207 0.66618669 -0.51113313
0.79083395 0.83340383 -0.51915079
-1.2427599 1.1544299 -0.51764232
-0.94376582 1.22932 -0.51255035
1.7130506 1.2660587 -0.51136267
2.0350668 1.2648966 -0.51338542
-1.3468592 -0.17351779 -0.50140268
0.91889268 0.017774178 -0.50867838
1.78532 0.18662702 -0.50279361
1.9669838 0.18469241 -0.50959635
2.0213468 0.18513988 -0.50538266
2.2023692 0.18489222 -0.50415188
-2.7075689 0.28766823 -0.5073992
1.3984755 0.28770933 -0.50742519
-0.85207701 0.317114 -0.50230813
2.1872334 0.71694666 -0.50549906
-2.6862347 0.8495717 -0.50178248
-2.7213936 0.91514838 -0.50633615
1.9889251 1.1676881 -0.50109339
-1.7146866 1.22932 -0.50989401
1.4767773 1.28146 -0.50852305
1.702601 1.28146 -0.50866246
-2.0655794 1.5516795 -0.50392193
-0.93179297 1.6308612 -0.50932217
0.28900504 1.6328325 -0.50569463
0.95454973 1.6710573 -0.50057954
1.610612 -0.24038513 -0.49145475
-2.5139992 -0.14602327 -0.49907896
1.7717161 -0.074772254 -0.4954848
-1.3428366 -0.066935286 -0.49207813
1.1875043 0.059833996 -0.49492234
-1.7382865 0.20901999 -0.49486336
-1.2374312 0.20902 -0.49568352
1.5189571 0.27972338 -0.49352193
1.6070007 0.28098235 -0.49571377
-2.6136985 0.70248204 -0.49383929
1.7603451 0.70874918 -0.49704552
1.797671 0.71369886 -0.49192238
1.8000777 0.82779348 -0.49159205
1.770236 0.96814156 -0.49568793
1.7966352 0.97860467 -0.49206457
-2.6456561 1.1129891 -0.49870485
1.8105597 1.1699331 -0.49718583
-2.6420059 1.2008319 -0.49936849
1.7992082 1.2434173 -0.49171135
-2.173182 1.3187823 -0.49160531
1.284065 1.3710599 -0.49616739
1.7623987 1.3893659 -0.49676365
-2.6279948 1.4560194 -0.49511507
0.91847301 1.5586019 -0.49935633
1.6465321 1.5584852 -0.49711588
-0.63241971 1.6375797 -0.49498457
-0.22150066 1.6366463 -0.49867651
1.8270425 -0.25866607 -0.48432532
-2.1730454 -0.058142915 -0.48753726
-2.7362645 0.13534327 -0.4884584
2.3896301 0.19629839 -0.48939168
-1.9672837 0.20902 -0.48546177
1.8902915 0.2754851 -0.4861432
1.8764131 0.69161153 -0.48111469
-2.5532012 0.71167368 -0.48721451
-2.2893009 1.22932 -0.48030514
2.3846822 1.2521863 -0.4802478
1.8591617 1.4641552 -0.48348251
1.8644514 1.4991199 -0.4827565
-0.79287541 1.6398268 -0.48500562
1.1636617 1.653814 -0.48745221
0.81242853 1.67715 -0.48337021
-1.0904168 -0.21157646 -0.47327271
1.9051892 -0.20704359 -0.4771651
1.9384787 -0.084027439 -0.47259593
1.941782 0.0080407113 -0.47214258
1.9169437 0.048460901 -0.47555172
-1.5306652 0.059833996 -0.47411457
1.5886569 0.20487963 -0.47101647
1.8735411 0.20310488 -0.47410625
1.306342 0.26853359 -0.47404087
1.48979 0.26936728 -0.4754923
1.6768183 0.26765859 -0.47251749
1.993241 0.26711303 -0.47156769
1.9308429 0.48290908 -0.47364399
-0.85207701 0.64589816 -0.471322
0.79083395 0.65861392 -0.47435483
1.9564826 1.0284272 -0.47012481
1.9119942 1.0420607 -0.47623101
1.3338537 1.1805532 -0.47869939
-0.85279399 1.22932 -0.47256416
2.1773217 1.2466462 -0.47060388
1.6317892 1.251143 -0.47843152
1.9244376 1.2509515 -0.47809842
-2.7332444 1.2708786 -0.47666043
1.111277 1.28146 -0.47424838
1.1602648 1.28146 -0.47243884
1.9376324 1.2827656 -0.47271207
1.9556828 1.382377 -0.4702346
0.91059899 1.5006671 -0.47792757
1.9205275 1.5956001 -0.47505981
-1.3298703 1.6032695 -0.47383645
-0.053278886 1.6425183 -0.47305459
1.8877518 1.658765 -0.47955838
1.1052504 1.6711271 -0.4709616
0.8245675 -0.21553287 -0.46081412
2.0280139 0.089962393 -0.46030682
-2.7256086 0.15853627 -0.46758717
1.2966731 0.171782 -0.46683574
-2.0143027 0.20902 -0.46574369
-1.3878828 0.20902 -0.46602544
1.4315655 0.20718953 -0.46699503
2.0090575 0.20973587 -0.46290872
-2.4378619 0.21233396 -0.46359929
1.8483317 0.2176902 -0.46249896
1.9790081 0.62961751 -0.46703309
-2.4384599 0.68468559 -0.46515542
0.82449365 0.87887728 -0.46577334
1.9931834 0.90661919 -0.46508747
-2.1722817 1.0652257 -0.46482745
1.8759594 1.1859485 -0.46930769
1.8231599 1.2158904 -0.46249899
1.9074088 1.2121551 -0.46249902
2.2041173 1.2173103 -0.46249899
1.8689507 1.2281568 -0.46249896
1.9163822 1.28146 -0.46107799
2.0188532 1.3937826 -0.46156418
2.0574088 -0.056566924 -0.45627224
-2.0912757 0.037944365 -0.45505056
-2.721875 0.10676177 -0.45159751
0.87369162 0.171782 -0.45111948
1.5008655 0.17178202 -0.45090991
0.82466435 0.40091014 -0.45429748
-2.52476 0.76749086 -0.45595437
-2.4330044 0.95414668 -0.45095339
-2.7196977 1.3237274 -0.45906046
-1.7950466 1.37106 -0.45597994
-1.4284929 1.3710599 -0.45521984
-2.6669621 1.4083594 -0.45228237
2.1680584 -0.19065654 -0.44108513
-1.7066655 -0.17728208 -0.44714504
0.82484901 -0.16497767 -0.44188803
-1.9162011 0.059833996 -0.44201374
1.7185651 0.171782 -0.44608206
1.759949 0.171782 -0.44199911
2.0985038 0.17178199 -0.44474745
2.1388807 0.24417306 -0.44508985
2.2133 0.44877756 -0.44795477
0.82487404 0.51971328 -0.44020027
-2.4318299 0.56847578 -0.44789529
1.75079 0.65125626 -0.4407661
-2.1732342 1.22932 -0.44069377
-1.9652674 1.22932 -0.44572711
-1.7824709 1.22932 -0.44803438
-2.7377079 1.2936879 -0.44810385
1.5122089 1.37106 -0.44114423
0.89686352 1.4026089 -0.44684398
2.1119297 1.4840608 -0.44878903
1.3295324 1.6118073 -0.4409669
1.6714079 1.6511708 -0.4402588
0.61061019 -0.23586807 -0.43346509
1.75079 -0.1908159 -0.43900666
-1.7923338 -0.18537325 -0.43042174
2.2278509 -0.1557875 -0.43287835
-1.3185055 0.0055645294 -0.43162936
2.209199 0.086747602 -0.43543842
-1.2427599 0.16064966 -0.43148586
0.82493126 0.16139683 -0.43635446
0.81729537 0.17178199 -0.43362969
2.1784737 0.27947772 -0.43965557
0.82499957 0.32387841 -0.43176085
-2.4263086 0.4701685 -0.43352142
2.2133 0.49376202 -0.4318181
2.1763518 0.53633821 -0.43994683
2.2133 0.61987865 -0.43794948
2.2448289 0.67847794 -0.43054804
0.79083401 1.2725558 -0.43658224
1.1767468 1.37106 -0.43029103
-0.35949701 1.6502304 -0.43881011
0.36847091 1.6514893 -0.43322045
-1.0606219 -0.22321011 -0.42161804
0.12762822 -0.2230819 -0.42218718
-2.6103194 -0.07071352 -0.42726609
2.2750452 -0.032203645 -0.42640075
0.82515109 0.2576417 -0.42157352
1.7507899 0.58019066 -0.42440593
-2.1214066 1.22932 -0.4250077
2.251509 1.3281077 -0.42963117
2.2721319 1.3774841 -0.42680061
2.3152454 1.4587498 -0.42056468
-0.35207519 1.6539273 -0.42239526
0.052901469 1.6528698 -0.42709064
0.27491987 1.6540532 -0.42183656
1.4792895 1.6635736 -0.42632326
-1.9961555 -0.25136411 -0.41800427
1.925029 -0.24663439 -0.41730529
2.3285785 -0.076528244 -0.41828325
1.6721731 -0.017813697 -0.41833302
1.3837349 0.171782 -0.4149456
2.2034731 0.17178202 -0.41276124
-2.5247598 0.39378184 -0.41449296
0.82527095 0.39102697 -0.41351822
-2.52476 0.41535109 -0.4102447
2.3278265 0.42702588 -0.41841197
-2.170599 0.46317184 -0.41476989
2.3766785 1.248535 -0.41005296
2.362972 1.3156776 -0.41239822
2.331538 1.608078 -0.41703817
1.6362708 1.6713604 -0.41528451
2.0603189 -0.23002225 -0.40975147
0.043970838 -0.2264992 -0.40701407
1.0955893 -0.22270648 -0.4093807
-2.3021345 -0.21574324 -0.40733778
2.3613384 -0.15537669 -0.40487036
2.3929291 -0.079962358 -0.405193
2.3860877 0.37279078 -0.40844291
1.75079 0.74184036 -0.40964311
-2.1702621 0.91708744 -0.40474641
0.82542723 0.93341506 -0.4030121
-2.416822 1.1233196 -0.40882453
-2.5247598 1.1663063 -0.40912369
-2.1998692 1.22932 -0.40997806
1.4343038 1.6356649 -0.40494078
-0.6457541 1.6573426 -0.40723035
1.5427848 1.6854452 -0.40320441
-2.6263595 -0.054450478 -0.39785099
1.75079 -0.05807288 -0.3916142
2.4688473 0.12224534 -0.39135313
2.4550138 0.30501851 -0.39604038
0.79083401 0.47213459 -0.39358395
0.79083401 0.95557618 -0.39993459
-0.85207701 0.99150902 -0.39124399
2.4432359 1.1543614 -0.39821589
-2.1699078 1.1681554 -0.39420408
-2.0139508 1.22932 -0.39403906
0.88379645 1.3827209 -0.39324084
0.88541496 1.5621057 -0.39372224
0.010140434 1.6593773 -0.39819556
0.55539966 1.6699617 -0.39087355
-2.0274191 1.6801593 -0.39896068
1.5849106 -0.25024077 -0.38055235
-1.183668 -0.24612445 -0.38760617
2.3470333 -0.16964585 -0.38854659
-1.2427599 0.051029265 -0.38623437
1.1371531 0.059834003 -0.38764101
2.1831603 0.171782 -0.38111424
-2.2686071 0.20901999 -0.38475949
-1.5680003 0.20901999 -0.38385913
-2.52476 0.61808079 -0.38180554
-1.2427599 0.75649178 -0.38935351
-2.1696763 0.85838753 -0.38731614
1.75079 0.8709619 -0.38178772
-2.1694591 0.88684815 -0.38085565
-2.1696227 1.0446026 -0.3857252
-2.1612353 1.22932 -0.38874123
1.2792163 1.28146 -0.38039193
0.97134781 1.3710599 -0.3879554
1.9012213 1.6804497 -0.3868089
1.805986 1.692143 -0.38454652
1.8266673 0.17178202 -0.37022096
-1.2427599 0.90796363 -0.37374753
1.7507899 0.95234269 -0.37267828
-1.1535993 1.22932 -0.37261325
-2.0411129 1.37106 -0.37865081
1.3828388 1.37106 -0.37864587
0.33359957 1.6641822 -0.37686104
-1.9749322 -0.25544104 -0.36520511
0.32794636 -0.23551941 -0.36696333
2.3401711 -0.17793459 -0.36999553
0.82601023 -0.013956919 -0.36382005
-1.2427599 -0.0055936128 -0.36961964
-2.3525863 0.20902 -0.36112529
0.79083395 0.72969556 -0.36818656
-2.52476 0.9721086 -0.36043078
-1.5097578 1.6547761 -0.36319926
-0.55045927 -0.23910365 -0.3510488
1.5352409 0.059833996 -0.35749704
-2.7210307 0.096220434 -0.35753417
-2.2365208 0.20901999 -0.351583
-1.1285952 0.20902 -0.35944232
0.82620102 0.21782738 -0.35099024
-1.2427599 0.28691864 -0.35274479
0.79083401 0.43403441 -0.35396904
0.79083401 0.94328028 -0.35047686
-1.2193782 1.22932 -0.35864365
1.4503422 1.28146 -0.35092852
1.6936096 1.28146 -0.35333568
-1.2427599 1.33719 -0.35302576
1.6848044 1.5324116 -0.35607588
1.3802028 1.5983071 -0.35499218
0.32614636 1.6686821 -0.35687923
-2.065361 -0.24395129 -0.34385389
-1.3817585 0.059834 -0.34593529
-2.7096186 0.075221151 -0.34560108
1.7912832 0.171782 -0.34804636
-1.9950233 0.20902002 -0.34246129
-1.3569133 0.20902002 -0.3463726
-2.1683052 1.2573038 -0.34653276
0.8262831 1.2842629 -0.3454735
-2.1115732 1.6554141 -0.34884897
-0.41563663 1.6712451 -0.34549925
-1.4617054 -0.24630587 -0.33333591
0.24351095 -0.24233228 -0.33671337
1.6817713 -0.073993526 -0.33915982
-1.2427599 0.017888427 -0.33134463
-1.2427599 0.029405355 -0.33582452
2.2133 0.7477774 -0.33192033
-2.1679504 0.76829195 -0.3359746
0.82640326 0.88371217 -0.33739677
-1.6166646 1.22932 -0.33036143
-1.2427599 1.2874202 -0.33174834
-2.1679258 1.313572 -0.33524758
-2.7127721 1.349869 -0.33868915
1.2776415 1.37106 -0.33259505
1.5554905 1.3710601 -0.33130559
-2.1678534 1.4503022 -0.3330937
1.7507899 -0.26653409 -0.32635745
-2.6136746 -0.092607707 -0.32330668
-1.2427599 0.14636073 -0.32854307
1.9507302 0.17178199 -0.32931527
2.0629904 0.171782 -0.32531115
-2.5659733 0.48184437 -0.32005936
-2.3833187 0.58043516 -0.32160392
-2.1674137 0.59133905 -0.32001272
0.82662737 0.81266254 -0.3223322
-1.1604555 1.22932 -0.32433966
1.6879432 1.28146 -0.32893065
1.75079 1.3281875 -0.32738665
0.82662839 1.3576859 -0.32226655
1.2178456 1.37106 -0.32124871
2.4796665 1.4823763 -0.32587054
1.6896237 1.5606775 -0.32257172
0.82657623 1.5898823 -0.32576832
-0.74813598 1.6760306 -0.32424909
1.6015468 -0.25054932 -0.31478137
-0.41321915 -0.24750867 -0.31372952
0.26275504 -0.24822903 -0.31053108
-2.7121186 0.076752849 -0.31640178
-2.5881317 0.33396 -0.31762993
-1.2427599 0.35859793 -0.31140268
-2.6059129 0.40332016 -0.31568044
1.75079 0.78171992 -0.31999803
1.7507901 0.81349975 -0.31098559
-2.5904913 1.0267812 -0.31737125
0.82672858 1.2865206 -0.31552818
1.9576943 1.28146 -0.31433031
0.87450892 1.4079758 -0.31669033
1.75079 1.4082639 -0.316719
2.2721124 1.6467247 -0.31890744
2.1594756 1.6581969 -0.31157213
-2.0501013 1.6761158 -0.31491938
0.41539192 1.6777982 -0.31640154
1.5633641 -0.25461209 -0.30555186
-0.85594064 -0.24976589 -0.30370727
-1.5267031 -0.21145278 -0.3087275
1.1871802 0.171782 -0.30657274
2.0991669 0.17178202 -0.3019754
2.2133 0.30225596 -0.3042064
-2.7089155 0.39309463 -0.30272537
-2.7109966 0.42620701 -0.30290645
-2.6654315 0.50361621 -0.30915487
-2.6619239 0.61124086 -0.30953944
-2.7094538 0.66032988 -0.30432832
-2.3758085 1.052294 -0.30205274
-2.1667929 1.0608095 -0.3015424
-1.8803893 1.22932 -0.30520943
0.82779765 1.28146 -0.30457443
1.0531306 1.3710601 -0.30141282
1.3569559 1.37106 -0.30308768
2.4118214 1.558435 -0.30619413
-1.3533478 1.6749961 -0.30018374
0.40328357 1.6796582 -0.3081429
0.35917032 1.6807001 -0.30351675
0.80089515 -0.26683295 -0.29231361
-1.2427601 -0.03943415 -0.29742822
0.87620515 -0.036594927 -0.2958715
2.4935901 0.037533179 -0.29215416
-1.9400179 0.059833996 -0.29058298
1.6779902 0.17178202 -0.29275703
-1.4342327 0.20902 -0.29614833
-1.1535819 0.20902 -0.2915785
2.5351381 0.47895998 -0.29609144
-2.7951748 0.55606151 -0.29357657
-2.3722723 0.55218011 -0.29284647
-2.3713756 0.56301618 -0.29051208
-2.7767477 0.73861277 -0.29695025
-1.2428977 0.86084563 -0.29173866
-2.7535784 0.96084964 -0.29785961
1.7505442 0.97053242 -0.29134685
-1.2427599 1.1450403 -0.29530486
1.1779776 1.28146 -0.29312217
-1.2427599 1.4736042 -0.29684883
-1.5544708 1.62567 -0.29927349
-1.5274522 1.6405319 -0.29517168
-2.0474482 1.6767403 -0.29831821
-1.938081 1.6714232 -0.29133487
1.1231136 -0.19968309 -0.28812689
-1.6612123 -0.14271486 -0.28926048
-1.4129424 0.059834 -0.28275484
1.2386529 0.059834 -0.28128558
-2.276217 1.22932 -0.28046286
0.86686325 1.28146 -0.2834042
1.3402295 1.28146 -0.28072143
1.7442589 1.28146 -0.28382391
1.3589227 1.3710599 -0.28915179
1.3965757 1.3710601 -0.28237063
2.14884 1.6623621 -0.28599948
1.5066087 -0.24075195 -0.27616039
1.3774753 0.059833996 -0.27133429
2.498909 0.066085525 -0.27619097
-2.086235 0.20901999 -0.27757066
0.79083401 0.22485776 -0.27478984
-2.3660464 0.47187293 -0.27663887
-2.8175406 0.63884652 -0.27212197
-2.3642466 1.1024958 -0.27195311
1.2840388 1.28146 -0.27776119
-2.0297987 1.3710599 -0.27568838
0.88158023 1.5412147 -0.27591184
0.79476988 1.6974555 -0.27156252
-0.64399838 -0.25234899 -0.26576188
0.18972749 -0.25234899 -0.26933441
0.53383136 -0.25473547 -0.26959392
2.2531271 -0.22472203 -0.26150861
-1.6635301 0.059834 -0.2672559
0.92743504 0.171782 -0.26241553
0.83345884 0.28297248 -0.2648789
2.5478902 0.56264937 -0.26456425
-0.85207701 1.2242541 -0.26679358
0.83355683 1.2460216 -0.26445863
-1.7969148 1.5989777 -0.26683739
-1.5073249 -0.22951609 -0.2574999
-1.3106103 -0.21535867 -0.25651997
0.83580166 -0.047147736 -0.25483772
-1.2530906 0.15294383 -0.25479412
-1.6986217 0.20902 -0.25949267
0.83506799 1.1441275 -0.25798202
-1.9410297 1.22932 -0.25422311
1.4138316 1.28146 -0.25588569
2.0175519 1.28146 -0.25544122
2.5014153 1.3716578 -0.25718376
0.83614433 1.5553652 -0.2533693
-1.8681003 1.6360178 -0.25312078
-1.9637587 1.6870928 -0.25286704
-0.77048612 1.6832401 -0.25886774
-0.50353688 1.6832401 -0.25263846
0.32832587 1.6832402 -0.25626945
-1.1630653 -0.2555123 -0.24155216
-1.9338256 0.20902 -0.24613786
-1.5062021 0.20902 -0.24894436
1.7369051 0.52608192 -0.24190339
0.79083407 0.61182475 -0.24447826
-2.3538659 1.1126199 -0.24492836
-1.8392875 1.22932 -0.24999584
1.4426544 1.28146 -0.24675812
1.8725727 1.28146 -0.24318951
-1.9349871 1.3710599 -0.24111778
0.94077176 1.37106 -0.24263282
1.538139 -0.25435713 -0.23462027
0.839701 -0.022159368 -0.23812655
1.1565771 0.171782 -0.23218849
2.2133 0.19316313 -0.23861513
-0.85207701 0.32287464 -0.234828
-2.8051085 0.64408684 -0.23815143
-2.3481765 0.78268576 -0.23011656
-2.1522315 0.81591439 -0.23117477
2.5247781 1.1528592 -0.23988655
0.79083401 1.1637452 -0.23841441
-1.8445998 1.22932 -0.23168761
-1.3180112 1.22932 -0.23351704
2.5023627 1.3977425 -0.23670745
-2.6050076 1.508489 -0.23903561
1.7354267 1.5142484 -0.23654354
-1.3748124 1.6765057 -0.23722011
0.65433234 -0.26019767 -0.22540537
-0.37880266 -0.25234899 -0.22013077
-2.2417073 -0.23004186 -0.22525729
-2.1502447 -0.043670133 -0.22266026
0.84222168 0.20089909 -0.22732334
-1.2622157 0.27710998 -0.22171971
-2.7805092 0.44280258 -0.22869161
-2.8033352 0.67444837 -0.22522455
1.0380803 1.37106 -0.2245387
1.0872326 1.37106 -0.22719219
0.84244049 1.4177752 -0.22638565
1.2413616 1.5981998 -0.22767819
1.2981151 1.5971293 -0.2226211
-2.0885758 1.6654361 -0.22272244
-1.4710371 1.6844796 -0.22847022
-0.14343171 1.6832399 -0.22196455
-1.2432272 1.690302 -0.2203913
-1.2281542 -0.25872672 -0.21332294
-0.36296007 -0.25234899 -0.21488142
-2.3414567 -0.19590154 -0.21179338
1.5532322 0.059833996 -0.21975584
-1.2652302 0.14648607 -0.21079382
1.3785664 0.171782 -0.21636845
1.6890334 0.171782 -0.21203673
-1.1605448 0.20901999 -0.2107324
1.7289201 0.35098916 -0.21295691
2.2133 0.48376763 -0.21224475
-0.85207701 0.67127174 -0.21771681
1.7300869 0.80063438 -0.21718653
-2.1480629 1.1950729 -0.21331072
-1.5824276 1.22932 -0.2171149
0.84600306 1.4488735 -0.21111728
2.1896305 1.6607242 -0.21904738
0.35868895 1.6832401 -0.21011327
-1.2666863 -0.13193539 -0.20551611
-2.7367487 0.17155713 -0.20889512
1.0439442 0.171782 -0.20563722
1.63493 0.171782 -0.20493785
-2.7514968 0.26592061 -0.20102152
0.79083407 0.66689229 -0.20985481
2.5507576 0.91867495 -0.20521554
1.7278557 0.9914254 -0.20909813
-2.1457407 1.0881919 -0.20335871
1.727458 1.1647679 -0.20765628
2.2133 1.2109281 -0.20738393
-2.0327442 1.22932 -0.20788881
-2.7352507 1.2584345 -0.20360836
1.5238383 1.37106 -0.20076481
1.7263757 1.5028222 -0.20373245
1.726912 1.569484 -0.20567702
2.1597891 1.660552 -0.20607373
1.7244451 0.029376999 -0.19673383
1.2261277 0.059834 -0.19350992
1.5445302 0.17178199 -0.19551404
-2.1438019 0.58075595 -0.19504923
0.8505162 0.78083593 -0.19177511
2.557775 0.83480811 -0.19986439
-2.7585106 1.0613163 -0.19109225
-2.3334489 1.1132684 -0.19177559
2.2133 1.2019225 -0.19609912
-0.88369423 1.22932 -0.19392338
1.1712437 1.28146 -0.19910768
0.85015321 1.452018 -0.19333118
-1.3231202 1.6169088 -0.19436401
1.3907406 1.6324354 -0.19983125
-2.2572787 1.653585 -0.19707434
-0.32646051 1.6832401 -0.19185729
0.63394803 -0.25927368 -0.18574025
-1.8419753 0.059834 -0.18166125
0.96188068 0.059834 -0.18451589
1.3262625 0.059834003 -0.18000425
-2.7009811 0.12552932 -0.18454538
-1.9354849 0.20902 -0.18335062
-1.8638966 0.20902002 -0.1825693
-2.3314118 0.44007021 -0.18647245
-2.3289974 0.91798002 -0.18018711
1.7211576 1.3653476 -0.18481609
2.4930344 1.4651911 -0.18087731
-0.20820841 -0.25234899 -0.17663734
0.161985 -0.25234899 -0.17311604
-1.3417952 -0.23390967 -0.17520183
-1.3350911 -0.014778815 -0.17489113
1.1132601 0.171782 -0.17986421
0.85342956 0.88008559 -0.17928977
-2.139364 1.0655839 -0.17602991
-0.85207701 1.1433172 -0.17853917
-2.3272796 1.187186 -0.17571466
1.9277524 1.28146 -0.17746849
1.0738372 1.37106 -0.17910281
-2.0886543 1.4782022 -0.17751226
-2.1390452 1.5218754 -0.17466411
2.3337209 1.6248705 -0.17157553
0.85344464 1.6456733 -0.1792248
0.43934026 1.6832401 -0.1733419
2.0461047 -0.23159468 -0.16889985
2.0613739 -0.22963424 -0.16001463
-2.0829563 -0.2129153 -0.16885483
1.7155674 0.1571576 -0.16455124
1.8175864 0.17178199 -0.16214779
-0.85207701 0.91196972 -0.1693207
0.85775191 1.0687426 -0.16076496
0.90796447 1.28146 -0.16783869
1.5117657 1.37106 -0.16199827
0.85657763 1.5691689 -0.16579768
0.90986884 1.6570435 -0.16272013
-0.58256996 1.6832399 -0.16761324
0.40201652 1.6832399 -0.16341236
1.7397366 -0.26504442 -0.15438734
1.0352354 -0.25260967 -0.1531007
1.469647 -0.25203425 -0.15740368
1.6434236 -0.16907874 -0.15042531
-2.0754735 -0.12439989 -0.15317516
-1.2817581 -0.04689467 -0.15088832
-2.6382983 0.036692075 -0.15417421
1.2698624 0.059834 -0.15254262
1.2221484 0.171782 -0.15392621
1.3005121 0.171782 -0.15440407
2.5189395 0.29662341 -0.15094694
2.2133 0.52396214 -0.15632944
-1.2804873 0.65249491 -0.15549399
-1.8130785 1.22932 -0.15117499
-1.1523244 1.22932 -0.15910055
-1.2808115 1.2516017 -0.15431842
0.99603242 1.28146 -0.15923885
1.7116623 1.2944741 -0.15039492
-2.6680675 1.3409683 -0.1519738
0.34231359 1.6832401 -0.15237074
1.71299 1.694178 -0.15520802
1.7895638 1.6904237 -0.15437219
0.69736207 -0.26160908 -0.14845431
0.0025175214 -0.25234899 -0.14460672
0.12590577 -0.25234899 -0.14516065
0.97024876 -0.2436731 -0.14106077
-2.6480517 0.059288725 -0.14569657
-1.9955839 0.059834 -0.14565182
-1.7600086 0.059833996 -0.14691538
1.3281537 0.17178199 -0.14647631
1.6453114 0.171782 -0.14352764
0.79083407 0.21806207 -0.14792728
2.2133 0.72316718 -0.14610587
-1.2842404 0.87682384 -0.14189091
-1.2835064 0.90817857 -0.14455108
-2.7528045 0.93810713 -0.1425349
-1.2830637 1.1597641 -0.14615591
-1.9217943 1.37106 -0.14577991
0.92032218 1.37106 -0.1492748
0.86042106 1.6097417 -0.14932567
1.2139903 1.6484672 -0.14240922
-1.8662517 1.6720665 -0.14363928
-0.798796 1.6832402 -0.14009625
-0.92108953 -0.25234899 -0.13529842
0.25381428 -0.25234899 -0.13651928
-2.3598411 -0.18370548 -0.13305995
0.86334068 -0.084918469 -0.1368129
-2.5717542 -0.067125469 -0.1362417
-2.257051 0.20901999 -0.13015507
-0.97427583 0.20901999 -0.13585325
-1.286145 0.39337987 -0.13498729
1.7075801 0.88988024 -0.13559605
-0.97655654 1.22932 -0.1322422
-2.5548973 1.5244071 -0.13183096
1.7069231 1.5691841 -0.13321459
-2.4664299 1.5794995 -0.13651934
-1.7618132 -0.22284178 -0.12998156
2.3106925 -0.20512944 -0.12597367
-2.3949113 -0.17138848 -0.12427302
0.8651855 -0.15969975 -0.12890659
-1.2059916 0.20901999 -0.12609643
0.86545056 0.33899045 -0.12777084
2.5256388 0.40424985 -0.12957069
0.79083401 0.52510709 -0.12953319
-2.12831 0.85769176 -0.12865789
-2.1168725 1.22932 -0.12777333
2.4749386 1.5053458 -0.12514475
-1.6581417 1.6551019 -0.12340279
0.072149634 1.6832401 -0.12779012
0.55608553 -0.2557317 -0.1132612
0.58105236 -0.25676432 -0.11882077
1.9571826 -0.23979715 -0.11534009
-0.85207701 0.22335219 -0.11024368
-0.85207701 0.53011787 -0.11979612
-0.85207701 1.0014851 -0.11246017
-2.6756504 1.2704709 -0.11350179
1.9121553 1.28146 -0.11752976
1.6359423 1.3751925 -0.11914541
0.93043888 1.3917309 -0.1158461
0.9309324 1.5119063 -0.11455128
0.86909389 1.6158042 -0.11215623
2.3068833 1.6372977 -0.11503161
1.5645387 1.6754972 -0.11972728
-0.68181974 -0.25234899 -0.10325274
-1.9531455 -0.24859896 -0.10476393
1.6178633 -0.20008861 -0.10105322
-2.0509543 -0.16243055 -0.10273257
-2.4243047 -0.14961502 -0.10284755
-2.1225502 -0.12717259 -0.10397439
-2.5889268 0.02113875 -0.10986084
-2.5958569 0.054010108 -0.10329063
-1.4691703 0.059834 -0.10969279
-2.1236217 0.3862716 -0.10856584
-0.85207701 0.39996719 -0.10676189
-2.7397809 0.72723967 -0.10700826
-2.1231256 0.897416 -0.10643996
-2.6888211 1.1129719 -0.1014942
-2.1220615 1.1637992 -0.10187971
1.1695327 1.3710601 -0.10820316
2.3237233 1.6220222 -0.10597036
0.75894499 1.694537 -0.10647902
1.7393066 -0.26318622 -0.091946036
-1.7948089 -0.24780855 -0.092875779
-1.2963746 -0.081228748 -0.097910047
1.1237037 0.059834 -0.093444288
1.0844116 0.171782 -0.092187375
-1.3765681 0.20902 -0.098022789
-2.6822133 1.0973189 -0.096549481
-1.4936117 1.22932 -0.09600386
1.6962891 1.2863227 -0.094664767
1.024341 1.37106 -0.090430059
0.94633764 1.4097574 -0.093337893
-1.372071 1.4883143 -0.094999492
0.27505082 1.6832402 -0.094021216
1.5816097 -0.23614636 -0.083253548
-2.3007097 -0.19277206 -0.086638942
0.79327929 0.171782 -0.089229621
-1.8906472 0.20902002 -0.082438335
2.2133 0.30187321 -0.086081877
2.2133 0.4140642 -0.089861542
2.5289218 0.9114871 -0.082117662
-2.0056992 1.6690303 -0.089373574
-0.87607569 1.6832401 -0.086105883
-0.67102611 1.6832401 -0.086414374
2.3519127 -0.16337886 -0.077834405
-2.0254607 0.0088035949 -0.072421297
1.2304525 0.059834003 -0.078555495
1.843105 0.171782 -0.073743619
-1.6023964 0.20902 -0.079072535
0.87725019 0.3275663 -0.077200435
1.6906443 0.75042504 -0.074201807
-0.85207701 0.80281442 -0.079734385
-1.3895054 1.22932 -0.076796755
-1.061229 1.22932 -0.074184686
-1.9043614 1.37106 -0.078476645
0.95963949 1.3724942 -0.076657355
-2.0254021 1.4507542 -0.071585141
-2.1150784 1.6470962 -0.071952984
1.0426916 1.6751585 -0.071351886
-1.8402941 1.6844581 -0.071131282
-0.93228233 1.6832401 -0.07321211
1.6880815 -0.26103973 -0.069197461
-1.0433439 -0.25140846 -0.062411103
1.7835635 -0.24648941 -0.063368142
2.3574653 -0.15045971 -0.068341002
-2.4905024 -0.0074380301 -0.067375243
1.7940594 0.17178199 -0.069031939
-1.9278306 0.20901999 -0.062563248
-1.275046 0.20902 -0.061589673
-1.0573483 0.20902 -0.067527466
-0.85207701 0.52104414 -0.069776937
-0.85207701 0.54873365 -0.063082665
-2.6823835 0.69946754 -0.069034964
1.6795995 0.73992139 -0.060637683
2.4993467 0.90309846 -0.064430691
1.4446146 1.37106 -0.064051874
-2.2294645 1.6299734 -0.065586306
-0.72134292 1.6825489 -0.063446805
-0.70568186 1.6823188 -0.061703768
1.1239097 1.6827719 -0.060402289
-1.8276787 -0.25317055 -0.055423398
-1.2673194 -0.25690931 -0.056054063
0.19740991 -0.25130326 -0.05850672
-2.1079788 -0.157314 -0.057649963
1.8526256 0.17178199 -0.050879851
2.4449506 0.20814136 -0.059286669
-2.1099536 0.30537307 -0.059822127
-0.85207701 0.48231423 -0.059924506
1.6710992 0.57448781 -0.052059375
1.6712546 0.99905461 -0.05221612
2.4245598 1.1124427 -0.052021071
1.7841895 1.28146 -0.05292692
2.4115715 1.3340957 -0.05488579
0.97944391 1.4716763 -0.05474503
-1.5427117 -0.25053862 -0.046503313
-0.077628508 -0.24978065 -0.047925476
-2.4848199 0.013838806 -0.04926385
-2.4957194 0.03392788 -0.047750067
-1.9397655 0.059834003 -0.045505211
1.1030138 0.059834 -0.048738144
2.3553691 0.11486287 -0.042385604
-2.2772174 0.5804407 -0.045385696
2.4024396 0.58506948 -0.040489666
-2.2763748 0.68463689 -0.043192003
2.2133 1.0747827 -0.041292466
2.4170108 1.0959711 -0.049984232
2.3653474 1.1425399 -0.040103197
2.1230688 1.28146 -0.04879757
1.5825684 1.6298035 -0.047922447
-1.3249667 1.6506087 -0.048762951
-1.9911429 1.6651757 -0.046862949
-0.66057026 1.6794678 -0.040479444
-0.46409228 1.6795994 -0.040959649
-0.69825 1.6801555 -0.045667186
-0.46965858 1.6803367 -0.04643283
0.51489156 -0.24959385 -0.034582268
1.6516 -0.19625905 -0.032381274
0.9949463 -0.1156121 -0.038274132
-1.9917389 -0.019336227 -0.031973671
2.3511622 0.25501117 -0.037913781
0.9062928 0.38913393 -0.034858696
0.79083401 0.42206877 -0.038695119
0.90513825 0.80555993 -0.036128752
1.6547354 0.88927895 -0.035545543
-2.6196237 0.94894838 -0.031557657
2.3567719 1.0841696 -0.036778957
0.79083401 1.1224579 -0.039147779
2.3361969 1.1709298 -0.032503411
0.90679306 1.2020859 -0.034308352
2.2133 1.2252899 -0.033762977
1.6512617 1.2922792 -0.032039806
1.1517912 1.37106 -0.030982275
1.6565235 1.5342196 -0.037349775
-1.3126875 1.6888964 -0.031777851
-1.9578598 -0.23554945 -0.022562902
-1.3451378 -0.18102807 -0.027673902
0.914931 -0.18841317 -0.025356524
1.5840936 0.17178199 -0.027312879
1.5900099 0.17178202 -0.029696282
1.6645284 0.171782 -0.025972363
-1.8665562 0.20902002 -0.02672804
2.3398762 0.29279149 -0.021728549
-2.0792484 0.38642564 -0.02604623
-0.85207701 0.83307171 -0.021253146
-2.6205065 0.87803578 -0.020057948
-2.6055269 1.0059083 -0.023224132
-2.2687869 1.0953321 -0.023437805
-1.3472797 1.0988238 -0.025434595
-0.85207701 1.2001305 -0.020409778
-2.5778472 1.2276717 -0.02648155
-1.6085907 1.22932 -0.028381411
1.0149617 1.28146 -0.026371658
1.2939712 1.28146 -0.026144393
1.7655576 1.28146 -0.024074536
-1.3461856 1.4269753 -0.026578538
-1.9358393 -0.23759001 -0.015854109
-1.3559607 -0.23740038 -0.016358597
0.92834175 -0.15117963 -0.010604341
-1.6232857 0.059834003 -0.010812357
1.0690947 0.059834003 -0.011096975
2.1982951 0.171782 -0.010358408
0.92573243 0.52433562 -0.013474684
-0.85207701 0.54136461 -0.01721167
1.2573023 1.28146 -0.019259289
1.6396372 1.28146 -0.017368697
0.92634839 1.4162397 -0.012797104
0.92572093 1.4519879 -0.013487343
1.5481762 1.4977837 -0.019177891
1.6316211 1.5195739 -0.012218999
-2.3809612 1.5206575 -0.013114464
-1.4375854 1.6239594 -0.019450136
1.4930432 1.6714835 -0.017253689
-1.2050956 1.6803359 -0.015748713
0.66001797 1.6842237 -0.018961037
-1.7298045 -0.24988791 -0.0033971984
-1.4677324 0.059834 -0.0038247183
2.3219113 0.14435953 -0.0067621078
-0.85207701 0.27267712 -0.002390746
0.79083401 0.65648454 -0.0066708885
0.83383429 1.28146 -0.0046950728
-1.8136503 1.37106 -0.0089334361
-1.5492325 1.3710599 -0.0059995484
2.302299 1.4511122 -0.0048803221
-1.9672971 1.5693688 -0.007368464
-1.3684416 1.6378272 -0.0033096969
1.8732631 1.6456416 -0.0093047842
0.21896064 -0.24208039 0.008801423
-2.1677201 -0.20127501 0.0020433043
-2.2576873 -0.15199238 0.0017503984
0.86491919 0.171782 0.0065744966
1.1970252 0.17178202 0.0045037335
1.4747651 0.171782 0.0088124797
-1.3800898 0.62495625 0.0088685341
2.380935 0.64117873 0.0015070979
-2.5480752 1.2377852 0.0088968603
1.5184698 1.5553699 0.0059523126
1.0361259 1.6494364 0.00010798639
-0.99743545 1.6738549 0.00023213774
-1.3030808 -0.2539483 0.013587711
0.14623067 -0.24188612 0.010207858
-2.3931284 -0.044873856 0.017430754
-1.9097463 0.059834 0.017154537
-2.4687881 0.070638105 0.016509328
-2.2537045 0.40789258 0.015827458
-1.3874168 0.45588502 0.016528983
-0.90857673 1.22932 0.010630161
1.3877147 1.37106 0.015617827
1.0494959 1.5792277 0.010026881
-1.9330313 1.6212786 0.014009753
-2.0355034 -0.22029346 0.022073263
1.5967791 0.34875393 0.022942469
-2.0308325 0.80589736 0.027211212
-2.0287611 0.86263901 0.029489808
2.3662748 0.90850306 0.021754351
1.591033 1.1134738 0.028741248
-2.0282075 1.22932 0.029648572
0.96502829 1.5003242 0.029751575
-0.91644955 1.6709654 0.021830831
-1.2464539 -0.2481771 0.033204757
-1.511447 -0.14306915 0.033477031
2.1398623 -0.13920346 0.035838071
2.2973552 -0.051188491 0.036091555
-1.6833737 0.059834003 0.032405172
1.4238497 0.171782 0.030882657
-2.1584148 0.20902 0.033744067
-1.9373428 0.20902 0.039813973
-2.2446456 0.3754009 0.039410561
1.5866627 0.51669294 0.033151761
-0.85207701 0.74320984 0.031921882
2.2133 0.93845987 0.030735932
-0.89961642 1.22932 0.032073483
1.0830919 1.5765358 0.034950666
-2.0264037 1.6590891 0.03208302
1.1027796 1.6645972 0.033796057
-0.5354113 -0.2365049 0.04916358
1.1179783 0.057323698 0.047107689
0.79083395 0.95383275 0.048528876
-1.3604336 1.22932 0.04433468
1.2687619 1.28146 0.044771135
0.98175716 1.3668892 0.048153777
1.4562469 1.4418983 0.042502847
-1.5272722 1.4520283 0.041573022
0.39962617 1.6681004 0.044063438
0.72820842 -0.25035417 0.05468861
0.0020939708 -0.23521858 0.058475554
1.5605257 -0.084413573 0.059528638
1.4218277 -0.0070500448 0.05388914
-1.4283357 0.09167178 0.059309758
2.175621 0.171782 0.057338335
-1.3716292 0.20901999 0.05538284
-2.0098257 0.89561749 0.050318874
-2.2103176 1.22932 0.056890592
-1.8383261 1.4724381 0.058923181
-1.8555968 1.5546921 0.05436977
-2.0049875 1.6313647 0.055640835
-0.90536791 1.6665072 0.054869309
-0.77334803 1.6671243 0.050633918
-0.98324436 -0.23392662 0.067184344
-1.8007541 -0.096966751 0.069582224
-1.5798335 0.0078260414 0.061407492
1.1643471 0.036770806 0.066286035
-1.597078 0.049221694 0.069061019
-2.4477141 0.10629434 0.069532074
1.4254482 0.17178199 0.063943982
1.5511734 0.32427883 0.068966575
2.2133 0.36230066 0.065384381
-1.9954933 0.72342223 0.066084415
0.79083401 0.78321564 0.060197655
0.79083401 0.8604337 0.061778314
-2.5553229 0.89322734 0.062787727
-2.2339315 0.93759811 0.067302488
1.5509403 1.0232414 0.069201902
1.2280111 1.28146 0.060333841
1.5532798 1.5396818 0.066841051
1.2070935 1.6653498 0.063188538
-1.4326589 1.6717325 0.063829698
0.87595958 1.6907902 0.063072741
0.97063816 -0.26588836 0.070478827
-1.4477569 -0.2590085 0.079614788
-2.0610285 -0.22110137 0.077200398
-1.9902997 -0.19595206 0.071797416
-2.1815166 -0.15934567 0.07612101
-1.9170382 0.20902 0.07289885
-0.89790559 0.20902002 0.075198188
-1.9889352 0.24579543 0.073298238
0.79083401 0.88934916 0.071613312
1.00446 0.90736979 0.073127404
1.542273 1.4285347 0.077948697
1.5433813 1.5067257 0.076830089
-1.6237822 1.5488603 0.072959304
-1.7836707 1.5709882 0.078105435
-0.044356555 -0.2309151 0.089629315
1.9948224 -0.15439118 0.08729586
2.1176689 -0.13042548 0.082812048
1.0146614 0.065251149 0.084349096
-2.2007596 0.20901999 0.081273809
-1.9799237 0.27240407 0.083211027
2.2133 0.55249596 0.088908851
1.5385857 0.9899562 0.081669912
1.0129257 1.0469124 0.082439966
1.0140362 1.0648754 0.083661348
1.2665699 1.5424163 0.084144548
-1.6877302 1.6140327 0.082206123
-0.66476196 1.6626645 0.083413661
-0.4383668 1.6626204 0.083733387
-1.9780351 1.6882384 0.08528845
1.5295125 -0.24574786 0.090826094
0.89816743 0.17178199 0.095053352
-1.8942125 0.20902002 0.095913671
-2.2229128 0.38627422 0.095988549
2.3624423 0.49798244 0.091250509
-0.85207701 0.97932756 0.091065623
-2.2248106 0.99445456 0.091048166
-2.5038309 1.0915843 0.094958946
-1.9649085 1.2773124 0.099727638
1.2034162 1.28146 0.093658641
-2.4402494 1.3076406 0.091278851
-2.4136872 1.3382823 0.098849967
1.0272886 1.4776949 0.098239221
1.0215256 1.6227541 0.091899961
1.8415642 1.6279249 0.099067569
-0.72543156 -0.22876365 0.10485542
-2.0428126 -0.21602003 0.105233
1.0341394 -0.14042494 0.10496115
1.5099806 -0.056987815 0.10298426
1.4922814 0.11051609 0.10792885
2.3740702 0.59449565 0.10590991
1.0485455 0.66066843 0.10845341
-2.5412281 0.69662517 0.10420441
-1.9500489 0.71265197 0.10723069
-1.4685397 0.76713163 0.10134326
-1.475783 0.81871068 0.105764
-1.9399315 0.89623404 0.10968345
-1.9614999 0.98648596 0.10347704
-1.953526 1.0018233 0.10638772
-1.9556146 1.2406986 0.10588142
0.97773218 1.28146 0.10429656
1.7137327 1.28146 0.10143107
1.0367954 1.6044564 0.105605
1.6659513 1.6660539 0.10018869
0.81912071 1.6836485 0.10658947
1.5725359 1.6853805 0.10713595
1.495728 -0.26536855 0.11400028
-0.46827674 -0.22318509 0.1154764
-0.45735991 -0.22222081 0.11731227
2.0678895 -0.13158849 0.11136954
-1.5017345 0.11090821 0.11246099
1.0654477 0.31718159 0.1125508
-1.9332838 0.33410764 0.11129496
1.0684121 0.41197962 0.11326943
-2.2146285 0.6749385 0.11755519
1.4559069 0.79558265 0.1180907
2.3594749 0.95497239 0.11570726
1.0913607 1.0388058 0.11883255
1.0826885 1.1492476 0.11673024
1.4814755 1.1721283 0.11094767
1.0823209 1.2634486 0.11664116
2.1363742 1.28146 0.1120608
1.0892565 1.6074282 0.11832245
-2.0404413 1.6374557 0.11274622
-0.35112059 1.652229 0.11899371
-1.2116269 1.663224 0.11463056
1.4562879 -0.26504838 0.1261113
-1.5662417 -0.22765923 0.12910762
-1.0549779 -0.22036105 0.12068783
-0.94622707 -0.21746087 0.12637469
1.123735 -0.13624853 0.12668061
-1.8750088 -0.051152602 0.1254224
2.2618892 -0.052432008 0.12616628
-2.2897651 -0.011573272 0.12631428
-1.5622991 0.13564548 0.1280902
1.7629924 0.17178199 0.12717377
-1.9103202 0.20902 0.12612459
-1.5562229 0.20607205 0.12652217
-1.5519862 0.21902172 0.12542886
1.4182057 0.24083252 0.12862319
-1.8561575 0.28571802 0.12999241
-2.4862773 0.55999637 0.12122704
1.1349382 0.81954473 0.12939644
1.1080821 0.92965037 0.12288608
-2.4368029 1.1181486 0.12888584
-2.2121325 1.1107337 0.12405327
1.1107519 1.2075579 0.12353327
1.1096205 1.2105581 0.12325899
-1.9204644 1.2293202 0.12976068
1.1201096 1.3216372 0.12580174
1.4260845 1.3574367 0.12642212
-2.2924769 1.4437836 0.12505808
1.4283776 1.50862 0.12578151
-2.1585128 1.5545976 0.12722686
0.17846222 1.6491549 0.12484668
0.68286693 -0.23456608 0.1305576
-1.6001382 -0.18295877 0.13785484
1.1774409 -0.12906158 0.13969979
1.4013674 -0.09118928 0.13332725
2.3041327 0.028420802 0.13080396
-1.8541313 0.073692575 0.1304836
-2.369175 0.12506786 0.13195807
-1.5886817 0.16018362 0.13489842
-1.5769048 0.1610118 0.1318593
1.1180216 0.171782 0.13127753
1.6997993 0.17178202 0.13844761
2.2133 0.18195245 0.13195287
-1.7238336 0.20901999 0.13978741
1.4095535 0.28756168 0.1310403
-1.8159853 0.33189797 0.13973123
-1.5820876 0.33588943 0.13319677
1.3960797 0.38832608 0.13480449
-1.8540382 0.51642621 0.13050622
1.3910055 0.5785886 0.13622205
-1.8300914 0.59587908 0.13631153
1.1647364 0.63406074 0.13662003
-2.2084749 0.64459795 0.13357583
1.3796799 0.71877223 0.13938606
1.1474649 0.80273998 0.13243312
1.1486951 0.82518125 0.13273136
1.3948841 0.86390281 0.13513847
1.3990294 0.89078367 0.13398041
-1.5863338 1.1097852 0.13429254
-2.0345125 1.22932 0.13186669
0.82093829 1.28146 0.13550395
-1.5714812 1.4912068 0.13045968
2.044445 1.5648416 0.13798815
0.40736735 1.6442987 0.13409251
-1.2894894 1.6552367 0.13201827
1.1902374 -0.26513177 0.1428019
-1.2439234 -0.21090497 0.14442462
-1.7948835 0.045768186 0.1448468
1.375061 0.11238506 0.14067642
0.79083395 0.30615914 0.14822145
0.79083401 0.3394821 0.14846368
-1.624982 0.45980021 0.14426601
1.3540907 0.50047326 0.14653485
2.3713632 0.57546026 0.14016703
2.2133 0.59594089 0.14691894
1.179672 0.62833279 0.14024064
-1.6328666 0.81269121 0.14630067
-2.3720925 1.2453831 0.1496713
1.2086198 1.3491992 0.14725807
-1.6446259 1.4182734 0.14933525
1.1828234 1.4147115 0.14100461
2.2786918 1.4537458 0.14190878
1.3066864 -0.25438797 0.15977804
-0.76189548 -0.20356566 0.15282968
0.20615327 -0.20077896 0.15813527
1.7850702 -0.19611792 0.15164968
1.8860143 -0.1684756 0.15540774
2.2719374 -0.01198778 0.15286493
-1.7566224 0.011861056 0.15412229
2.1007547 0.17178202 0.15224081
-1.650578 0.2675657 0.15087126
1.3156242 0.39834869 0.15728107
1.2530171 0.57321322 0.1580207
1.32093 0.70062441 0.15579887
-1.7621331 0.74765396 0.15278637
-1.664274 0.94878888 0.15440564
-1.677966 1.11509 0.157939
2.2133 1.1935122 0.15018271
-1.6739323 1.3036377 0.15689801
1.0052621 -0.24415568 0.16382802
1.5619426 -0.2409547 0.16169277
-1.716328 -0.072804928 0.16389073
-1.2698309 0.20902 0.16661109
-1.7210499 0.26228714 0.16274604
-2.3770547 0.50345439 0.16925055
1.2653139 0.50515592 0.16100168
2.377455 0.62716025 0.16034225
2.2133 0.76656598 0.16234075
1.2803276 0.78700066 0.16464123
1.269212 1.0024476 0.16194664
-1.6947517 1.0678779 0.16227067
-1.6994764 1.1789662 0.16348989
-1.0952128 1.22932 0.16937365
1.086097 1.28146 0.16776314
-1.7092459 1.306735 0.1656076
-0.68538797 1.626189 0.16857313
-0.58526742 1.6276208 0.1658469
1.7173485 1.6396742 0.16690923
-1.3274586 -0.19332761 0.17430839
0.66552067 -0.17731392 0.17832771
1.9937892 -0.13374785 0.17947355
2.2133 0.41429943 0.17565431
-0.85207701 0.42255592 0.17052732
2.3781462 0.63400811 0.17340969
2.2133 0.98217022 0.17844966
-1.8081872 1.22932 0.1793502
-1.2283342 1.22932 0.17891519
-2.1631405 1.4136114 0.17482564
1.7576909 1.6287372 0.17551538
1.2215145 -0.24571264 0.18790399
1.1396418 -0.2395702 0.18852982
-0.58385164 -0.18457007 0.18899527
0.70980424 -0.17928568 0.18407607
-2.003464 -0.10587811 0.18641613
-2.089335 -0.039572861 0.1802046
2.1763437 -0.035774436 0.18363322
-2.2501447 0.14823484 0.18780372
0.94384837 0.171782 0.18107614
2.0732071 0.171782 0.18042913
2.377861 0.63264376 0.18407038
-2.3500221 0.94675589 0.18111265
2.3422439 1.2043058 0.18701905
1.9258962 1.28146 0.18078896
-2.0509162 1.4896027 0.18625806
-0.38267106 1.6174426 0.18522602
-1.6853403 1.6428449 0.18877101
1.0355272 -0.23459542 0.19262871
-1.0088452 -0.18250389 0.1924354
-2.1106725 0.04246857 0.19265398
-2.09286 0.040318143 0.1948697
-2.2687097 0.27964324 0.19342545
-0.85207701 1.0041703 0.19131218
-2.2223434 1.212724 0.19879411
-1.9998844 1.45443 0.19903892
1.0352782 1.6656622 0.19214645
2.3384373 0.068302102 0.202021
-2.2153993 0.33046412 0.20193355
2.3955798 0.74661291 0.20159225
-2.2038455 1.084668 0.20386252
-2.1975064 1.1434937 0.20371033
2.3047657 1.4104671 0.2054309
-1.9607575 1.4345951 0.20735769
-1.1285955 1.6049036 0.20477548
0.50370699 1.6022087 0.20458519
1.589627 1.652842 0.20658752
1.3538145 1.6730013 0.20279104
-1.6518364 -0.16074552 0.21851334
0.31095001 -0.16841802 0.21974707
2.3774133 0.36263359 0.21056271
-2.1419654 0.47553968 0.21499826
2.3711705 1.1678464 0.21302953
-1.9019338 1.4045985 0.21988909
2.2055705 1.4027755 0.21307039
-1.7043991 1.6026819 0.21777706
-0.10861266 1.6038804 0.21104802
-0.037549078 1.6040591 0.21070778
1.6845303 1.6335921 0.21068215
-2.0441697 0.21450529 0.22365217
-2.0635228 0.45822352 0.22586724
-2.0841522 0.63300323 0.22605887
-2.1210499 0.80150265 0.22073567
-1.7856668 1.5116569 0.22655484
0.98294997 -0.18201157 0.23114859
1.564925 -0.17975187 0.23672585
-0.91102785 -0.16011533 0.23555446
-1.7164171 -0.14175618 0.23332848
2.0576463 -0.0096945427 0.23485522
-1.9456203 0.26126885 0.23841652
-2.017333 0.93708789 0.23308751
2.3922429 1.2223954 0.23912299
-1.8967288 1.28772 0.23705201
2.3866882 1.28649 0.23915805
1.6705062 1.5750277 0.23299196
-1.5965321 -0.1026394 0.2436761
-1.5399404 -0.094366588 0.24660353
1.6866231 -0.091039464 0.24531928
2.2061048 0.15652366 0.24699835
-1.9176645 0.56343591 0.24853927
-1.9094427 1.141042 0.24407408
2.2237773 1.2653197 0.24574327
-1.7050384 1.4296868 0.24938677
1.9831102 1.4268215 0.24753037
1.7954173 1.5041623 0.24061072
1.1744746 1.5970668 0.24078703
1.2563745 1.6122558 0.24252257
0.58847141 -0.13846183 0.25622186
1.5478957 -0.11618302 0.25334927
1.9654512 0.054643374 0.25687099
2.1301765 0.11457282 0.25110182
-1.9085509 0.61835116 0.25082204
2.4315617 0.62733608 0.25361109
-1.9211528 0.68995214 0.25030899
-1.8775182 0.77556407 0.25590727
-1.8486836 0.94163001 0.25672603
-1.8342519 1.0117543 0.25728658
-1.8028183 1.1039737 0.25976676
1.8935337 1.4156721 0.25626969
-1.5055077 1.4338534 0.25913545
1.4627095 1.5518699 0.25731272
0.022224626 1.5814009 0.25389391
-1.1642313 -0.12361309 0.26893866
1.3091751 -0.10128138 0.26891202
-1.2996843 -0.08641801 0.26188645
1.5714617 -0.081473812 0.26044318
-1.2748233 -0.022255599 0.26861694
-1.7787058 0.39314801 0.2645191
-1.7836525 0.90162712 0.26665902
2.4276233 1.1639496 0.26971638
-1.7865655 1.1924515 0.26020026
2.1314373 1.2211967 0.26355588
-1.4965885 1.3572309 0.26865354
-1.5900004 1.363512 0.26585257
-1.4088975 1.3987799 0.26529124
1.7945032 1.4231629 0.26258618
-1.091336 1.55988 0.26512986
-0.22797339 1.5738208 0.26838252
-0.21053293 1.5781854 0.26003987
-0.13148849 1.5772908 0.2617501
-1.1605692 -0.084353268 0.27562737
-1.2114395 -0.053127155 0.27274585
1.7540202 0.09514904 0.2789827
2.051393 0.25375208 0.27656293
2.0772047 0.28141657 0.27790046
2.4360855 0.35714829 0.27031815
-1.6693563 0.37218732 0.27938578
2.2563281 0.86985773 0.27392131
2.1042111 1.1319122 0.2777963
-1.5566072 1.2834179 0.27648872
-1.2175442 1.3673577 0.2799668
-0.27101082 -0.13472338 0.28406322
1.1381963 -0.062412523 0.28302956
1.7061535 0.10808721 0.28584102
-1.2144656 0.17223707 0.287552
2.3295789 0.25516772 0.28650403
-1.6190608 0.30063102 0.28159475
2.1547616 0.53469104 0.28441465
2.1911693 0.62447602 0.28107154
-1.6465403 0.7476626 0.28294727
-1.6313845 0.81643248 0.28324211
-1.6298008 0.8795501 0.28286788
-1.5110383 0.95703495 0.28801307
2.1246824 1.0392925 0.28200901
-1.3845227 1.2604107 0.28264028
1.4232678 1.4475437 0.28486151
-1.1245197 1.4768426 0.28172582
-1.0276767 1.530707 0.28758547
0.41758496 1.5621606 0.2877067
0.70127571 -0.11244468 0.29420736
1.0503051 -0.072463945 0.29096463
1.0876215 -0.057804156 0.29953972
1.3177822 0.0077348016 0.29654086
-1.0839304 0.080573581 0.29417309
1.7871288 0.20439866 0.29415968
2.4503756 0.21993625 0.29684249
-1.3017581 0.22245295 0.29058725
-1.244431 0.22991374 0.29261166
-1.2349589 0.23562562 0.29349241
2.3456244 0.28156939 0.29600015
2.0032802 0.4029398 0.29015023
1.9628637 0.47206584 0.29622138
2.4598997 0.6118257 0.29393342
-1.3247792 0.6537981 0.2974878
-1.3643304 0.70355272 0.29586434
-1.3591709 0.79471409 0.29585984
-1.3890414 0.9093917 0.29409286
-1.4084105 0.91121703 0.29320478
2.4587111 0.96391028 0.29544544
2.456172 1.0166217 0.29302341
1.8289936 1.0832239 0.2981981
-1.4231564 1.13553 0.29095614
-1.3018 1.1396263 0.29674923
1.8445593 1.2061533 0.2908673
-1.1690824 1.2212069 0.29449925
1.7265811 1.2733788 0.29246369
2.3942857 1.339241 0.29257125
0.47729555 1.5527424 0.29929915
0.030455304 1.5613695 0.29218242
1.3397797 0.03866576 0.30189574
-1.1991308 0.35088575 0.3021003
-1.1760014 0.37352839 0.30326372
-1.1361675 0.43523744 0.3080402
1.8893073 0.5130657 0.30290931
1.9240799 0.5346784 0.30185595
-1.1596239 0.66754633 0.30545712
-1.2378232 0.67397743 0.30151731
-1.2417055 0.77383804 0.3012805
1.9982512 0.80369079 0.30127761
1.9323766 0.85823596 0.30329266
1.899093 0.96161783 0.30004808
1.8365464 0.98885977 0.3026033
1.8254128 1.0087427 0.3023147
1.7515936 1.0247762 0.30642846
1.7305186 1.0654316 0.3060084
-1.1873585 1.117213 0.30239972
-1.1488909 1.1206148 0.30422103
-0.99048483 1.4862313 0.3059383
-0.48684925 1.5525651 0.3090114
-0.25955114 -0.12105215 0.31019512
-0.45307562 -0.1160599 0.31973755
1.1431297 -0.031200375 0.31898618
-1.0093291 0.061894268 0.31810173
2.3986349 0.3574664 0.31728059
2.3988957 0.36432782 0.31761068
1.666213 0.37646505 0.31284893
2.3781526 0.68560576 0.31215316
1.8011467 0.85521328 0.31193233
1.6662616 0.88914925 0.31920764
2.4621463 1.2275593 0.31019661
-1.0498216 1.2527421 0.31987187
0.66050905 -0.098252825 0.32543749
1.5564332 0.52126938 0.32889318
1.6973152 0.60897684 0.32062531
1.7049077 0.6090948 0.32012254
-0.75409758 -0.10849956 0.33418879
1.1867162 -0.0028372519 0.33172044
2.4414515 0.37880588 0.33308077
2.4424853 0.51230681 0.33808124
-1.1028677 0.64047647 0.3319743
2.4430828 0.89912182 0.33896741
-1.0861409 0.96030909 0.33365607
-1.0116506 1.2611803 0.33637363
-0.94620705 1.432366 0.33651417
1.0999006 -0.023707783 0.34318924
2.4893785 0.29651296 0.34246579
2.4949038 0.8254115 0.34345907
-1.0671314 0.96518826 0.34269625
2.4906685 1.1754624 0.34519008
2.504822 0.62281954 0.35707033
2.5060089 0.86403441 0.35997725
1.4405873 1.1537325 0.35055912
0.10722206 1.5275594 0.35680825
-0.46863118 -0.094092071 0.36172801
0.65899098 -0.075698666 0.36856937
1.4025302 0.21541932 0.36375505
-0.98716789 0.24841148 0.36206603
1.4065644 0.26262999 0.36522344
-1.0143262 1.0698822 0.36435574
0.43618706 1.5240403 0.36036885
0.57655609 -0.076012328 0.37644076
1.4593023 0.64271146 0.37477642
-0.99762625 1.0550365 0.37302226
0.52202934 1.5082136 0.3795501
-0.9896524 0.76827037 0.38720092
-0.97826624 0.94931734 0.38642186
-0.97418773 0.97329384 0.38749284
0.75022584 1.4913154 0.38830405
-0.046492536 1.513273 0.38411582
-0.89876091 0.17683335 0.39093849
-0.95486915 0.92817628 0.39857677
-0.84192455 1.3555027 0.39954457
0.23389588 1.5095735 0.39110839
1.1646571 0.10138199 0.40745336
1.3181491 0.21611567 0.405518
-0.96124852 0.76689386 0.40068123
1.3259931 1.0919933 0.40994331
-0.89788878 1.1717927 0.40612817
1.0013963 1.4348707 0.40204418
-0.64364964 -0.063449152 0.41320977
0.68931687 -0.048346058 0.41757298
1.3100609 0.30143502 0.41455692
-0.92601335 0.99563819 0.4100244
-0.7842294 1.4101448 0.41537917
-0.48968017 1.4952612 0.41854411
1.2602248 0.19338509 0.42506555
1.3137654 0.45943129 0.4265677
-0.90153885 0.76232529 0.42903775
-0.89681321 1.0879533 0.42069787
1.2766789 1.1918081 0.42737937
1.3482506 0.68485105 0.43072754
-0.809398 1.2285854 0.43769592
-0.066247284 -0.05161792 0.44291532
0.91462433 0.0070202872 0.44499016
1.1608883 0.15037742 0.44067538
1.3025982 0.83821547 0.44384223
-0.86337334 1.005363 0.440054
-0.74865788 1.3218653 0.44961059
-0.84114254 0.92539138 0.45387137
-0.82625282 1.01324 0.45776939
1.0210888 1.3857752 0.45458305
-0.23361522 -0.039275628 0.46650702
0.54232997 -0.030107189 0.46809393
-0.81995696 0.4734692 0.46293885
1.2507206 0.52958345 0.46250555
1.0543066 1.3165002 0.46397084
1.0112195 1.3678052 0.46631652
0.093601197 1.4727929 0.46147037
-0.54282463 -0.022841122 0.47603786
-0.78429669 0.45234245 0.47944373
-0.80831873 0.73967493 0.47348282
-0.73789048 1.216212 0.47367156
-0.72771442 0.23042336 0.48130226
-0.76932287 0.37225613 0.48367661
1.1709732 1.0720012 0.48672199
-0.64958733 1.3724767 0.4835422
-0.52306849 1.4476302 0.48707461
0.059336074 -0.023720633 0.49619809
1.2121046 0.68354154 0.49453911
1.2187897 0.74151611 0.49192697
-0.7332117 1.0327982 0.50217944
-0.30579215 1.4513091 0.50255573
0.24830636 -0.015303124 0.51198888
-0.46009669 -0.0042914338 0.51743555
1.0966375 0.28915638 0.5193578
1.1662755 0.67001498 0.51483762
