# .PCD v0.7 - Point Cloud Data file format
VERSION 0.7
FIELDS x y z
SIZE 4 4 4
TYPE F F F
COUNT 1 1 1
WIDTH 1586
HEIGHT 1
VIEWPOINT 0 0 0 1 0 0 0
POINTS 1586
DATA ascii
-12.814795 36.384914 22.799099
-22.372885 37.339317 15.910541
6.9666886 91.331047 21.269554
-3.8038917 118.08395 7.6027079
-9.8831348 115.84841 24.701904
4.132555 56.496033 24.786041
17.766342 23.183784 15.459457
-21.759468 115.02476 14.85323
-17.86219 108.42371 16.270432
14.664963 53.158222 9.5089169
-7.8073993 22.576572 5.3168321
20.970142 84.70916 13.901213
-2.0674872 33.109085 5.203476
-1.6209879 15.929448 10.2235
11.608584 106.25171 26.072681
-15.940277 66.835274 31.448009
17.305019 29.478991 20.010464
3.4169998 81.038162 32.292473
11.264869 120.21017 20.914793
-18.76214 28.659023 2.7228677
14.667505 69.857071 5.7156405
-23.776234 99.459984 0.52342325
-16.187962 73.136536 10.48353
-6.1951723 103.55409 25.772104
2.3597889 120.86295 22.117233
11.345573 52.461769 24.855694
17.163712 69.81308 25.441999
-17.609674 115.54395 7.1455779
15.909985 79.823456 9.4328995
5.0995393 70.868073 5.7363014
7.6376348 77.139748 19.309153
-4.9572821 54.106323 15.396695
20.778179 86.856155 11.825095
15.281567 59.775604 17.445101
-0.51998687 14.861691 11.496184
-10.277271 80.161491 32.922375
-12.719395 82.482033 32.403679
-15.378133 85.168442 6.0285358
5.122211 94.987457 29.791153
15.254364 88.271881 20.376215
-12.338773 32.661461 22.173019
0.36869237 88.51609 31.59758
-0.046294212 40.373512 5.2023258
-1.8800218 50.281792 24.673904
4.5701218 105.22945 6.4722238
-24.099106 104.56954 1.1239001
1.1967516 91.22625 19.233402
11.840838 111.48821 24.91828
15.248445 18.895487 9.4390564
-23.299643 24.890203 14.68573
-18.48542 41.701088 10.084437
-16.343033 107.42126 22.799301
-18.957144 70.428635 23.330616
-22.582727 56.98851 21.242138
-0.099611521 52.553875 23.784309
-19.953892 58.352303 24.043613
20.178913 93.714699 19.666588
13.180367 32.800835 18.123669
-23.294384 52.12405 14.00409
18.430046 44.296204 5.441462
3.994375 72.626694 33.294075
-21.799923 49.763535 5.0263805
-4.1383824 49.085762 23.634129
-16.494602 40.000626 22.976067
21.308002 69.685852 14.14408
-24.163498 40.415188 17.786205
-12.7224 16.179398 13.742122
-18.610172 25.650787 16.931549
-16.442308 50.118416 24.066713
-14.979601 40.647369 6.0545111
1.2713162 83.497322 32.755798
-24.126503 92.719994 11.772209
17.668297 38.715652 11.296057
21.08427 38.315529 13.345638
-0.0037636757 28.800274 5.2041583
16.7411 77.035995 26.369413
-13.888361 104.58101 26.010214
-18.547333 82.655098 13.984445
16.209841 61.432198 27.701448
-6.7495756 46.539948 5.2391443
-4.1682448 60.426933 17.890806
-19.376194 34.341805 21.628662
-2.6622484 57.168327 23.030367
-5.0410848 56.011185 18.781471
-12.35895 111.07939 18.567402
-5.5427117 49.807945 24.62467
9.0002546 89.043846 6.1077318
-6.4367437 43.300064 5.2018623
10.493896 76.87886 18.718311
-20.555679 69.632507 24.38061
18.553076 44.655594 6.6399231
-23.276287 47.6315 7.5695267
-24.011173 78.634186 18.213791
-13.46826 79.279938 8.3948631
20.228584 92.271606 7.9283171
20.84742 85.861343 12.263612
-22.155935 64.417213 22.379509
-14.816284 18.056984 5.4524136
-18.188015 88.313354 19.515554
7.9201488 85.190758 6.0289922
-2.7679787 71.462814 5.748455
-4.938808 92.946152 18.5674
-12.558551 114.45982 24.667208
-17.149626 98.227623 18.962051
5.39434 114.89655 5.5197158
-23.436432 24.971851 9.1858301
-12.324691 111.49043 18.568983
7.7238116 110.61277 18.567398
-14.979601 38.653858 14.419875
2.1996591 24.221611 20.544149
5.2063031 49.726501 12.486345
-18.405958 64.120453 9.0390701
-23.818501 84.857712 18.803942
3.7702487 70.996063 32.466236
0.19417216 19.927132 18.869965
-9.779768 26.137192 5.2045798
-9.9105825 76.965851 11.394855
18.092875 113.93047 18.328283
-13.57893 117.64402 23.887722
4.4633193 92.695236 6.1848073
-5.5841846 91.178856 18.312504
13.797829 75.243484 15.067486
8.0349045 123.49294 12.472137
-6.5278382 101.73655 18.5674
-13.141868 76.496223 6.8633351
6.4145541 86.754028 31.034252
-12.249622 81.308548 24.745594
-2.8953028 78.864059 33.302521
-22.206036 106.83665 10.278797
-14.803795 120.89021 19.358749
-24.008308 71.097183 10.504934
17.993752 44.068653 22.307701
9.1374197 90.613953 18.5242
-22.292921 92.448097 9.3640461
-16.722036 64.059944 5.5971737
16.429245 101.58991 13.662462
-24.239761 66.525955 13.149035
-8.8423548 26.407867 5.2045369
-3.450191 42.003532 5.2020679
17.05407 93.921371 9.7131195
-11.838125 58.953865 20.712748
7.7887335 77.509613 6.8773537
-14.321402 102.21539 6.4031096
11.631589 80.92038 11.929726
3.0688083 104.22369 25.418278
-0.71022213 61.446007 14.744184
10.849596 67.450264 32.039371
19.036907 29.209023 1.9303563
-1.4876649 54.49461 27.150517
-18.223827 59.669201 12.731418
-18.286524 106.2247 17.564508
-16.308985 44.701145 5.3057528
-15.013252 74.510567 32.692799
-19.286514 78.725601 7.1572804
-21.735748 110.16032 7.6694975
1.2498577 69.265923 10.666981
13.5446 95.061798 13.548269
-17.916897 54.680977 11.645219
-5.9399409 72.929192 33.337837
-14.863218 89.179291 18.441689
-1.6905999 121.31889 18.200588
1.6789951 73.137253 5.7826729
11.588926 91.228104 19.269405
18.523001 101.46563 6.3442545
-10.864523 99.678947 28.097919
-0.49849632 117.95678 24.709669
6.7988949 59.371063 18.870184
8.2979889 46.467415 23.250092
11.9952 28.153973 12.413391
-19.223698 87.976089 24.29052
-23.73632 56.529938 9.6253767
-16.528999 104.88837 14.815171
-23.370699 97.715218 1.2024215
-8.409894 69.721741 32.308357
-18.068735 62.51474 5.5655966
15.968382 22.227619 16.708433
11.873588 78.878838 7.499392
-7.6041098 63.297291 6.6807413
-12.120361 43.32819 23.779348
2.591856 58.111389 5.4756122
-20.693626 29.642384 14.914455
-4.4113684 60.269371 18.227213
-14.173658 109.20805 6.5634551
-17.552532 85.355682 6.032362
20.811827 90.804947 9.5799809
6.0191069 87.373505 21.795315
1.6887193 87.468597 22.14002
-24.199924 32.288307 15.096726
-6.5727139 73.815987 13.176394
-14.268543 81.116257 32.38945
6.6491218 71.977043 10.958174
-19.614449 119.29346 10.078175
12.06846 27.038204 20.565842
15.029911 57.932278 5.471952
7.7184787 75.28614 10.831616
-2.0065308 115.4491 5.6250682
-15.148747 87.487427 6.0759258
19.017544 23.95319 4.7516537
-4.7242379 108.85114 6.5552721
6.2884259 53.283401 23.56826
-8.450429 76.209541 17.749847
17.776279 116.4965 8.1112194
-3.48631 83.765228 32.716629
1.4330703 56.877892 13.084595
-18.388071 29.27527 20.521441
14.558487 61.090187 5.5364852
-1.1297034 122.22142 14.473265
8.4910593 97.432716 28.694241
-13.606591 104.81425 6.4627037
8.1568022 78.787628 6.8950343
15.628181 77.585152 16.188457
-15.556944 52.69096 7.0054626
-9.9771767 58.365067 28.649826
-3.6454277 52.980156 14.768765
-17.23933 22.210491 17.611343
-9.1121597 118.57478 7.7664175
15.681761 60.579296 27.723692
-22.427513 73.627151 22.085747
-19.472296 38.404823 15.460925
8.0708437 43.457134 23.844666
13.833248 98.258324 26.444313
-11.929446 75.483345 10.82148
1.5688496 14.2253 12.155898
-9.6683445 37.551193 23.163822
-5.8387985 116.4226 24.842125
14.208307 82.213287 31.229004
20.672375 33.278934 7.2725148
16.324259 106.30991 15.261046
-20.346134 82.892982 24.722076
15.990968 26.249161 8.5588007
17.129776 98.889015 12.511977
-15.226738 89.986816 30.59936
-16.528999 109.96851 8.0981588
-12.273051 28.515091 21.275675
-1.2917439 26.487587 21.234718
14.840052 92.791229 21.695045
-23.703121 80.117668 9.4654789
9.3798885 101.95325 27.166164
20.808052 33.717442 19.26152
7.9128904 88.945526 22.4536
-19.018011 104.24456 0.33314267
-1.1399515 14.881098 14.963275
6.7101145 73.030937 6.8153963
-15.84171 93.746979 6.2089252
15.162065 116.54597 21.110556
-15.850027 104.61859 20.582254
18.557419 71.916527 4.8395963
7.346508 76.544418 18.425392
-1.0853893 112.06035 18.5674
-21.911528 105.68812 8.4954453
9.0143852 79.834312 19.149076
15.306488 62.823883 8.8031759
18.378002 24.860073 16.820288
6.2454076 123.55 14.037379
15.074478 95.717644 27.549595
-14.873857 49.107613 23.342987
-4.2993174 51.284149 13.797863
15.109453 18.699139 10.227179
-17.429075 25.962824 17.625389
21.010225 104.33869 6.9476891
-4.8967309 86.33596 31.362843
15.200682 57.850151 13.800034
3.6624837 56.956451 16.809254
15.459736 88.956459 6.1059456
-23.536436 28.768444 16.716848
-18.518805 79.661034 17.670641
-12.171937 64.038773 6.6909986
-8.8942165 111.49983 18.567398
-2.174119 83.946808 15.514432
19.880005 74.660942 6.0249882
-11.291843 120.30209 7.3766756
-9.4428539 39.712341 23.4883
16.202053 81.479912 27.397091
-11.496114 86.099518 31.879974
-18.683292 73.971123 6.8284035
17.848326 35.258266 3.0648975
14.615462 63.502003 6.6835732
2.964129 33.91597 5.2033482
5.0195446 86.119606 18.220564
-20.642982 60.538055 5.5252018
-18.887049 106.20994 4.0770144
19.223289 114.28707 14.860822
12.333276 77.289459 32.599064
-21.7782 104.97122 10.281299
19.092373 32.342838 13.087596
7.5959206 77.488159 20.1518
1.9462329 77.135742 18.448872
-17.239918 100.61372 23.042292
20.676397 63.280327 19.444782
3.1870332 93.592079 6.2053728
-10.045676 110.85236 25.499374
-0.15371382 78.751068 11.810247
-10.566336 19.584766 18.041973
1.5471102 121.80636 20.68486
18.132841 51.983532 5.3503866
-16.528999 100.31297 7.5668969
-6.8003702 16.196117 7.454741
-3.4631515 51.850807 25.609999
-10.076295 28.185501 21.362305
-10.199818 103.80157 26.913471
-1.4440598 118.22499 7.6281176
2.8040266 39.274834 5.2024994
6.380434 90.939926 22.368555
13.5446 104.45367 10.276034
10.756138 62.206047 29.862759
-13.844925 82.777466 5.9796753
1.2015991 119.84047 23.484194
17.398411 33.394253 16.374271
2.5146346 44.772377 23.235565
14.18563 58.504391 21.455023
15.78846 29.715233 4.5200353
-11.236985 86.376968 30.984581
14.575811 100.35134 18.272985
-9.1831217 121.71672 7.5832844
20.762712 35.9505 9.1414843
-1.6194563 106.23181 6.4952087
1.5794244 79.758438 9.463171
20.435202 107.57305 16.563
15.69424 29.536373 11.900231
14.735415 107.58524 16.963139
-22.234715 38.993916 5.5741124
12.357554 108.29209 6.5424523
20.522434 105.56092 17.836088
-21.97887 82.651665 5.9771047
-10.828316 123.49215 12.928535
-15.66486 106.82101 6.5087194
-22.950407 78.43158 21.113949
-14.979599 31.766052 8.2451324
-9.8433199 97.036575 29.030258
-18.02179 94.588242 26.48698
9.499959 24.080311 19.875679
10.759273 105.15253 6.4704604
-13.256038 24.42539 19.917555
-7.251534 63.778568 31.31525
-6.7949138 39.522678 5.2024603
18.131639 85.934319 23.838699
-7.4850426 112.2637 21.298035
0.84537983 99.451721 6.3397374
-21.087521 85.166367 23.912907
-2.2419491 112.60169 23.084648
-19.210625 113.37351 21.552488
15.920687 83.614487 23.820345
2.7452025 88.377853 31.56653
17.272869 107.36887 17.107763
15.821672 81.362198 11.6861
-3.4393792 112.62437 6.1029577
-17.016615 102.49164 22.560244
12.360813 98.983772 6.3290071
20.779537 74.314064 9.0746365
-21.7782 100.98882 10.839869
20.035852 74.271431 6.3330679
11.9952 41.770584 13.705063
20.471354 97.409775 17.36412
19.996605 67.09549 7.4056396
-16.41835 60.53019 5.5250416
-19.910625 80.899117 5.9412904
-9.488739 113.51151 24.11083
20.45018 76.295151 8.0957737
-0.046659946 92.885376 6.189167
-8.0932255 91.225189 19.212723
-22.522007 65.197968 21.77573
-20.83894 62.789471 23.939177
-0.40064397 66.153244 31.966839
14.023211 92.473358 18.5674
-4.3306637 73.261627 14.644388
18.231718 48.866348 22.735672
-8.1567879 81.493027 25.059484
-4.7698054 77.342682 23.879242
-11.318328 50.060307 23.556854
-18.677347 98.565575 13.314857
-4.1567688 60.886505 11.284007
-18.52866 106.55609 2.188705
0.34702322 114.53658 25.218781
-16.621227 82.298531 31.728712
-12.051653 64.383881 31.074654
-18.90621 77.931259 6.9386277
-21.185427 39.253876 17.096043
-1.9024243 91.168228 18.106112
2.5211816 80.143829 33.161179
-3.3230357 107.71199 26.085094
18.830242 65.749176 22.908199
14.62957 85.659912 30.11854
-19.470665 92.115952 10.060953
7.2415595 79.127808 25.902523
-3.1320105 92.848366 6.1883187
13.79555 87.209015 21.199059
20.880632 108.99384 12.201953
-18.700958 120.68365 10.779002
-7.5861578 76.567848 10.640322
15.665181 83.531372 7.0789399
-18.659153 83.399368 7.2526541
-13.144241 102.93754 23.030418
-5.2714462 55.703995 23.202042
-8.0074549 86.770798 19.96694
5.6633902 123.74053 11.816115
-18.074478 54.171436 24.658535
1.2277524 96.186897 18.5674
3.0522356 117.39619 6.4178767
15.442258 63.336994 13.291869
-21.23147 25.57263 12.641039
-7.9236002 82.548798 13.858534
-20.944075 87.094124 4.7187395
15.454997 66.386208 19.978374
-13.664927 30.141333 5.2039456
20.563538 88.158218 9.553443
18.614481 23.522148 4.8554592
18.242714 104.6041 16.036732
2.2167993 34.423916 5.2032681
15.464347 32.676594 14.86864
-9.1121597 117.21951 8.4546041
11.258525 122.15485 14.812267
-11.610652 121.59737 5.7964973
13.067181 91.017418 30.098457
4.1982727 95.940308 29.609991
-22.831011 58.879719 20.923424
-8.6870613 53.533112 15.085314
17.300245 109.23213 4.3723717
5.9693785 27.280605 21.187683
-24.286436 64.125992 15.368032
4.6168699 73.62323 6.8235903
21.198212 36.484936 1.6209714
20.995333 29.107574 5.0504494
1.4430705 56.587883 23.428082
14.659828 77.783501 30.473333
20.935291 85.946602 14.72323
-21.070116 116.72792 10.331385
16.679306 87.962723 24.572895
7.538969 59.153328 23.529718
19.903194 75.042076 7.4903908
-24.260984 95.220917 15.986904
18.523001 34.1031 4.7995634
-16.93725 118.86508 7.7436337
3.6275103 55.168293 27.339581
-12.335707 123.32213 12.197077
16.889193 48.932751 23.390715
-22.004803 24.640133 9.2597523
13.5446 97.764687 13.937626
1.1620097 60.629257 11.493711
-5.1641798 47.715256 23.527348
-19.437113 89.136353 19.375282
-5.0960217 87.153656 6.0691051
-18.735546 79.470428 23.348291
3.6494284 64.5728 6.6983862
19.10915 82.908211 22.473156
10.536669 67.065407 6.7328691
12.459684 77.875931 6.8824215
7.7929378 90.91954 22.379826
-5.5282006 56.732582 28.226372
18.221827 95.333298 13.044439
-1.2085257 59.794609 19.723318
-16.010416 114.60262 23.94277
11.53997 93.508789 29.494781
-0.55546522 39.816135 5.2024136
-17.394058 76.079895 30.931923
2.4123983 82.041977 13.258223
10.95315 24.592402 5.2048244
-12.077597 74.873581 10.91354
8.1252022 84.568977 16.251373
-8.4465141 79.577309 18.54203
2.8886852 79.264961 5.9078956
2.4010298 60.610626 23.893295
12.457232 102.99129 18.5674
-5.0510664 75.553146 19.767357
-11.199656 83.159088 31.783728
20.052347 52.212799 6.6518693
5.6217561 31.291721 5.203764
-16.540297 104.44874 22.514149
-15.268183 36.116901 18.093018
-20.67808 60.940929 24.043629
-18.717075 46.75922 23.425837
-18.78145 103.05555 18.321915
-7.3682108 122.47121 18.939716
16.04702 57.94651 23.04335
17.402668 101.60004 13.506627
4.8296432 60.963409 6.6484542
14.402092 103.22769 26.036713
-18.552931 72.956619 21.96711
-10.191515 56.588398 16.900555
9.9623566 58.656197 6.6165361
9.2987518 81.282585 5.9491272
16.860928 65.124725 26.187077
2.0083084 23.632309 5.2458005
18.668617 97.756424 22.247713
-22.316566 112.29353 17.630363
-1.5789175 92.758118 18.5674
8.1475382 50.00338 23.560349
13.215726 66.180389 5.6405063
-4.9378905 122.59403 19.014786
5.4585328 58.220119 5.4778342
21.141914 105.23457 14.010994
-17.788191 26.81156 18.86385
17.512274 117.8674 11.149404
10.904221 58.099899 5.4753776
-24.127352 63.576485 26.033369
-10.91593 72.531929 32.297585
1.0597099 67.224236 12.417308
16.720098 42.490997 6.8838997
-23.760132 49.604847 13.108511
-23.889887 56.512547 11.176059
-6.9520025 55.886055 5.4301367
-20.936916 30.887634 15.653284
-21.507401 103.17455 11.804239
-9.5597286 116.36005 7.6281309
5.7827759 107.07687 25.976389
2.2582378 60.92104 6.6478677
-20.250359 24.336485 6.4503365
11.9952 26.763607 10.705565
-8.4792147 85.431564 32.249496
-2.3329349 18.13209 17.92321
13.5446 108.73528 8.4933004
15.487667 65.673653 14.83477
2.2912774 48.730415 23.626701
-11.493574 32.965416 22.321913
-7.2938819 62.009136 11.905094
-10.41958 61.04509 29.85391
15.968021 76.844452 23.586628
7.9895973 60.613602 22.672962
0.49446177 47.339897 23.510075
18.263004 88.870003 23.406824
18.7938 36.300301 9.1731367
7.7180114 56.92765 6.5926232
18.448837 62.554886 25.74231
20.964819 60.2043 10.744101
20.823341 73.642929 9.3217897
20.953716 83.991364 17.26519
16.349337 59.818214 25.342613
-18.561531 97.922928 14.862902
20.602879 28.894331 14.33651
13.910809 66.327675 13.522194
-19.119932 87.856682 26.923311
0.95074987 91.487579 18.5674
-18.391968 84.873138 17.901083
-2.6107612 98.671188 6.3218393
-23.960588 39.149876 11.883862
6.12784 115.55698 7.0093222
0.85848427 90.163193 6.1306067
1.9369066 50.621735 24.821089
-3.068115 72.465813 12.29373
-4.2310681 59.096375 10.840178
-1.276145 89.794891 6.1230798
-23.607281 37.489952 17.810509
18.7938 103.36189 8.5202045
-9.0461121 16.753708 8.3184996
-7.5843859 83.880737 6.0022211
-12.590429 80.653152 21.203293
2.0005612 38.646481 5.2025995
15.077446 52.424873 16.092607
11.995201 40.049889 10.567455
6.2214785 32.810085 5.2035236
-3.0592551 113.63046 6.8003197
1.4773517 28.483711 5.2042084
-7.6548309 99.803116 6.347795
4.3800178 76.985733 33.311768
-15.425236 73.338005 11.359324
-18.088043 107.60173 16.949671
11.995199 31.457108 6.6019783
12.494166 88.431526 22.4536
18.468056 101.43449 22.386013
13.099084 57.574913 22.193634
-7.4848719 33.927643 22.671896
-7.6270394 17.019236 5.6931725
17.249018 37.034485 16.039171
12.323921 71.311783 6.7916136
-21.027515 89.519356 6.1174493
-19.790504 30.127869 11.30489
-18.128494 58.045059 12.425531
20.743767 110.34521 14.032898
-14.9796 28.110991 11.771963
-16.6399 100.24536 18.259529
15.251205 47.214417 23.582239
5.3129234 104.43409 6.4539862
-2.154408 45.980896 23.384947
7.4933109 80.828926 5.9398561
-21.507401 103.65436 6.8250999
-23.905668 90.843147 16.014481
1.9708724 47.030209 23.465708
-21.7782 100.30051 9.1629095
-20.465288 96.819183 7.2145262
2.3031368 103.16418 25.846514
14.841598 57.259075 7.0553808
-5.3473768 89.940651 31.228607
-10.440866 76.833588 33.13406
8.4493942 100.7572 6.3696728
-4.5891681 52.569046 8.262104
8.570055 56.65081 22.435303
-22.092358 26.417496 10.160522
-14.798434 16.783346 12.23772
19.669018 51.389507 5.8898377
-17.564123 75.240692 30.662251
-19.356972 94.494537 11.573633
-18.247063 49.936066 13.026133
-23.981506 55.615417 12.946359
-14.004562 77.534378 20.165373
1.1807922 66.964508 32.066311
-20.81488 92.156021 4.6124129
15.468607 94.613846 8.5911436
-19.28281 43.841381 23.002401
-5.0511866 53.867847 16.472496
-19.022112 85.0466 16.817091
-12.0754 107.65533 26.768002
-18.257103 59.574371 17.351055
-3.8858666 33.284523 5.2034483
2.5805709 105.81142 18.5674
-10.856551 28.994688 5.2041273
15.516171 39.888451 3.0658319
2.7272365 56.666397 28.181494
-23.008892 65.245369 20.952721
-16.528999 97.492889 14.45697
12.16555 77.409218 12.63708
-16.010971 77.812462 17.637407
-5.1304612 67.830894 5.6742349
11.035044 101.89162 18.567398
8.318718 50.497478 24.179298
16.880421 83.587631 15.089001
-19.882204 63.838898 23.65126
-23.03801 84.446472 20.548519
-24.091267 105.08705 2.543015
4.5990381 111.69635 25.50703
16.341362 104.82899 15.941858
13.5446 107.84721 14.504045
8.3172522 55.9119 22.372602
-9.3369675 115.84798 6.2478161
3.9509802 62.508408 5.5654674
-8.1201134 123.08331 16.895685
-0.32902324 121.23811 18.175751
-4.4616418 94.122665 18.5674
-5.8956714 17.390415 5.6671214
16.881069 29.160015 8.587079
16.543417 20.774893 9.3541212
-14.607491 77.083847 11.618538
-1.6281612 82.868965 32.236656
2.3060892 59.276184 29.462954
15.724837 68.672905 12.404075
3.9475598 122.66409 8.1547785
-18.473408 71.92202 17.61204
-0.30676126 39.815651 5.2024145
13.513744 42.946835 23.35169
16.524748 29.639997 5.8760476
-19.962763 95.517693 16.029591
8.5716991 70.910675 32.902309
-22.940912 62.680092 26.633198
8.3193197 62.72633 17.60696
-9.166481 66.500687 5.6470518
-6.1244974 86.827667 6.0624428
9.4514723 58.884644 19.720192
15.344758 62.599892 15.030958
-4.4179039 116.8652 24.805412
-23.770321 97.102547 19.251081
-20.654829 55.470535 23.973589
-21.74486 26.409788 10.10318
-13.017099 88.443649 18.39938
-21.507401 30.642345 8.4238005
0.022522926 65.236084 5.6212091
-14.684404 33.076958 22.052423
20.518438 51.663204 8.9479008
19.868843 70.592842 21.364906
7.6834688 38.100548 5.2026858
1.7187226 51.707451 10.370721
17.316835 102.69317 16.416321
-15.174097 74.298264 11.414948
-3.7312362 111.91876 25.631012
-8.9932413 99.976295 18.5674
-19.303337 79.611313 9.1346951
9.5285158 89.722931 6.1216092
20.30574 93.262657 13.127896
-16.740761 83.333359 5.9910355
15.734497 76.974426 14.909115
-23.542656 31.328129 19.004692
1.9504927 74.979942 12.226738
20.550688 84.848999 15.790882
-19.492767 33.165916 13.473414
-20.361761 95.785568 2.8801601
-0.81597924 65.819206 32.38448
1.7975324 121.98592 7.5852356
2.1852427 105.45052 18.5674
-0.2513957 93.207893 30.517353
-17.161228 77.188049 5.8654528
19.896351 78.193771 6.1912031
-19.402697 73.822266 6.8263435
13.5446 111.36772 6.9913855
-1.8189816 91.11261 18.552879
-17.131874 99.759689 20.655914
20.842659 49.939678 14.928228
-21.7782 101.1454 5.176446
-8.786356 118.1637 24.543549
-12.905622 40.932159 5.2022371
10.891685 73.850342 32.115246
4.2810001 38.458511 5.2026291
-11.82534 49.776505 23.547121
16.05311 91.37925 6.155457
12.806485 78.151489 5.8851414
15.539354 83.017807 22.681765
1.0494326 67.11422 12.322805
11.9952 35.928829 9.5823793
-21.40267 55.103451 22.868629
-6.6986613 72.656265 5.7728434
-12.793272 58.909271 19.799847
3.3385267 76.769394 33.352283
-4.6944056 117.42673 24.708275
-12.676366 70.47229 32.055527
-12.001815 46.858845 24.167925
3.1498232 55.596756 23.481579
-13.622737 94.169342 6.2186098
12.90774 71.663025 32.047188
-16.528999 108.25139 8.5167542
-11.646447 107.57792 26.359818
-20.989737 81.679893 24.185143
14.595058 31.993971 21.470831
-21.7782 105.38745 8.0819035
-23.963594 106.70392 12.125923
-13.719728 78.066925 14.654203
20.928335 37.506203 10.401655
-5.6012797 79.012711 5.9027405
-8.669878 51.393574 5.3383307
15.311825 60.670341 20.527451
-16.528999 93.683647 13.171359
-23.395893 109.9612 10.321966
10.789121 106.46036 6.5004497
-11.865287 83.741417 31.594137
-17.042473 73.774086 15.591567
-11.875734 99.913803 27.876892
-20.159254 22.640638 5.3070641
-4.3033495 14.0348 12.23916
1.5183613 56.891808 14.055202
-7.3510942 79.01442 7.8020859
-24.265713 67.672707 13.505027
18.85178 107.15977 9.1889725
-2.0975389 16.439264 5.7338729
16.320515 20.682259 8.5852985
-5.2921495 82.869125 32.82679
-14.382214 98.601089 28.02002
-10.816046 104.43081 18.5674
15.325831 112.55426 7.9044018
-13.516585 86.072189 31.66304
-2.4770536 76.552338 11.979382
20.520201 82.388588 10.494949
19.024151 37.738766 0.76800007
-19.20174 55.7785 16.370718
-11.718139 51.064922 23.54982
20.725231 33.368912 9.5517693
-7.4169593 62.248146 12.239899
-21.475082 39.685898 1.9754149
18.824324 76.389282 23.074129
5.6172876 60.374702 6.6403098
2.3987377 41.965668 23.893669
6.8851061 56.563385 24.861
23.455353 63.753891 24.791172
-12.386612 118.70352 6.0964975
-22.571953 78.093445 21.797085
9.7736473 113.73206 6.8186264
7.5320001 87.365509 21.766354
17.720961 71.588272 4.6461449
-24.020626 105.55653 3.0858772
-18.545883 98.267365 15.004933
-8.1265574 86.05217 31.297073
-24.178488 43.99984 14.051869
-14.357845 81.134048 5.9460907
16.694134 117.65821 7.8022251
20.620934 29.698526 14.948963
17.660723 39.661217 8.7021923
6.12784 116.95401 8.3149853
13.915078 103.10035 21.820513
-23.722836 47.618935 16.606361
-18.733501 96.882477 2.1963005
2.8435178 50.881004 13.567077
-8.619874 68.401451 32.122276
-9.2627153 80.827866 32.912254
20.536158 48.625652 9.5037289
16.830395 59.750015 23.436867
-2.0930049 56.573368 28.257061
-9.3379936 95.369324 29.569582
-23.814293 62.914471 19.040762
-16.082182 84.840126 31.59219
-11.249129 75.623047 33.100521
-16.261684 110.15125 24.901501
0.75809288 112.45894 6.6380005
8.7905693 119.66624 22.556236
6.6470485 72.817131 33.177319
-3.0930901 87.709648 18.357166
-22.026413 39.678345 8.5747051
2.9898198 71.986008 6.8009405
-23.268286 30.658455 0.95341945
-21.967276 92.253853 7.7142568
2.3737259 113.38864 5.367362
5.6826549 113.54443 6.7848215
-14.704304 102.73811 25.328356
15.147461 61.397957 11.048603
-21.507401 36.89217 11.203282
20.720514 37.741756 12.894612
-22.661617 42.585747 7.58918
-21.305782 107.16122 7.3317547
-18.486496 68.13176 20.853014
-17.301983 118.0373 7.5946636
7.412631 87.099419 20.848232
8.3123312 57.427467 25.013628
2.2679029 47.721722 24.342155
1.5377542 53.402481 9.8092089
21.098328 81.958252 14.907354
15.815183 87.766174 27.621582
-23.609079 104.23842 8.2497892
-11.202016 76.014351 5.8414679
-14.343456 63.265976 30.200014
18.943291 23.864647 4.7640443
-13.890294 81.27655 23.800922
17.050741 114.63759 6.981946
12.859793 89.231102 22.4536
15.374654 60.029469 6.6355343
-5.1851187 72.123009 9.4685383
20.7931 49.077194 16.190189
-7.0137959 90.300476 18.50617
14.288803 26.032345 19.761339
-9.3485565 74.773102 6.8394976
-2.3077545 77.682587 5.8755593
-15.617613 73.443268 5.7889266
15.950959 73.193733 23.41642
-14.084776 71.914986 32.719456
-19.161665 78.060783 23.90354
-8.4888792 100.68913 6.3681116
15.741282 85.334389 10.654274
-6.1903887 52.597961 23.594439
15.423273 66.319588 16.680784
-14.9796 39.266827 7.4190159
-11.553346 47.364567 23.330971
-1.5591401 14.034801 12.498613
-13.908236 36.922653 22.79217
15.588196 76.208641 22.11949
-23.924856 95.487411 15.544016
8.9013548 74.231567 10.809257
20.15414 52.313217 9.2416172
8.7292681 97.1297 18.5674
1.2572751 79.448242 9.8564234
14.510164 97.546646 26.238314
19.889935 70.693604 5.9551644
-24.224171 42.575603 15.675209
-24.349411 62.634315 23.789612
20.460211 40.821194 18.880875
18.490137 44.28717 7.4331756
-5.6525602 35.204262 5.2031441
5.8548856 86.121262 6.0480075
13.901512 42.990913 23.309027
12.978023 117.1338 22.37837
3.507782 35.553543 22.998631
-5.7248459 104.982 26.980169
0.19713974 55.624275 16.282429
18.78409 108.42265 3.1952722
7.726902 25.948687 20.752117
20.17812 73.898888 6.6138363
-18.811285 81.309135 9.6416645
9.2403984 24.369209 20.028986
-4.7470989 69.691574 12.468126
-2.9856298 17.339966 17.439236
-6.684566 68.9142 6.7584453
-20.508772 38.770058 5.2843642
7.9762359 74.576889 14.266468
11.995201 30.908106 13.103547
1.8823034 70.646042 6.7824039
-17.790525 56.688503 22.911964
-15.61467 57.014 17.373444
11.173637 98.723053 27.991219
-5.8335762 53.958271 6.5922098
7.0881281 109.88674 18.5674
18.094498 23.012571 14.853682
16.103426 37.922516 3.7397861
14.202577 51.588131 7.5213752
-14.331932 28.903223 5.2041421
21.212444 78.348984 15.312304
0.47749442 55.550663 23.316719
-23.231916 51.99728 16.811354
-1.2591248 100.92661 26.198826
-16.109459 102.69054 24.305996
7.6936641 69.053062 12.092226
14.674977 73.565552 6.8227921
14.49291 106.97587 25.079182
20.085936 84.732697 20.518847
-14.979599 29.80493 5.3299541
9.0939341 53.716343 23.54397
-15.099889 20.5091 15.78462
1.0046849 93.876434 30.334684
-11.435455 77.602715 5.8739266
-7.4476299 92.960266 30.384115
-7.1362886 21.661022 19.47113
11.546454 21.87919 18.12145
-19.348045 96.929085 1.8097889
-23.986794 103.79448 13.992856
-24.17905 60.043167 15.888967
-4.5227976 51.991737 25.664787
14.275089 62.678802 29.204369
-16.666199 67.337685 13.319374
-16.528999 97.189072 7.5098457
0.2538341 102.93604 27.746555
12.107145 85.374268 6.0327425
-8.2042036 16.287802 10.17967
-3.6684809 109.01418 25.587795
-23.884481 40.128437 6.6634102
-3.2290797 115.03447 5.5460143
-1.2031176 72.69294 32.647999
-11.104467 106.65656 6.5049486
3.6316013 92.496445 18.5674
2.2540934 54.14389 26.869541
-8.4140186 51.434029 7.7290831
20.963146 69.42141 9.9996109
-20.513166 109.93262 6.0330195
0.68861473 91.250961 21.903431
-14.004561 91.300972 20.685141
-16.258318 83.061661 14.465993
-18.37985 63.432983 20.598604
-14.817775 119.77496 21.018946
-9.9724808 52.627022 25.637329
18.174942 99.568314 16.124496
-22.268454 92.39502 9.0502129
17.370911 111.97897 10.595854
-18.484566 31.549702 1.3683977
1.9651124 72.446106 32.585064
-10.395938 77.471756 19.993893
17.251919 96.97345 23.898775
9.076251 31.765659 22.029974
15.594838 70.339676 15.421974
-8.6013498 23.803078 20.203457
20.696592 34.927521 12.649879
-24.188587 100.48309 18.698103
-7.2593193 123.43528 15.658539
-3.3252392 57.684975 18.118969
-2.2016785 36.676086 23.248241
19.482924 94.317932 21.026596
16.383869 85.306465 27.067554
15.583858 56.287453 25.582218
-3.9472821 64.358276 29.499493
-12.937317 111.89764 6.6251297
-15.529935 76.68869 11.411655
-9.9076633 73.211975 10.780447
21.04142 73.13295 10.863817
13.871475 25.723972 12.943691
16.516434 95.475311 3.2817369
11.403549 99.598953 20.19268
-9.5089817 24.17857 5.2090473
6.1109915 120.45422 8.0292807
0.23177385 85.27523 17.087902
-4.3907385 78.092934 8.6745129
4.6428237 28.277967 21.533295
15.525085 74.00531 20.559652
10.990566 106.0338 25.969597
13.132854 82.33503 13.605333
19.766876 63.263893 5.7199574
6.928175 65.681877 31.654095
-23.779783 30.196615 1.2957847
17.402393 97.206932 1.5951254
6.2529707 119.53186 7.8635411
21.001844 83.649078 16.63728
15.565901 112.45887 8.4660397
15.471923 58.206337 21.689686
14.677208 65.508919 30.352177
-17.869785 27.422499 15.484377
21.300301 70.787163 16.651657
6.12784 114.53351 7.2989907
-14.225222 66.067055 5.6381903
11.773033 95.302742 6.2445989
2.9507036 112.63789 6.0658255
-16.133156 64.01368 6.6906514
-12.251203 77.336182 32.962963
7.0360665 57.17384 17.551044
20.46627 83.358635 8.3862305
-19.88868 61.704624 4.5567474
12.976701 85.797173 6.0413842
11.37076 39.863976 23.152575
14.451662 24.69445 17.422684
-5.659554 101.26917 6.3814125
12.1724 76.704453 20.863052
-18.240408 107.54874 16.993528
20.117649 43.181934 18.847504
-15.044945 86.846207 31.138041
-14.557761 122.80199 9.3310242
1.2391361 15.538243 9.0432081
3.2744763 105.17049 26.893005
0.39184877 115.83358 25.003651
-17.644335 24.072784 5.2155924
-1.1869519 43.238094 24.077965
-15.794611 103.7648 26.496744
3.9876604 95.73497 6.2545109
2.230494 70.479454 32.458965
-12.592351 122.21404 17.971561
11.806322 90.742676 30.268288
-19.112864 50.397949 23.148611
-0.20276743 14.650587 13.778725
-2.4703159 15.003622 5.7073808
-15.240123 28.707462 21.005831
7.2079682 92.292679 18.5674
5.3433809 112.70417 25.299215
-8.5520639 97.118729 29.152779
15.696878 73.246101 14.451415
20.342003 78.010628 7.3828464
-15.87604 122.63614 11.105652
21.070713 100.79674 19.391441
-4.8720493 54.407459 5.3999205
-23.34627 93.251183 13.109905
-16.963026 65.880104 5.6343694
18.7938 102.56992 6.952302
11.983706 72.974854 11.353706
-14.827988 119.49309 21.37859
18.893223 44.617439 7.7568812
-15.526427 73.236824 15.838264
-10.438541 41.289253 5.2021809
14.985491 52.378639 14.455074
-11.945055 17.750616 9.9694996
10.541067 36.638374 22.765095
-9.4408302 112.9279 25.182037
9.2255497 73.296013 6.8190632
-19.238522 58.767235 26.501148
16.984133 94.78109 4.2572894
-11.453228 49.693752 12.887422
-17.473896 44.618073 7.7471771
4.735424 64.569397 12.894968
-18.9366 28.863205 10.147558
-5.2640028 74.226074 10.633018
-1.5421084 15.456626 11.174938
21.201546 92.518234 13.064379
-21.878075 61.369522 4.9481707
-17.376488 52.557014 5.3621058
15.31662 86.782822 18.276003
4.1201496 46.513496 5.2386036
2.3107376 79.456909 23.79784
-19.910719 48.432201 4.4558191
0.67676067 83.861145 15.412964
13.944118 74.764069 15.450586
11.42004 122.96742 10.219896
-4.3632913 61.293919 9.0151424
-3.8271763 87.217346 32.046749
16.195457 99.769722 13.432203
-18.45038 74.919846 6.8415275
-18.732533 28.368107 3.1415353
-23.479473 102.33923 18.408352
19.432831 84.802048 6.0210485
-6.8300686 16.67981 9.8280735
14.013454 100.03629 18.236916
-23.885353 90.038445 12.017224
-24.121782 44.189983 14.811234
-14.34911 112.00891 24.883438
-23.846256 102.21168 6.1139193
7.0391378 52.802357 23.565912
13.703083 76.022522 17.135641
-10.393713 115.95908 24.647133
21.276869 95.281082 16.303175
16.281559 41.52523 15.553526
13.991166 99.820381 18.757238
-15.891527 88.384987 30.850321
-4.177753 68.458511 10.474197
-1.4465251 91.095207 22.161518
14.377464 99.44178 23.123959
20.142246 29.237778 9.7523165
5.9917154 107.88458 18.5674
-5.8080621 72.740211 5.774559
-14.642982 60.421764 6.6409607
18.7938 32.108429 6.013135
20.767326 34.112194 10.450037
-11.383743 68.046753 6.7464452
-19.585226 104.22945 18.184963
-9.4941654 109.09476 6.5608578
12.241348 109.31039 21.586494
-9.3626575 115.67848 7.1693134
3.5744634 18.833122 18.097996
15.149251 55.739872 20.984844
13.945196 41.292027 23.076139
-6.6015625 73.946678 13.652012
7.5923557 81.206566 23.174343
20.700438 60.830143 8.5875282
21.117373 33.510094 15.773458
-15.701119 89.390564 18.453838
2.2280879 74.778465 10.614285
-16.341362 17.552917 8.1135025
-22.076611 95.453934 21.637033
5.7654424 112.60608 23.659599
14.983294 97.155533 25.710499
-16.528999 98.660347 16.088352
-21.245541 102.20135 0.027578978
21.040157 39.938007 18.277313
-19.62254 89.354866 18.854322
20.821743 34.018974 11.642857
8.1551542 15.557258 12.475449
-6.7616267 40.665211 5.20228
11.156708 69.273933 31.761921
-1.8465686 37.302727 5.2028122
-19.155756 35.525101 21.882513
13.254421 66.544502 31.120869
20.514595 61.619041 19.699207
-15.925608 25.23855 19.718033
-8.2938738 105.31255 6.4741292
-8.4415474 100.9414 18.5674
10.788059 67.290169 5.6631851
18.7938 102.88021 11.63859
-7.4187145 22.945911 19.978458
-15.219834 79.576477 5.9142618
-6.4168897 122.05606 18.37496
6.2095342 18.53647 5.5886574
16.340317 64.355774 27.359585
7.8916903 104.10538 18.567398
2.2775455 112.40703 23.185932
-23.775246 26.309185 7.7024221
-2.5581825 87.464638 32.004932
-16.554045 61.495613 6.6558166
19.832905 94.577271 4.7403183
6.8183651 110.10559 6.5840368
16.541456 60.431465 6.6410952
-23.112568 64.951447 20.738377
18.014872 114.4399 6.7196255
18.028181 40.857143 13.316465
12.689944 107.84222 6.5321364
-4.2549829 63.566338 5.5870867
-13.281525 74.540047 13.089607
-2.4962907 73.80571 12.190659
15.101786 53.884605 16.07021
-24.004597 30.457588 3.4400387
20.817207 49.549149 14.875257
15.039088 119.46708 7.6412992
14.566274 18.233288 8.7602606
-2.4405825 49.832073 23.630552
-11.170267 74.873512 14.992734
-4.5283337 112.93584 6.6751699
5.4533668 93.621056 18.567402
-23.842823 93.985435 9.0878277
-8.4521627 80.936928 11.949321
20.842739 54.55378 17.96612
11.397257 103.65711 6.4361691
-19.60626 97.399055 1.4466896
-16.065891 58.063873 6.6083417
-11.132539 71.457642 32.994511
8.811306 57.333481 27.921394
-18.517178 76.043839 20.554548
-10.38835 72.621033 10.717306
-6.4737897 104.28465 24.631184
-18.464882 80.773346 28.877789
2.08565 89.652184 22.4536
-19.526241 100.4361 24.258282
-15.906402 74.076408 9.8986988
-14.593389 80.877388 5.9408464
-11.45046 54.496193 15.636641
-24.016359 70.72213 10.535597
15.474903 103.88137 1.8210502
-4.821269 83.574921 5.9959717
-7.8875842 101.84309 25.90114
-13.173915 69.837227 31.984035
-23.611214 100.72179 8.5434399
-22.092106 23.830853 4.9888239
12.579327 41.749168 15.377469
-9.5191803 69.754448 6.7700691
19.714571 68.394447 7.4153514
-17.081457 100.93304 21.48229
3.7068841 107.15536 18.5674
-17.193039 98.656265 20.045551
-10.660475 79.72345 9.3850527
17.324589 84.673645 4.6107893
-21.7782 99.50882 6.0519371
-2.6550722 102.52327 24.792465
8.1092777 59.679768 21.980806
1.83487 57.882103 28.814272
-16.528999 93.156654 10.719334
16.936899 33.236465 0.1569096
2.9834251 59.970314 5.5136003
-8.5461826 68.359756 32.12529
-7.0515995 36.6908 5.2029085
17.007442 59.197964 4.5612612
7.6122971 22.638409 5.3126717
-8.939065 57.67387 18.106634
-3.1869335 47.796989 5.2648325
7.7444773 58.368031 28.574406
-17.785652 51.011559 8.2984877
-7.8636122 91.817291 30.640137
-21.688303 103.78227 11.071893
-20.857656 79.111069 5.9047503
-16.933102 63.398438 29.643473
19.91013 27.089464 4.5597439
-14.938322 28.44199 20.977375
-0.69053644 76.42627 33.432495
13.321194 27.545601 20.0912
-16.528999 97.229561 16.321501
-1.6100773 14.2253 13.688642
-19.174461 78.70134 23.942875
9.8013849 100.01624 27.687382
-3.9055178 91.314575 20.949471
13.5446 95.291679 10.937384
0.19628343 49.397915 23.632101
-14.979601 31.96586 13.229885
-8.1006393 98.033478 6.3072166
-7.6358862 53.190445 23.580973
20.582706 101.40784 11.246798
-16.528999 98.248062 16.888763
18.736053 27.748211 13.017157
0.95433426 81.688438 5.9574203
-15.88557 89.459763 30.562939
17.248711 106.45634 5.4430008
-7.8693924 16.832458 9.7142668
14.933525 59.056938 9.8136377
20.900047 52.257175 16.087952
-23.89275 81.085426 11.181622
19.625811 29.31789 1.8462476
20.969461 96.441666 6.0692387
-18.009836 45.825832 5.2245512
-15.831684 107.73433 25.478588
15.562497 83.859474 16.764999
2.1027017 61.615967 30.525381
-18.548903 68.682785 15.867665
9.717185 55.734146 23.286539
19.1203 93.884377 21.569195
8.9042931 78.773285 5.8978477
-24.115055 58.842339 16.690456
1.3437059 74.275642 14.982906
-18.301613 28.8675 20.553518
-14.101151 56.107792 5.4346681
6.2586951 101.97375 24.611851
-4.2910347 16.53299 7.6292009
-14.160232 77.42012 20.426851
-23.466064 111.72474 11.905867
4.0955667 98.468422 6.3171897
3.184577 58.859718 19.644108
-18.080677 82.671265 14.003588
-23.00054 80.146744 8.706336
15.38388 84.996254 21.123091
4.1225371 76.964638 33.326263
19.377537 62.931828 25.517273
7.3413239 103.44317 6.4312639
11.9952 30.624226 16.146749
11.016744 94.277748 18.5674
-3.3386762 57.625843 28.748917
-23.291218 37.337074 12.872028
-9.6468353 52.11813 23.575741
17.435547 106.81584 14.87014
13.5446 106.02919 16.353191
-19.824293 56.903591 25.413746
6.7916226 54.754745 15.409449
7.6525421 49.498974 12.775915
-24.20583 43.401016 15.083143
5.1434231 84.546432 16.224661
12.806183 104.66359 20.048004
13.5446 97.223404 6.9460874
-8.8969154 38.452137 23.3354
-4.8681436 94.537865 6.2270598
15.525841 88.860146 27.99485
4.0758052 69.323715 33.00721
8.192131 105.57576 26.22744
-3.9191663 113.51053 5.3757524
-11.74012 116.75327 6.2278128
11.995199 36.970398 11.687948
-22.392727 32.441322 0.26375392
-11.273915 75.316284 33.101669
-24.01194 41.625938 17.577271
-4.629158 53.981125 11.779722
-18.320541 60.687233 19.21714
-3.6617684 112.01577 7.7766199
-23.790018 35.40448 19.355667
-14.9796 29.922756 13.244324
21.072592 96.652885 13.862096
-24.111977 103.37991 19.218369
-10.745123 79.324371 28.229561
-23.644768 59.242207 8.4836082
20.382566 32.008797 0.38356996
19.991705 29.749866 9.961751
14.637653 21.880539 15.799225
-19.997597 63.84774 4.5665722
16.255316 30.66552 20.826666
-20.294361 75.277916 24.547203
-8.5489941 53.594215 15.120293
-11.911663 71.637238 5.7520194
21.055286 106.26612 10.550752
-19.951878 72.307404 4.5774431
-22.599649 90.117294 5.5759668
16.233355 112.3895 8.8724976
-10.769081 67.030807 32.31942
-2.9266977 30.893009 5.2038269
10.836802 67.43586 32.037468
1.5024447 57.797356 14.714358
12.045126 80.68821 23.782379
-15.025417 48.807373 23.304905
-20.742329 66.951988 24.214893
22.634661 62.762383 25.867239
5.6450009 69.259193 32.266212
-14.938221 109.68141 20.879364
20.97242 49.027981 15.148545
-15.539879 27.724613 15.760664
-14.159527 78.476196 15.757789
10.293909 24.559002 19.967918
13.018773 76.014236 12.035244
5.1458721 54.579174 5.40343
3.7251065 73.371147 6.8201027
-24.232464 75.850052 14.488335
-14.139006 89.83075 30.474636
20.00728 24.030407 6.325202
-6.9874773 76.022949 6.8567872
-24.191477 62.429455 13.175716
5.9803505 66.793251 31.842182
20.2682 43.979298 10.415921
10.028105 44.737804 5.2023163
-14.9796 35.221672 7.5319653
-8.3068762 42.932304 23.890919
-2.9756923 120.89426 22.210428
-5.2896843 117.82681 7.5563788
-8.4446211 73.325775 33.266251
-24.292223 70.412453 14.323648
-4.4881344 67.940857 7.8399076
9.6544571 54.509407 19.946808
8.3566322 69.33551 6.7642736
19.695162 23.436031 12.452873
20.691616 24.547489 12.418489
15.561148 36.286045 2.0872948
10.685696 85.487556 17.339399
11.900935 70.583511 6.781539
-3.2355258 80.859055 33.120438
7.1358328 118.62009 24.065222
-3.2363033 92.094757 18.5674
16.730886 90.23243 24.808226
-21.719296 41.711548 4.4753513
-17.752331 24.716858 16.068642
14.934927 84.607773 29.675652
5.983778 84.988403 31.483822
-16.72044 56.021317 16.50972
11.264086 79.765457 25.396276
2.1245189 71.036934 32.495716
2.5445795 39.100876 5.2025275
9.1958809 50.228642 23.873899
-4.7231388 25.58717 5.2046671
-2.5690646 59.488625 20.375202
14.666205 77.800537 6.8813791
-12.145235 97.243225 6.2890954
-7.8357182 86.191048 32.130207
-20.514393 53.160908 4.6024237
20.303116 52.129398 17.928843
-14.791983 86.743179 19.892878
-16.528999 93.353691 6.2347231
-12.653048 88.200142 22.4536
1.1533706 72.237633 32.585495
-16.878136 74.083801 31.667566
19.245558 42.465416 6.6935225
8.7423573 117.49725 6.38799
-23.719364 108.61836 3.5423727
-4.8616133 55.127346 15.278955
18.242704 34.348759 13.548651
-11.944203 69.920929 32.755009
13.973567 87.03437 30.719042
-3.1564679 100.77475 6.3700752
-11.483426 79.371964 8.6003227
20.667356 36.58979 7.4494925
6.903738 77.584267 5.8735495
-2.4833107 63.088921 5.5773306
-15.35816 66.799561 6.7291913
-10.2846 16.488821 7.2003565
19.260103 101.45925 18.396952
17.217438 98.596428 23.723999
-13.633759 66.822678 6.7295113
-17.207602 48.279087 5.2746844
3.1731081 98.954597 6.3283381
14.659371 83.272827 30.243422
-19.511364 62.666447 23.506512
-17.959045 50.912937 14.723578
-23.513433 52.052025 13.912285
-17.139559 102.47805 26.356552
2.2150717 68.727798 12.821384
16.61055 26.311302 7.1396213
-8.7998371 30.41386 5.2039027
0.32360935 103.24501 18.5674
19.42695 78.922943 5.4850531
-12.493412 19.841333 5.5008636
20.508465 111.94872 12.25696
2.2640817 65.167778 6.7066174
2.5007563 53.917358 20.253269
13.5446 94.433487 11.388559
-8.4380493 114.42668 6.9437752
18.32066 22.135624 10.221064
10.583372 104.13004 21.160368
9.4092274 75.238762 5.8256178
3.9238484 16.826 5.2593846
-23.806808 31.424267 13.278967
3.6111999 22.889204 5.2957983
-14.979599 31.451435 8.0704241
-17.554514 93.468674 18.965809
5.5109029 32.543907 5.2035656
-16.89325 63.759254 13.440733
-18.81064 67.343826 6.653141
-11.422724 43.006638 23.77853
-6.5775471 63.410416 31.208435
-14.958415 122.77621 13.246938
8.4072695 77.362946 33.03598
-13.91551 46.338501 23.121943
21.108429 95.414497 4.3519545
15.458241 81.629028 18.486736
3.0480194 57.856117 21.921745
-3.3743374 23.09901 20.216408
-14.244122 56.555641 22.995676
11.9952 27.917732 14.290307
1.4454738 60.097557 8.6666069
-21.507401 36.082764 9.3325024
21.036062 60.920219 11.406164
10.540205 121.05229 6.6601324
-12.951162 50.424065 9.5217075
-14.698225 121.98627 15.070272
-21.34428 50.102333 4.8005352
-16.016182 78.409821 32.442444
15.135088 82.542847 5.9748812
-18.905054 78.842903 12.909487
-8.4729996 117.21632 24.595102
19.109156 64.922638 5.6148033
-22.969652 44.601501 8.2234488
0.20942211 79.501335 33.253124
15.354493 62.036522 18.812649
-2.1813633 81.764748 33.015038
17.190756 110.53255 21.565096
10.486614 74.811157 6.840024
-23.822699 31.474131 13.32895
-6.055367 57.147217 17.521463
15.589004 85.273972 16.216238
6.5979896 55.159645 16.016443
-14.369127 73.259544 32.751751
14.903296 91.836441 8.0040779
-3.9274225 39.961884 23.690699
-19.917334 101.07966 16.390614
17.781879 113.74696 6.2485733
-5.8025742 116.19783 5.8046403
-14.018724 16.580299 13.265453
-18.762178 97.890816 3.8150694
-17.832943 98.007812 25.641218
18.319342 75.148109 4.7818599
-10.745462 84.662025 16.361578
3.5213013 57.719498 28.6455
-24.156576 40.38015 12.600986
-20.403688 27.192997 12.195604
-15.547615 108.562 18.908941
-12.476009 18.281851 16.890167
18.028484 26.629333 10.859818
-20.306412 91.536842 6.1586771
-13.959807 67.459442 12.353827
-9.6173077 97.058998 29.053373
-22.312231 111.54536 11.863746
-4.4915652 55.659004 23.821064
-18.179718 90.320679 23.241596
-21.465145 30.168411 11.357365
15.263414 88.102615 21.052528
-14.534268 85.755455 17.656713
-14.904879 75.329453 6.8471937
-11.461241 101.77393 6.3929873
2.3042674 116.98221 7.4042053
-15.693546 26.820398 20.405262
14.850305 113.11118 6.7067614
-14.676365 98.749741 28.244122
18.776054 60.618332 25.67959
11.518245 40.144993 5.202363
-12.048625 121.02829 20.62867
-1.082608 76.839378 32.706902
-13.465763 59.637787 28.740374
15.474685 108.47847 6.585494
7.7559509 73.778488 5.7957773
2.9718018 71.35643 5.7462807
2.6846867 78.350067 6.8889813
-22.3311 111.17387 12.938131
-21.582426 113.36028 6.6112938
-6.9912682 52.059303 25.583178
12.612448 97.007347 28.51082
-18.645138 98.17421 3.4334269
5.4283838 78.611359 16.122232
-2.7313523 99.286484 28.867729
-2.1835599 106.32803 26.625887
5.4245977 75.880859 32.605289
-11.195498 112.31837 25.1523
13.5446 99.00145 8.6197453
-23.532362 106.45886 10.1819
16.246214 87.860916 26.679766
-1.1543981 48.430862 23.620983
-21.751764 31.209213 10.518531
21.115278 38.5191 3.2130609
-17.228489 104.42908 20.161499
-13.732984 110.94101 23.144337
-4.6473422 73.697906 12.826998
-18.541567 69.013741 16.038603
7.7045751 86.032707 6.0461974
-4.4519119 107.88751 6.5331745
-17.683529 93.368408 20.519169
17.285952 84.942535 24.757584
16.276531 56.369595 23.032328
-1.9915724 14.635329 13.784964
-11.646681 54.458031 6.5584583
-19.556477 33.069176 13.401329
-20.922209 107.41306 17.090288
-22.301247 34.90844 20.225773
8.1876373 115.66933 6.4181423
2.1230102 92.935959 18.5674
16.022621 86.920052 27.686819
-1.0854659 104.42336 18.5674
12.919556 122.59539 12.267756
-20.46147 92.43454 9.2876396
19.30299 22.985586 11.694768
7.406146 53.425362 26.040758
-2.5490038 105.66515 26.868158
-16.968239 81.031631 31.576168
-13.918873 93.174889 6.1958065
-11.811441 101.27507 6.3815479
-15.22964 121.77098 15.440476
-15.717596 17.326921 13.088959
7.7282906 73.470802 33.133377
-3.2406199 103.78264 24.586349
11.438215 92.356781 29.706087
-21.188129 94.472717 11.521919
-8.6043072 96.054436 6.2618361
11.000716 79.199699 24.168741
-20.946339 27.500069 15.555433
5.5161352 49.394073 23.599663
2.4488492 111.20018 18.5674
-11.971114 66.515617 31.536987
2.6220398 72.405724 6.8067474
16.632399 106.90227 6.3865271
-3.8507423 54.667763 5.4052401
3.6395154 113.60147 6.7950964
20.82078 45.395134 16.478735
8.340745 123.45301 10.202024
2.9081066 62.114132 18.98671
-21.291433 57.220818 4.7622395
13.168865 122.53748 10.245525
12.060928 99.206581 27.127579
-17.252789 23.211739 15.889046
-1.2670566 16.815035 5.7075024
-17.260183 19.973063 15.769541
-22.865698 109.3465 18.988321
-18.33507 51.115868 23.274391
13.974179 56.615181 26.394789
12.901953 76.995949 13.818321
-2.5861387 111.36176 6.6128416
7.4882641 119.84581 22.689301
-1.7382629 78.703506 7.1079545
-14.64642 16.923397 6.408803
-23.809484 108.32272 16.009008
-0.7164858 15.961083 5.3560705
4.9008288 56.072098 5.433938
-3.0604227 85.582169 31.580288
-8.7827225 59.832405 6.6328077
-3.9441733 57.882465 21.906712
-11.971363 116.78812 7.6901402
18.273617 61.348984 25.820282
-10.553618 104.46281 18.5674
-21.107269 100.34561 18.278666
-9.570425 50.817024 24.609905
-3.2852335 103.69158 18.567398
-5.5790033 99.567307 18.5674
3.852658 55.883125 6.5781732
17.538155 103.38834 3.1409688
2.1540036 78.961472 22.86017
-6.7508254 25.757841 20.900688
15.871641 81.861618 13.1454
-13.223423 61.645203 6.6578856
-21.7782 35.847797 5.306325
-12.045 120.63977 5.6131363
-15.081011 86.771812 31.305077
17.176493 92.107155 10.032936
0.66007203 60.22604 29.98012
20.596548 48.647949 17.916023
10.21651 98.860306 6.3261762
17.298578 25.527849 12.554523
2.2492993 68.867218 32.337185
11.543949 26.265446 20.391985
19.844378 101.57208 13.525949
19.621029 110.9545 13.256544
6.2127094 63.609406 12.955457
16.395271 82.200775 26.950237
13.516442 71.938889 6.8002892
15.634178 83.296753 14.744463
-14.102315 39.215286 5.2025094
-16.528999 110.22345 10.68266
-14.652205 87.245872 21.332674
20.980869 28.519361 10.019172
10.698674 58.366699 6.6125312
14.915287 93.947174 28.14983
-18.31407 48.150425 23.665876
-8.9339218 109.81642 18.5674
20.12888 33.250183 13.48931
-21.452723 115.98996 13.155118
-8.4624977 21.17767 19.130629
0.2180748 26.176029 5.2045736
5.1303253 73.955307 32.573681
8.5700493 81.001068 12.025307
-1.1238899 49.702721 12.892551
3.8807077 62.059044 17.252712
1.9851716 15.493993 10.033341
-6.2272968 76.797523 6.8675036
-18.415432 31.933327 1.4719729
-5.4871974 15.926203 7.32727
15.825489 81.709335 11.893758
20.635677 35.372139 18.173843
-21.252291 72.734848 23.850754
-10.214217 80.857674 32.067532
-23.659063 46.789425 9.6959686
-7.6744566 58.474472 5.4830322
1.0982915 71.757736 11.608856
-10.508331 66.651581 31.701014
