# .PCD v0.7 - Point Cloud Data file format
VERSION 0.7
FIELDS x y z
SIZE 4 4 4
TYPE F F F
COUNT 1 1 1
WIDTH 1425
HEIGHT 1
VIEWPOINT 0 0 0 1 0 0 0
POINTS 1425
DATA ascii
10.456072 4.0789609 -0.0012597186
10.444255 4.0805445 -0.0014705809
10.451087 4.0843658 -0.0031158105
10.4669 4.0897145 -0.0024004041
10.444841 4.0999789 -0.0032982323
10.45042 4.0933213 -0.0044548349
10.608629 4.0939693 -0.0042368337
10.4471 4.1055331 -0.0016871517
10.591364 4.1058812 -0.0003854286
10.605364 4.1033854 -0.0030895495
10.457588 4.317131 -0.00072735187
10.460394 4.318388 -0.00095754187
10.595701 4.3192172 -0.00078663055
10.442818 4.3209085 -0.0013255628
10.450794 4.3266735 -0.0040078787
10.602102 4.3260469 -0.0038196314
10.445957 4.3363085 -0.0040044757
10.456118 4.3348846 -0.0043543624
10.460205 4.3317876 -0.0043525957
10.606035 4.3325753 -0.0050241272
10.616759 4.3393078 -0.0030933057
10.444256 4.3467598 -0.0010957756
10.443922 4.0689788 0.0069674635
10.609168 4.0667315 0.0091165351
10.443812 4.0746331 0.0020339733
10.456781 4.0722518 0.0062249741
10.465621 4.0764232 0.0061512887
10.589984 4.0707984 0.0071647489
10.60037 4.0758686 0.006947482
10.443609 4.0868087 0.0018099037
10.453924 4.0875568 0.0016178444
10.468076 4.0840211 0.0030750271
10.604954 4.084919 0.0042702658
10.612924 4.080934 0.0085217319
10.439517 4.0965571 0.00072627579
10.448989 4.0952106 0.0049801911
10.457046 4.0979609 0.0053421641
10.593201 4.0954518 0.0050377883
10.607299 4.0931392 0.00089055399
10.61467 4.0990691 0.0046362411
10.446919 4.1056442 0.006249229
10.454967 4.1077814 0.0097753648
10.461433 4.1058426 0.0082879867
10.592318 4.1072059 0.0043007191
10.612608 4.1073923 0.0072535137
10.4397 4.1106777 0.0076142396
10.4405 4.1177578 0.009277219
10.454733 4.117919 0.006278011
10.460936 4.1198263 0.0089885527
10.589698 4.1100812 0.0033279292
10.591641 4.1101656 0.001152518
10.617559 4.1108279 0.0058640065
10.448269 4.3083744 0.0069432575
10.602852 4.3057594 0.009204369
10.43969 4.3156376 0.0078460723
10.44142 4.3108473 0.005968065
10.450924 4.3127165 0.0021809475
10.595835 4.3176022 0.0061394228
10.607119 4.3103838 0.0044709467
10.618083 4.3152857 0.0083772978
10.439845 4.3257465 0.0048058974
10.443707 4.3267555 0.0097081224
10.466188 4.3209343 0.003884647
10.59168 4.324842 0.0049665677
10.602894 4.3203182 0.0084526977
10.615996 4.3279572 0.0076139313
10.439536 4.3329282 0.00021037726
10.44141 4.337513 0.0094114114
10.462637 4.3357887 0.0031344129
10.596689 4.3328557 0.0035644632
10.617468 4.3375945 0.0053344858
10.444088 4.3444858 0.0067322217
10.465002 4.3458948 0.0040531387
10.594645 4.3454795 0.0036067385
10.612897 4.3494892 0.0068393736
10.620487 4.3459921 0.0055181738
10.45463 4.353446 0.0023489532
10.593227 4.3525863 0.0080479058
10.606057 4.3520527 0.0048892135
10.615288 4.3548136 0.0054538725
10.620483 4.3514352 0.0087703867
10.455323 4.3605299 0.0094330851
10.503481 4.0190783 0.018500887
10.511248 4.0173969 0.016275099
10.527405 4.0165138 0.012852732
10.484035 4.0242329 0.01704482
10.537827 4.0237288 0.012704403
10.541845 4.0286207 0.012700243
10.558177 4.0218134 0.016916895
10.48259 4.0360522 0.012688358
10.492924 4.0316038 0.012689948
10.539466 4.0327086 0.012714848
10.555178 4.0364556 0.012727387
10.572733 4.0335503 0.016321357
10.581198 4.0341415 0.012666426
10.591105 4.0319357 0.019322405
10.444949 4.0469937 0.013536694
10.461146 4.0405269 0.012670667
10.494798 4.0494499 0.012773994
10.533074 4.0452805 0.012759264
10.544308 4.0420508 0.012747853
10.568267 4.0446339 0.012754985
10.577784 4.041338 0.012716198
10.604947 4.0494895 0.012686753
10.455823 4.0571909 0.012651079
10.477563 4.0574594 0.012801158
10.48502 4.0593448 0.012808952
10.514273 4.051815 0.012782348
10.527802 4.0594139 0.012809195
10.550941 4.0543542 0.01279132
10.584908 4.0556345 0.012782582
10.611308 4.0574088 0.012569928
10.439701 4.0680981 0.017373087
10.442962 4.0616689 0.014513463
10.453413 4.0604115 0.019523023
10.462698 4.0642705 0.013058871
10.483543 4.0685134 0.012796536
10.529322 4.0673723 0.012799986
10.531137 4.06002 0.012811336
10.551332 4.0668697 0.012801507
10.5849 4.0672321 0.016863775
10.596237 4.0611372 0.014623107
10.605379 4.0607553 0.017214958
10.612468 4.0643296 0.015612639
10.44225 4.0720758 0.017192647
10.454187 4.072155 0.0104902
10.482067 4.0796237 0.012762938
10.509418 4.0704508 0.012790676
10.555135 4.0722866 0.012785124
10.5748 4.0744019 0.01277873
10.5991 4.0739322 0.014167853
10.442196 4.0836701 0.016177149
10.476664 4.0806818 0.01275974
10.494793 4.0872774 0.012739795
10.532016 4.0804148 0.012760547
10.548876 4.0875435 0.01273899
10.568974 4.084002 0.012749698
10.613647 4.0851173 0.018997524
10.443399 4.0900955 0.012781982
10.499184 4.0930696 0.012722278
10.555071 4.093123 0.012722116
10.443136 4.1025629 0.013785811
10.510792 4.1060486 0.012683031
10.568595 4.1093626 0.012673009
10.5849 4.106524 0.019255713
10.613772 4.1010613 0.018083254
10.442635 4.1157146 0.016860578
10.454251 4.1115189 0.013160771
10.481757 4.1123514 0.012663973
10.491657 4.1188869 0.012644207
10.511829 4.115046 0.012655823
10.533023 4.1123381 0.012664011
10.569624 4.1159439 0.012653108
10.5849 4.1155748 0.015340927
10.603424 4.1120663 0.014133813
10.610089 4.116209 0.013269967
10.447239 4.1298857 0.015482148
10.483639 4.1249151 0.012635212
10.545444 4.1259251 0.015878916
10.568326 4.1224647 0.012633389
10.572859 4.124639 0.012633583
10.594913 4.1239529 0.016322158
10.614849 4.1210732 0.012154704
10.448813 4.1397657 0.0127012
10.454795 4.1315598 0.01269678
10.467528 4.1302061 0.012657214
10.479099 4.1317196 0.012638934
10.48558 4.1399536 0.012649117
10.495533 4.131824 0.012639062
10.51708 4.1389122 0.019225311
10.521997 4.138731 0.012647605
10.538315 4.1346316 0.012642535
10.5663 4.1318808 0.012639132
10.448771 4.1409945 0.016585818
10.474721 4.1444821 0.012654718
10.5419 4.1404934 0.012649784
10.55062 4.1490984 0.012660427
10.449555 4.1562505 0.0127012
10.479544 4.1516104 0.012663535
10.514363 4.1586647 0.012672259
10.535814 4.1576076 0.012670952
10.544903 4.1525416 0.012664686
10.575123 4.1581206 0.012671586
10.447632 4.1644034 0.016241034
10.486398 4.1665258 0.012681982
10.496149 4.1662335 0.01268162
10.510851 4.1670222 0.012682596
10.563231 4.1656065 0.012680845
10.597075 4.1666489 0.012718362
10.540779 4.1702456 0.012686583
10.556494 4.1774678 0.012695516
10.578012 4.1708517 0.012687332
10.580294 4.1705971 0.012687017
10.609076 4.1704931 0.018045457
10.612741 4.178616 0.015166152
10.459648 4.1801882 0.012742482
10.461534 4.1854882 0.012743425
10.472713 4.1819897 0.012705832
10.485977 4.1858916 0.012705932
10.518232 4.1851726 0.018268084
10.520226 4.1838284 0.012703382
10.54472 4.1818724 0.012700963
10.555229 4.1834459 0.012702909
10.573769 4.187171 0.012707516
10.59366 4.1853175 0.012731293
10.611717 4.1818724 0.017089907
10.465516 4.1983833 0.012747524
10.479909 4.1920104 0.012713501
10.481504 4.1900392 0.012711065
10.511869 4.1931782 0.012714947
10.54719 4.1999931 0.012723375
10.568062 4.1930642 0.012714805
10.593345 4.1925983 0.012739359
10.611356 4.1972308 0.015431806
10.463625 4.2023907 0.01275811
10.491939 4.2044168 0.012728846
10.503557 4.2071466 0.012732223
10.518833 4.2029943 0.012727087
10.527483 4.2046957 0.012729192
10.597765 4.2077985 0.012765379
10.604966 4.2052202 0.012723502
10.447791 4.2146921 0.015753331
10.45496 4.2116079 0.012727715
10.519869 4.2180691 0.012745732
10.552887 4.2175665 0.012745109
10.595559 4.2113266 0.012769113
10.448613 4.2241993 0.0127012
10.496484 4.2200656 0.0127482
10.500775 4.2224479 0.012751147
10.537754 4.2219481 0.012750529
10.540695 4.2248316 0.019118745
10.568413 4.2233596 0.012752274
10.585328 4.2281489 0.012762278
10.447697 4.2324014 0.016727561
10.467628 4.2392092 0.012788427
10.492346 4.2394938 0.01277223
10.52644 4.2360134 0.012767925
10.544406 4.2331686 0.015042584
10.558157 4.2336798 0.012765039
10.568551 4.2382112 0.012770643
10.572857 4.2344456 0.012765985
10.597323 4.2392831 0.012767945
10.449522 4.2480254 0.0127012
10.453405 4.2463994 0.012718676
10.470903 4.2483139 0.012793249
10.500834 4.2468195 0.01278129
10.51807 4.2452059 0.012779295
10.552905 4.2453117 0.012779426
10.561794 4.2479043 0.012782631
10.61178 4.2404966 0.01796969
10.456152 4.2551703 0.012734652
10.47837 4.2503366 0.012785641
10.483653 4.2538986 0.012790046
10.511 4.2570119 0.012793896
10.526334 4.251029 0.012786496
10.559458 4.2517738 0.012787418
10.577181 4.254096 0.01279029
10.588987 4.2557764 0.012804531
10.603653 4.25633 0.012731133
10.612661 4.2567482 0.013284413
10.449008 4.2678609 0.013981911
10.474673 4.2699366 0.012809882
10.526075 4.2669244 0.012806157
10.573935 4.2693319 0.012809134
10.605434 4.2625518 0.012720774
10.478166 4.2767386 0.012818296
10.489537 4.2700195 0.012809984
10.529527 4.2711368 0.012811366
10.539215 4.2765112 0.012818014
10.547359 4.2751422 0.012816319
10.572742 4.2709045 0.01281108
10.595021 4.2783546 0.012781334
10.612514 4.2778678 0.019034086
10.44861 4.2834129 0.0127012
10.459407 4.2824764 0.01275358
10.491395 4.2871442 0.012831165
10.520192 4.2806482 0.012823129
10.546409 4.288178 0.012832443
10.566198 4.2832904 0.012826398
10.579887 4.2832098 0.012826298
10.593104 4.2834597 0.012792487
10.465589 4.292779 0.015533797
10.476073 4.2962594 0.012934254
10.48367 4.2963805 0.012965999
10.515729 4.2975626 0.01300195
10.536632 4.2975292 0.013000215
10.542576 4.2954273 0.012954168
10.586581 4.295023 0.013898685
10.59408 4.2911859 0.01278681
10.605411 4.2941213 0.016031973
10.612651 4.2912049 0.015561511
10.465357 4.3051624 0.011884436
10.487947 4.3085718 0.013574098
10.492829 4.3058896 0.013434716
10.504235 4.3070812 0.013496637
10.524675 4.3078036 0.013534181
10.557191 4.3042107 0.013347468
10.569168 4.3052864 0.013403365
10.590334 4.307478 0.019988965
10.609031 4.3030758 0.013211762
10.610272 4.3097243 0.012812565
10.44386 4.313993 0.013093088
10.478091 4.3156948 0.013944274
10.484819 4.3152509 0.013921193
10.490239 4.312624 0.013784694
10.520206 4.3117108 0.013737231
10.530563 4.3125482 0.013780737
10.542838 4.3177929 0.01405329
10.573319 4.3152432 0.01392081
10.589909 4.3176684 0.01124321
10.61701 4.3163528 0.014684922
10.484891 4.3200479 0.014170481
10.507956 4.3238339 0.014367253
10.514991 4.3267026 0.01451634
10.520891 4.3295345 0.014663507
10.530376 4.3285499 0.014612326
10.541237 4.3205242 0.014195234
10.581505 4.3278437 0.014575619
10.614762 4.3257675 0.019699249
10.441997 4.3330917 0.016516984
10.475151 4.3376555 0.01508552
10.486876 4.3382015 0.0151139
10.496801 4.3353767 0.01496711
10.51088 4.3383813 0.015123256
10.543312 4.3339291 0.014891883
10.564895 4.3353868 0.014967641
10.583511 4.3318954 0.014786188
10.479313 4.340611 0.015239123
10.529843 4.3468151 0.015561535
10.572454 4.3415956 0.015290311
10.439633 4.3548675 0.012251315
10.442099 4.3521018 0.019714527
10.457503 4.355546 0.012145749
10.475836 4.3546224 0.016813006
10.506214 4.3548374 0.015977081
10.536445 4.3576407 0.016124133
10.545485 4.3590083 0.016195204
10.551742 4.350112 0.015732884
10.561685 4.3528275 0.015873998
10.580958 4.3525124 0.015857624
10.595544 4.3551779 0.017254267
10.604569 4.3567567 0.013813326
10.613741 4.3577757 0.016922481
10.455689 4.365696 0.019577971
10.469071 4.3637056 0.01730375
10.51685 4.3612518 0.016263194
10.523624 4.3658242 0.018140914
10.535564 4.364943 0.017365253
10.552837 4.3686862 0.018451404
10.565374 4.3656831 0.01771971
10.598383 4.3624988 0.01268695
10.607563 4.3677235 0.019697309
10.475799 4.3718748 0.019148638
10.528623 4.3718033 0.019770196
10.546318 4.0182714 0.023964871
10.540771 4.0204859 0.021833595
10.555174 4.0233378 0.024235595
10.455591 4.0373716 0.021942252
10.473604 4.0380125 0.0284997
10.494319 4.0320148 0.028911423
10.569648 4.0307817 0.022578645
10.446527 4.0460587 0.025518389
10.465919 4.0409017 0.027661039
10.443774 4.0592918 0.028004551
10.456886 4.0591397 0.028614515
10.616954 4.0533228 0.029663296
10.439588 4.0642104 0.025146129
10.445269 4.0628185 0.025867824
10.457156 4.0694575 0.023438241
10.4743 4.0675721 0.027737355
10.589201 4.0667028 0.023057327
10.595905 4.0648508 0.024117412
10.609787 4.0654306 0.023271669
10.616448 4.0629697 0.021588363
10.4743 4.0737162 0.025271507
10.5849 4.0754662 0.022744328
10.5964 4.07026 0.020647146
10.6162 4.0779271 0.025112249
10.4743 4.085022 0.024865694
10.5849 4.0814762 0.028289452
10.613882 4.086092 0.022919299
10.448174 4.0936875 0.028848596
10.5849 4.095336 0.026682943
10.448512 4.1173372 0.026194977
10.4743 4.1158781 0.025156561
10.58737 4.1167655 0.022631481
10.446513 4.1255651 0.024009578
10.453351 4.1259298 0.020808524
10.460483 4.1268435 0.029056549
10.4743 4.1209469 0.027620545
10.587845 4.1235652 0.02337189
10.60537 4.1244702 0.024557842
10.611794 4.1254845 0.022818577
10.516819 4.1300421 0.025420221
10.610407 4.1371446 0.024144139
10.451918 4.1448135 0.024801748
10.4741 4.1489201 0.029204082
10.541952 4.1450367 0.027292363
10.612806 4.1424093 0.025921036
10.474148 4.1533542 0.026514329
10.517463 4.1509938 0.027920144
10.541704 4.1548738 0.021532908
10.58501 4.15908 0.025370203
10.61368 4.1547823 0.027139075
10.605905 4.1623006 0.020069106
10.446415 4.1761637 0.029184017
10.518089 4.1717033 0.022385899
10.584689 4.1751261 0.028461695
10.613029 4.1758523 0.029104933
10.610102 4.1895123 0.023836551
10.518314 4.1941886 0.023218142
10.540909 4.1980295 0.028586172
10.611154 4.1959639 0.024247747
10.446798 4.203711 0.02559855
10.612526 4.2068853 0.025505256
10.475616 4.2100339 0.027259957
10.540778 4.213223 0.026215708
10.479228 4.220901 0.028844401
10.49553 4.2296381 0.027927145
10.518547 4.2270994 0.020581661
10.522941 4.229383 0.026520498
10.536454 4.2294559 0.026924575
10.611875 4.2246771 0.020168569
10.540576 4.2353239 0.026062448
10.446918 4.2434044 0.022102946
10.445971 4.2837029 0.022832504
10.615384 4.2896161 0.029845778
10.454403 4.2991672 0.027033731
10.471867 4.2923775 0.026224818
10.5849 4.296206 0.028151629
10.612099 4.2961364 0.023272082
10.445529 4.3078289 0.026781857
10.451947 4.3001451 0.021983026
10.464915 4.3049068 0.028807783
10.604048 4.3044801 0.026368722
10.615669 4.3062286 0.02515707
10.5849 4.3119116 0.026654702
10.614752 4.3199549 0.025805602
10.441819 4.3246493 0.026353367
10.4482 4.3324356 0.028470047
10.4743 4.337142 0.028266652
10.5849 4.3379221 0.027828874
10.4411 4.3490815 0.024687339
10.4743 4.3452592 0.025644811
10.615417 4.3421149 0.028899811
10.456542 4.3566532 0.022294762
10.4743 4.3502269 0.020060912
10.612069 4.3577657 0.021554988
10.446402 4.3614073 0.028444562
10.451008 4.3671622 0.027069667
10.46462 4.3633418 0.027557345
10.500006 4.364563 0.022669805
10.518921 4.3670344 0.021041136
10.586746 4.3615479 0.023633908
10.605932 4.3638301 0.022362752
10.61466 4.3664188 0.02428712
10.467335 4.3790588 0.026698817
10.506973 4.370914 0.026365662
10.515136 4.3718829 0.026929466
10.5834 4.3798223 0.02744798
10.512903 4.019784 0.030598179
10.532502 4.0252738 0.037067018
10.556461 4.0272021 0.037425607
10.466962 4.037159 0.03711522
10.473241 4.0389919 0.035876229
10.578505 4.0329266 0.037195116
10.582403 4.0367975 0.033772215
10.445615 4.0476151 0.030826362
10.596577 4.0447173 0.034222811
10.446184 4.0595865 0.033220123
10.609152 4.0597129 0.030574739
10.439651 4.0668793 0.037494235
10.442312 4.060689 0.035785813
10.457771 4.0630965 0.036742121
10.463195 4.0647421 0.035106976
10.4743 4.0617723 0.037954755
10.589199 4.0664749 0.036861923
10.590392 4.0613799 0.033609517
10.606818 4.0628395 0.036496699
10.615694 4.0631757 0.036920376
10.443614 4.0733366 0.035543241
10.4743 4.0739036 0.036439903
10.584901 4.0790353 0.036905315
10.5849 4.0885105 0.034739658
10.443769 4.0995116 0.039846394
10.5849 4.0927944 0.036184296
10.613009 4.0938301 0.036451463
10.441456 4.1048698 0.032301355
10.4743 4.1068172 0.031364769
10.578781 4.1089277 0.038314443
10.5849 4.1085796 0.034732383
10.6139 4.1082168 0.037643772
10.453585 4.1152339 0.0396065
10.464931 4.1176043 0.038869064
10.475636 4.1184974 0.039800763
10.542852 4.1138215 0.03150785
10.587431 4.1173272 0.032133076
10.605488 4.1159406 0.037417434
10.613692 4.1159415 0.036227331
10.442106 4.1227245 0.03604785
10.46309 4.1232224 0.034350619
10.475241 4.1281543 0.030309027
10.583919 4.1244516 0.036306135
10.610106 4.1255417 0.038934156
10.542099 4.1397591 0.037362758
10.590684 4.1424069 0.03494424
10.445843 4.1521626 0.032523487
10.474107 4.1597424 0.035911649
10.517572 4.1546459 0.034867536
10.585117 4.155004 0.037064306
10.518321 4.1635399 0.039294515
10.541306 4.1643748 0.03296347
10.585487 4.165029 0.037564203
10.584552 4.1845803 0.034342695
10.611253 4.1875825 0.03850751
10.449141 4.194459 0.03276518
10.60886 4.2077641 0.032123413
10.449577 4.2117543 0.030819915
10.451431 4.2164845 0.03159973
10.472123 4.2161598 0.037631005
10.518476 4.2112999 0.034559015
10.585688 4.216743 0.038439885
10.609463 4.2118473 0.030825339
10.45093 4.2279072 0.039808664
10.479517 4.2238655 0.036362398
10.480768 4.2250719 0.038048454
10.518559 4.2209077 0.038010664
10.575375 4.2262616 0.03587557
10.608467 4.2231007 0.037498381
10.44873 4.2391911 0.034163952
10.452127 4.2357969 0.034768559
10.498181 4.2308702 0.03472767
10.503817 4.2312932 0.037050799
10.554554 4.2308664 0.034695726
10.606951 4.2339869 0.032815419
10.606471 4.2456207 0.036224231
10.44746 4.253159 0.036187507
10.452755 4.2511473 0.036356606
10.610709 4.2548723 0.037789464
10.445682 4.2633233 0.036583744
10.614382 4.2755709 0.039304752
10.444135 4.2838864 0.036342386
10.457685 4.2928872 0.038168143
10.585476 4.2928305 0.03779377
10.603657 4.2960577 0.035666257
10.615968 4.2925739 0.035412647
10.464398 4.3005157 0.035058994
10.5849 4.3081975 0.036129113
10.606434 4.3072367 0.034701176
10.617543 4.305356 0.038930297
10.443051 4.3136187 0.031173266
10.4743 4.3116112 0.032986693
10.5849 4.3138914 0.034786291
10.597539 4.3114696 0.03946317
10.615832 4.3156061 0.03842929
10.4419 4.3253994 0.033998463
10.4743 4.3290329 0.033800256
10.5849 4.3205004 0.034413256
10.614679 4.3213654 0.036545485
10.4743 4.3367996 0.035533771
10.5849 4.3391352 0.032323614
10.611531 4.3322206 0.033777963
10.5849 4.3496213 0.030789468
10.619062 4.3493218 0.039802417
10.46521 4.3566036 0.035833165
10.5849 4.353282 0.033247333
10.611223 4.3599844 0.03671775
10.620885 4.3570404 0.032126918
10.441887 4.3623681 0.035987083
10.457521 4.3639731 0.036519699
10.468272 4.3612251 0.035503779
10.595352 4.3641472 0.03527905
10.616895 4.3678818 0.038704567
10.621622 4.3613358 0.033912379
10.454045 4.3767734 0.036377221
10.478269 4.3788013 0.031957775
10.498219 4.3763018 0.030109756
10.553123 4.3768435 0.030510589
10.563038 4.3785648 0.031782791
10.58062 4.379045 0.032137483
10.609619 4.3739915 0.031791516
10.464714 4.3811607 0.038273469
10.493029 4.3847666 0.037539795
10.509392 4.3871603 0.039241031
10.519474 4.3856883 0.03491012
10.523054 4.3863468 0.033557475
10.537033 4.385849 0.034601342
10.54453 4.3863268 0.038359225
10.553975 4.3806667 0.03341803
10.581545 4.3812819 0.034379769
10.516274 4.0270753 0.045471974
10.538307 4.0289621 0.048046488
10.496599 4.0366549 0.048452653
10.505888 4.0341091 0.04906268
10.51278 4.0322156 0.049876727
10.57104 4.03619 0.045036059
10.456302 4.0446391 0.043836482
10.585323 4.043932 0.048557498
10.598621 4.0457006 0.047604036
10.443321 4.0535946 0.045025796
10.483637 4.0502162 0.047832347
10.446765 4.0662637 0.047070473
10.465837 4.0612984 0.041696399
10.5849 4.0638456 0.044943813
10.595846 4.0629816 0.043476969
10.6047 4.0657272 0.043866798
10.61632 4.0670748 0.048245322
10.4448 4.0781894 0.047162339
10.465675 4.0745254 0.044821158
10.4743 4.0790401 0.040335558
10.5849 4.0731688 0.04077464
10.595301 4.0733738 0.043578841
10.605492 4.0716543 0.047574937
10.614565 4.0751948 0.044972405
10.441879 4.0832157 0.043267339
10.615192 4.0963154 0.044367258
10.445648 4.1090822 0.047702633
10.457846 4.1085291 0.048126951
10.476959 4.1045752 0.043255281
10.505349 4.1090603 0.045015495
10.548725 4.1079288 0.044661678
10.568122 4.1060324 0.043980818
10.5849 4.1018591 0.046877868
10.449205 4.1144962 0.04769738
10.457973 4.1155972 0.043133598
10.46559 4.1146579 0.045303266
10.475767 4.1164904 0.042157613
10.482961 4.1112614 0.045535114
10.492905 4.11831 0.047874957
10.54396 4.1171088 0.047549888
10.573472 4.11655 0.047196634
10.595081 4.1126046 0.049651343
10.617537 4.1196141 0.043797292
10.442869 4.1293287 0.043641169
10.452367 4.1231279 0.044185966
10.47898 4.1246405 0.049758144
10.569321 4.1222382 0.049052261
10.590651 4.123198 0.040858127
10.600479 4.1245117 0.042326458
10.612967 4.1243377 0.046151031
10.4461 4.1357489 0.043863568
10.54175 4.1321907 0.046349589
10.584334 4.1312423 0.049792606
10.615449 4.1351342 0.040368188
10.61416 4.1428595 0.043394908
10.474009 4.1525135 0.042915747
10.517871 4.152245 0.046641018
10.446512 4.1690893 0.042712383
10.472306 4.1636057 0.047605719
10.518721 4.1662779 0.046725355
10.541193 4.1656752 0.045392245
10.540059 4.1785784 0.047476161
10.540934 4.1898408 0.043235026
10.587852 4.1818299 0.049957015
10.611187 4.1892452 0.044572294
10.448813 4.1998134 0.040506992
10.540209 4.1942778 0.047479104
10.529472 4.2017322 0.048230611
10.584161 4.2026091 0.040451325
10.449815 4.2127366 0.044698693
10.468044 4.2188144 0.045342069
10.518503 4.2143221 0.046216059
10.540703 4.214767 0.044316959
10.583704 4.2172208 0.044916786
10.593355 4.2173853 0.0427064
10.609127 4.2152357 0.048576593
10.450733 4.2259684 0.045195367
10.477169 4.2236447 0.046343233
10.485533 4.2295609 0.043362606
10.53685 4.2291517 0.048531398
10.579751 4.2254143 0.041302167
10.608463 4.2258787 0.047989026
10.451179 4.2320967 0.043173481
10.523355 4.2324667 0.046765439
10.534267 4.2342286 0.046982087
10.54895 4.2323413 0.04281792
10.562629 4.2330632 0.046820756
10.452386 4.2473211 0.044403736
10.607203 4.2434769 0.047058843
10.60621 4.2565384 0.046777949
10.611532 4.2546706 0.04080059
10.446737 4.2649059 0.044824988
10.608737 4.2670383 0.044544406
10.611135 4.2662687 0.046725765
10.446449 4.2703009 0.049406771
10.452029 4.2720041 0.048394311
10.443501 4.2856274 0.047990888
10.4743 4.2963476 0.048394393
10.609258 4.2946873 0.044906884
10.61772 4.2940764 0.049208924
10.452325 4.3060808 0.044596344
10.463198 4.3082519 0.042457316
10.599008 4.3052249 0.048155535
10.614249 4.3052316 0.044183567
10.444585 4.3148489 0.046338957
10.463188 4.3160658 0.045843221
10.4743 4.3194084 0.046966914
10.586549 4.3114638 0.04481113
10.593402 4.3113937 0.043890681
10.603678 4.3120975 0.04808709
10.613483 4.3173213 0.048346344
10.5849 4.3265481 0.043493405
10.617203 4.3246412 0.043171659
10.442478 4.3370752 0.049031295
10.616455 4.3383555 0.040437434
10.443238 4.3439827 0.045936346
10.594973 4.3484707 0.048663866
10.602587 4.3476615 0.048836738
10.445149 4.3530726 0.045370564
10.452248 4.3524837 0.044058643
10.592634 4.3540525 0.046146199
10.602852 4.3538356 0.048545349
10.617388 4.354414 0.046429105
10.621037 4.3582387 0.046319194
10.443619 4.3631382 0.041708969
10.587471 4.3607302 0.040946539
10.594459 4.3616114 0.045508638
10.601547 4.3648181 0.04186685
10.617362 4.3618851 0.045060799
10.445366 4.3713365 0.045926157
10.456093 4.3780041 0.041277084
10.604828 4.3772945 0.042222138
10.46572 4.381578 0.045894299
10.499962 4.3858957 0.043076314
10.505844 4.3854942 0.048802361
10.513475 4.3850937 0.042207599
10.544271 4.386385 0.044221029
10.55169 4.3810139 0.049392212
10.57267 4.3851581 0.045508299
10.587005 4.383275 0.048223279
10.527655 4.3901091 0.040605787
10.503484 4.0397086 0.053076237
10.535179 4.03723 0.05531393
10.55368 4.0395274 0.053408407
10.464103 4.0467949 0.052146748
10.470557 4.0453358 0.052035153
10.485528 4.0493283 0.053171448
10.496658 4.0457702 0.055864386
10.500824 4.042594 0.054534815
10.532782 4.0455079 0.059082158
10.565711 4.0431557 0.053244594
10.576159 4.0434728 0.052657653
10.591239 4.0489879 0.055417407
10.60248 4.0489011 0.051949672
10.483497 4.0528035 0.059291873
10.574319 4.0505695 0.050296254
10.589463 4.0506716 0.057277009
10.604599 4.0516882 0.054680679
10.613764 4.0563807 0.053426657
10.444506 4.0647554 0.055373844
10.461798 4.0653539 0.050080277
10.586118 4.0668783 0.051975615
10.591326 4.0690279 0.051233247
10.603161 4.0696979 0.054218601
10.445889 4.0776644 0.056694549
10.4548 4.0739899 0.057765167
10.467913 4.0741572 0.052248731
10.473874 4.0735121 0.05794698
10.597859 4.0743194 0.058484677
10.609182 4.0787377 0.05373127
10.615693 4.0710106 0.056071825
10.443174 4.084116 0.055909142
10.61704 4.0810442 0.05513889
10.466639 4.0957041 0.05656001
10.4743 4.0962162 0.053261146
10.589199 4.0999355 0.054290496
10.614798 4.0952363 0.054225415
10.44657 4.100204 0.056681272
10.450064 4.109818 0.051945217
10.5849 4.1005635 0.050153926
10.61558 4.1088977 0.057886522
10.439896 4.1157622 0.050127208
10.442784 4.115726 0.053800609
10.454414 4.1164045 0.05402372
10.466257 4.111989 0.055178959
10.603521 4.115077 0.050634503
10.611901 4.1163597 0.054168731
10.447117 4.1234112 0.051781245
10.474925 4.1295805 0.051342621
10.542585 4.1274109 0.050478436
10.573849 4.1270609 0.050814662
10.615745 4.1219654 0.054126803
10.447906 4.1342063 0.058553182
10.475636 4.1306081 0.052792117
10.545051 4.1323709 0.053321622
10.556849 4.1393847 0.057311431
10.565377 4.1352029 0.054727111
10.611084 4.1336131 0.054179296
10.472887 4.1426306 0.05476927
10.559368 4.140965 0.058435053
10.585285 4.1497512 0.051528849
10.47264 4.1545782 0.056437649
10.524616 4.1559248 0.055285059
10.535501 4.1684494 0.050388772
10.447004 4.1714993 0.050227642
10.470582 4.1711445 0.056269653
10.588398 4.1792703 0.05228639
10.449504 4.1922574 0.057012938
10.586057 4.2057643 0.052076578
10.583722 4.218298 0.052342549
10.608356 4.219142 0.053681292
10.452097 4.2274237 0.057853445
10.475786 4.2239904 0.053150058
10.583159 4.2270641 0.057273604
10.60791 4.2239809 0.055078425
10.485875 4.2319121 0.051296894
10.532955 4.2336788 0.050171591
10.554657 4.2344537 0.054492205
10.565486 4.2352586 0.058027759
10.575143 4.2326918 0.056888558
10.453566 4.256072 0.055042397
10.453925 4.2627301 0.053794935
10.606781 4.2754745 0.057691026
10.4485 4.2977619 0.05140207
10.5576 4.2992473 0.051944848
10.445257 4.3032532 0.05798237
10.4743 4.3052235 0.053934179
10.4925 4.3067546 0.059686303
10.5576 4.3057079 0.057346877
10.593692 4.3047724 0.052981604
10.4527 4.3157868 0.058892459
10.462091 4.3173571 0.059149176
10.5667 4.3158422 0.054779507
10.587397 4.3140993 0.054309543
10.591027 4.3155389 0.055596475
10.441483 4.322752 0.059989639
10.45424 4.3228884 0.053337693
10.467677 4.3268585 0.056190677
10.5849 4.3292437 0.054256782
10.590256 4.3232136 0.054002188
10.447448 4.335258 0.057286412
10.456394 4.3346901 0.055485621
10.465665 4.3303289 0.055304773
10.591612 4.3360538 0.053498514
10.601332 4.3368754 0.053292461
10.618879 4.3336306 0.054441005
10.448669 4.3477998 0.057526615
10.464243 4.3496161 0.05644973
10.4743 4.3448725 0.057207927
10.603134 4.3451777 0.05472333
10.614367 4.3454819 0.056677572
10.443222 4.351727 0.050477564
10.455278 4.3536873 0.056005564
10.466909 4.3564725 0.051328592
10.5849 4.3541021 0.053989876
10.605216 4.3540831 0.054561827
10.615204 4.3547578 0.054345578
10.441626 4.3603344 0.055387862
10.614573 4.3658018 0.057030041
10.456135 4.376514 0.051828243
10.462985 4.378685 0.055720862
10.605288 4.3750205 0.052264698
10.612453 4.370173 0.051100913
10.512408 4.3833656 0.051760338
10.528576 4.382689 0.054034967
10.532422 4.3826332 0.055844404
10.565384 4.381156 0.058267698
10.541637 4.0497909 0.060193427
10.463766 4.0586176 0.062876657
10.485776 4.0553389 0.060596995
10.517815 4.0554676 0.062205106
10.546268 4.052752 0.061011795
10.453116 4.0635681 0.065348223
10.460136 4.0609417 0.064608306
10.472436 4.0644026 0.065547898
10.484352 4.0674667 0.065714896
10.499886 4.06318 0.064427614
10.508858 4.0650034 0.0652024
10.521139 4.0603628 0.06407357
10.549148 4.0670719 0.06588468
10.611483 4.0609636 0.060606726
10.446718 4.0764875 0.069704548
10.465338 4.0774727 0.060379647
10.484435 4.0741339 0.06795156
10.500467 4.0736217 0.067888446
10.523931 4.0736747 0.068099029
10.532424 4.0767136 0.068901166
10.569839 4.0795865 0.069423318
10.572883 4.0728559 0.067534886
10.615399 4.0729771 0.067001507
10.467013 4.0878692 0.06374529
10.474301 4.0880489 0.061682448
10.463515 4.0955544 0.063811436
10.471291 4.0926375 0.063938417
10.5849 4.0977836 0.060876381
10.591904 4.0942659 0.063867524
10.608515 4.0961075 0.062893957
10.615561 4.0934176 0.063904449
10.457504 4.1039705 0.061621778
10.463619 4.1044931 0.061898716
10.604575 4.1065135 0.060488198
10.617074 4.1102629 0.065493807
10.447123 4.1374226 0.062001564
10.611752 4.1398931 0.060349338
10.468742 4.1430602 0.066858493
10.485806 4.1437345 0.06074702
10.495308 4.1434469 0.069466621
10.552851 4.1441922 0.068873197
10.579451 4.1443386 0.067441903
10.586614 4.1450186 0.060962688
10.521773 4.1513162 0.061547581
10.607628 4.1571631 0.069731608
10.611168 4.1515946 0.063946538
10.450087 4.1632433 0.06613978
10.587713 4.1604662 0.063420027
10.607676 4.1697001 0.067978285
10.451582 4.1747284 0.067134075
10.47233 4.1725368 0.065289736
10.45314 4.1865792 0.067900777
10.608225 4.1867008 0.063920349
10.452404 4.1927862 0.064727753
10.474132 4.1996789 0.066237956
10.584837 4.2051611 0.063646898
10.474669 4.2123795 0.062333103
10.454619 4.2250562 0.065443367
10.474902 4.2279019 0.064337045
10.588661 4.2272038 0.068904772
10.590871 4.2258554 0.066109851
10.459355 4.2374611 0.069727652
10.478559 4.2331495 0.068513349
10.504669 4.2359042 0.060743988
10.545553 4.2361145 0.061625935
10.556662 4.2381191 0.069015428
10.565289 4.2368355 0.064657412
10.605255 4.2397509 0.062057696
10.456785 4.2477503 0.064863861
10.601976 4.2432261 0.067269519
10.489928 4.2530918 0.068133116
10.502785 4.257082 0.069889277
10.501755 4.269392 0.068133801
10.526456 4.2632141 0.068133801
10.541281 4.2602072 0.069636904
10.566359 4.2615347 0.068133801
10.451101 4.272295 0.063511759
10.496998 4.2773676 0.069007382
10.518702 4.271975 0.068133801
10.537317 4.2752833 0.068133801
10.558424 4.27987 0.068598717
10.598904 4.2772951 0.066978678
10.608212 4.2744074 0.06567499
10.496655 4.281085 0.065378964
10.503669 4.2834792 0.065573238
10.519819 4.2807589 0.069415182
10.526895 4.285007 0.068629615
10.533492 4.2815795 0.068133801
10.565228 4.2859888 0.068133801
10.571684 4.2863026 0.068846352
10.599707 4.2821479 0.064772539
10.613379 4.2852206 0.061040945
10.443717 4.2956371 0.064239986
10.494691 4.2928276 0.066615239
10.501677 4.291193 0.064366534
10.539812 4.2993369 0.068133801
10.547451 4.2973824 0.068133801
10.56975 4.295464 0.069558904
10.574099 4.2946234 0.069435775
10.616316 4.295023 0.061478756
10.446965 4.3056817 0.060133021
10.450212 4.3070087 0.061034113
10.468883 4.3074303 0.061320148
10.489628 4.3030682 0.068133801
10.493259 4.3031535 0.068133801
10.504362 4.3041844 0.068414457
10.526908 4.3095841 0.069558904
10.534073 4.3069839 0.068224289
10.549022 4.3009987 0.068133801
10.5576 4.3097506 0.06751655
10.566822 4.3059592 0.066554926
10.571888 4.3015385 0.068133801
10.445198 4.3115616 0.064365514
10.451204 4.313756 0.065025531
10.463233 4.3145595 0.065236174
10.473812 4.3147168 0.0636255
10.508489 4.3186378 0.068846352
10.515396 4.315217 0.068133801
10.525838 4.3126774 0.069558904
10.538786 4.314949 0.068133801
10.546882 4.3114905 0.068133801
10.557256 4.3137441 0.068203002
10.587321 4.3159609 0.063622184
10.601558 4.3193913 0.063692346
10.449262 4.3282385 0.06282793
10.4743 4.3203902 0.065858044
10.499294 4.3209271 0.069558904
10.500754 4.3228226 0.069558904
10.512398 4.321034 0.068133801
10.54468 4.3232684 0.068846352
10.56485 4.3231339 0.068133801
10.444585 4.3328128 0.066611938
10.45366 4.3388591 0.062659711
10.46772 4.3303208 0.067599878
10.486742 4.3312478 0.068133801
10.494735 4.3336325 0.068467021
10.545444 4.3324766 0.068158701
10.5849 4.3389983 0.065388918
10.592655 4.3375816 0.066134088
10.601847 4.3339729 0.063634627
10.617031 4.3326683 0.067344785
10.451715 4.3470054 0.060323499
10.471309 4.3448014 0.062690325
10.597713 4.3446159 0.062805429
10.44205 4.3562231 0.062750287
10.447981 4.3649797 0.063111484
10.454212 4.3655033 0.067910582
10.601664 4.369647 0.06639374
10.465052 4.3748918 0.065042913
10.475911 4.3767643 0.069535054
10.564703 4.3786688 0.06750644
10.574261 4.3770123 0.067985386
10.581935 4.3746982 0.068388753
10.507258 4.3826213 0.063469023
10.515058 4.3824186 0.063865528
10.527743 4.3822999 0.065653108
10.542831 4.3816881 0.066191047
10.556262 4.3807135 0.067012049
10.450794 4.0767169 0.071086869
10.588203 4.078989 0.070397161
10.607795 4.0767808 0.071316585
10.451554 4.0877399 0.073735625
10.516996 4.0822258 0.070103347
10.5577 4.089118 0.07159707
10.564411 4.0859752 0.070871778
10.586617 4.0816603 0.070306614
10.593692 4.0834589 0.072580963
10.447475 4.0931511 0.07325577
10.451605 4.0969787 0.074400909
10.469141 4.098011 0.07311403
10.477149 4.0943031 0.072255991
10.509241 4.0930362 0.072246335
10.547503 4.0999866 0.073193461
10.55637 4.092248 0.072129786
10.597564 4.0930257 0.074831709
10.607164 4.0940871 0.074402675
10.465773 4.1018867 0.074589744
10.476557 4.1059198 0.073602051
10.486767 4.1052828 0.073847398
10.517787 4.1058335 0.071717031
10.528796 4.1091013 0.076612987
10.537077 4.1069727 0.07471896
10.54507 4.1055574 0.071584702
10.563452 4.1054196 0.073986873
10.575578 4.1095819 0.07438159
10.588782 4.1049309 0.073000856
10.603076 4.1070042 0.075670525
10.454058 4.1198182 0.075009726
10.47284 4.1186447 0.072421223
10.492703 4.1156292 0.075044312
10.531483 4.1188879 0.077398725
10.543344 4.1151996 0.075470023
10.555552 4.1192822 0.074948795
10.562138 4.1116114 0.072680563
10.478562 4.1225538 0.075775653
10.507664 4.1232862 0.074479401
10.51572 4.128953 0.071559347
10.520602 4.1298475 0.071559027
10.537313 4.1267958 0.07155928
10.545753 4.1227722 0.075367741
10.557249 4.1244092 0.075377122
10.562725 4.1235247 0.074319035
10.576449 4.1274338 0.077680767
10.594982 4.1230888 0.074237496
10.464579 4.1353669 0.073167562
10.474712 4.1306901 0.075655594
10.480412 4.1352654 0.071713507
10.501783 4.1374507 0.071421936
10.5116 4.1343126 0.071559951
10.555548 4.1356468 0.07145194
10.594416 4.1320591 0.074351653
10.451868 4.1451163 0.071898796
10.46643 4.1478882 0.076386139
10.567467 4.1404586 0.070926346
10.594489 4.143754 0.077123061
10.453945 4.1565838 0.072009496
10.465143 4.1535091 0.075687379
10.591749 4.1504793 0.075598896
10.586575 4.1614032 0.073095754
10.464588 4.1744862 0.075569212
10.472758 4.1745872 0.073395766
10.585934 4.1790605 0.070081577
10.592066 4.1742821 0.076297998
10.600974 4.1764832 0.073832601
10.464569 4.1835208 0.075273089
10.597356 4.1861229 0.074822158
10.464504 4.1977706 0.073936746
10.589056 4.1997752 0.073676594
10.601202 4.2082305 0.071457572
10.464914 4.2139587 0.074802265
10.459795 4.224401 0.071901955
10.459672 4.2330437 0.071191363
10.462152 4.2340655 0.073813938
10.556335 4.2387137 0.070865341
10.564419 4.2385702 0.070417978
10.507505 4.2421017 0.077033632
10.516527 4.2412052 0.076606736
10.544303 4.2431908 0.078922726
10.551124 4.2440519 0.07959754
10.572027 4.2422409 0.078838572
10.457254 4.2583585 0.070704035
10.491179 4.2570467 0.072775714
10.506865 4.2570648 0.071127772
10.520733 4.2573299 0.070484377
10.455844 4.266098 0.071565971
10.460266 4.2664194 0.077793323
10.503572 4.26476 0.071905494
10.539066 4.2668433 0.073247075
10.557393 4.2631249 0.072771765
10.5717 4.2648754 0.076589324
10.593961 4.2634063 0.072593652
10.5021 4.27493 0.07688614
10.515532 4.2750921 0.0748851
10.530436 4.2774134 0.070036359
10.54267 4.2747889 0.075826742
10.55735 4.2765837 0.073471718
10.572299 4.2711229 0.077450998
10.599742 4.273634 0.077776469
10.457652 4.2896142 0.077648103
10.463217 4.2817736 0.075418875
10.4851 4.2882586 0.072649904
10.4925 4.2849069 0.079519801
10.500519 4.2872796 0.075802594
10.517529 4.284286 0.073531896
10.52914 4.2875652 0.078091137
10.540282 4.2857437 0.077667378
10.555505 4.2844591 0.071742103
10.5667 4.2839918 0.07965105
10.570501 4.2818341 0.072362281
10.504088 4.2902002 0.079795413
10.517656 4.2989321 0.07675834
10.520304 4.2979798 0.075314395
10.543351 4.2978425 0.074203901
10.556556 4.2960591 0.0779121
10.5741 4.2929726 0.075214118
10.605384 4.294415 0.075485826
10.487499 4.3047156 0.075613879
10.493361 4.3095517 0.077027075
10.501971 4.3033109 0.0763328
10.516128 4.3053303 0.076948442
10.527695 4.30967 0.07715115
10.53371 4.3057208 0.075931266
10.549411 4.3061528 0.076899938
10.558199 4.30375 0.074155241
10.4851 4.310987 0.073480114
10.506206 4.3138027 0.07390257
10.512312 4.3142967 0.077128299
10.5233 4.3154645 0.078859203
10.535992 4.3127441 0.074070081
10.547514 4.3133945 0.078545362
10.550372 4.3113251 0.079969883
10.616886 4.3157792 0.073374353
10.441368 4.3276138 0.072347932
10.499104 4.3249125 0.073564164
10.507318 4.3277497 0.073559955
10.51405 4.3245816 0.077056758
10.549247 4.321774 0.072020635
10.551936 4.3267984 0.076299526
10.445407 4.3354545 0.075961888
10.485995 4.3336306 0.078546539
10.490221 4.3336315 0.070582226
10.506854 4.3336353 0.078547254
10.521577 4.3343863 0.072870515
10.539169 4.3336382 0.078108877
10.56481 4.333632 0.076812804
10.5741 4.3301139 0.078344934
10.611223 4.3339334 0.07762441
10.522415 4.3495016 0.079599112
10.605604 4.3472681 0.076532029
10.448287 4.3518806 0.072667211
10.46947 4.3567657 0.079642214
10.495693 4.3558803 0.076334454
10.516201 4.358706 0.078392521
10.533556 4.354001 0.078926891
10.54348 4.3557024 0.078823879
10.551085 4.3524981 0.079336658
10.565741 4.3526573 0.079780459
10.456812 4.3636332 0.071108818
10.47373 4.366621 0.077508628
10.56406 4.362299 0.075462736
10.592723 4.3645511 0.075624898
10.481798 4.3743582 0.071312666
10.504475 4.3724222 0.077271394
10.515359 4.3768158 0.073932216
10.525558 4.3782644 0.071808226
10.545198 4.3743024 0.075272091
10.556878 4.3729548 0.076808184
10.533144 4.1267695 0.080721632
10.562699 4.1339993 0.082338266
10.577932 4.1385384 0.082343623
10.473385 4.1450205 0.081763148
10.492908 4.142272 0.085514173
10.523458 4.1418695 0.08696793
10.575994 4.1421738 0.084255442
10.581092 4.1481209 0.086061276
10.5904 4.1481724 0.082199432
10.464828 4.1541233 0.082676657
10.473692 4.1565118 0.086030491
10.498174 4.1504583 0.089247525
10.588329 4.157392 0.084857501
10.590649 4.1547809 0.081923909
10.58696 4.1610374 0.087961733
10.587191 4.1754875 0.086742766
10.585464 4.1888342 0.088948615
10.470752 4.2067695 0.085116237
10.588189 4.216785 0.085632496
10.591705 4.213129 0.080090307
10.467622 4.2225647 0.080330484
10.590206 4.228313 0.082579955
10.466352 4.239738 0.082108282
10.47455 4.2309794 0.089875981
10.480883 4.2382698 0.08859136
10.585972 4.2342601 0.088401452
10.465148 4.2445774 0.080944262
10.470492 4.2418418 0.087477282
10.483213 4.2425079 0.08252947
10.493916 4.2490377 0.082971022
10.511707 4.2490625 0.088124305
10.527367 4.2490716 0.086527087
10.545737 4.2490668 0.083328418
10.553725 4.2490549 0.083557211
10.563996 4.2466688 0.082543887
10.588884 4.2434177 0.087274052
10.594637 4.2469249 0.080447122
10.4851 4.2558503 0.082117692
10.494092 4.2551589 0.084916927
10.502798 4.2540803 0.087251097
10.515554 4.2503166 0.081487954
10.524683 4.2587805 0.080644317
10.549562 4.2565451 0.08137235
10.557007 4.2561698 0.081503391
10.562582 4.2558837 0.081501827
10.594375 4.2526598 0.081520095
10.464065 4.2633729 0.081954256
10.4851 4.2659283 0.082989305
10.499382 4.2681899 0.082491346
10.509579 4.2662296 0.08094427
10.553499 4.2618513 0.083281226
10.4869 4.2772093 0.080454208
10.496267 4.2735033 0.081173569
10.503855 4.2753897 0.081691362
10.569689 4.2711902 0.083312906
10.595724 4.2706461 0.081980646
10.466065 4.2831988 0.085036576
10.470972 4.2828245 0.088789411
10.4851 4.2869687 0.082091235
10.490284 4.2834435 0.081596382
10.504841 4.2877655 0.08066199
10.51204 4.2812448 0.08126846
10.525193 4.2820868 0.080514267
10.554035 4.286191 0.081273541
10.568754 4.2886286 0.081527695
10.471588 4.299345 0.088638775
10.4851 4.2969956 0.084296182
10.507942 4.2982135 0.082285382
10.457628 4.309238 0.081098586
10.464794 4.301898 0.084814787
10.489274 4.3018813 0.089660928
10.493318 4.3047161 0.080513604
10.504243 4.3038759 0.081599541
10.546628 4.3062854 0.08100073
10.557991 4.30163 0.08141432
10.570015 4.3030787 0.089358903
10.587082 4.3033915 0.088685721
10.472557 4.3151712 0.087954216
10.487158 4.3164959 0.085582905
10.490442 4.3133903 0.08804664
10.534135 4.3109498 0.080445603
10.559976 4.3120975 0.080817245
10.564936 4.315762 0.083398953
10.581186 4.3160124 0.089733168
10.59732 4.3164053 0.083311424
10.457174 4.325345 0.081198893
10.466082 4.3223424 0.084671192
10.480709 4.3252883 0.089040749
10.494414 4.3294816 0.083478339
10.503801 4.3234406 0.082207054
10.523827 4.3224621 0.08183521
10.530838 4.3257298 0.082216658
10.555685 4.3260083 0.080645919
10.566248 4.3251486 0.081748642
10.574885 4.327435 0.088724375
10.601185 4.3273745 0.081428848
10.476282 4.3378301 0.085720003
10.505611 4.3320718 0.082670853
10.510282 4.3346677 0.082657255
10.521825 4.3313489 0.082687281
10.5354 4.3336391 0.081709936
10.547582 4.3336358 0.082047939
10.554616 4.3358154 0.08265119
10.562743 4.3305011 0.082926914
10.573496 4.3336306 0.08160793
10.584784 4.3366137 0.085183457
10.471582 4.3428965 0.083534986
10.483551 4.348917 0.084631845
10.554148 4.3405323 0.082429208
10.567949 4.3407183 0.083240733
10.574669 4.3477049 0.083422571
10.582967 4.3443661 0.084576428
10.475065 4.3507934 0.082908116
10.485588 4.3545103 0.082339503
10.491606 4.3502874 0.080268316
10.56812 4.3501883 0.080348939
10.578648 4.3598232 0.081614852
10.47664 4.3620682 0.080152906
10.484112 4.3616719 0.084417731
10.498121 4.3648648 0.083169021
10.507917 4.3678007 0.08395806
10.51269 4.3651919 0.08347065
10.540455 4.365993 0.083047591
10.563636 4.3669577 0.084162414
10.580676 4.3620839 0.080487214
10.487569 4.3752403 0.08854568
10.49007 4.3741541 0.08694388
10.507643 4.3772926 0.086676724
10.512149 4.3735275 0.08592841
10.529066 4.3758883 0.086541735
10.539742 4.3737845 0.085259795
10.541162 4.3770995 0.086335652
10.553693 4.3799486 0.088286012
10.56494 4.3787985 0.087874569
10.492265 4.3816204 0.089416854
10.515571 4.3824148 0.088982388
10.559767 4.3810844 0.088519514
10.496404 4.1574821 0.091844574
10.478107 4.1621704 0.091302678
10.483517 4.1667824 0.092673898
10.500298 4.1688385 0.096071154
10.513312 4.1646647 0.095623806
10.520855 4.1653061 0.09604504
10.534079 4.1674728 0.095561028
10.550162 4.1694427 0.094382934
10.568092 4.1644421 0.09405718
10.480906 4.1720295 0.090712443
10.492252 4.173727 0.097023286
10.507257 4.1740847 0.096759349
10.514755 4.1731925 0.095305853
10.525688 4.1751604 0.099158749
10.534095 4.1752253 0.095958523
10.54398 4.1783972 0.096321993
10.555649 4.1722403 0.096003696
10.566498 4.1758051 0.097572751
10.574121 4.1776338 0.095792122
10.580948 4.1746778 0.092498355
10.47871 4.1820655 0.09518984
10.483531 4.1864047 0.095927566
10.490373 4.1886368 0.099398583
10.516336 4.1826077 0.097014144
10.53245 4.1809745 0.097008415
10.549747 4.1817751 0.096619681
10.555761 4.1815801 0.096152745
10.568129 4.1838412 0.098793738
10.485735 4.1952553 0.095353082
10.507711 4.196454 0.098303646
10.542337 4.1961913 0.098771974
10.56223 4.1907349 0.096823618
10.477703 4.2049356 0.092937484
10.482681 4.2042298 0.096339762
10.51264 4.2062206 0.099276364
10.540117 4.2060571 0.099423133
10.568481 4.2022915 0.096606858
10.574913 4.2059126 0.096901111
10.485964 4.2196536 0.097877815
10.503412 4.2176728 0.098688051
10.514513 4.2161036 0.099558026
10.533663 4.2139597 0.099810936
10.549166 4.2173023 0.09930788
10.572293 4.214963 0.096757196
10.486 4.2270041 0.098713234
10.490922 4.2294617 0.096926689
10.508001 4.2283306 0.099054709
10.552641 4.2244363 0.09901052
10.475849 4.237782 0.091314778
10.493961 4.2352791 0.097231589
10.511722 4.2305918 0.099302046
10.536139 4.2378831 0.09930744
10.544149 4.2339973 0.099270038
10.555912 4.2326193 0.098435193
10.567072 4.2377362 0.096903108
10.580173 4.2377501 0.094349116
10.489009 4.2434158 0.098250166
10.496168 4.2471528 0.098298952
10.503111 4.2462711 0.09788017
10.516314 4.2464161 0.099322371
10.525288 4.2477322 0.098924801
10.546797 4.2449121 0.096404701
10.552099 4.2490454 0.093351312
10.563488 4.2490482 0.094676629
10.578209 4.249135 0.096217185
10.473657 4.2531514 0.090934008
10.483034 4.2557125 0.097038381
10.504081 4.2529774 0.098186076
10.569904 4.2509565 0.098790169
10.572914 4.2530661 0.098546207
10.583826 4.2523789 0.09243387
10.484222 4.2641354 0.097062171
10.575609 4.2651734 0.096060023
10.585951 4.2612805 0.090662546
10.482862 4.2747746 0.092791334
10.579872 4.2781429 0.094011635
10.572225 4.2899065 0.093880862
10.569916 4.2991352 0.090262607
10.582103 4.2954578 0.091815509
10.485258 4.3007631 0.093285814
10.501952 4.384994 0.090255603
10.521101 4.1863909 0.10107502
10.535051 4.1848736 0.10090142
10.548265 4.1857142 0.10068299
10.497072 4.1943383 0.10091322
10.50638 4.195302 0.10159128
10.525408 4.1961613 0.10231833
10.497919 4.207345 0.10177291
10.535334 4.2130919 0.10312215
10.524825 4.2239695 0.10320074
10.535318 4.2250571 0.10318113
10.569341 4.2269797 0.10068712
10.48921 4.232192 0.10042554
10.493359 4.2316041 0.10098462
10.509216 4.2301254 0.10251525
10.515125 4.2342315 0.10258639
10.54436 4.2348652 0.10254849
10.554978 4.2307463 0.10218623
10.509927 4.24754 0.10152641
10.507051 4.2504368 0.10115622
10.516341 4.2516403 0.10040227
10.520397 4.2520809 0.1013349
10.553284 4.2523465 0.10228032
10.566448 4.2533531 0.10067548
