# .PCD v0.7 - Point Cloud Data file format
VERSION 0.7
FIELDS x y z
SIZE 4 4 4
TYPE F F F
COUNT 1 1 1
WIDTH 1558
HEIGHT 1
VIEWPOINT 0 0 0 1 0 0 0
POINTS 1558
DATA ascii
0.6758424 1.8433961 0.19489738
0.7168746 1.8505294 0.19618231
0.68876797 1.9141687 0.19530213
0.79136264 1.9634087 0.19851492
0.70108193 1.981111 0.19568776
0.52942562 1.9958408 0.19031227
0.64193714 2.0398586 0.19383562
0.82536727 2.1194241 0.19957981
0.69974792 2.1461663 0.19564599
0.64816737 2.2275939 0.19403072
0.78898144 2.3446629 0.19844036
0.72253388 2.366653 0.19635952
0.59290075 2.373059 0.19230002
0.77210844 2.3733101 0.19791198
0.7376169 2.4123902 0.19683187
0.61998153 2.4908504 0.19543679
3.4305758 2.5936599 0.1993881
0.25446349 2.6117213 0.19170028
0.80851912 2.6387877 0.19343449
3.0267241 2.757441 0.1941245
3.4294577 2.7905593 0.19687676
0.57837784 2.8111529 0.19936879
0.78358239 2.8739231 0.19834501
0.55769634 2.9060893 0.19150066
0.98118305 1.2745963 0.20468639
1.7330709 1.4128879 0.20775598
1.5247288 1.4284703 0.207756
2.4928372 1.4244442 0.207756
2.3968945 1.4450665 0.20775601
2.7103884 1.4590288 0.207756
2.5197444 1.4716145 0.20775598
1.3115352 1.4869735 0.20775598
3.4345126 1.4820983 0.20822841
2.005374 1.4969394 0.20775598
1.1767373 1.5040607 0.20775598
3.4349349 1.5194331 0.20917654
1.5596664 1.5258029 0.207756
1.5959126 1.5294416 0.20775601
2.3616471 1.5223902 0.207756
1.9312466 1.541921 0.20775601
1.5280135 1.5518407 0.207756
1.7419734 1.5565562 0.207756
1.8131756 1.5619409 0.20775601
1.174225 1.5779576 0.207756
2.4782257 1.5723684 0.207756
3.4350328 1.572063 0.209396
2.6401794 1.5811787 0.20775598
1.6413381 1.5973091 0.20775601
1.7338741 1.6084192 0.20775601
1.9281164 1.6157167 0.20775598
1.6482308 1.6429923 0.20775601
2.7288184 1.6504991 0.20775598
3.0197897 1.6531519 0.20709628
1.2515655 1.660906 0.20775598
1.9395156 1.661817 0.207756
1.0960305 1.6753137 0.20775601
1.353534 1.6885215 0.207756
1.7043684 1.6894236 0.20775601
2.2230339 1.6884214 0.207756
1.0927646 1.7405117 0.207756
1.5651354 1.7449028 0.207756
2.6085317 1.7481959 0.207756
2.8026054 1.7459245 0.207756
1.7453729 1.7574906 0.207756
1.2080556 1.7665827 0.207756
1.8076499 1.7630799 0.207756
1.713025 1.7889 0.207756
1.8690187 1.7971933 0.20775601
2.2776432 1.799399 0.20775601
2.9331808 1.8041047 0.20975989
1.8035467 1.8101618 0.20775601
1.9927869 1.8303137 0.207756
1.0943866 1.8428698 0.20775598
1.7094671 1.8448396 0.207756
1.1038119 1.8513634 0.20775598
1.6573586 1.8536487 0.207756
2.7408676 1.8535893 0.20775598
1.0219299 1.8659813 0.20573521
1.0410038 1.8616098 0.20633252
1.4724075 1.8691216 0.207756
2.7147713 1.8742809 0.207756
1.7946075 1.8842624 0.20775598
2.3910229 1.9022039 0.207756
1.1089907 1.9176936 0.207756
1.8839986 1.9108864 0.20775598
1.9719188 1.9125926 0.20775601
2.0296407 1.91327 0.20934644
2.0910058 1.9130082 0.20775598
2.2600031 1.923683 0.207756
2.7885637 1.9337659 0.207756
0.86213243 1.9419034 0.2007311
1.4390857 1.962676 0.20775601
1.0952575 1.9744704 0.207756
1.7819967 1.9745173 0.20775601
2.9329336 1.9726439 0.20975418
1.2962687 1.9881696 0.207756
2.5628741 1.9804547 0.20775601
1.5923557 1.9964457 0.207756
2.2068608 1.9938145 0.20775598
2.5684052 1.9909947 0.207756
1.1647148 2.0097377 0.20775598
1.8740996 2.0011516 0.20775601
1.5805931 2.025188 0.20775598
1.3025413 2.0336556 0.207756
2.7114363 2.0431921 0.20775598
1.0307902 2.050282 0.20601268
1.5511289 2.059027 0.207756
2.2673604 2.0701294 0.20775601
2.6975632 2.1127214 0.207756
2.7694986 2.1140282 0.207756
1.3100269 2.1319661 0.20775598
2.3568659 2.1350713 0.20775598
2.7021542 2.1486306 0.207756
1.218341 2.1590834 0.207756
1.0363889 2.1609926 0.20618801
1.0846651 2.1735587 0.20767581
2.0785205 2.1790476 0.20775598
2.8530469 2.174618 0.20790821
0.95544004 2.2147579 0.20365307
1.4134872 2.2234347 0.207756
1.6873999 2.2317457 0.207756
1.1491307 2.2467527 0.207756
2.2657347 2.2435105 0.207756
2.8074772 2.2596323 0.20775601
2.7522118 2.2678401 0.207756
2.0539565 2.3138678 0.20775601
2.0129993 2.3364375 0.20775601
2.7026007 2.3341238 0.20775598
2.9280171 2.3367398 0.20964056
2.7073975 2.3473277 0.207756
2.540489 2.3754029 0.207756
1.4893934 2.389791 0.20775598
1.7879851 2.4096458 0.20775598
2.2820911 2.4090536 0.20775598
1.586467 2.4194317 0.207756
1.0525039 2.439476 0.20669265
2.142015 2.4367335 0.207756
2.8225343 2.4396117 0.207756
0.9839747 2.4639771 0.20454663
2.2493672 2.4707747 0.20775601
0.89212501 2.4911499 0.20167032
2.9195659 2.4948335 0.20944527
2.5631025 2.5375745 0.20775601
2.3096485 2.5421984 0.207756
2.054076 2.5578473 0.207756
1.4500332 2.5714629 0.207756
0.87015963 2.5885713 0.20078252
2.0577488 2.5849595 0.207756
1.6664487 2.5996194 0.207756
1.278882 2.6036863 0.207756
1.3825727 2.6093979 0.207756
2.2165041 2.6041865 0.207756
2.4256332 2.6100426 0.207756
2.5153096 2.6172593 0.20775598
0.98217899 2.6278713 0.20797451
0.25927359 2.6437929 0.20875202
1.8706864 2.6655574 0.20775598
2.8148246 2.69943 0.20775598
2.5594091 2.7048175 0.20775598
1.590346 2.7265606 0.20775601
2.7352405 2.7656376 0.207756
3.4334798 2.7653687 0.20590842
2.7007346 2.7743495 0.20775598
1.2893304 2.7947142 0.207756
3.0630164 2.802192 0.20570025
3.4321241 2.8052542 0.20286405
1.4591779 2.8287041 0.207756
1.4130639 2.8375442 0.207756
0.64055431 2.9785528 0.20254308
1.7227252 1.3961278 0.21376833
2.304028 1.4146162 0.21123034
2.9001088 1.4163365 0.21472725
2.2075274 1.5588 0.21774766
0.24004757 1.6402245 0.21594191
2.6107099 1.6988951 0.21336667
3.2629747 1.7186055 0.21738052
3.0246396 1.7674249 0.21187323
3.1696959 1.8387831 0.2152251
3.1169693 1.8581865 0.21400674
2.9870594 1.8931561 0.21100487
3.2676191 1.9916975 0.21748786
3.0925345 2.0183203 0.21344212
2.9542336 2.0252378 0.21024635
0.18719891 2.1223786 0.21615109
3.2160351 2.1493256 0.21629588
3.0986409 2.2651205 0.21358322
1.8267759 2.3317101 0.21369466
2.0411673 2.3317101 0.21570309
2.1416178 2.342123 0.219557
3.3375695 2.3401413 0.2191042
3.2059393 2.3791864 0.21606261
3.3037982 2.3869412 0.21832384
2.9563005 2.4758894 0.21029413
0.62182164 2.4908528 0.21840136
0.8820281 2.5904381 0.21682099
1.8710871 2.6861801 0.21028234
3.4389305 2.706048 0.21849397
3.3735538 2.7895589 0.2150308
0.98971707 1.3484721 0.22943167
2.9500287 1.4418749 0.22249475
1.08646 1.5230036 0.22133055
2.0280843 1.5788701 0.22012272
0.66128957 1.6089084 0.2252894
0.52216566 1.6239085 0.22159253
2.9649069 1.66837 0.22630176
0.63953233 1.6870301 0.22866327
3.0484598 1.71137 0.22164121
2.6107099 1.7520297 0.22523156
3.4605525 1.892956 0.22194602
3.4988177 1.9361303 0.22283022
2.0933328 1.9435499 0.22314446
1.9864217 1.99301 0.22126174
2.5165138 1.99301 0.22660807
0.17304526 2.1702561 0.22574961
3.4054177 2.2484448 0.22067201
2.2600887 2.2816899 0.22803923
3.4870925 2.3036792 0.22255927
3.4071519 2.4522443 0.2207121
0.89181721 2.5085535 0.22239348
1.8099368 2.6963899 0.22012827
3.3764513 2.7662792 0.22153741
0.58032215 2.967591 0.22219929
3.5846381 1.4603627 0.23434108
2.8492785 1.5378408 0.23534209
1.8504508 1.5661399 0.23135701
2.0445352 1.5654001 0.23135699
1.8744375 1.5854961 0.23135701
3.5601342 1.6476172 0.23167928
3.456594 1.66837 0.2389597
3.5938747 1.7443542 0.23834783
3.6007795 1.8239491 0.23979342
1.9716485 1.9390943 0.23135699
1.9568307 1.99301 0.23606142
2.0364435 2.36199 0.23036726
3.521637 2.5513699 0.23655525
3.4950233 2.6075242 0.23035252
1.8506099 2.6963899 0.23461129
1.8579533 2.7062502 0.23599795
3.5216565 2.7137649 0.23619503
1.6814091 2.8470888 0.23503754
1.8942251 2.8406868 0.23817256
0.53655779 1.5626618 0.24190953
3.6181045 1.5626433 0.24474852
1.8147174 1.5788701 0.24301389
2.1464875 1.5740057 0.243157
2.1918874 1.6421603 0.243157
1.758226 1.674585 0.243157
3.6173141 1.7301743 0.2432549
2.6107099 1.759191 0.24785933
1.8385708 1.7670691 0.243157
2.2067719 1.7630107 0.243157
1.8333946 1.7724161 0.243157
2.1953716 1.8506184 0.24315701
1.9267933 1.8923661 0.243157
2.1388452 1.9253529 0.243157
3.6548727 2.1301386 0.24934873
0.1488665 2.2306364 0.24367777
3.6211224 2.2338448 0.24405216
0.14588791 2.2667394 0.24661848
2.1218617 2.3597131 0.243157
1.7675693 2.386415 0.243157
1.9713321 2.4246361 0.243157
2.0303383 2.4864051 0.243157
0.18395509 2.5575423 0.2483533
1.787511 2.5666795 0.243157
2.1958573 2.6176927 0.243157
2.076267 2.649122 0.243157
2.1934013 2.6605999 0.243157
0.21642894 2.7163706 0.24970099
3.6120358 2.7972064 0.24068615
2.4558034 2.8235774 0.24405156
2.0506799 2.8367198 0.24867195
1.08646 2.8436971 0.24306248
0.71164036 2.928093 0.24034804
0.89621866 1.2195702 0.25666526
0.97376066 1.2327074 0.25259125
0.65273762 1.394259 0.25643635
2.8517859 1.4591808 0.25988001
3.0031052 1.4838133 0.2539475
2.8946369 1.5505412 0.25228211
2.1032333 1.5617979 0.25495699
1.9444467 1.5708523 0.25495699
0.19110623 1.5859405 0.25631148
3.6581783 1.5986226 0.25423375
2.7805457 1.6082599 0.25098979
1.7738574 1.6255528 0.25495699
0.53831738 1.6446688 0.25341314
1.9902967 1.6631498 0.25495699
0.62644392 1.6794491 0.25059366
1.8787224 1.6901758 0.25495699
0.170891 1.7052748 0.25417992
3.0545797 1.71137 0.25430956
1.7646275 1.7317765 0.25495699
1.7569363 1.7745225 0.25495699
1.9681811 1.8020413 0.25495699
1.8123515 1.8388441 0.25495699
1.8169417 1.8463582 0.25495699
3.6750031 1.8629388 0.2553322
1.8058573 1.8784791 0.25495699
2.6107099 1.9309001 0.25875327
2.132786 1.9425347 0.25495699
3.660712 1.9759758 0.25234035
3.6747489 2.1175358 0.25317466
1.6653275 2.2816899 0.250249
1.3234066 2.320349 0.25886154
1.8002474 2.3648963 0.25495699
1.8009667 2.4041262 0.25495699
3.6499038 2.4110813 0.25007761
0.14744809 2.4257705 0.25561261
1.9114172 2.4239385 0.25495699
1.8013903 2.430388 0.25495699
1.8456521 2.4810972 0.25495699
3.6834621 2.4882994 0.2571032
2.1875267 2.5286124 0.25495699
0.17418489 2.5413997 0.2528331
2.0739326 2.5468147 0.25495699
2.180439 2.5768931 0.25495699
1.7522433 2.5838568 0.25495699
2.2141204 2.6818252 0.25963429
1.8421547 2.6978977 0.25495699
3.6631389 2.7587471 0.25405043
1.8956298 2.8422256 0.25571653
0.46398073 2.911674 0.25750065
1.6559405 1.3897414 0.26355806
2.1394286 1.4043713 0.26747906
2.5828099 1.4183429 0.26698488
3.1765668 1.4263427 0.2672292
2.8524892 1.4780064 0.26676303
3.6984229 1.5560832 0.26431453
3.7035799 1.614403 0.26252079
2.2249281 1.6270816 0.26856506
3.1304715 1.71137 0.26515892
3.7259922 1.7684333 0.26600695
1.9255606 1.9456258 0.26211974
3.7260528 1.9610858 0.26601958
3.7062135 1.9994669 0.26140785
3.7055614 2.2872133 0.26172972
3.7003117 2.5446906 0.26063067
3.7261665 2.6254709 0.26718259
1.905255 2.8424459 0.26171285
0.59450072 3.0093737 0.26494095
0.91442919 1.3339617 0.27151018
0.73602957 1.3471571 0.27295479
0.29626936 1.4058805 0.2717495
0.62187982 1.4138473 0.27107492
2.9990509 1.4904184 0.27302447
1.8187089 1.5533495 0.27376264
0.42646396 1.5958881 0.27291331
3.7686281 1.6669507 0.27539647
3.7622986 1.6834297 0.27382454
3.7648687 1.809855 0.27414578
2.1130021 1.9479562 0.27015984
3.7579412 1.9985821 0.27127025
2.5183344 2.0900781 0.279587
2.5264349 2.1570132 0.279587
2.5100937 2.1765847 0.279587
3.8078978 2.1827054 0.2798655
2.9338479 2.52863 0.27006179
3.2952495 2.5286303 0.27520978
1.0864601 2.5508258 0.2763083
2.6607552 2.66645 0.27348921
2.1059699 2.7218783 0.27365163
3.7338977 2.7202444 0.27223861
2.7753029 2.8166676 0.27869859
2.526041 2.8238606 0.2716448
2.88747 2.8350775 0.27109188
0.81305522 2.8622899 0.27432486
0.58221787 3.0687547 0.27400124
2.7396653 1.4212253 0.2896477
2.9983301 1.481534 0.28823933
0.21999998 1.6625634 0.28986913
3.5188341 1.6820956 0.28835809
3.9093814 1.7506031 0.28995192
2.2430201 1.7958376 0.28351486
3.8103809 1.8197666 0.28367385
0.12868086 2.0945776 0.28984299
2.6107097 2.2552807 0.28531855
2.2476542 2.3751516 0.28734434
0.20620507 2.4205563 0.28984299
0.17561282 2.5658445 0.28984299
1.7487749 2.5698707 0.28975555
0.98159498 2.6822078 0.28436825
3.49436 2.6810935 0.28291276
3.7887716 2.7403328 0.28527117
2.8544736 2.8088391 0.28618371
2.6689687 2.8206105 0.2853823
2.3223448 2.8318191 0.28918651
0.53535765 2.9310589 0.28500223
0.58986837 3.0093849 0.28686193
0.57541728 3.0756125 0.28534892
1.2637981 1.3822293 0.29979914
3.4499297 1.5863595 0.29975238
3.8449745 1.6687996 0.29152179
2.2567337 1.6743914 0.29484689
0.22 1.7429461 0.29242572
0.5068202 1.7492901 0.2926268
2.2800512 1.99301 0.29246521
3.877032 2.18994 0.29344082
3.8616545 2.4252603 0.29440811
3.8662508 2.4702525 0.29537031
3.8670199 2.5716591 0.29619205
2.88747 2.6087203 0.29598776
2.8556614 2.6499965 0.29782188
2.7086682 2.66645 0.29661354
0.98945016 2.6918411 0.29488307
2.9398699 2.7459888 0.29805633
3.688344 2.800298 0.29392838
1.0862547 2.8256869 0.29354295
0.5902108 2.9102888 0.29822576
1.5731263 1.3945067 0.30752465
2.0906765 1.4020902 0.30997625
0.21721642 1.4531047 0.30881351
3.8911805 1.5162654 0.30513406
2.0708559 1.5445926 0.3039766
2.9398701 1.5945206 0.30531463
3.7153964 1.6117055 0.30894047
3.7133658 1.6639626 0.30020967
0.93257076 1.7487611 0.3004587
1.8797755 1.9577949 0.30410606
2.0115211 1.9574381 0.30287495
3.9567652 2.1176772 0.30832148
0.22 2.2621446 0.30453604
1.7313275 2.2816896 0.30653113
2.1681542 2.2816899 0.30218929
0.7804358 2.4910488 0.30065459
1.0733858 2.4914134 0.30743986
0.85262036 2.6079111 0.30043989
2.88747 2.6016161 0.30158007
3.44993 2.609118 0.30684763
3.5177498 2.6493535 0.30839834
0.42764825 2.6555142 0.30623019
0.17331605 2.7047467 0.30564851
3.235363 2.8132901 0.30693674
2.422514 2.8299317 0.30410424
0.57199186 2.9849575 0.30689162
0.86473036 1.2642958 0.31829491
2.9467735 1.4017165 0.31007695
3.9478381 1.530884 0.31601572
0.60453272 1.6635127 0.31940913
2.2793481 1.7295167 0.31353402
0.42844436 1.7343137 0.31654918
2.2762952 1.8422692 0.31101128
1.7567412 1.8523868 0.3123287
3.9712694 1.8985755 0.31438819
1.9063661 1.99301 0.31190604
3.9770796 2.311208 0.31472665
3.9712753 2.398149 0.31582868
0.44536576 2.4906316 0.31046426
1.0466609 2.4913797 0.3198424
3.9551172 2.5103185 0.31397471
0.90197599 2.5723295 0.3116686
2.9430609 2.57163 0.31356663
0.22 2.5861616 0.31965646
0.4286651 2.6929336 0.31940985
0.19104934 2.7039051 0.31845629
1.0038723 2.7115383 0.31334475
2.114399 2.7339141 0.31517893
3.4980865 2.7532754 0.31763563
2.8382204 2.8183544 0.31905302
1.2900538 2.8574162 0.31295907
0.5349555 2.9343562 0.31733775
0.48859698 2.9597285 0.31669849
0.94115847 1.2667451 0.32907534
3.1513016 1.4444922 0.32381234
3.44993 1.4489393 0.32076639
0.19102037 1.4837418 0.32024246
0.20985302 1.5272326 0.32243621
1.812508 1.5393624 0.3220222
0.42911005 1.58714 0.32517788
2.7284648 1.60826 0.32925773
2.8597844 1.6727523 0.32690299
3.7583523 1.7180586 0.32987505
0.57789898 1.7492014 0.32162789
3.756083 1.7436099 0.32539499
1.3011544 1.7620927 0.32743156
1.6559632 1.99301 0.32994229
0.16617782 2.1092935 0.327842
2.2834852 2.3492656 0.32906175
2.2927785 2.344491 0.32463193
4.0198398 2.3527761 0.32391548
2.2893291 2.3632042 0.32978699
0.15210174 2.3930974 0.327842
0.77107882 2.4910352 0.32033804
2.292484 2.4939647 0.32438883
0.96056628 2.5636692 0.3221333
0.22 2.5851665 0.32157978
1.0840487 2.628334 0.32215708
2.9548416 2.8315253 0.32305792
1.3856151 2.8513269 0.32410109
0.47556219 2.9419172 0.32391593
0.89023161 1.167328 0.33572447
0.86430854 1.2272902 0.33537322
0.99914491 1.2623911 0.33569068
2.8976643 1.4039001 0.33811536
1.7665637 1.5362053 0.33291492
2.3118 1.6218276 0.33259901
2.3384795 1.6320806 0.33259901
3.2265034 1.71137 0.33091134
3.7149529 1.7197794 0.33058909
4.0403228 1.8060126 0.33553803
1.8243905 1.9673193 0.33696818
4.0644717 2.0958922 0.33222267
0.16382986 2.6323946 0.33820438
1.764293 2.6687541 0.33602822
2.3393884 2.6762109 0.33370572
0.44457871 2.8390336 0.3361994
0.76235569 2.8903747 0.3380633
3.4993927 1.445302 0.34325123
3.8286285 1.4524218 0.34125978
3.8850889 1.4573368 0.34438807
0.47421935 1.4974465 0.34174353
3.9810076 1.4987941 0.34620118
3.515934 1.5245376 0.34195924
2.2896776 1.5785942 0.34913647
0.663863 1.6417334 0.34001231
2.3678997 1.8652495 0.34707415
0.19143134 1.9547772 0.343858
1.7456784 1.9695969 0.344827
1.5864007 1.9817374 0.34842855
0.19446488 2.137918 0.343858
0.21160239 2.1375 0.343858
1.9121835 2.3068118 0.34086305
0.22 2.3214221 0.34388629
0.19588464 2.3443546 0.343858
1.2965602 2.3902922 0.34261692
0.95657998 2.4912663 0.34794468
1.0291984 2.4913573 0.34285593
1.7449021 2.5526824 0.3467685
0.8231678 2.5636184 0.3441667
3.0049863 2.7037516 0.34905726
1.92523 2.7430997 0.3468715
3.5156848 2.7586474 0.34656104
1.5545212 1.3950679 0.35008776
3.4437685 1.6125585 0.35288522
3.4966416 1.6679252 0.35619155
1.7702261 1.8922483 0.35464835
2.466058 2.2307372 0.35533842
4.0727372 2.2913294 0.35600442
1.7878025 2.3012893 0.35991666
2.3439229 2.3690743 0.35511446
2.3952792 2.4885056 0.35057259
2.3078485 2.5964046 0.35019735
1.4725006 1.3891245 0.36520591
3.4236689 1.4105588 0.36474389
2.7121892 1.4220281 0.36593977
3.6217046 1.4285266 0.36112231
1.9036595 1.4830022 0.36301538
2.9477768 1.4973583 0.36106735
3.9873853 1.507732 0.36761886
2.9036076 1.5160547 0.36607975
1.8572719 1.5270234 0.36459544
2.0377281 1.5280004 0.3612248
0.46918869 1.5680971 0.36919636
1.9579028 1.614222 0.36963964
1.9288369 1.6377041 0.36717457
3.4943237 1.6395537 0.3670924
2.0540226 1.6593008 0.365758
2.0621519 1.729447 0.36589527
0.22 1.7455279 0.3631705
2.011471 1.7525485 0.36511001
2.1214056 1.8033125 0.36579359
1.939064 1.8698556 0.36546111
1.7862411 2.2816899 0.36040151
4.0698595 2.3314447 0.36491668
2.1806962 2.4213736 0.36752674
2.0575068 2.4608588 0.365758
2.0964427 2.4869549 0.36629358
0.55583417 2.4907637 0.36937794
1.8216934 2.5006936 0.36603028
4.0447693 2.5171793 0.36370686
3.1201181 2.52863 0.36881405
1.776605 2.5655568 0.36642545
2.1105211 2.5682292 0.36606023
4.0368552 2.5691361 0.36888814
1.8327696 2.5962126 0.365758
3.8797932 2.7831068 0.36532521
2.34799 2.8240707 0.36070138
1.6794488 2.842654 0.36017728
0.7252323 1.3346915 0.37285495
1.2705734 1.373724 0.37905455
2.6337419 1.4204856 0.37224823
2.8711023 1.438251 0.3782039
2.2118971 1.4871628 0.37461624
3.48683 1.5995282 0.37138426
2.031369 1.6063889 0.37488866
2.6107097 1.6083369 0.37644091
3.4029727 1.66837 0.37836283
0.92063475 1.7487767 0.3739793
2.1239295 1.8712869 0.370572
1.9323988 1.8895507 0.37199119
2.2624238 2.314894 0.37255448
0.22 2.3577037 0.37735558
1.8092444 2.3725183 0.37430018
0.86603814 2.4911523 0.37297651
2.8528626 2.66645 0.37954545
3.3735156 2.6694784 0.37920895
0.16211751 2.689606 0.37541175
1.9497677 2.6928725 0.37512136
3.5144081 2.729347 0.37015826
3.9562714 2.7555273 0.37599894
2.2747538 2.7931743 0.37772691
3.0997257 2.8131673 0.37781468
1.9035029 2.8373008 0.37082058
3.4830306 2.8441899 0.37326401
0.84261501 2.8580546 0.37222314
1.3075776 2.8640347 0.37791526
0.63877487 2.9607499 0.37571034
0.60163659 3.0104959 0.37803987
0.33722353 1.3782225 0.38476551
1.4138846 1.3814715 0.38728637
3.7519507 1.442885 0.38053995
2.8727326 1.4637494 0.38558656
1.6751163 1.4970477 0.38395697
2.3017216 1.5588487 0.38817853
0.15523858 1.6876425 0.38218504
2.8725617 1.6922967 0.38479865
2.2196348 1.7023365 0.3819347
3.0704963 1.71137 0.38583106
0.14703487 1.7293608 0.38218501
0.13422859 1.8211616 0.38218498
0.096739367 1.8766727 0.38218501
0.1955767 1.8841603 0.38218498
0.085028417 1.9185549 0.38346747
2.1859083 1.9742205 0.38452467
0.11661208 2.0927882 0.38218501
0.15724829 2.2919621 0.38218501
0.088872753 2.3066146 0.38218498
2.3232813 2.336823 0.38382387
0.18012843 2.3717022 0.38218501
4.0585246 2.4164567 0.38597798
0.52358937 2.4907231 0.3869538
3.4483223 2.52863 0.38321722
0.94700289 2.5519741 0.38300323
2.995332 2.57163 0.38047841
3.4329338 2.5835853 0.38947034
0.98373985 2.6166277 0.3817696
2.8715584 2.6533194 0.38025221
1.8788769 2.7400579 0.38966161
0.9428184 2.7550545 0.38929194
3.3128574 2.8051028 0.38882852
2.2814536 2.8305399 0.38714701
1.7450347 2.8447359 0.38542548
0.56590152 2.9620366 0.38505161
0.6144762 3.0259614 0.38118505
0.58179611 3.0704699 0.38325718
1.4022381 1.3801996 0.39971656
0.97443151 1.4316037 0.393152
1.0732212 1.4471716 0.39762023
0.20010152 1.4512248 0.39152798
2.8744433 1.5079931 0.3929489
3.4891334 1.5087674 0.39150393
2.3201311 1.8268061 0.3900134
1.6236771 1.9880177 0.39147177
1.8461487 1.9827566 0.3902519
1.8681889 1.9838835 0.39414299
1.8914647 1.9843934 0.39590129
2.0703769 1.99301 0.39714187
4.0767369 2.1097603 0.39175659
0.081378631 2.2245989 0.39343548
1.2786014 2.3338127 0.39835554
0.94098186 1.2014718 0.40098757
0.95617878 1.2316923 0.40130973
1.0189831 1.3102658 0.40121853
0.91928053 1.3718748 0.40721491
1.5849178 1.3871294 0.40854365
3.030977 1.6642526 0.40588391
0.11703961 1.7159361 0.40530476
0.77780139 1.7489562 0.40853536
0.10529308 1.7759426 0.40511382
2.2254105 1.81655 0.40688545
2.3259325 1.8335527 0.40881935
2.3056126 1.8556459 0.40079224
2.0135581 1.9856988 0.40040448
2.3082285 2.333576 0.40927267
2.3259962 2.4895678 0.40902588
3.1620488 2.52863 0.40140468
3.3606985 2.686101 0.40331557
2.3108518 2.7210526 0.40626049
0.93015563 2.7505472 0.4079009
0.46897221 2.9192824 0.40012348
1.0683532 1.3958656 0.41101643
3.6344962 1.4275484 0.41142303
3.4977822 1.462921 0.41281086
0.44593883 1.4721622 0.41476387
2.9137087 1.4711473 0.41509333
2.9700608 1.5678368 0.41909635
2.3970032 1.6539264 0.41210926
0.65002942 1.6849573 0.41635999
0.63301432 1.7491363 0.41845489
0.710639 1.7490401 0.41709939
2.4180021 1.760972 0.4143135
2.3263664 1.8010336 0.41022572
0.086362496 1.8831553 0.41457316
1.3427881 1.95558 0.41887176
1.7858405 1.99301 0.41123828
3.429728 2.52863 0.41413537
0.95225251 2.5729218 0.41897774
3.4228458 2.6844344 0.41212291
2.1109476 2.7243521 0.41765985
2.7974553 2.8225591 0.41984063
0.98339152 1.2836581 0.4239192
0.86208528 1.3236272 0.42915976
2.8576269 1.4127458 0.42182356
1.0634952 1.42869 0.42438495
2.330142 1.4649782 0.42239437
2.0272295 1.5287515 0.4248645
3.4667046 1.5268557 0.42239591
0.45041347 1.7198789 0.42707616
2.2322614 1.8265486 0.42909616
1.5793041 1.9805419 0.42588326
2.6107099 2.0956841 0.42148465
0.090000004 2.1124659 0.42955139
2.6107099 2.1242347 0.42501166
0.07 2.1512711 0.4271484
1.8915647 2.2863977 0.42829922
2.014786 2.2817967 0.42718977
2.4159205 2.4747224 0.42369783
0.91672474 2.5367897 0.42828381
0.83291757 2.5701985 0.4293384
3.3440735 2.719039 0.42619425
2.0161495 2.732662 0.42693201
3.6401174 2.8123238 0.42613187
3.0802605 2.8214848 0.42891449
0.49632981 2.9337349 0.424133
0.67701 2.9605696 0.42945135
0.6108098 2.9917603 0.42690539
0.873595 1.3393557 0.43014565
0.45495251 1.3598695 0.43956578
2.9776182 1.4133096 0.43189955
0.4528684 1.4835863 0.43383113
2.3298097 1.84736 0.43164262
2.3651204 1.9100573 0.43201381
2.0228844 1.9858439 0.43101388
1.8975919 1.99301 0.43885094
0.090000004 2.0378969 0.43779096
1.9701502 2.0741525 0.43704399
1.8155661 2.0800254 0.43704402
1.9359825 2.1630526 0.43704399
1.4898995 2.3142147 0.43446288
3.3321793 2.52863 0.43413842
3.0511441 2.6267209 0.4321577
0.45458448 2.7109599 0.43855307
1.0557234 2.7421386 0.4326646
2.2252285 2.7512972 0.43372846
2.2664893 2.8383455 0.43196329
0.64145428 3.0237055 0.43414849
1.0552977 1.3799117 0.44694307
2.0168738 1.3967239 0.4477531
3.1363411 1.4301755 0.44234282
2.2301865 1.6096431 0.44740245
3.4809859 1.6898309 0.44975156
1.2646825 1.837118 0.44058242
0.085533723 1.9051464 0.44542623
1.5914991 1.9825964 0.44998908
2.6107099 2.2163663 0.44165853
2.3068063 2.2816899 0.44992733
0.93970823 2.4912438 0.44885278
0.45792717 2.5245769 0.44775078
2.4231319 2.5709004 0.44394505
2.6107099 2.5907769 0.44703323
2.9897263 2.8120258 0.44856602
0.4559795 2.8491502 0.4478454
0.8456201 2.849206 0.44647163
1.9744881 2.8442369 0.44125292
0.5923962 2.954684 0.44707865
0.74558789 2.9513202 0.44027066
0.8371101 1.3331795 0.45729929
0.25200352 1.4095463 0.45760539
0.90729177 1.4095552 0.45033133
2.2737148 1.438063 0.45138806
0.56791383 1.4649425 0.45345828
2.755039 1.470996 0.45143116
2.9264836 1.4745187 0.4500533
0.15720372 1.5254979 0.45023721
3.3960009 1.541543 0.45417202
2.6471748 1.6082599 0.4546468
3.3926749 1.66837 0.4558647
2.6107099 1.8907864 0.45376682
2.3646972 1.9194509 0.45551503
0.083940022 1.947435 0.4503606
0.08192192 2.2390149 0.45012319
2.2126102 2.2816899 0.45053339
2.4304855 2.4918454 0.45764393
2.4171541 2.6089783 0.45977533
2.2385068 2.6189034 0.45046169
2.9033508 2.6533875 0.45306486
3.4803681 2.6917233 0.45062757
3.3719699 2.8290002 0.45700109
0.41268823 2.8776207 0.45420545
1.1079495 2.8797998 0.45265275
0.68220925 2.9310873 0.45615786
1.0761281 1.3576131 0.46082667
0.37820256 1.3674026 0.4653399
3.3903584 1.4541652 0.46193847
0.46374121 1.6665044 0.46374846
0.07 1.9141436 0.468384
2.3325007 1.99301 0.4610379
0.090000004 2.1462379 0.46562958
2.6107099 2.1662908 0.46500856
0.9940474 2.6736741 0.4663758
3.3854764 2.6786335 0.46865836
0.55945605 2.7860944 0.46885839
1.0505201 2.803359 0.46009061
3.2567983 2.8021078 0.46641874
2.8236074 2.8308165 0.46572724
2.0626931 2.8423676 0.46655056
0.63971561 2.989084 0.46445709
0.38593036 1.3678507 0.47805226
0.6353606 1.4081517 0.47528529
2.8244457 1.4091375 0.47638565
3.4949276 1.4089192 0.47185859
0.23397829 1.4290525 0.47530985
2.3619442 1.4595962 0.47578198
2.2392979 1.471355 0.47790506
3.2764938 1.4971178 0.47695765
1.0419028 1.5057751 0.47419661
3.4468303 1.6035653 0.47336173
2.9345126 1.6124642 0.47094303
2.9200373 1.6365035 0.470943
2.9192603 1.6701422 0.470943
2.778574 1.6991284 0.470943
2.6526148 1.7089299 0.470943
2.95029 1.7561066 0.470943
3.3892946 1.7705023 0.47094202
2.6606641 1.783349 0.47094202
2.9072547 1.7883556 0.47094199
2.863261 1.7904558 0.47094202
2.8613224 1.8092062 0.470943
3.1578555 1.806551 0.47094196
2.708046 1.8349874 0.47094199
2.8407204 1.8396164 0.47094202
2.9524884 1.8511419 0.470943
3.1528592 1.892565 0.47094196
2.6526477 1.9051063 0.47094202
2.775476 1.9159403 0.47094297
3.225997 1.9184427 0.47094199
3.4366493 1.9134368 0.47094202
2.8042841 1.9463403 0.470943
0.085126862 1.9562016 0.47047803
2.9409769 2.0078776 0.470943
2.6574366 2.0179765 0.47094297
2.7060289 2.028764 0.47094303
2.8848743 2.0346949 0.47094199
2.9329543 2.0466042 0.47094196
2.7225015 2.0555754 0.47094202
2.875669 2.0505519 0.47094297
2.8466022 2.0899892 0.470943
3.2231469 2.1148982 0.47094199
2.6989241 2.1599987 0.47094199
2.8621235 2.164511 0.47094202
2.6679859 2.2253997 0.470943
2.660146 2.2376428 0.47094199
2.8401809 2.2455552 0.470943
2.7897892 2.2530489 0.47094202
2.1321149 2.2816899 0.4778547
2.3185065 2.2816899 0.47156629
2.6571705 2.2829003 0.47094199
2.7538474 2.2880313 0.47094202
1.3381417 2.3153069 0.47240371
2.7703507 2.3174722 0.47094303
3.0403194 2.3912604 0.47094199
2.8544564 2.4477134 0.470943
2.8001225 2.4568222 0.47094202
2.6821163 2.4622142 0.470943
3.1588311 2.4641743 0.47094196
2.6780403 2.5010817 0.47094297
2.7508435 2.5081246 0.47094303
2.6771846 2.5498998 0.47094196
2.729866 2.5411592 0.47094303
2.6852047 2.5979559 0.47094199
2.8179345 2.6124005 0.47094202
2.9534841 2.6226013 0.470943
2.7337995 2.6337018 0.47094202
2.7424722 2.6422868 0.47094303
2.0853908 2.71839 0.47783902
2.6071804 2.7739706 0.47150049
3.5937862 2.8196585 0.47974837
3.5807004 2.8211391 0.4725835
3.4433684 2.8312652 0.47812742
0.36244929 2.8662643 0.47902197
0.67660248 2.8972366 0.47429216
0.7047627 2.9244449 0.47387594
0.62115008 2.9563329 0.47550184
0.93843991 1.2727791 0.4860059
1.0313898 1.4069786 0.48891515
0.63352263 1.4110739 0.48646599
3.3100581 1.4169912 0.48794222
0.47598371 1.4653026 0.4811343
0.62915677 1.5914805 0.48272425
4.0528154 1.6833106 0.48850989
2.7775376 1.7320721 0.48019296
2.6412826 1.8042291 0.48019299
2.7948718 1.8045957 0.48019299
2.7718127 1.9837358 0.48019296
2.9512372 1.9848375 0.48019299
2.9407721 2.022644 0.48019299
2.8445399 2.0388408 0.48019302
2.9282956 2.1714616 0.48019302
2.8408456 2.224997 0.48019302
2.1040134 2.2425585 0.48693371
1.4862432 2.3149424 0.48834825
2.7740865 2.3863795 0.48019296
2.9592967 2.4366264 0.48019299
2.7013571 2.4692438 0.48019299
2.6977403 2.4785023 0.48019299
2.737709 2.5089548 0.48019296
2.9425685 2.529999 0.48019302
3.0191526 2.6352837 0.48201337
2.6714585 2.6491826 0.48019299
0.90289909 2.6689708 0.48394513
2.4689322 2.7778065 0.48321676
2.8096826 2.774168 0.48207107
2.9268951 2.79916 0.48593718
3.3618569 2.8054848 0.48992813
2.5082693 2.8347449 0.48268789
3.0256414 2.836556 0.48785597
1.4290152 2.8566985 0.48025399
0.41640937 1.3651897 0.49169415
0.84357023 1.4193373 0.49037862
0.6045512 1.422832 0.49727613
1.8742058 1.451978 0.49503231
3.0341477 1.4635613 0.49551517
0.70314276 1.4933965 0.49504641
2.8906424 1.6008623 0.49939984
2.9339449 1.6069673 0.49466702
0.62713689 1.6846551 0.49021289
0.48370731 1.7493234 0.4907091
0.87434 1.7488359 0.49497256
2.3342245 1.9030857 0.49354357
2.2499163 2.0235829 0.49861801
2.1400633 2.0834327 0.49229431
2.1946359 2.0909796 0.49861801
3.3339324 2.52863 0.497742
3.2278671 2.5939736 0.49127066
3.2352738 2.6890182 0.49049228
0.48418745 2.699141 0.49262083
1.8757191 2.71839 0.49248955
2.9350412 2.7507129 0.49602294
3.2695765 2.8051805 0.49375901
2.8571992 2.832653 0.49924248
1.2954414 2.8631337 0.49842769
0.86773872 1.314894 0.50411302
0.70057601 1.3938206 0.50816238
2.9432116 1.4459639 0.50614381
3.0396709 1.4542379 0.50048822
0.63363463 1.5606387 0.5033375
3.0526068 1.6088067 0.5094099
2.6178877 1.8409181 0.50305176
2.6198525 1.9398006 0.50862944
1.8264613 2.1329236 0.50015116
1.8378775 2.1320515 0.50979102
1.3298415 2.3143609 0.50785202
0.94413525 2.6564341 0.50179809
3.3398015 2.6786962 0.50790441
1.6596482 2.8465247 0.50365388
1.5736611 1.3934997 0.51057786
2.0604467 1.4010326 0.51853645
2.3520062 1.4019783 0.51131189
3.4142842 1.4830287 0.51323777
3.0601463 1.5090193 0.51376247
2.9932702 1.5164659 0.51902336
0.18586771 1.5785058 0.5186162
2.2590959 1.8232622 0.51609552
3.2614689 2.57163 0.51119208
2.6492233 2.6794529 0.51396304
2.7881308 2.7759275 0.51499099
3.0576439 2.8151963 0.51231778
2.6634164 2.832649 0.51033568
3.4129567 2.8354106 0.51442969
0.85291016 2.8652434 0.51659322
1.0152731 2.8813384 0.51147938
3.0863507 1.3975 0.52661908
3.0849216 1.4986836 0.5280658
2.3011184 1.5390427 0.52765471
0.69276261 1.6706146 0.52945143
1.2383794 1.8136364 0.52209526
2.2622285 1.8398867 0.5262444
0.15044734 2.2919385 0.52468491
2.6234627 2.5456345 0.52402377
2.9551616 2.5462255 0.52094185
3.3028233 2.5730379 0.52925748
3.0846577 2.6131475 0.52791327
2.3428059 2.6224694 0.52136254
3.0776381 2.6294537 0.52386087
0.60692668 2.7519572 0.52822447
1.7353168 2.8420162 0.52559286
3.2824101 1.3983994 0.53362668
2.8721063 1.4064519 0.5362609
3.4068789 1.432111 0.53677261
0.59454727 1.4410343 0.53414702
0.70874715 1.5722653 0.53892839
0.99582767 1.5755104 0.53801805
0.99547225 1.5851796 0.53830504
2.9747639 1.5861676 0.5367009
2.9924924 1.6407491 0.53868353
0.65166795 1.6570518 0.53278869
3.4062252 1.6741104 0.53735191
0.15159392 1.9989979 0.53779018
0.14699559 2.1160035 0.53003693
4.104023 2.2535255 0.53902841
1.2331836 2.3855016 0.53986311
3.4070117 2.5803947 0.53665447
3.4134908 2.6334672 0.53090811
4.0425305 2.6799958 0.53281492
2.219125 2.7460027 0.53329796
3.3946481 2.7609568 0.53091598
3.0368428 2.8441899 0.5381602
0.25559852 1.45495 0.54958218
2.6255503 1.4578578 0.54119587
2.3541472 1.5543014 0.54567432
3.3921721 1.6398032 0.54981625
0.22635441 1.6494746 0.54600012
3.3613839 1.66837 0.5411073
4.0640049 1.674536 0.54588467
2.4599273 1.7791991 0.54678929
0.91296995 2.4912143 0.54365611
0.99104983 2.5915198 0.54187393
0.9909842 2.6177132 0.54192686
3.2605455 2.6462872 0.54390562
0.82494074 2.6604488 0.5442335
2.2605786 2.7509589 0.54492372
3.3723264 2.7800245 0.54963273
0.47478068 2.8815703 0.54723865
0.71836722 3.0139976 0.54548377
0.87177497 1.313496 0.55831641
0.65814579 1.3635449 0.55348301
0.62162966 1.3916047 0.55622643
1.6170294 1.4767747 0.5561558
3.1945121 1.5262852 0.55347323
3.1616096 1.6225796 0.5500145
0.67651486 1.6364688 0.55085689
3.2058051 1.6503732 0.55236781
2.6341333 1.9579645 0.55304658
2.293586 1.9686334 0.55701697
2.9960198 1.999109 0.55939186
0.15701376 2.3071494 0.55008078
1.4979098 2.3126206 0.55989635
2.9929194 2.6166136 0.55080611
3.3521068 2.6319258 0.55448604
3.3397453 2.7751331 0.55902719
0.55877072 2.7920754 0.55767226
3.0313625 2.8030033 0.55764908
0.60938144 2.9386733 0.55347461
0.66645086 1.350165 0.56697035
0.72901618 1.3904848 0.56700963
3.2717087 1.3958199 0.56859189
2.7302229 1.415048 0.56788492
0.29930019 1.4218717 0.56941599
0.79300404 1.4747727 0.56722271
0.76131773 1.4839092 0.5660826
3.3750634 1.5139802 0.56219435
0.81144023 1.5244322 0.56757683
0.87637424 1.5220538 0.56342596
0.96667141 1.5846834 0.5615474
1.2902471 1.6098778 0.56293046
0.96659338 1.6111715 0.56161046
0.96015388 1.6674619 0.56680715
2.9054899 1.7495908 0.56710643
1.3558202 1.752238 0.56334949
2.3741136 1.7692432 0.56501991
2.6862881 1.7666477 0.56793487
2.6169772 1.7780056 0.56276727
1.3316636 1.7899364 0.56346041
2.8591413 1.7809819 0.56702673
2.373672 1.7932996 0.56358051
2.9929321 1.7912567 0.56958759
2.6160748 1.8145639 0.56301588
2.7433569 1.8610052 0.56132734
2.8827884 2.4436262 0.56764483
2.877712 2.4968014 0.56722164
2.3729923 2.5077767 0.56138545
2.8455751 2.5872126 0.5698666
3.3372889 2.6155491 0.56986386
1.2888539 2.7302165 0.56622356
2.228374 2.7396002 0.56996888
0.84485352 2.867188 0.56034702
3.325434 1.4245839 0.57670885
0.28452668 1.4398586 0.57850415
2.2584462 1.4490213 0.5740431
3.0292399 1.4419007 0.57522249
0.95528984 1.4564571 0.57073247
3.2957697 1.5282304 0.57916999
2.8995047 1.5704014 0.57849801
3.0040629 1.9799355 0.57848012
1.6366825 2.0917006 0.57506305
4.1014733 2.1637266 0.57301825
2.3778534 2.4579051 0.57713121
2.8455129 2.6230624 0.5747847
2.9300761 2.6319761 0.57584006
0.89367312 2.6795206 0.57098836
0.69067675 2.69874 0.57708764
0.78171945 2.7622299 0.5754438
3.6938076 2.8067169 0.57530499
0.28478742 1.4406095 0.58058441
2.2510386 1.4502357 0.58694899
2.6516025 1.4550118 0.58468765
3.2855616 1.4682341 0.58809805
2.8697743 1.4839945 0.58588797
3.0442469 1.5205798 0.58209598
2.9433157 1.6194651 0.58543265
3.0458546 1.7112086 0.5828324
2.9820263 2.1450334 0.58774662
0.93669111 2.6321554 0.5857417
0.28490773 2.6978908 0.58475107
3.0991809 2.7680888 0.58922839
2.664628 2.7843451 0.587726
1.8586514 2.7965541 0.58312553
3.8287282 2.7909102 0.58891249
0.75054109 2.9957528 0.58656591
3.388598 1.4015445 0.59779966
0.60642314 1.4436396 0.5969671
1.950763 1.4466946 0.59981781
3.2568407 1.4413556 0.59969187
3.1760278 1.5020754 0.59601808
0.59411025 1.5491592 0.59697002
3.1171436 1.5783696 0.59506488
2.6998117 1.5879334 0.59888142
3.1956174 1.5828483 0.59947163
0.25418702 1.6039382 0.59864569
0.58577579 1.6320387 0.5933733
3.2618017 1.6548625 0.59859234
4.0711861 1.8093913 0.59074616
2.2363994 2.3141699 0.59388971
3.1081333 2.52863 0.59715301
3.2892478 2.5286303 0.59971654
2.739435 2.6687899 0.59751457
3.22557 2.6922958 0.59828579
2.2521341 2.7154722 0.59604049
2.7652528 2.7120843 0.59868842
3.1085753 2.7345276 0.59201396
2.1868045 2.7896934 0.59793329
2.6746242 2.7832818 0.5970434
0.89101338 2.8181705 0.59998798
3.4561715 2.8306737 0.59989202
0.60210681 2.8477755 0.59011674
0.60946816 1.4004209 0.6064471
1.925456 1.4467674 0.60449922
0.64891279 1.4640507 0.60369062
0.89428461 1.4741317 0.60755718
3.1006377 1.5565073 0.60456425
4.0171442 1.5885725 0.60968983
3.1694994 1.6070037 0.60023862
2.2804642 1.615294 0.60750878
3.1064734 1.6477039 0.60573792
2.8682175 2.0350993 0.60010827
1.5788889 2.15745 0.60764277
2.8360786 2.2692587 0.60651284
4.0513434 2.4902 0.60569942
3.1417789 2.6436641 0.60061902
0.60314882 2.7195961 0.60087061
3.263876 2.7336571 0.60835093
3.3770185 2.8387537 0.60608655
1.6183435 1.3983291 0.6191662
3.337312 1.3979839 0.61801404
3.2494147 1.4177177 0.61225313
0.81287253 1.4294778 0.61516982
0.87223613 1.4732349 0.61707222
2.2306616 1.5076286 0.61615139
0.82445341 1.5323081 0.61262596
3.2015109 1.6075847 0.61592299
2.3898537 1.7409921 0.61604315
2.291532 1.7570242 0.61934239
2.2863295 2.4203444 0.61007452
1.4978356 2.4762583 0.61037713
2.289752 2.6113501 0.6154778
3.1432281 2.6597066 0.61313009
2.8128645 2.7106152 0.61552554
0.6278429 2.7630875 0.61152726
2.3140631 2.7859094 0.61451519
3.7348216 2.7972689 0.61973244
3.153873 2.8016872 0.61527103
3.0765185 2.8439937 0.61394584
3.2791593 2.8442054 0.61640441
1.1320603 1.358429 0.62913585
0.72384036 1.4024477 0.62090462
2.6588316 1.4595079 0.6273672
0.25975645 1.4812944 0.62240314
2.2900319 1.5256628 0.62670714
3.0001421 1.5737796 0.62546611
2.2846813 1.6080434 0.6248945
0.85049784 1.6124603 0.62645328
2.288362 1.6256263 0.6278224
0.18080501 2.3370459 0.62340331
0.65635014 2.6835992 0.62382948
2.9009571 2.7633824 0.62629664
0.83996612 2.879987 0.62947005
1.9136684 1.4492909 0.63078725
2.5149965 1.4583452 0.63189054
0.68553263 1.5397619 0.63118774
0.83495265 1.5991478 0.63015515
3.9984035 1.6110177 0.63020009
0.8291055 1.7366855 0.63095415
2.2343893 2.2796328 0.6374169
0.74597585 2.5486827 0.63944685
2.3963482 2.5546045 0.63709378
0.7289297 2.6840663 0.63711762
0.74401814 2.7282429 0.63281995
2.3330259 2.7364578 0.63351387
0.71524334 2.7544129 0.63917959
1.9177638 2.7900634 0.63658434
2.9026976 2.7930052 0.63791877
2.2463589 1.4755182 0.64365196
1.5521704 1.6052455 0.6442852
3.0136857 1.7888677 0.64780802
2.3988183 2.3845544 0.64509475
0.75349408 2.52036 0.6404742
0.34518415 2.7442846 0.64772099
2.3443031 2.8273501 0.64817584
1.5105371 2.8440838 0.64484727
1.6607093 2.8407507 0.6402328
3.2099054 2.8447886 0.64421332
1.0313065 1.3526218 0.65823555
2.0886734 1.4084709 0.65644181
1.6936747 1.4478393 0.65124917
3.9644618 1.53264 0.65051275
0.18829241 1.7805967 0.65257007
3.0394425 2.0986195 0.65155625
2.473742 2.8247614 0.65564871
1.485478 2.8453121 0.65425998
0.9677819 1.3493742 0.66053063
0.33613792 1.4467481 0.66719824
2.6946807 1.4636919 0.66387939
3.976418 1.5763503 0.66405445
2.2906394 1.9263885 0.66709435
3.0147047 1.9289329 0.66611171
4.0390911 2.1572964 0.66720712
0.18290031 2.2387235 0.66033101
3.0117891 2.3090789 0.6611346
1.940564 2.7191713 0.66897953
2.3691053 2.7283416 0.66861546
1.1046084 2.8830914 0.66839838
0.53636879 1.3649603 0.67140555
3.3171046 1.4011486 0.67041892
1.8432311 1.4629622 0.67436999
0.19894642 1.9499146 0.67971277
2.2789147 1.9407085 0.67673939
1.5704734 2.0694849 0.67278588
4.0284457 2.3011537 0.67566806
2.3087535 2.5160656 0.67517328
1.8041227 2.8379703 0.6731143
1.0950606 1.3571825 0.68685961
1.532757 1.3935888 0.68401051
1.5957826 1.3951666 0.68569803
1.9783361 1.4055748 0.68689251
2.0281367 1.4074236 0.68069828
2.8677297 1.4681269 0.68775952
2.3102968 1.6476732 0.68765372
2.2916632 1.9304669 0.68398035
2.2726657 1.949656 0.68623435
0.17919144 2.2009652 0.68425775
2.3047996 2.3594129 0.68793511
3.6396952 2.8037846 0.68995994
3.2773018 1.4018717 0.6912117
3.6446834 1.4369881 0.69332677
1.5781875 1.4603617 0.69933999
0.35281348 1.5555685 0.69804782
3.9901779 1.6538069 0.69197559
3.0618687 1.6811535 0.69787753
0.19914542 1.9334444 0.69739383
3.0605843 1.9399003 0.69522458
2.8498902 2.0750918 0.690741
2.8875184 2.1477094 0.690741
2.7019682 2.7733245 0.69071037
1.6228861 2.8453007 0.69868398
2.994103 1.435382 0.7068845
1.4953765 1.4608415 0.70278019
2.7573988 1.468148 0.70005679
3.925458 1.5007997 0.70724809
3.9799778 1.5954971 0.70907724
4.0243478 2.0317082 0.70278406
3.0629876 2.2170537 0.70018828
0.24472831 2.5458832 0.7010271
3.9536943 2.7073216 0.70670849
2.1267102 2.7792478 0.70832294
2.815588 2.7710271 0.70208436
2.8281598 2.7708647 0.70245421
2.8644733 2.7706404 0.70113212
1.8406302 2.7845464 0.70197874
3.7883389 2.7852616 0.70138484
2.2622185 1.4087974 0.71395755
3.2650542 1.405623 0.71975386
3.4070787 1.4115684 0.71177161
0.38921544 1.4781547 0.71610695
2.8067327 1.5203352 0.71407092
1.5891328 1.6709774 0.71931583
3.072082 2.1292205 0.71897316
3.04702 2.1500022 0.71464729
3.04702 2.1940365 0.71306473
3.9108114 2.7454824 0.71562278
2.9308617 2.7688663 0.7119056
2.5031109 2.8253393 0.71370375
3.1209989 2.8239577 0.71807951
1.6161187 2.8467045 0.71195292
2.7727537 1.4177586 0.72895098
2.2942514 1.4643061 0.72330177
1.5920274 1.6570289 0.72520697
3.0731378 1.9101901 0.72115338
0.25846514 1.9512005 0.72622097
2.4233165 2.3352513 0.72451907
2.3146892 2.6936452 0.72626066
2.575336 2.7373848 0.72049296
2.7489274 2.7326024 0.72049302
2.9050934 2.7402565 0.72049302
0.36655903 2.7536945 0.72890002
2.8231452 2.7647178 0.72049296
3.7687144 2.7851596 0.72958326
3.3337007 2.8330617 0.72342163
2.1168427 1.4637593 0.73874551
4.0379639 1.9344962 0.73764533
4.021759 2.0522127 0.73869592
2.9523339 2.1204507 0.732741
0.27869505 2.2060049 0.73702532
2.4265144 2.3724935 0.73488748
2.3261197 2.4180453 0.7306664
3.0140519 2.667942 0.73375338
2.6375182 2.7698905 0.73004591
2.9721713 2.7659018 0.73660398
1.9607822 2.7792916 0.73391914
1.4688797 2.7800403 0.73556602
0.70782167 2.8688252 0.73113817
0.65662229 1.3882571 0.74753165
1.59679 1.6746604 0.74773514
0.37407434 1.7243183 0.74748063
3.0449994 1.8163662 0.74503303
4.0215511 2.1515241 0.74157816
3.0090363 2.2679656 0.74703497
0.34415042 2.5278838 0.74299204
3.7045045 2.7922564 0.7411648
3.0805545 2.8202357 0.74766588
0.44515213 1.4596686 0.7519328
2.3345411 1.6768031 0.75820315
2.3312988 1.726378 0.7512989
4.0409527 1.9061011 0.75054568
0.32928801 2.1958041 0.75545239
4.0405211 2.2227924 0.75652969
3.0410128 2.6267779 0.75665838
2.5469234 2.733053 0.7598145
2.062108 2.7753019 0.75660455
0.49226364 2.8119686 0.75629342
3.2555747 2.8253074 0.75520897
0.57620853 2.8427939 0.7555027
2.9822307 1.4774468 0.76529241
3.9969933 1.6748875 0.76188725
3.0527041 1.8797392 0.76956397
4.0356803 1.9638245 0.76928067
3.0931978 1.9967592 0.76258719
4.0192161 2.2418065 0.76937532
3.0086937 2.2558365 0.76039732
0.3812702 2.3916955 0.76756293
2.435029 2.4052145 0.76249921
2.3368587 2.4406567 0.7651068
1.9493717 2.7759249 0.76823962
2.0153363 2.7749989 0.76685166
0.9483211 1.3834708 0.7773211
1.5132271 1.4601076 0.77853286
3.7889848 1.4612772 0.77914125
2.2871251 1.5103785 0.771474
0.41861355 1.5817921 0.77451396
3.1006725 1.7840024 0.77802634
4.019403 2.1930346 0.77137715
4.0355396 2.2802386 0.77122611
2.3199754 2.2934313 0.77566218
3.099642 2.5757179 0.77589798
2.3494849 2.74527 0.77576077
2.0118537 2.774719 0.7701
3.0108151 2.8227806 0.77847302
3.1763024 2.8215096 0.77677524
2.1856449 2.8382123 0.7755208
1.638133 1.3875749 0.78108811
0.48332942 1.4836252 0.78804594
0.44879457 1.5303494 0.78187543
0.48071742 1.6455327 0.78967845
0.46181619 1.787529 0.78857321
1.6362439 1.8793951 0.78174949
2.4419689 1.8948985 0.78499186
2.3229563 1.9817636 0.78466994
0.42245519 2.1530843 0.78225583
0.45438465 2.36832 0.7893576
3.9963899 2.5751448 0.78467798
1.5828226 2.613579 0.78094625
3.8247495 2.7717853 0.78949195
0.51461506 2.7852535 0.78541726
1.6698538 2.8517814 0.7833544
1.4595746 1.3872182 0.79586196
1.5015268 1.3850439 0.79781079
0.96122944 1.3928738 0.79063487
3.496104 1.4265696 0.7936033
3.0619001 1.4602106 0.79560357
2.4880354 1.4744658 0.79067212
1.6310538 1.70453 0.79977018
2.4458113 1.7182857 0.7974484
3.0602436 1.7319121 0.79281425
3.0619521 1.7413318 0.79808801
1.6366692 1.871105 0.79612386
0.474453 1.914975 0.79615575
0.47830471 2.3703861 0.79588795
0.59690273 2.5381584 0.79540026
0.57750779 2.5579894 0.79875797
3.9990802 2.5688181 0.79588795
2.345535 2.6193027 0.79246074
0.52129537 2.6711092 0.79594707
0.51662058 2.6866813 0.79888171
3.0131822 2.7052224 0.79019153
3.4272254 2.8208334 0.79840374
1.9498184 2.8455069 0.79885441
1.7115691 1.4635217 0.80003113
2.4349816 1.4748502 0.80112344
4.0300179 2.0640962 0.80076379
4.0204411 2.1155839 0.80007297
4.0223031 2.2152779 0.8002072
2.3433261 2.3870025 0.80671442
1.5621594 2.4274874 0.80567312
0.70476103 2.8218985 0.80494887
2.9469304 2.826103 0.80302978
2.6171975 1.4787382 0.81784505
0.66330576 1.6614518 0.81616056
0.72628182 1.6795188 0.81776714
2.4500685 1.733639 0.8112514
2.4522824 1.7982677 0.81842911
4.007761 1.8126099 0.81869483
0.57124609 1.8218232 0.81301594
3.0749211 2.0679674 0.81330216
4.0122948 2.2597239 0.81219113
0.5690521 2.2774677 0.81544954
2.3447793 2.6734931 0.81773883
3.0880225 2.7371638 0.81452948
1.7756853 2.8164799 0.81065333
3.2954071 2.8183432 0.81858283
2.7866583 1.4094828 0.82186478
3.6713631 1.45048 0.82508767
2.3239539 1.4756951 0.8283062
0.6767025 1.5593832 0.82466304
3.0424571 1.6041656 0.82785869
4.0275059 1.7820892 0.82356435
4.0126576 1.9758818 0.82143402
0.6456213 2.3572516 0.82885897
2.35464 2.5550678 0.8284322
3.1225843 2.6309175 0.8232854
2.3492584 2.6656065 0.82822776
3.0454865 2.7088854 0.82566071
3.0677135 2.7257979 0.82146132
1.476999 1.411978 0.83884609
2.3574619 1.684411 0.83498329
0.67535734 2.0055077 0.8359533
3.0813866 2.1238749 0.83134127
0.67688984 2.1537964 0.83624887
3.0385685 2.7132802 0.83769339
0.65929443 2.7405784 0.83068007
2.4484162 2.7609937 0.83425939
0.67839384 2.7897925 0.83507049
3.1410897 2.8260036 0.83190244
1.6925318 1.4235399 0.84325439
3.7690625 1.465322 0.84803331
3.9883821 1.6279497 0.84108901
4.0159345 1.7338989 0.84842879
0.70360559 2.0589547 0.84065974
2.4602509 2.331171 0.84970307
2.4605751 2.5695214 0.84531355
3.0582006 2.7189543 0.84371459
3.8800833 2.7354937 0.84720695
3.0126445 2.7541938 0.84591174
0.99138993 1.4424174 0.85947323
2.5647132 1.4438761 0.85555273
2.5574028 1.4586051 0.85754853
1.9946883 1.469807 0.85096669
3.9004006 1.5194074 0.85047442
2.4650769 1.7718394 0.85990846
0.80938184 1.8688289 0.85638618
3.1399093 1.9984226 0.85906941
0.77243084 2.1715317 0.85172123
0.82471961 2.416496 0.85804915
3.0810993 2.497113 0.85689205
0.85422599 2.5485806 0.85638976
0.77608186 2.6727402 0.85152411
2.511493 2.7851057 0.85572326
1.1944714 2.8160715 0.85037959
2.3324389 2.8327851 0.85143793
1.634269 1.430073 0.86218739
1.0926212 1.4451872 0.86987132
2.4880271 1.44048 0.86699516
2.9144199 1.4866509 0.86171168
0.86502314 1.5474343 0.8660714
3.9653621 1.5772882 0.86777103
1.6393857 1.7636862 0.86549115
1.4561783 1.8157613 0.86370283
1.6325524 1.9101084 0.86163288
0.84173703 1.9302766 0.86286008
3.1442661 2.0697532 0.86806834
4.0580096 2.13552 0.86110401
0.88340199 2.2336493 0.86955637
1.5662673 2.2453818 0.86020249
0.86921823 2.3525906 0.86650842
0.86933482 2.4036644 0.86560524
3.0912738 2.4912 0.86835933
0.90614414 2.6460941 0.8604995
2.4619663 2.7973752 0.86020583
1.2663302 2.8104792 0.86273593
3.4446645 2.8140001 0.86386305
1.8471828 2.8222008 0.86309791
1.9747608 2.8212783 0.86701095
2.6571107 1.4832768 0.87903607
3.8654702 1.5067345 0.87089109
2.3914356 1.5335891 0.87546754
0.90567464 1.5561208 0.87095356
0.92276192 1.5641991 0.87257493
1.0497131 1.944844 0.87841487
0.91419697 2.0419087 0.87467313
1.03838 2.0595942 0.87964725
0.99292994 2.1734364 0.87846786
1.0195014 2.2232854 0.87273818
1.0363829 2.3314054 0.87759054
4.0230379 2.460263 0.87721992
2.9037161 2.752295 0.87467551
0.98700178 2.7818344 0.87105983
1.1150266 2.7883809 0.87993908
3.0136967 2.8515248 0.8766312
1.0225086 1.5058632 0.88886285
2.373317 1.5267334 0.88587773
1.0880209 1.6076106 0.88804686
3.0647261 1.6089151 0.88464618
1.0847543 1.6845115 0.88944453
1.0361693 1.8162749 0.88605475
0.94962043 1.8969949 0.8806057
2.3654432 1.8959322 0.88234651
0.97963506 2.0986769 0.8863771
3.1014733 2.1833844 0.88111585
1.0674031 2.1932747 0.88233995
3.0898337 2.3585935 0.88895977
1.0288222 2.3849154 0.88026321
2.47347 2.3928945 0.88712049
1.324826 2.7993815 0.88139999
2.1045542 2.8117905 0.88643277
3.1046515 2.8199911 0.88366389
2.4758267 1.7397702 0.89476055
1.5258404 1.7491205 0.89288867
1.0838486 1.8749635 0.89780855
1.09029 2.0306683 0.89231759
3.1068182 2.1095324 0.89261186
1.0525434 2.4205992 0.89357907
1.1116483 2.5129733 0.89950407
1.1974106 2.6731336 0.89785707
1.1706489 2.7068868 0.89605403
1.132779 2.7496483 0.8983838
2.487133 2.7633493 0.89844602
1.9779778 2.8062954 0.89944428
2.1973648 2.801585 0.89469492
2.2221825 2.8079944 0.89535153
3.1733325 2.8121591 0.89338237
1.8284698 1.4374731 0.90918899
1.4623976 1.4405346 0.90972459
2.3747678 1.5248135 0.90995371
1.2093732 1.6379859 0.90988642
1.2506851 1.8113425 0.90668988
1.3381342 1.8719118 0.90983307
3.1639302 2.1192787 0.90868497
4.0461626 2.1102016 0.90382206
1.2269541 2.1579158 0.90727317
1.292572 2.4003115 0.90733403
