# .PCD v0.7 - Point Cloud Data file format
VERSION 0.7
FIELDS x y z
SIZE 4 4 4
TYPE F F F
COUNT 1 1 1
WIDTH 1438
HEIGHT 1
VIEWPOINT 0 0 0 1 0 0 0
POINTS 1438
DATA ascii
0.43529379 1.4314809 0.20504089
0.57577789 1.5292864 0.20332325
-0.14962663 1.5563488 0.2077762
0.0030117754 1.5682704 0.20710731
0.0030481492 1.5749342 0.20912853
-0.079994164 1.5997344 0.20913616
-0.26384291 1.6011586 0.20684782
0.68350965 1.615327 0.2079003
-0.020958502 1.7162731 0.20861286
-0.11411969 -0.91579968 0.2121866
0.20901373 -0.90935808 0.21113731
-0.1006178 -0.84365314 0.21659234
0.6181401 -0.7748099 0.21612485
-0.2207547 -0.75271058 0.21842022
-0.35979909 -0.71967417 0.21376829
-0.22290534 -0.6813038 0.21894553
-0.70105457 -0.67014182 0.21284196
-0.38752106 -0.63745338 0.21362364
-0.21470165 -0.60687655 0.21996468
-0.093845613 -0.5372864 0.2126516
0.25635681 -0.51440686 0.21997216
0.49332756 -0.49700785 0.21644446
0.03193498 -0.40921339 0.21815442
-0.580208 -0.29441211 0.21116489
-0.25748408 -0.28969145 0.21837264
0.52421522 -0.23163603 0.21776897
0.60076487 -0.21128044 0.21729259
0.16724673 0.41258425 0.21859992
0.29169771 0.42418045 0.21903759
0.4317075 0.44121814 0.21961635
-0.66472268 0.6984129 0.21211968
0.63569748 0.81158406 0.2174357
-0.65694898 0.92030883 0.21861704
7.5991993e-05 1.0317106 0.21665528
0.58571202 1.0398285 0.21520798
0.60027665 1.0398591 0.21081021
-0.54207259 1.045305 0.21827184
0.53327227 1.0445166 0.2166838
0.0001894603 1.0524261 0.2161375
0.00027670513 1.068354 0.21241488
-0.39540741 1.1171794 0.21196015
0.69792998 1.2115184 0.21666855
0.53599441 1.2206517 0.21658228
-0.42271855 1.383687 0.2174871
-0.5024519 1.4388949 0.21336417
-0.71646798 1.5446113 0.21784757
0.003020206 1.5698149 0.21538946
-0.26636001 1.5856129 0.21884078
-0.0040373886 1.6228673 0.21067487
0.0039534001 1.6785927 0.21782221
-0.15113254 -0.84448779 0.22038202
-0.011536092 -0.77690095 0.22240795
0.22342114 -0.70311517 0.222973
0.5612036 -0.69565713 0.22699557
-0.56802511 -0.67659158 0.22841261
0.15866894 -0.63776916 0.22552779
0.6813966 -0.59884691 0.22982578
-0.27151671 -0.56619728 0.22054341
-0.20941085 -0.51946467 0.22071816
0.029096052 -0.47199318 0.22792804
-0.20112793 -0.45270866 0.22152443
-0.0075783669 -0.43558493 0.229498
-0.23367184 -0.41192374 0.22297302
0.15847254 -0.39598683 0.222973
-0.19601727 -0.38423604 0.22231473
0.14517847 -0.3402445 0.22296503
-0.15601531 -0.20577107 0.22297299
-0.65952247 0.067076996 0.22969687
-0.4878186 0.4344334 0.22326399
-0.45041552 0.45844567 0.22405979
-0.28982854 0.45260352 0.22398862
-0.31518328 0.4749628 0.22462489
0.22723506 0.50259054 0.22140564
-0.18319485 0.52078092 0.22614738
-0.13861501 0.5523324 0.22733583
-0.11425593 0.55661523 0.22720116
0.41615885 0.56150627 0.22374059
0.14878882 0.58503258 0.22446048
-0.1312726 0.5981921 0.22904906
-0.014961727 0.64882684 0.22884952
0.026789622 1.0270767 0.22950777
7.7346966e-05 1.031958 0.22102241
0.08116588 1.0435984 0.22427107
0.33688766 1.042183 0.2265918
0.13767467 1.0519454 0.22903194
0.40874425 1.0596203 0.22017796
0.28010601 1.0627415 0.22070974
0.51385367 1.0726619 0.22039297
-0.48527098 1.0851748 0.22213876
0.58510882 1.0899603 0.22115731
0.00040172832 1.091179 0.22116011
0.48788911 1.1035891 0.22267504
-0.45041001 1.1137234 0.22476521
0.41708013 1.1233213 0.22316906
-0.043089334 1.1464272 0.22839133
0.41716856 1.2618529 0.22192693
0.46112794 1.3757329 0.22349378
0.65115821 1.4226682 0.22820605
-0.032551881 1.4337857 0.22338195
0.53804171 1.5385387 0.22566146
0.0029505643 1.5570562 0.22850092
-0.1270259 1.5608174 0.22669831
-0.0070294207 1.5834427 0.22454613
0.0031417399 1.5920805 0.22324431
0.14309108 -0.96525109 0.23896357
0.25978431 -0.94662303 0.23849159
0.2948809 -0.92053109 0.23987834
-0.45643258 -0.91639185 0.23623247
-0.28704998 -0.91952109 0.23339853
0.31761998 -0.91391659 0.2350046
-0.32889241 -0.88302553 0.2333506
-0.16335499 -0.82911032 0.23809405
-0.14843905 -0.80749547 0.2376596
-0.082582816 -0.8069967 0.23764242
0.06942717 -0.80275112 0.23754075
0.083922766 -0.76701713 0.23970513
-0.57784796 -0.67946708 0.23535436
0.23312436 -0.58568949 0.23582827
0.63585597 -0.58460748 0.23772112
-0.23131441 -0.57901055 0.23060501
0.1898576 -0.57278681 0.23060501
-0.11864428 -0.55775887 0.23937753
0.35978952 -0.55400348 0.23060501
0.41945693 -0.53156763 0.23060501
-0.41838932 -0.50745112 0.23874274
-0.40731943 -0.50751162 0.23387069
-0.51847005 -0.49553472 0.23068865
0.69792998 -0.31851706 0.23704234
-0.65751433 0.013649308 0.23660462
-0.65842712 0.069085494 0.23540746
-0.66102988 0.19419131 0.23443346
0.24614057 0.37683764 0.23780209
-0.31127667 0.40988347 0.23237188
-0.019236993 0.57163453 0.23636751
0.41907623 1.0236508 0.23280975
-0.23940924 1.0652059 0.23826152
0.00029588747 1.0719309 0.23642462
0.033712555 1.079906 0.23881932
-0.0068634101 1.2887152 0.23403178
0.39637604 1.3091978 0.23358773
-0.66020894 1.3147713 0.23149174
0.52617478 1.3734945 0.23530535
0.36391273 1.3841186 0.23290074
0.39680603 1.3877869 0.23572618
0.31926134 1.4256296 0.23654321
0.012865806 1.4412898 0.23434937
-0.02232933 1.4860227 0.23073573
0.024144903 1.549288 0.2347818
0.058943506 1.5615481 0.23091674
0.056566142 1.5939213 0.23107146
-0.030445905 1.7271502 0.23213835
0.16040005 1.7390442 0.2363486
0.25665647 1.7342129 0.23643613
0.40103105 1.7424526 0.23957919
-0.0033603422 1.7562733 0.23714662
0.20617884 1.7526312 0.23930921
0.0067776442 1.9176377 0.23559986
-0.094058722 -0.98813593 0.24726233
0.37953448 -0.95920599 0.24472316
0.36987191 -0.91045034 0.24817818
0.037277482 -0.872455 0.24691041
0.46582574 -0.87604111 0.24918963
-0.44098288 -0.82915813 0.24722999
-0.67077732 -0.59098542 0.243992
0.0025204895 -0.5828706 0.24145529
-0.35700449 -0.56134206 0.24760599
0.44714624 -0.56633663 0.24240845
-0.7075088 -0.5518645 0.24861939
-0.28176045 -0.55686659 0.24764517
-0.36418405 -0.53558117 0.24853137
0.68855119 -0.52793515 0.24472998
0.4470771 -0.4982838 0.24548917
0.53482997 -0.34187013 0.2415687
0.68425184 -0.23902331 0.2489374
-0.64025867 -0.21695599 0.24677819
0.63314366 0.20270714 0.24645104
-0.10726057 0.3963432 0.24932091
-0.48568049 0.40169829 0.24978343
-0.059313275 0.4099403 0.2451719
0.63589168 0.52654278 0.24030682
-0.65900075 0.55054134 0.24193479
-0.64476395 0.56231403 0.241924
0.63266367 0.58429903 0.24910563
0.64072168 0.5886668 0.24192402
0.6327675 0.63840419 0.24967401
-0.38348991 1.0280461 0.24116738
-0.65304124 1.0353408 0.24385561
-0.57248127 1.0461314 0.24227121
-0.3289178 1.1143541 0.24426101
-0.3618592 1.1378238 0.24717
-0.38052282 1.1427522 0.24785762
-0.37414378 1.1457458 0.24815953
0.54299498 1.2124268 0.24865775
0.61804312 1.2132804 0.24216464
0.66882455 1.2313164 0.2442856
0.63585597 1.3387716 0.24206552
-0.69394398 1.3515372 0.24741292
-0.66527659 1.3879418 0.24607038
0.50793761 1.3898722 0.24735299
-0.52199936 1.3959098 0.24745859
0.3039245 1.4051323 0.24210732
0.52632797 1.4045565 0.24359095
0.66826475 1.4144186 0.24921146
0.34116134 1.4434172 0.24020511
-0.66734242 1.5426197 0.2457407
0.43619525 1.7554359 0.24235037
-0.35144573 1.7637463 0.24293441
0.27330738 1.7648456 0.24237397
0.2419617 1.8047556 0.24848446
0.023715012 1.8829031 0.24416535
-0.10621651 -0.95248222 0.25068527
-0.035490274 -0.94436622 0.25847751
-0.59845054 -0.70046407 0.25542909
-0.46242201 -0.61059153 0.25818318
-0.1807306 -0.57266402 0.25592381
0.21505988 -0.55958432 0.25240639
-0.64371562 -0.38643235 0.25532466
0.19348092 0.36634627 0.25221828
-0.65247232 0.42885232 0.25776845
0.63027197 0.43708637 0.25518838
-0.00071211922 0.53403711 0.25726274
-0.49835527 0.62685305 0.25843725
-0.23321585 0.6892764 0.25991622
0.59787261 1.0398279 0.25086093
-0.6317929 1.2297208 0.25640985
0.66181827 1.2690443 0.25530401
0.35270631 1.289541 0.25384599
0.41389605 1.3251023 0.25101858
-0.41322982 1.3642645 0.25934413
0.63721442 1.4904039 0.25530401
0.66725188 1.5159264 0.25530401
-0.65014207 1.5254215 0.25417838
-0.42330432 1.6826571 0.25697231
0.4754414 1.8017057 0.25479203
0.24111933 1.8179832 0.25070703
0.44382483 1.810019 0.25964478
0.085308135 1.8225884 0.25013125
-0.12500308 1.8604212 0.25955072
-0.096470967 1.8618029 0.25735494
-0.085872807 1.8626745 0.25804317
0.018390529 -1.0121039 0.26002094
-0.47723806 -0.96979105 0.26852334
0.23801044 -0.96792483 0.26594731
-0.11756498 -0.95773387 0.26380199
0.23884715 -0.934843 0.26789099
-0.35647574 -0.92715102 0.26789099
-0.28129351 -0.91223574 0.26789099
0.49495137 -0.8789252 0.26956409
0.0062140422 -0.77406782 0.2618497
-0.12275676 -0.76253599 0.26808155
-0.18074808 -0.70302761 0.2622788
-0.70804328 -0.68359089 0.26637134
-0.660209 -0.60921782 0.26631206
-0.70588702 -0.56532949 0.26935166
0.67068392 -0.50232059 0.26466176
-0.62453741 -0.38537064 0.26338941
0.68858087 -0.35378557 0.26084125
0.63534045 -0.076652966 0.26957995
-0.64759803 -0.0067876428 0.2647813
-0.65968633 0.1999355 0.26420397
0.63537949 0.30736423 0.26851767
-0.00041426404 0.5886085 0.26507595
-0.66067016 0.76768255 0.26151711
0.63194734 0.91469616 0.26152396
0.015170488 1.1331892 0.26096696
0.39559948 1.1672587 0.26205277
-0.42054561 1.1784407 0.26129833
-0.56491792 1.2177898 0.26300082
0.39628637 1.2928112 0.26868033
-0.37858665 1.3191421 0.2680881
-0.69394398 1.3262832 0.26162753
-0.69394398 1.4320824 0.26793495
0.40412426 1.4629837 0.2659862
-0.71062326 1.5540228 0.2664592
0.67442763 1.6250445 0.26776907
-0.59209204 1.7733012 0.26147848
0.19815564 1.851006 0.26061472
0.47141987 -0.96734864 0.2700482
-0.097375683 -0.95430219 0.27884227
-0.56931973 -0.86237431 0.27614272
0.08817827 -0.76082051 0.27467194
0.12510365 -0.74136567 0.2736671
-0.049794115 -0.72853237 0.27635247
0.092204556 -0.66923714 0.27457774
0.089699447 -0.62192726 0.27465951
0.051090974 -0.61971951 0.27570766
0.15502843 -0.59428871 0.2728951
0.47214386 -0.4902977 0.27668172
0.54493606 -0.3542524 0.27926993
-0.61165577 -0.28622344 0.27336553
0.44476053 -0.27486438 0.27940589
0.63620341 -0.018973088 0.27571386
-0.65982437 0.41607755 0.27263132
0.63501567 0.47939795 0.27392414
-0.55011415 1.0492111 0.27493569
0.53482997 1.1411201 0.27785793
0.63585597 1.441153 0.27770707
-0.63074404 1.5459726 0.27124256
0.11086592 -0.94408154 0.28771049
-0.21152334 -0.9390161 0.28678599
0.31932205 -0.92473328 0.28399134
0.40767476 -0.91212428 0.28260434
-0.42641205 -0.73780191 0.28196985
0.4032529 -0.73170495 0.28370261
-0.58826619 -0.68315721 0.28575647
0.67246985 -0.67683756 0.28951553
0.42552096 -0.65303999 0.28071997
0.68964261 -0.64378399 0.2826789
0.63679725 -0.5827148 0.28363702
-0.52444041 -0.5523901 0.28167462
0.50484759 -0.2456775 0.28638875
-0.662341 0.037080385 0.28380877
0.63755167 0.33034039 0.28663391
0.047418147 0.35348424 0.28130472
-0.12586506 0.36429769 0.28405809
-0.66289645 0.58328867 0.28457773
-0.11096409 0.70145231 0.28317866
-0.65774876 0.98916078 0.2875205
-0.58966988 1.0481131 0.28584939
-0.57566643 1.0483034 0.28065893
-0.6606884 1.1303663 0.28085065
-0.59282458 1.8432727 0.2898151
0.44548115 1.8785576 0.28817719
0.46970558 1.8886018 0.28822714
-0.17926194 1.9424379 0.28985095
0.013667913 1.9442165 0.28773025
-0.46225375 1.9657741 0.28845745
0.1645487 -0.95802724 0.29505968
-0.099995717 -0.94664466 0.29712856
0.015926827 -0.94805628 0.29063207
-0.4461621 -0.93362391 0.2926718
-0.28599241 -0.93025959 0.29875922
-0.33459318 -0.9250139 0.29147872
0.54636955 -0.87202156 0.29930478
-0.559183 -0.7323032 0.29709849
0.60126901 -0.68172431 0.29664081
0.65594345 -0.55597293 0.29560068
0.49885881 -0.50259936 0.29474744
0.3899582 -0.48547417 0.29842931
-0.56617004 -0.35113251 0.29298383
0.48176605 -0.25870898 0.29789326
-0.66400838 0.039013803 0.29440147
-0.66446954 0.27655119 0.29755345
-0.66350609 0.34309581 0.2967878
-0.53953159 0.45695168 0.29807952
-0.66587722 0.65812016 0.29799563
-0.66199505 0.74320328 0.2904188
-0.42055419 1.1800078 0.2908746
-0.69394398 1.3461976 0.2997545
-0.69670486 1.3517721 0.29478619
0.65854341 1.4034581 0.29031652
-0.69942582 1.507459 0.29121155
-0.42247257 1.5306387 0.29120544
-0.42264888 1.5628505 0.29878527
-0.63349056 1.7409617 0.29025865
-0.25966683 -0.93047643 0.30782011
0.10888876 -0.93817949 0.3060492
0.24178159 -0.9307394 0.30498257
0.30983907 -0.91807812 0.30564508
-0.427385 -0.82286024 0.30634493
0.40071279 -0.74067813 0.30208239
0.44431007 -0.58666492 0.30616456
-0.66020894 -0.5365752 0.30867222
0.4130609 -0.53165412 0.3055433
-0.44752538 -0.38006043 0.30080992
-0.44934526 -0.32959378 0.30724445
-0.70873797 -0.25649789 0.30917743
0.53025264 0.41971141 0.30215827
-0.019392585 0.54330432 0.30961233
0.083242446 0.5813514 0.3045527
-0.70659089 1.2038672 0.30107039
0.692195 1.2147233 0.30605626
-0.69183743 1.39078 0.30963349
-0.42180681 1.4089149 0.30987176
-0.42291352 1.611221 0.30725724
-0.57328224 1.6209793 0.30198723
0.63393998 1.7844205 0.30987656
-0.24651948 1.8623109 0.30705005
-0.1626581 1.8683153 0.30530667
0.084531814 1.9785864 0.30554977
-0.0028220229 1.9859282 0.30675232
-0.58983856 -0.85728991 0.31129539
0.39992666 -0.74345523 0.31828156
-0.559183 -0.70100981 0.31566203
0.3855862 -0.494923 0.31167725
0.49408248 -0.49777043 0.31134507
-0.6704731 -0.48698747 0.31795442
-0.66615045 -0.39043331 0.31669056
0.64091486 0.30337846 0.31247044
0.63742691 0.71189988 0.31991532
0.39523035 1.0998136 0.31479102
-0.559183 1.1582774 0.31370384
0.53682911 1.2054197 0.31286839
-0.56491798 1.5234363 0.31063455
0.54130512 1.6148233 0.31252086
0.64475662 1.7776159 0.31578705
0.51782906 1.8220869 0.31859612
0.44989821 1.8385512 0.31839004
-0.4542315 1.8460814 0.31860691
-0.22480837 1.8733675 0.31957257
-0.13392572 1.8713814 0.3108483
-0.23190075 -0.91662645 0.32104453
0.57104945 -0.84170175 0.32273057
0.40848958 -0.71320575 0.32499543
-0.69996643 -0.67590809 0.32207039
-0.71620584 -0.39260146 0.32192513
-0.63989419 -0.14471112 0.32736769
-0.66761798 0.11802903 0.32396293
0.32574326 0.30259842 0.3291178
-0.54072648 0.44260645 0.32449165
-0.66503251 0.46332967 0.32216969
0.49316862 0.65730458 0.32160884
0.6953702 1.1451364 0.32833335
0.61477888 1.2355144 0.32067937
-0.65105134 1.7173836 0.32863036
-0.6294688 1.7895734 0.32626987
-0.59437871 1.7980638 0.32549864
0.5429492 1.8030072 0.32876599
-0.39874178 1.8477867 0.32632411
0.27654475 1.8545496 0.32705265
-0.52443206 1.8605568 0.32103333
-0.072585151 1.8774005 0.32737845
0.073509708 1.8768891 0.32425782
-0.087059781 1.8924143 0.32744563
0.24600524 1.9182035 0.32434982
0.35140827 1.9414341 0.32990354
-0.41717482 1.9724628 0.32042289
-0.13205245 -0.98358381 0.33511606
-0.31141073 -0.96309173 0.33821893
0.45148516 -0.93952823 0.33209127
0.36306509 -0.90329564 0.33285272
-0.38248953 -0.89119518 0.33516127
-0.45534056 -0.88759959 0.33984321
0.41544366 -0.88902795 0.33056909
0.5005762 -0.86337411 0.33514917
0.39986104 -0.74368674 0.33828661
-0.41846865 -0.52999884 0.33151868
0.66042376 -0.50857246 0.33306926
0.53641766 -0.3679108 0.33223981
-0.6182574 -0.23223805 0.33504346
0.21371384 0.30219585 0.33906823
-0.18721485 0.32765129 0.33798191
0.032538578 0.35780591 0.33479995
-0.67000479 0.65656996 0.33732677
-0.4202891 1.131577 0.33384287
0.54156214 1.2121255 0.33414012
-0.68331671 1.2906346 0.33446288
-0.42156258 1.3643161 0.33920813
-0.66211253 1.39683 0.33934563
-0.036702126 -0.93108284 0.34065679
0.30282205 -0.90091401 0.34240216
-0.60932219 -0.83750379 0.34848666
0.65851259 -0.515172 0.34848806
0.49572894 -0.25551525 0.34971711
0.64669245 0.0048717172 0.34967068
0.64451385 0.1282331 0.34254023
-0.66746247 0.48289859 0.34471738
0.6433664 0.51503056 0.34874079
-0.28262219 0.7253958 0.34689593
0.61895406 1.1387269 0.34048221
-0.42069829 1.2062469 0.34693265
0.67653632 1.2269382 0.34742862
-0.68211007 1.2447212 0.34289414
0.39610362 1.2593755 0.34616956
0.56192261 1.6136932 0.34774679
-0.42340231 1.7005963 0.34493381
0.54630631 1.8628619 0.34131679
-0.051473454 1.9338368 0.34465253
-0.40207815 1.9532421 0.34265399
-0.16957502 -0.91974068 0.35903275
-0.67554259 -0.76790404 0.35343713
0.68006337 -0.38618344 0.35527071
0.42264244 -0.37969023 0.35545743
-0.66966718 -0.24913055 0.35164639
0.64523757 0.17151868 0.35067302
0.55093968 0.30990344 0.35783884
-0.377538 0.32312775 0.35871392
-0.67119807 0.67472124 0.35560015
-0.66905546 0.70064729 0.35095638
0.64190328 0.87547719 0.35528681
0.65233344 1.326609 0.35254863
0.39675331 1.3781607 0.35547554
0.65746343 1.5266526 0.35186911
0.56982547 1.6115525 0.35291421
-0.64768046 1.7115326 0.35871434
-0.48853514 1.8309171 0.35948643
0.26393127 1.8661315 0.35640091
0.16850998 1.8762853 0.35023275
0.20258862 -0.97707057 0.36064512
0.39852792 -0.90792066 0.36398602
0.67265654 -0.64231855 0.36841199
-0.43863595 -0.4383595 0.36898819
-0.58315277 -0.41306421 0.36132824
-0.44781062 -0.36140478 0.36855754
-0.51284933 -0.25736651 0.36462399
0.12835696 0.71171761 0.3631804
0.64535451 0.75732887 0.36773968
0.64452183 0.82747769 0.36551237
-0.66431242 0.98163491 0.36428842
0.67942393 1.4721081 0.3638804
-0.70520639 1.5319413 0.36157018
0.39778095 1.5659859 0.36983511
-0.559183 1.5943387 0.36510828
-0.63803905 1.6071174 0.36361927
0.32112348 1.8579414 0.36366507
-0.28913403 -0.975196 0.37761164
-0.24664384 -0.92106509 0.37064478
-0.72228301 -0.74747074 0.37455821
-0.43441409 -0.70953345 0.37574321
0.40254509 -0.45928776 0.37662479
0.62124956 -0.14534084 0.3797628
0.64994627 -0.063965894 0.37116927
0.64918423 0.0057197879 0.37786075
0.64623934 0.31989503 0.3712309
-0.67270315 0.64380366 0.37251088
-0.65928262 0.70942575 0.37119213
0.64018691 0.70152575 0.37741297
0.6806941 1.2972763 0.37303963
-0.69550687 1.3067443 0.37147906
-0.66948545 1.4503474 0.37407476
0.67282164 1.4867784 0.37717059
0.63840318 1.5095489 0.37732607
0.53923506 1.5219772 0.37525451
-0.59795409 1.6006248 0.37929115
0.38924581 1.8449224 0.37792611
-0.20764481 1.8811359 0.37369502
0.086112626 1.8901021 0.37809515
0.27479476 -0.97746462 0.38811919
0.47864908 -0.89918041 0.38829452
0.65117848 -0.66133249 0.38356027
-0.6139406 -0.64008081 0.38114631
-0.70294094 -0.26368731 0.38391912
-0.01585778 0.1955196 0.38700414
0.33954409 0.28186843 0.38952085
0.3696501 0.28472832 0.38501588
0.64752054 0.56947815 0.38862997
0.61414331 1.0620531 0.38185698
0.63787782 1.0838289 0.38310999
-0.42036209 1.144834 0.38859981
0.65580529 1.2528023 0.3863447
-0.42176968 1.4021287 0.3830407
-0.66810167 1.4620025 0.38572952
0.57956171 1.7867149 0.380588
-0.37761575 1.8567693 0.38114038
0.1971947 1.8815409 0.38932636
0.27626219 -0.97402465 0.39386374
-0.15586063 -0.9286291 0.39488775
-0.17187966 -0.91980422 0.39575407
0.58011293 -0.74887776 0.39897767
-0.66988963 -0.61951029 0.39693093
0.45530272 -0.53524268 0.39801395
0.68485487 -0.53168553 0.39354804
0.41559276 -0.43735677 0.39747018
0.63954127 -0.42045987 0.39787275
-0.71751291 -0.26816103 0.39500624
0.63407254 -0.13819663 0.39600271
0.65034771 -0.00028429832 0.39110219
-0.67417538 0.15579075 0.39669502
0.64943403 0.24055028 0.39911652
-0.52030945 0.52163017 0.39482588
-0.67325962 0.77888834 0.39107835
-0.67342544 0.80749762 0.39879882
0.64140904 0.9875282 0.39676681
-0.71536553 1.2511836 0.39835739
0.66064465 1.39683 0.3978377
-0.61293262 1.4688872 0.39237168
0.39774713 1.5597918 0.39989737
0.25397086 1.8744166 0.39039803
0.097374782 1.8919448 0.39214429
-0.014595612 -0.93028247 0.4007118
0.44194344 -0.9148035 0.40621874
-0.51958627 -0.89529777 0.40809038
-0.46132168 -0.88786423 0.40724176
0.56349778 -0.86580384 0.40404907
0.62945706 -0.63235396 0.40996188
0.59542096 -0.59952176 0.40875661
0.63585597 -0.53182513 0.40137848
-0.71157473 -0.41736984 0.40634263
-0.45110291 -0.29916316 0.40767801
0.65158236 -0.22368996 0.40278056
0.60146081 -0.13801832 0.40979093
0.65159214 0.011267368 0.40965933
-0.67509151 0.11436583 0.40751627
-0.67332476 0.35246137 0.40015498
0.059208833 0.46496242 0.40199912
0.48989609 0.63217986 0.40548697
-0.61870289 0.70964766 0.40616006
-0.66617286 1.0024136 0.40131265
0.53056532 1.0735706 0.40866846
-0.56907201 1.2557336 0.40702474
-0.6016227 1.2969605 0.40036404
0.69792998 1.4922515 0.40607855
0.14478076 -1.0046836 0.41752392
-0.44504759 -0.67196918 0.41985893
0.56651855 -0.44278449 0.41500264
-0.085980788 0.29659653 0.41742963
0.64991641 0.33522871 0.41432732
0.49396682 0.6037817 0.41006175
-0.6654976 1.0753857 0.41120857
-0.42006159 1.0899374 0.41592678
0.61571324 1.1720803 0.41065046
0.39699352 1.4220712 0.41014579
0.54056603 1.4519553 0.41087157
-0.42224097 1.4882818 0.41417125
-0.64097714 1.7396369 0.41635296
0.0015992774 1.8842783 0.4190231
-0.1654077 -0.99017811 0.42066535
0.18865235 -0.93082714 0.42990932
0.5884707 -0.55645335 0.42186368
-0.60424387 -0.53319639 0.42463869
-0.57508373 -0.53290778 0.42460072
0.40315309 -0.46177632 0.42043179
0.55152273 -0.46549094 0.42864168
-0.60266739 -0.45363078 0.42202368
-0.57514846 -0.4583118 0.42689914
-0.45734599 -0.28464055 0.42921081
-0.47945699 0.30130851 0.42504308
-0.63480479 1.3579818 0.42218459
0.39677072 1.3813617 0.42060164
0.59892201 1.3846123 0.42387372
-0.42216972 1.4752554 0.42636895
-0.62520611 1.6979554 0.42017007
0.23981345 -0.92747879 0.43026239
-0.64160174 -0.72437197 0.43091401
0.63801873 -0.71987164 0.43677887
0.55027807 -0.59663075 0.43342182
-0.4827081 -0.53688788 0.4369528
-0.69021058 -0.47622681 0.43138325
0.65361106 -0.2200883 0.43778875
-0.67679954 -0.18042237 0.43565536
0.65189695 0.30944568 0.4333649
0.29645848 0.53238517 0.43725032
0.34616446 0.5546847 0.43404856
-0.67670465 0.65203953 0.43293881
0.6474483 0.87772042 0.43512613
0.3955985 1.1670961 0.43454337
-0.56299388 1.2732964 0.43249816
-0.56996214 1.4492683 0.43751937
-0.42237484 1.5127788 0.43524975
0.65280187 1.674288 0.431876
0.61088204 1.6923898 0.43411881
-0.183336 -0.93108076 0.44047624
-0.062785506 -0.93376565 0.44106594
0.61118919 -0.82126272 0.44956502
0.54280871 -0.58803964 0.44963974
-0.5735321 -0.56611305 0.44758084
0.65507078 -0.55005354 0.44101989
0.42347866 -0.35135773 0.44757527
0.21086062 0.29013267 0.44064897
-0.59011644 1.0892351 0.4415845
-0.62784904 1.1949403 0.44044524
-0.60002387 1.1955838 0.44128382
0.69336659 1.3669611 0.44168055
-0.57355863 1.389991 0.44672671
0.39773548 1.5576894 0.4472658
-0.6463595 1.7225535 0.44566315
-0.17035517 1.8948126 0.44839054
-0.0093207462 -0.9392435 0.45946917
0.44141486 -0.89384049 0.45344236
0.53482997 -0.66637325 0.45663983
0.5839256 -0.14527638 0.45161834
0.60319173 -0.14539762 0.45872876
-0.10751185 0.32034343 0.45076317
0.073701859 0.33005673 0.45958301
0.22067189 0.43681511 0.45292875
0.42114902 0.43784055 0.45175636
-0.22478136 0.48889267 0.45152563
0.65114957 0.53012484 0.45024297
0.65058464 0.73434871 0.45730928
0.17631823 0.74262339 0.45284212
0.44940442 0.7404893 0.45858112
-0.67614496 0.81364572 0.45817846
-0.67541885 0.83313197 0.45818606
0.53482997 1.2478715 0.454548
0.69372225 1.3812249 0.45130837
0.39728469 1.4752833 0.45550829
-0.65616006 1.6767204 0.45216215
-0.65208429 1.6898147 0.4500455
-0.53943235 1.8262608 0.45343572
0.10576922 -0.94448984 0.46471813
-0.26363426 -0.93227953 0.4649992
0.43018582 -0.63656068 0.46819907
-0.46609977 -0.59759951 0.46297762
-0.46313784 -0.53379434 0.46193349
-0.4472923 -0.42269737 0.46795356
0.47250092 -0.26448551 0.46265033
0.49900213 0.3226251 0.46084046
-0.43314826 0.35417897 0.46710217
-0.67730844 0.49460852 0.46328184
-0.67697394 0.79321969 0.46006075
-0.47654569 1.1033473 0.46408984
0.47617346 1.1040626 0.46523046
0.6328119 1.1027485 0.46313491
-0.4219746 1.4395919 0.46478218
-0.5866068 1.6682469 0.46907908
0.54460895 1.8183578 0.46093482
-0.28444374 1.8740551 0.46148297
-0.17689852 1.8853936 0.4684543
-0.14372988 1.896207 0.46138272
-0.00058677583 1.9392359 0.46350223
0.22377509 -1.0097256 0.47740459
-0.10371757 -0.9322108 0.47323832
-0.68808246 -0.77324164 0.47926784
0.65696669 -0.39118993 0.47478843
0.6189065 -0.1454836 0.47528946
0.64866471 0.88225049 0.47178352
-0.42020029 1.1153127 0.47722223
0.69792998 1.4012314 0.47998589
0.53482997 1.4410038 0.47481793
0.69792998 1.5050337 0.47125265
0.62404203 1.7021426 0.47163889
0.56016749 -0.88502634 0.4853037
-0.45127153 -0.64998221 0.48648602
-0.67991769 -0.21798575 0.48368904
0.65278578 -0.15812398 0.48223388
-0.67608762 0.82474911 0.48957753
0.64098245 1.1064637 0.48186672
0.58261484 1.2480227 0.48506948
0.66824651 1.2420518 0.48048842
0.39768273 1.5480957 0.48745906
-0.42260715 1.5552065 0.48933351
0.12489559 1.868939 0.48486072
0.13176796 1.8686807 0.48788628
-0.050127577 1.8777449 0.48655206
0.037176833 1.8761817 0.48870319
0.24968621 -1.0057913 0.49444669
0.17906974 -0.98564386 0.49645236
-0.26403093 -0.96785378 0.49450222
-0.31405374 -0.92017817 0.49388945
-0.23347616 -0.92998451 0.4950304
-0.30217588 -0.91346574 0.49951875
-0.6085431 -0.64500225 0.49490717
0.4580023 -0.27178353 0.49352896
0.65437627 -0.17512922 0.49965978
0.65454686 0.074507646 0.49832311
0.65513015 0.16575603 0.4977529
-0.67883599 0.5508799 0.49447444
-0.67090797 0.93368959 0.49981278
0.60944277 1.1321304 0.49916112
0.62343872 1.2585846 0.49142039
-0.72228301 1.4585484 0.49315375
0.55062771 1.4813586 0.49756956
-0.62130952 1.758486 0.49396047
0.33070308 1.8660586 0.49725384
0.03012618 -0.9416039 0.50299418
-0.35692984 -0.92447817 0.50237894
0.33547819 -0.9247582 0.50094706
0.49667966 -0.8992275 0.50825065
0.69792998 -0.59632301 0.50121969
-0.41125762 -0.49852887 0.50141841
0.55113351 -0.24230734 0.50781643
-0.67829722 -0.15116799 0.50872511
-0.68035388 0.45177221 0.50445145
0.27639812 0.75828987 0.50539637
-0.73300064 1.2069399 0.50607693
0.64736658 1.284555 0.50217772
-0.65609711 1.5975914 0.50837779
0.55797356 1.8008232 0.50786972
0.32689738 -0.93310416 0.51344359
-0.38377559 -0.89590746 0.51392859
-0.65786141 -0.7984786 0.51592588
-0.47223151 -0.57556534 0.51760864
0.6969865 -0.54971606 0.51105392
0.65733624 -0.49246556 0.51711059
0.65415835 -0.16465926 0.5150072
0.65671527 0.28006941 0.51771146
-0.68134278 0.41221744 0.5152753
0.6553117 0.52612472 0.51311016
-0.62109339 0.70176435 0.51764345
0.64183587 0.7015152 0.5149281
-0.10068063 0.74515986 0.51441717
0.29358807 0.76059383 0.51315957
-0.66529804 1.1312085 0.51740915
0.55680054 1.3979384 0.51995301
-0.66311145 1.4414384 0.51422638
-0.42255822 1.5462497 0.51759773
-0.53640449 1.819834 0.51762706
-0.30434752 -0.93491238 0.52777922
-0.17640366 -0.92991924 0.52214283
0.28339255 -0.91512591 0.52195638
-0.6956439 -0.72289747 0.52869534
-0.67933685 -0.22768936 0.5271889
0.63990533 -0.14554754 0.52898574
0.65674001 -0.032052975 0.52185714
0.46188796 1.1515806 0.52250546
0.39591146 1.224314 0.52028
0.398027 1.6109585 0.52052355
-0.6232152 1.6224318 0.52342027
-0.42582488 1.6221985 0.52360409
0.60729361 1.6208614 0.52465785
-0.6348725 1.7051048 0.5236522
0.54796457 1.8070465 0.52133298
0.33997256 1.8615584 0.52417821
0.039999139 1.872303 0.52005947
0.24289486 -0.93380988 0.53142941
0.64048278 -0.7329393 0.53850597
-0.73875701 -0.69908297 0.53327543
-0.4752878 -0.27560899 0.5332247
-0.68081361 -0.004867638 0.53288162
0.65589952 0.28282923 0.53663182
0.65638065 0.33333036 0.53231639
0.65539205 0.59787995 0.53309238
0.10443686 0.7719425 0.53078651
0.63385457 1.2363294 0.5329634
-0.49034837 1.6093237 0.53375095
-0.52168864 1.8299873 0.5344342
0.22282645 1.8623087 0.53178608
0.035328176 1.8849103 0.53297931
-0.47410828 -0.89994854 0.54475719
-0.71858305 -0.68609732 0.54383767
-0.41201511 -0.5294503 0.54325193
0.65459239 0.67033726 0.54188341
-0.67533958 0.79072726 0.54955345
-0.42818013 1.1742885 0.54002237
0.63796139 1.1735669 0.54638326
0.52850258 1.1867659 0.54933667
0.39631212 1.2974738 0.54695439
0.63023245 1.3042047 0.54712552
0.39785305 1.579147 0.54871213
0.62481976 1.7021027 0.54437029
0.57664955 1.7799617 0.54498821
-0.57335716 1.8310767 0.54450321
-0.52567476 1.8467016 0.54919243
-0.45433316 1.8405597 0.54427409
-0.25151035 1.8745377 0.54686636
-0.21550743 1.8771492 0.54028231
-0.1438048 -0.9520548 0.55310452
-0.52033699 -0.93500507 0.55158174
-0.51171714 -0.93920285 0.55315125
0.051589619 -0.93441236 0.55197382
-0.64834791 -0.83011365 0.55878836
-0.7142486 -0.66790533 0.55467063
-0.6793164 0.21696533 0.55197322
0.65483767 0.29048619 0.55898237
-0.68047678 0.38390166 0.55999023
0.65391135 0.63701499 0.55297732
-0.50890535 1.189672 0.5515061
0.66743726 1.2421286 0.55705744
-0.42173129 1.3951559 0.55016726
0.63837332 1.5789987 0.55311525
0.22233143 -0.91734219 0.56864738
0.40753281 -0.71658361 0.56426322
0.67908931 -0.66681737 0.56046659
-0.44724208 -0.43187639 0.56416774
-0.50031614 -0.26301092 0.56545043
0.65359408 0.14004903 0.56083286
0.65391409 0.5887993 0.56946915
-0.2194353 0.73130447 0.56387472
0.64461821 0.88121569 0.56929213
0.64353752 0.90933251 0.56647283
0.63872391 0.99739337 0.56563777
0.39629915 1.2950741 0.56389332
-0.7014057 1.3127429 0.56961596
0.69202834 1.3849435 0.56510949
-0.47996634 1.5622315 0.5692246
-0.63633484 1.5705532 0.56431884
0.42673868 1.571529 0.56354922
0.3946293 1.8446254 0.56627363
-0.0096487748 -0.93071544 0.5748651
-0.6214444 -0.87743187 0.57492304
0.71120226 -0.58652091 0.57416117
0.71733588 -0.57989264 0.57064992
-0.73185831 -0.56260586 0.57911336
0.43969506 -0.53391659 0.57459909
0.71008283 -0.52514219 0.57917243
-0.72104019 -0.47017246 0.57974172
0.67910373 -0.42172799 0.57493484
-0.66644925 -0.27623144 0.57783365
0.6530807 0.23045158 0.57611722
-0.71166718 1.4125216 0.57022297
-0.62172389 1.5435747 0.57779038
0.61933053 1.5401478 0.5793637
-0.58937848 1.7818625 0.57028848
-0.53697687 1.8132648 0.57399946
-0.21477728 1.8732382 0.5708282
-0.16187477 -0.9256652 0.58206046
0.55671108 -0.90075767 0.58353114
0.31097063 -0.89892399 0.58539593
0.38365063 -0.5291546 0.58719885
0.64274538 0.70937937 0.58859801
0.2969391 0.78545731 0.58346039
-0.65756249 1.1701586 0.58277982
-0.56418049 1.2542577 0.5874536
-0.65366864 1.4006652 0.58207095
0.037680142 -0.9315685 0.59988707
0.098917753 -0.9298175 0.59930915
-0.42510849 -0.74240685 0.59924513
0.42293978 -0.36152327 0.59196866
0.64865112 -0.32081056 0.59623367
-0.67442131 -0.26293141 0.59966689
-0.67375863 -0.1921612 0.59285295
-0.67693931 0.55065233 0.59489822
0.18635648 0.72326779 0.5990361
0.64268315 0.87477863 0.5908007
-0.5141657 1.2725334 0.59399998
0.57228994 1.2893915 0.5990482
0.39674276 1.3762165 0.59331602
-0.60724145 1.490566 0.59877264
0.22755998 1.8696157 0.59010875
0.52120411 -0.24944223 0.60060048
-0.67523396 0.11821179 0.60607946
0.57114744 0.70977157 0.60455149
0.39641103 1.3155899 0.60084867
0.52124137 1.3198402 0.60816616
-0.50959796 1.4643003 0.60472834
-0.65431774 1.4980019 0.60499072
0.091082074 1.880091 0.60802668
0.079711191 -0.92717814 0.61237568
0.40362939 -0.90798593 0.61323822
-0.44540441 -0.67070878 0.61162114
0.65152264 -0.059296187 0.61193711
-0.66662061 0.79464263 0.61437768
-0.33271894 0.82271135 0.61861908
-0.65404576 1.0508034 0.61089402
-0.65250617 1.2510492 0.61523789
0.46702009 1.3797603 0.61300683
0.51037401 1.3895218 0.6134122
-0.58009392 1.3947473 0.61362922
-0.46503496 1.4263546 0.61254054
0.34709328 1.8413222 0.61670548
0.43139583 -0.63228536 0.62699389
-0.67358476 0.369721 0.62880665
0.10186188 0.74659932 0.62350452
-0.18812636 0.7513783 0.62170994
0.47296593 0.7982412 0.62023544
-0.65111256 1.1145709 0.62082589
-0.34430057 1.8466765 0.62036568
0.33280355 1.841015 0.6268335
-0.03566879 1.8785492 0.62486452
-0.50329882 -0.89943457 0.63888204
0.63403738 -0.66751051 0.63403219
-0.66442841 -0.56127459 0.63964725
0.64201552 -0.49379969 0.63945085
-0.45116127 -0.29858211 0.63971812
0.64561635 0.073334083 0.63576734
-0.66975814 0.1927969 0.63673264
-0.62663651 0.70960426 0.63396537
0.1068815 0.81031227 0.63837504
0.623501 1.0572164 0.63912928
0.62417358 1.2769763 0.63015842
0.48268974 1.7925347 0.639965
0.27143794 1.8508062 0.63077199
-0.064007603 1.8733582 0.63943452
0.011432519 1.8752269 0.63676322
-0.52429903 -0.89997005 0.64716691
0.60983765 -0.81779391 0.64469492
0.42513251 -0.32015836 0.64019507
-0.67178643 0.51334316 0.64301836
-0.66598213 0.56774545 0.64755243
-0.65627873 0.89996713 0.64509547
0.59440947 1.6931113 0.64908433
-0.24174109 1.8551812 0.6440345
0.51193577 -0.91854191 0.65370309
0.48970258 -0.9002893 0.65098709
0.35013857 -0.89339709 0.65227932
0.63710761 -0.39017379 0.65210718
-0.25474715 -0.067954034 0.65526485
0.64238405 0.43753588 0.65805918
-0.37872401 0.76660717 0.65654737
0.6292811 0.80247617 0.6584543
-0.64277244 1.2327992 0.65431941
0.61669844 1.4662145 0.65543902
0.3696543 1.8214924 0.65479636
-0.19792531 -0.90141678 0.66277379
-0.43387488 -0.4571017 0.66078269
0.63270724 0.56758755 0.66988456
-0.65947938 0.57104743 0.66579789
-0.65749782 0.7015636 0.6612432
0.23527429 0.74580842 0.66677547
-0.48049444 0.80298603 0.66788292
0.61417973 1.3196442 0.66837871
0.14940917 1.8596473 0.66181493
0.55100578 -0.89028025 0.67990148
0.25090063 -0.87936354 0.67665356
-0.34564942 -0.84476382 0.67960715
0.59914738 -0.78847444 0.67796671
0.63594377 0.10866319 0.67265046
-0.65953934 0.31529188 0.67269158
-0.65680349 0.60644346 0.67226475
0.60780334 1.5379413 0.67657048
0.49765295 -0.89589095 0.68721741
-0.26239443 -0.87644684 0.68193001
-0.24818538 -0.87997103 0.68231469
0.33141109 -0.81955981 0.68358099
-0.65282857 -0.47671911 0.68191361
-0.6503824 -0.36475104 0.68824601
0.62810373 0.59840024 0.68050778
-0.65079772 0.61465591 0.68559188
0.62161601 0.78922236 0.68399298
-0.63122666 1.0058265 0.68838042
0.60675287 1.0176706 0.68627131
0.60117006 1.6308925 0.68025243
-0.058486842 1.8586783 0.68101037
-0.00072141126 1.8575639 0.68670392
0.37334752 -0.85325831 0.69511515
0.27873603 -0.84253132 0.69304979
-0.62263036 -0.75639504 0.691993
0.60904348 -0.68097621 0.69192076
0.62122357 -0.11442741 0.69690418
0.63003659 0.073149957 0.69072407
0.008845346 1.8550411 0.69314551
-0.10157327 -0.88672251 0.70246994
-0.15462993 -0.8718732 0.70636725
-0.11067599 -0.8751303 0.70975602
-0.61344719 -0.74809957 0.70524788
-0.1506591 -0.082113639 0.7040748
0.61797923 -0.073261499 0.70478791
0.60491025 0.70171434 0.70697457
0.29684246 0.75757682 0.70490402
0.24916887 0.83026916 0.70603073
-0.21548535 1.8342209 0.7033329
0.16994397 -0.83955747 0.71615368
-0.28174105 -0.80252719 0.71274817
-0.35209149 -0.73889577 0.71851003
0.60766858 -0.41141713 0.71568632
0.61380804 -0.19303958 0.71455336
0.58658594 -0.12922043 0.71211201
-0.51077294 -0.093224004 0.71395057
0.58095932 1.673702 0.71606278
0.36853793 1.781152 0.71782559
-0.034514859 1.8361113 0.71961904
0.30989936 -0.73779082 0.72239733
0.57685423 -0.72350216 0.72420692
0.36622351 -0.70288473 0.72356623
0.38215974 -0.68455815 0.72979236
-0.023974501 -0.1072363 0.724953
-0.63431633 -0.0037563611 0.7231698
-0.23545347 0.0078068557 0.72239614
0.6105274 0.3200109 0.72520983
0.60940641 0.44479167 0.72513688
-0.60702264 0.70183831 0.72828019
0.18534568 1.8173742 0.72883356
-0.49527186 -0.79939133 0.7346561
0.19785953 -0.76998043 0.73429966
-0.3295919 -0.70166373 0.73180509
0.5609737 -0.65438521 0.73956549
-0.40038428 -0.61945671 0.7376188
0.59950745 -0.29506832 0.73139173
-0.5184148 -0.11825479 0.73890364
-0.30873102 -0.11413777 0.73004377
0.58096808 1.5557096 0.73460311
-0.12253443 1.829147 0.73463458
-0.10695644 1.8315428 0.73549187
-0.012250884 -0.78507268 0.74829495
0.51726359 -0.74487442 0.74118191
-0.55535841 -0.72340012 0.74086469
0.24918041 -0.66418386 0.74960423
0.3993423 -0.60243851 0.74322122
-0.60872322 -0.38422507 0.74393946
0.13161078 -0.13463692 0.7453419
0.28319633 -0.13511547 0.74742353
-0.48214346 -0.12498273 0.74581981
0.29803514 -0.12728062 0.74093139
0.60117865 0.36753851 0.74429649
-0.41545606 0.87109482 0.74304187
0.57104158 1.3437169 0.74994767
-0.59708583 1.4045404 0.74537981
-0.54055625 1.6733122 0.74789488
0.13159111 -0.70747626 0.75788522
-0.17887063 -0.69084078 0.75858235
0.14083384 -0.69719881 0.75885314
0.48506749 -0.66675198 0.75005859
-0.25384432 -0.65647626 0.75455046
0.4804852 -0.61844301 0.75288379
-0.52706259 -0.5936358 0.75521225
0.50079858 -0.5355646 0.75875354
-0.43798441 -0.42514411 0.7580421
-0.64849347 0.053220615 0.75969815
-0.27808017 0.7973848 0.75182486
0.44844198 1.7092693 0.75615859
-0.45979041 1.7139937 0.75662005
-0.31406444 1.7689955 0.75766218
-0.023855846 1.8097068 0.75298703
-0.085895531 -0.71263885 0.76268214
-0.28194189 -0.54043323 0.76878273
-0.30859792 -0.50789207 0.76999044
-0.34622413 -0.47816235 0.76950121
0.52484781 -0.34080783 0.76736379
0.50852013 -0.32077178 0.76996523
0.52610618 -0.31147641 0.76833785
-0.26028019 -0.15520158 0.7620343
0.28911451 -0.15929969 0.76754475
0.33717698 -0.15322527 0.7634902
0.41218039 -0.15409371 0.76857662
-0.6209451 -0.049105793 0.76067573
0.68047202 0.056148537 0.76065743
-0.61505383 0.60992348 0.76652831
-0.46651304 0.81652713 0.76924312
-0.12258231 0.88539195 0.76875055
0.56542951 1.4304262 0.76588422
-0.58934647 1.5246601 0.76837564
-0.12041705 -0.64279884 0.77225357
0.062265642 -0.60637498 0.77930272
0.086607471 -0.59506595 0.77961862
0.36474094 -0.34452119 0.77967602
0.35963804 -0.32562754 0.7770648
0.50703919 -0.32202986 0.77003646
-0.5085628 -0.29887304 0.77168655
0.53592199 -0.25652808 0.77343541
-0.17991929 -0.17813493 0.77943796
0.18486214 -0.17493695 0.77752346
0.26762456 -0.16580108 0.77202106
0.48580354 -0.15439555 0.77503437
-0.23414053 0.14287585 0.77059102
-0.60321796 0.20982194 0.77907228
-0.61065173 0.2871666 0.77845114
-0.5994305 0.42910504 0.77862537
0.56961209 0.42465773 0.7769292
-0.61350638 0.53779918 0.77719486
-0.61272615 0.55331469 0.7784245
-0.59268999 1.0373089 0.77974308
-0.40020072 1.7149367 0.77715224
-0.081964307 1.7936511 0.77603215
0.076479726 -0.53311825 0.78808194
-0.21981667 -0.50815904 0.78052187
0.12574196 -0.49897152 0.78843576
0.1832594 -0.49515599 0.78340709
0.19995064 -0.48172235 0.78333068
-0.25631016 -0.44259271 0.7863124
0.53540432 -0.21806133 0.7816416
-0.40751749 -0.17901173 0.78886437
0.29847378 -0.17887419 0.78374726
-0.476693 -0.16742638 0.78458893
0.58688921 -0.16390674 0.78503525
0.57238626 -0.10072088 0.78561765
-0.60560346 -0.076395832 0.785312
-0.60243022 0.17053191 0.78674465
0.58837223 0.38192496 0.78821075
-0.59858668 0.60037643 0.78013456
0.58556664 0.6423794 0.78489101
0.58289808 0.65120828 0.78567225
0.57597852 0.91212273 0.78342307
-0.57595408 0.92468888 0.78902322
0.56685966 1.0468618 0.78694141
-0.56193888 1.2603686 0.7868191
-0.58555007 1.3044018 0.78465557
-0.4760007 1.3825791 0.78017873
0.23373212 1.399089 0.78205472
0.47280565 1.3910973 0.78137696
-0.38529435 1.4022005 0.78249431
-0.56422871 1.426784 0.7860167
0.038080748 1.4435186 0.78772742
0.078726977 1.4544395 0.78910172
0.21603216 1.4538825 0.78896344
0.57984841 1.5203704 0.78402966
0.55305672 1.5366789 0.78931022
-0.39576763 1.7097269 0.78006071
-0.28445399 1.7464056 0.78653991
0.18106167 1.7692586 0.78361213
0.10378461 -0.50317532 0.7901181
0.089574449 -0.49723572 0.79159808
0.0066891573 -0.48007405 0.79639018
0.016911751 -0.45492908 0.79888278
0.15506391 -0.4115105 0.79653275
0.29100388 -0.32538563 0.79464626
0.26810721 -0.31824666 0.79993576
0.13365604 -0.19769174 0.79490471
0.18469068 -0.19562449 0.79405081
0.47166386 -0.1880282 0.7999776
-0.59571034 -0.14383361 0.79569429
0.58882087 0.085866027 0.79376292
-0.59729612 0.37122276 0.79524958
0.58221322 0.59204578 0.79840624
0.57274616 0.83776754 0.79815024
0.25783592 0.86870056 0.79779053
0.12114799 0.87434965 0.79422641
-0.55399692 1.458263 0.79053563
-0.25484657 1.4774945 0.79181159
0.17466582 1.4712849 0.79131818
0.10872203 1.4882715 0.79343975
-0.57770598 1.5130348 0.79267395
0.41291982 1.518961 0.79666799
-0.3479073 1.5230938 0.79727721
-0.31998149 1.5303499 0.79814589
0.019089088 -0.44323727 0.80004352
-0.040730152 -0.40577602 0.80408609
-0.022979351 -0.37990722 0.80198997
0.24866897 -0.29165313 0.80953801
-0.36898077 -0.19594343 0.80184782
0.49704641 -0.17039023 0.80634665
-0.24033663 0.068148218 0.80269653
-0.59631401 0.31470764 0.80523378
0.58416384 0.3982268 0.80855095
-0.59383804 0.4441427 0.80513948
-0.41319591 0.8160522 0.80040437
-0.37126786 0.89706445 0.80716956
-0.57403457 0.90901917 0.8035289
-0.57278144 0.92992115 0.8050341
-0.44917452 1.54475 0.80010712
0.32603821 1.5604348 0.80184525
0.075846918 1.5790845 0.80504107
0.11557244 1.5711348 0.80401808
0.31398386 1.5749834 0.80361623
-0.16913523 1.5910242 0.80657601
-0.24754363 1.6031352 0.80767059
-0.2747587 1.6124209 0.80860388
-0.10451211 1.6106869 0.80909204
-0.47034964 1.648623 0.80641162
0.45733887 1.6494691 0.80086088
-0.27195722 1.7341208 0.80014062
-0.3111276 -0.24582833 0.81744009
-0.056024324 -0.21915969 0.81499523
0.64692861 0.061494492 0.81834185
0.580082 0.5534302 0.81485373
-0.59606057 0.69581276 0.8161062
0.26182869 0.79823303 0.81525332
0.31070367 0.79749638 0.81560326
0.55944437 1.0724967 0.81781191
0.55463803 1.4938527 0.81401908
-0.53770751 1.596334 0.81022877
-0.26923984 1.6264087 0.8104139
0.043514907 1.621712 0.8106159
0.010489793 1.6326098 0.8121109
-0.43335229 1.6467652 0.81911415
-0.071058117 1.6400239 0.81296188
-0.36549613 1.6538954 0.81320834
0.15758948 1.6542643 0.81453383
-0.024783606 -0.30781186 0.82506788
0.09336143 -0.27574387 0.82677525
-0.29267058 -0.227313 0.82601357
0.27386773 -0.22603559 0.82605934
0.29476359 -0.22078443 0.82617962
0.41117755 -0.1847855 0.8228792
-0.48197818 1.6219605 0.8298018
-0.41151759 1.6444898 0.82334602
0.35800892 1.6487432 0.82488543
0.0070389062 1.7208133 0.82346207
-0.10751899 1.7314378 0.82155287
-0.052426655 -0.26266828 0.83694339
-0.12628734 -0.25534272 0.83470082
0.073703378 -0.24018243 0.83033389
0.17160554 -0.24546161 0.83101439
0.28047562 -0.21913217 0.83254367
0.59652174 -0.11407091 0.83798158
0.57801974 0.4326098 0.83774555
0.57286149 0.68407905 0.83252585
-0.5681513 0.90718263 0.83617204
0.56145322 0.97167921 0.833413
-0.55125034 1.3240072 0.83048391
0.30522293 1.6646957 0.83844584
-0.19719113 1.7036788 0.83310318
-0.15321815 1.7015076 0.83625996
-0.068598986 1.7069707 0.83539802
0.11264804 1.7098856 0.83229363
0.2010688 1.7018676 0.83501095
0.02384657 1.716941 0.83296788
-0.3082051 -0.25306219 0.84647322
0.12044699 -0.23604828 0.84724998
0.075050049 -0.22932425 0.84956789
-0.5956769 -0.081105106 0.84274286
0.56213623 0.88161755 0.84926355
0.55318129 1.0778613 0.84740984
0.39142898 1.6331837 0.84064484
-0.33665282 1.6540267 0.8426885
-0.27971286 1.6689901 0.84595752
-0.11481027 1.7055143 0.84131199
-0.35406452 -0.21976079 0.85498679
-0.50331587 -0.13768503 0.85201979
0.54525006 -0.12124297 0.85345685
-0.59094787 -0.10501735 0.8532204
0.57525539 -0.060173251 0.85230279
0.5773201 0.020862959 0.85099441
0.57254076 0.56180781 0.85194838
-0.55715603 1.0457351 0.85378325
0.54807687 1.2742455 0.85577595
-0.54985738 1.5487535 0.85065627
0.44566184 1.6105399 0.85597229
0.30600977 1.6529441 0.85516453
-0.33329076 -0.18056798 0.86496127
0.50927871 -0.12614875 0.86642647
0.51745903 -0.12585707 0.86289942
-0.31855854 0.002012213 0.86516643
-0.54751706 1.3961629 0.86333388
-0.31931329 1.6451746 0.86513078
0.32500902 1.6434529 0.86141974
-0.091599844 -0.21676886 0.87495893
-0.56346202 -0.10000975 0.87440383
-0.5565356 1.4756225 0.87788749
-0.14314315 1.6749144 0.87818396
-0.13069333 1.6812373 0.87165296
-0.046964057 -0.21188353 0.8843528
-0.16271915 -0.20136215 0.88533509
0.24008197 -0.18794119 0.88386524
-0.56982601 0.70181918 0.88690054
0.55578291 0.85149634 0.88893557
0.54834342 1.0462148 0.88396341
0.54060578 1.3043231 0.88987613
0.26192147 1.6487892 0.88025308
0.099432305 -0.19850509 0.89797169
0.56857789 -0.019324262 0.89383388
0.56706339 0.47384474 0.89029568
0.56259334 0.60515445 0.89861256
-0.56598347 0.7067039 0.89255869
-0.54056233 1.2214612 0.89099354
0.24895497 1.645597 0.89049137
-0.032943323 -0.19351736 0.90903473
0.5673185 0.13466817 0.90789449
-0.57222998 0.52602518 0.90209627
-0.56372625 0.6980325 0.90700483
-0.55940521 0.8321805 0.90078855
-0.54217106 1.1095613 0.90737265
0.53280878 1.3689423 0.90768135
0.29530042 1.6240863 0.90186352
0.56037462 0.58326483 0.91063577
0.54595727 0.75384855 0.91891795
0.53544223 1.2067187 0.91156149
-0.40441534 1.5874531 0.91300386
0.42439538 1.5800729 0.91027021
0.090776592 1.6562548 0.91496879
-0.2547484 -0.15743729 0.9205277
-0.58773828 -0.041907698 0.92729986
-0.57705677 0.00039908569 0.9259209
-0.57680476 0.08613649 0.92977929
-0.54521 1.020393 0.92301208
-0.53845561 1.1009947 0.9269225
-0.53299189 1.3139405 0.92837769
0.51897597 1.4975688 0.92579055
-0.3685317 1.5910031 0.9220528
0.29638037 1.6119132 0.92015254
-0.34306577 -0.12470405 0.93411136
0.53971648 1.0232038 0.93391764
0.17087242 1.6322116 0.9334355
0.0023579164 -0.16885823 0.94215637
0.19251168 -0.14848079 0.94761062
-0.55119127 0.83000708 0.9461562
-0.28368619 1.601946 0.94310653
-0.057034735 1.6420848 0.94118023
0.25844932 -0.12863471 0.95667881
-0.56516504 -0.053319275 0.95517409
-0.56624639 0.31372759 0.95785671
0.5270288 1.1666597 0.95613146
-0.55119127 1.355728 0.95624101
-0.39228636 1.5639249 0.95547456
-0.36275828 1.5709721 0.95621651
0.28045455 1.5928893 0.95423675
-0.2284261 1.6120772 0.95019281
-0.010370345 1.6340032 0.95844591
0.058203179 1.632579 0.95494956
-0.01400541 -0.14912544 0.96813619
0.29232615 -0.11212703 0.96869963
-0.57724375 -0.036017936 0.96146786
0.55663693 0.075151242 0.96680224
0.54735893 0.69968939 0.96232718
0.53502297 0.9863764 0.96931529
-0.55186045 1.3864508 0.96424466
0.37091583 1.5616999 0.9625814
0.20023054 1.6088002 0.96068805
0.31299043 -0.10231638 0.9737463
-0.5693779 0.071297482 0.97061175
0.53532189 0.97472286 0.97264034
-0.52128816 1.4955823 0.97385633
-0.31518644 1.5765854 0.97011364
-0.1706638 -0.12302248 0.98560488
0.53328615 -0.039440364 0.9830929
-0.29297319 1.5704057 0.98872727
-0.17465147 1.5995492 0.98309046
0.21971762 1.5907085 0.98203266
-0.56252205 0.17114878 0.99597633
-0.55856967 0.69601762 0.99872953
0.53496683 0.87796617 0.99860132
0.51821011 1.1616161 0.99967623
0.51849979 1.1907935 0.99139088
-0.27476233 -0.088052347 1.0061901
0.54564846 0.40779209 1.0015429
0.54166204 0.63090676 1.0094692
-0.5598619 0.74103832 1.0088828
-0.53669631 0.93208313 1.000725
0.49175888 1.4791424 1.0029969
0.11632212 1.5896492 1.0098842
0.16315031 1.5849319 1.0056174
0.54346806 -0.0065538716 1.014689
-0.54249716 1.3529254 1.0150148
0.36421508 1.5334857 1.0101557
0.54508597 0.028675664 1.02413
0.51289344 1.1585962 1.0259228
-0.08918418 -0.097785264 1.0310311
0.30038673 -0.062831081 1.0302646
0.33332521 -0.049187653 1.0377948
-0.38414848 -0.037099414 1.0360665
0.53787327 0.46357962 1.0373628
-0.54470479 0.63890028 1.0315614
0.51110733 1.3911626 1.0357375
0.35407037 1.5221752 1.0321846
0.24066326 -0.062763341 1.0479543
0.375844 -0.034239028 1.0427159
0.47700876 -0.0046719648 1.0464528
-0.51353949 0.0053178016 1.0447946
0.53598344 0.41854227 1.049556
-0.54615521 0.46490628 1.0419534
0.52411687 0.93414521 1.0454375
0.42590329 1.4969546 1.0414708
-0.33729172 1.5231915 1.042142
0.074235916 -0.07969372 1.0558863
0.42470932 -0.014019728 1.0527216
0.53764296 0.23461765 1.0551617
-0.54047668 0.55899668 1.0573043
0.45916942 1.4656146 1.0577432
-0.30537 1.5201877 1.059835
0.23388764 1.5348277 1.057797
-0.096166372 1.5654494 1.0512596
-0.1188121 -0.071900867 1.0615168
-0.1630255 -0.060808238 1.068359
-0.56483078 0.031581357 1.0618943
0.53707951 0.12585974 1.066734
-0.52972448 0.84374714 1.0606937
0.5065366 1.1426409 1.0609334
0.53081638 1.365801 1.0627879
0.37749752 1.4931142 1.0686436
-0.26761734 1.5236907 1.067861
0.066541113 -0.067651466 1.0723387
-0.54896224 0.12582749 1.0720904
-0.54635644 0.19263837 1.0773433
0.5299018 0.56337678 1.0700942
0.50701278 1.3418437 1.0745814
-0.21370047 -0.038978554 1.0866319
0.3904078 -0.0017812401 1.0813653
-0.53779495 0.41859186 1.0896401
0.5119369 1.3553853 1.0832416
-0.49844104 0.036782362 1.0936096
-0.5556336 0.082080334 1.0933093
0.5226981 0.77172685 1.0967714
-0.51182216 1.1879096 1.0979133
0.50327826 1.3268299 1.0946997
0.51666224 1.3596776 1.0953891
-0.46567699 1.4501276 1.0973231
-0.34655985 0.004795731 1.1054944
-0.38819331 0.015902273 1.1055034
0.51860601 0.9035641 1.1086293
-0.52045697 1.2396846 1.1060495
-0.51411521 1.393375 1.1064949
0.4097544 1.4599206 1.1063871
-0.31616664 1.48862 1.1053356
0.15872318 1.5191185 1.1039754
0.15117943 1.5228801 1.1004853
0.013991663 1.5388855 1.1027144
-0.48281875 0.047042269 1.1135155
-0.53656012 0.29003468 1.113852
-0.54351741 0.5978384 1.1183879
